0,0,0,0,0,0,0,0,0,0,0,0,0,1713,1713,1713,1713,1713,1713,1713,1713,1705,1705,1705,1705,1705,1696,1696,1705,1696,1696,1696,1696,1696,1696,1696,1696,1696,1696,1705,1696,1696,1696,1696,1696,1696,1688,1688,1696,1696,1696,1696,1696,1696,1696,1696,1696,1688,1688,1688,1688,1688,1688,1688,1688,1688,1696,1688,1688,1688,1688,1688,1688,1688,1688,1688,1688,1688,1688,1680,1680,1680,1680,1680,1680,1688,1680,1680,1671,1671,1671,1671,1671,1671,1671,1671,1671,1671,1671,1671,1671,1671,1663,1663,1671,1663,1663,1663,1663,1663,1663,1663,1655,1655,1655,1655,1655,1655,1655,1655,1655,1655,1655,1655,1655,1655,1655,1655,1663,1663,1671,1671,1671,1671,1671,1926,1863,1843,1843,1833,1833,1823,1823,1813,1813,1804,1794,1794,1794,1785,1785,1785,1785,1776,1757,1739,1688,1680,1671,1663,1663,1663,1663,1663,1663,1671,1671,1671,1680,1688,1688,1688,1688,1688,1696,1696,1696,1696,1705,1705,1713,1713,1722,1722,1731,1731,1731,1731,1739,1748,1748,1748,1748,1748,1757,1757,1757,1766,1766,1776,1776,1776,1785,1785,1794,1804,1804,1804,1804,1813,1813,1813,1813,1823,1823,1823,1833,1833,1833,1843,1843,1843,1843,1853,1853,1863,1863,1863,1863,1873,1873,1873,1883,1883,1883,1894,1894,1894,1894,1915,1915,1915,1904,1904,1904,1904,1915,1936,1947,0,0,0,0,1123,1119,1115,1115,1115,1112,1112,1108,1108,1105,1105,1105,1108,1108,1108,1108,1115,1115,1119,1123,1123,1123,1123,1123,1123,0,0,1757,1757,1757,1766,1785,1776,1776,1766,1766,1757,1757,1757,1757,1748,1748,1748,1739,1739,1739,1731,1731,1722,1722,1713,1713,1713,1705,1705,1705,1705,1696,1696,1696,1688,1688,1688,1680,1680,1671,1671,1680,1671,1671,1671,1671,1663,1663,1663,1663,1663,1663,1663,1647,1647,1647,1639,1639,1639,1639,1632,1632,1632,1632,1632,1624,1616,1616,1609,1609,1609,1601,1601,1601,1601,1594,1594,1586,1586,1579,1579,1579,1572,1572,1579,1572,1572,1572,1572,1572,1564,1564,1550,1543,1543,0,0,0,0,0,0,0,0,925,925,923,923,923,918,918,918,915,915,915,913,910,910,908,908,910,910,910,910,913,918,923,925,928,928,928,928,0,0,0,0,0,1458,1458,1458,1452,1452,1452,1445,1445,1445,1439,1439,1439,1439,1439,1433,1433,1427,1427,1421,1421,1421,1421,1415,1415,1415,1415,1415,1415,1404,1404,1398,1398,1398,1398,1398,1392,1392,1392,1387,1387,1381,1381,1381,1376,1376,1376,1376,1376,1370,1370,1370,1365,1365,1359,1359,1359,1354,1354,1354,1354,1354,1349,1349,1349,1343,1343,1338,1338,1333,1333,1333,1333,1328,1328,1328,1328,1322,1317,1317,1317,1312,1312,1312,1312,1312,1307,1307,1307,1302,1297,1297,1297,1297,1297,1292,1292,1292,1288,1288,1288,1283,1283,1278,1278,1278,1273,1273,1273,1268,1268,1268,1268,1264,1264,1264,1259,1259,1255,1255,1255,1255,1255,1250,1250,1245,1245,1241,1241,1241,1236,1236,1236,1236,1232,1232,1232,1232,1232,1223,1223,1223,1219,1219,1214,1214,1214,1214,1214,1210,1210,1206,1206,1202,1202,1202,1202,1197,1197,1197,1197,1197,1197,1193,1193,1193,1189,1189,1189,1185,1185,1185,1185,1181,1181,1181,1181,1177,1177,1173,1173,1169,1169,1169,1165,1165,1165,1165,1161,1161,1157,1153,1153,1153,1153,1153,0,0,0,0,0,0,0,0,0,0,0,0,0,0,0,0,0,0,0,0,0,0,0,0,0,0,0,0,0,0
0,0,0,0,0,0,0,0,0,0,0,0,0,1713,1713,1713,1713,1713,1713,1713,1713,1705,1705,1705,1705,1705,1696,1696,1705,1705,1705,1705,1705,1705,1705,1696,1696,1696,1696,1705,1696,1696,1696,1696,1696,1696,1696,1696,1696,1696,1696,1696,1696,1696,1696,1696,1696,1688,1688,1696,1688,1688,1688,1688,1688,1696,1696,1688,1688,1688,1688,1688,1696,1696,1696,1688,1688,1688,1688,1680,1680,1680,1680,1680,1680,1688,1680,1680,1680,1680,1671,1671,1671,1671,1680,1680,1680,1671,1671,1680,1671,1671,1663,1663,1663,1663,1663,1663,1663,1663,1663,1663,1655,1655,1655,1655,1655,1655,1655,1655,1655,1655,1655,1655,1655,1655,1655,1655,1663,1663,1671,1671,1671,1671,1671,1680,1853,1843,1843,1833,1833,1823,1823,1813,1813,1804,1794,1794,1794,1785,1785,1785,1785,1785,1757,1748,1688,1680,1671,1663,1663,1663,1663,1663,1671,1671,1671,1680,1680,1688,1688,1688,1688,1688,1696,1696,1696,1696,1705,1705,1713,1713,1722,1722,1731,1731,1731,1731,1739,1748,1748,1748,1748,1757,1757,1757,1757,1766,1766,1776,1776,1785,1785,1794,1794,1804,1804,1804,1804,1813,1813,1813,1823,1823,1823,1833,1833,1833,1833,1843,1843,1843,1843,1853,1853,1863,1863,1863,1863,1873,1873,1883,1883,1883,1883,1894,1894,1894,1894,1904,1915,1915,1904,1904,1904,1904,1915,1936,1947,0,0,0,0,1123,1119,1119,1115,1115,1112,1112,1112,1108,1108,1105,1105,1108,1108,1108,1115,1115,1115,1119,1123,1123,1123,1123,1123,1126,1126,0,1757,1757,1757,1766,1785,1776,1776,1766,1766,1757,1757,1757,1757,1748,1748,1748,1739,1739,1739,1731,1731,1731,1722,1713,1713,1713,1705,1705,1705,1705,1696,1696,1696,1696,1696,1688,1688,1680,1680,1680,1680,1671,1671,1671,1671,1671,1663,1663,1663,1663,1663,1663,1655,1647,1647,1639,1639,1639,1639,1639,1632,1632,1632,1632,1624,1616,1616,1609,1609,1609,1601,1601,1601,1601,1594,1594,1586,1586,1579,1579,1579,1579,1579,1579,1579,1572,1572,1572,1564,1564,1564,1550,1543,1543,0,0,0,0,0,0,0,0,925,925,923,923,923,918,918,918,915,915,915,913,910,910,910,910,910,910,910,910,915,918,923,925,928,928,928,930,0,0,0,0,0,1458,1458,1458,1458,1458,1452,1445,1445,1445,1439,1439,1439,1439,1439,1433,1433,1433,1427,1427,1421,1421,1421,1415,1415,1415,1415,1415,1410,1404,1404,1398,1398,1398,1398,1398,1392,1392,1392,1387,1387,1387,1381,1381,1376,1376,1376,1376,1376,1370,1370,1370,1365,1365,1359,1359,1359,1354,1354,1354,1354,1354,1349,1349,1349,1349,1343,1343,1338,1338,1333,1333,1333,1333,1328,1328,1328,1322,1322,1317,1317,1317,1312,1312,1312,1312,1307,1307,1307,1302,1302,1302,1297,1297,1297,1292,1292,1292,1288,1288,1288,1288,1283,1283,1278,1278,1273,1273,1273,1268,1268,1268,1268,1268,1264,1264,1259,1259,1255,1255,1255,1255,1255,1250,1250,1250,1245,1245,1241,1241,1236,1236,1236,1236,1232,1232,1232,1232,1232,1223,1223,1223,1219,1219,1219,1214,1214,1214,1214,1210,1210,1206,1206,1206,1202,1202,1202,1202,1202,1197,1197,1197,1197,1193,1193,1193,1189,1189,1189,1185,1185,1185,1185,1181,1181,1181,1181,1177,1177,1173,1173,1173,1169,1169,1169,1165,1165,1165,1161,1161,1157,1153,1153,1153,1153,1153,0,0,0,0,0,0,0,0,0,0,0,0,0,0,0,0,0,0,0,0,0,0,0,0,0,0,0,0,0,0
0,0,0,0,0,0,0,0,0,0,0,0,0,1722,1722,1713,1713,1713,1713,1713,1713,1705,1705,1705,1705,1705,1705,1705,1705,1705,1705,1705,1705,1705,1705,1696,1696,1696,1696,1705,1696,1696,1696,1696,1696,1696,1696,1696,1696,1696,1696,1696,1696,1696,1696,1696,1696,1688,1688,1696,1696,1696,1688,1688,1696,1696,1688,1688,1688,1688,1688,1688,1696,1696,1696,1696,1688,1688,1688,1688,1688,1688,1680,1680,1680,1688,1680,1680,1680,1680,1671,1671,1671,1671,1680,1680,1680,1680,1680,1680,1671,1671,1671,1671,1663,1663,1663,1663,1663,1663,1663,1663,1663,1663,1663,1655,1655,1655,1655,1655,1655,1655,1655,1655,1655,1655,1655,1663,1663,1663,1671,1671,1671,1671,1680,1680,1843,1833,1833,1833,1833,1823,1823,1813,1813,1804,1804,1794,1794,1794,1794,1794,1785,1785,1785,1785,1688,1680,1671,1663,1663,1663,1663,1663,1671,1671,1671,1680,1680,1688,1688,1688,1688,1696,1696,1696,1696,1696,1705,1705,1713,1722,1722,1722,1731,1731,1731,1731,1739,1748,1748,1757,1757,1757,1757,1766,1766,1766,1766,1776,1776,1785,1785,1794,1804,1804,1804,1804,1804,1813,1813,1813,1823,1823,1823,1833,1833,1833,1833,1843,1843,1853,1853,1863,1863,1863,1873,1873,1873,1873,1873,1883,1883,1883,1894,1894,1904,1904,1904,1904,1904,1915,1915,1904,1904,1904,1915,1926,0,0,0,0,0,0,1119,1119,1115,1115,1115,1112,1112,1108,1108,1105,1105,1108,1108,1108,1115,1115,1115,1119,1123,1123,1123,1123,1123,1126,0,1134,0,1785,1785,1785,1785,1776,1776,1766,1766,1757,1757,1757,1757,1757,1748,1748,1739,1739,1739,1731,1731,1722,1722,1722,1713,1713,1705,1705,1705,1705,1705,1696,1696,1696,1696,1688,1688,1688,1688,1688,1680,1671,1671,1671,1671,1671,1663,1663,1663,1663,1663,1663,1655,1647,1647,1647,1639,1639,1639,1639,1632,1632,1632,1632,1624,1616,1616,1609,1609,1609,1609,1601,1601,1601,1601,1594,1594,1586,1579,1579,1579,1579,1579,1579,1579,1572,1572,1572,1564,1564,1557,1550,1543,1543,0,0,0,0,0,0,0,0,925,925,925,923,923,918,918,918,915,915,915,913,910,910,910,910,910,910,910,913,915,920,923,925,928,928,928,930,0,0,0,0,0,1464,1464,1464,1458,1458,1452,1452,1445,1445,1445,1439,1439,1439,1439,1439,1433,1433,1427,1427,1421,1421,1421,1415,1415,1415,1415,1415,1410,1404,1404,1398,1398,1398,1398,1398,1398,1398,1392,1392,1392,1387,1387,1381,1381,1376,1376,1376,1376,1370,1370,1370,1365,1365,1365,1359,1359,1354,1354,1354,1354,1354,1349,1349,1349,1349,1349,1343,1343,1338,1338,1333,1333,1333,1328,1328,1328,1328,1322,1317,1317,1317,1312,1312,1312,1312,1312,1307,1307,1307,1302,1302,1302,1297,1297,1292,1292,1292,1292,1288,1288,1288,1283,1283,1278,1278,1278,1273,1273,1268,1268,1268,1268,1268,1264,1264,1264,1259,1259,1259,1255,1255,1255,1250,1250,1250,1245,1245,1241,1241,1236,1236,1236,1236,1232,1232,1232,1232,1227,1227,1223,1223,1219,1219,1219,1214,1214,1214,1214,1214,1210,1210,1206,1206,1202,1202,1202,1202,1202,1202,1197,1197,1197,1193,1193,1193,1189,1189,1189,1185,1185,1185,1185,1181,1181,1181,1181,1181,1177,1177,1173,1173,1169,1169,1169,1165,1165,1165,1161,1161,1157,1153,1153,1153,1153,1153,0,0,0,0,0,0,0,0,0,0,0,0,0,0,0,0,0,0,0,0,0,0,0,0,0,0,0,0,0,0
0,0,0,0,0,0,0,0,0,0,0,0,0,1722,1722,1713,1713,1713,1713,1713,1713,1713,1713,1705,1705,1705,1705,1705,1705,1705,1705,1705,1705,1705,1705,1696,1696,1696,1696,1705,1705,1696,1696,1696,1696,1696,1696,1696,1696,1696,1696,1696,1696,1696,1696,1696,1696,1688,1688,1696,1696,1696,1688,1688,1696,1696,1688,1688,1688,1696,1688,1688,1696,1696,1696,1696,1688,1688,1688,1688,1688,1688,1688,1680,1680,1688,1680,1680,1680,1680,1671,1671,1671,1680,1680,1680,1680,1680,1680,1680,1680,1671,1671,1671,1671,1671,1663,1663,1671,1663,1663,1663,1663,1663,1663,1655,1655,1655,1663,1663,1663,1655,1655,1655,1655,1655,1655,1663,1663,1663,1671,1671,1680,1680,1680,1688,1833,1833,1823,1823,1823,1823,1823,1823,1813,1804,1804,1794,1794,1794,1794,1794,1794,1794,1785,1785,1671,1671,1671,1671,1671,1671,1671,1671,1671,1671,1680,1680,1688,1688,1688,1688,1688,1696,1696,1696,1696,1696,1705,1713,1713,1722,1722,1722,1731,1731,1731,1739,1748,1748,1748,1757,1757,1757,1757,1757,1757,1766,1766,1776,1776,1785,1785,1794,1804,1804,1804,1804,1804,1813,1823,1823,1823,1823,1823,1833,1833,1833,1843,1843,1853,1853,1863,1863,1873,1873,1873,1873,1873,1873,1873,1883,1883,1883,1894,1894,1904,1904,1904,1904,1904,1915,1915,1904,1904,1904,1915,1926,0,0,0,0,0,0,1119,1115,1115,1115,1115,1115,1112,1112,1112,1112,1108,1108,1112,1112,1115,1115,1115,1123,1123,1123,1123,1123,1130,1134,1134,0,0,0,1785,1785,1785,1776,1776,1766,1766,1766,1757,1757,1757,1757,1757,1748,1739,1739,1739,1731,1731,1722,1722,1722,1713,1713,1713,1705,1705,1705,1705,1705,1696,1696,1696,1696,1688,1688,1688,1688,1680,1680,1671,1671,1671,1671,1671,1671,1663,1663,1663,1663,1655,1647,1647,1647,1639,1639,1639,1639,1632,1632,1632,1632,1624,1624,1616,1616,1609,1609,1609,1609,1601,1601,1601,1594,1594,1586,1579,1579,1579,1579,1579,1579,1579,1572,1572,1572,1564,1564,1557,1550,1543,1543,0,0,0,0,0,0,0,0,925,925,923,923,920,918,918,918,915,915,915,913,910,910,910,910,910,910,910,913,918,920,925,928,928,928,930,933,0,0,0,0,0,1464,1464,1464,1464,1458,1458,1452,1452,1445,1445,1445,1439,1439,1439,1439,1439,1433,1433,1427,1427,1421,1421,1415,1415,1415,1415,1415,1410,1404,1404,1398,1398,1398,1398,1398,1398,1398,1392,1392,1392,1392,1387,1381,1381,1381,1376,1376,1376,1370,1370,1370,1365,1365,1365,1359,1359,1354,1354,1354,1354,1354,1349,1349,1349,1349,1349,1343,1343,1338,1338,1338,1333,1333,1333,1328,1328,1328,1322,1322,1317,1317,1312,1312,1312,1312,1312,1307,1307,1307,1307,1302,1302,1302,1297,1297,1292,1292,1292,1288,1288,1288,1283,1283,1278,1278,1278,1273,1273,1273,1268,1268,1268,1268,1264,1264,1264,1259,1259,1259,1255,1255,1255,1255,1250,1250,1250,1245,1245,1241,1241,1236,1236,1236,1236,1236,1232,1232,1227,1227,1223,1223,1219,1219,1219,1219,1214,1214,1214,1214,1210,1210,1210,1206,1206,1202,1202,1202,1202,1202,1197,1197,1197,1197,1193,1193,1189,1189,1189,1185,1185,1185,1185,1181,1181,1181,1181,1181,1177,1177,1173,1173,1169,1169,1169,1165,1165,1161,1161,1161,1157,1153,1153,1153,1153,1153,0,0,0,0,0,0,0,0,0,0,0,0,0,0,0,0,0,0,0,0,0,0,0,0,0,0,0,0,0,0
0,0,0,0,0,0,0,0,0,0,0,0,0,1722,1713,1713,1713,1713,1713,1713,1713,1705,1705,1705,1705,1713,1705,1705,1705,1696,1696,1696,1696,1696,1705,1696,1696,1696,1696,1705,1705,1696,1696,1696,1696,1696,1696,1696,1696,1705,1696,1696,1696,1696,1696,1696,1696,1688,1688,1696,1696,1696,1696,1696,1696,1696,1696,1696,1696,1696,1696,1696,1696,1688,1688,1688,1688,1688,1688,1688,1688,1688,1688,1688,1688,1688,1688,1688,1688,1688,1680,1680,1680,1680,1680,1680,1680,1680,1680,1680,1680,1671,1671,1671,1671,1671,1663,1663,1671,1663,1663,1663,1663,1663,1663,1663,1663,1663,1663,1663,1663,1663,1655,1655,1655,1663,1663,1663,1663,1663,1671,1671,1680,1680,1688,1688,1833,1833,1823,1823,1823,1823,1823,1823,1813,1804,1804,1804,1794,1794,1794,1794,1794,1794,1785,1785,1696,1671,1671,1671,1671,1671,1671,1671,1671,1680,1680,1680,1688,1688,1688,1688,1688,1688,1696,1696,1696,1705,1705,1713,1713,1722,1731,1731,1731,1731,1731,1739,1748,1748,1748,1757,1757,1757,1757,1757,1757,1766,1766,1766,1776,1785,1794,1794,1804,1804,1804,1804,1804,1813,1813,1823,1823,1823,1823,1833,1833,1833,1843,1843,1853,1853,1863,1863,1873,1873,1873,1873,1873,1873,1883,1883,1883,1883,1894,1904,1904,1904,1904,1904,1915,1915,1915,1904,1904,1904,0,0,0,0,0,0,0,0,1119,1115,1115,1115,1115,1115,1115,1112,1112,1112,1112,1112,1112,1112,1115,1115,1115,1123,1123,1123,1123,1123,1130,1134,1134,0,0,0,0,1785,1785,1776,1776,1766,1766,1766,1766,1757,1757,1757,1757,1748,1748,1739,1739,1731,1731,1731,1722,1722,1722,1713,1713,1713,1705,1705,1705,1705,1696,1696,1696,1696,1688,1688,1688,1688,1688,1680,1671,1671,1671,1671,1671,1671,1671,1663,1663,1663,1655,1647,1647,1647,1639,1639,1639,1639,1632,1632,1632,1632,1624,1624,1616,1616,1609,1609,1609,1609,1601,1601,1601,1594,1594,1586,1586,1586,1586,1579,1579,1579,1579,1572,1572,1572,1564,1564,1557,1550,1543,1543,0,0,0,0,0,0,0,0,925,925,923,920,920,918,918,918,915,915,915,913,910,910,910,910,910,910,910,915,920,923,925,928,928,928,930,933,0,0,0,0,1464,1464,1464,1464,1464,1458,1458,1452,1452,1445,1445,1445,1445,1439,1439,1439,1439,1433,1433,1427,1427,1421,1421,1415,1415,1415,1415,1415,1410,1410,1404,1404,1398,1398,1398,1398,1398,1398,1392,1392,1392,1392,1387,1387,1381,1381,1376,1376,1376,1376,1370,1370,1370,1365,1365,1365,1359,1359,1354,1354,1354,1354,1349,1349,1349,1349,1349,1349,1343,1338,1338,1338,1333,1333,1333,1328,1328,1328,1328,1322,1317,1317,1312,1312,1312,1312,1312,1307,1307,1307,1307,1302,1302,1302,1302,1297,1292,1292,1292,1288,1288,1288,1283,1283,1283,1278,1278,1273,1273,1273,1268,1268,1268,1268,1264,1264,1264,1264,1259,1259,1259,1255,1255,1255,1250,1250,1250,1245,1245,1245,1241,1236,1236,1236,1236,1236,1232,1232,1227,1227,1223,1223,1219,1219,1219,1219,1219,1214,1214,1214,1214,1210,1210,1206,1206,1202,1202,1202,1202,1202,1197,1197,1197,1197,1193,1193,1189,1189,1189,1189,1185,1185,1185,1185,1181,1181,1181,1181,1177,1177,1173,1173,1169,1169,1169,1165,1165,1161,1161,1161,1157,1153,1153,1153,1153,1153,0,0,0,0,0,0,0,0,0,0,0,0,0,0,0,0,0,0,0,0,0,0,0,0,0,0,0,0,0,0
0,0,0,0,0,0,0,0,0,0,0,0,0,1722,1713,1713,1713,1713,1713,1713,1713,1705,1705,1705,1705,1713,1705,1705,1705,1696,1696,1696,1696,1696,1705,1696,1696,1705,1705,1705,1705,1696,1696,1696,1696,1696,1696,1696,1696,1696,1696,1696,1696,1696,1688,1688,1688,1688,1688,1688,1688,1688,1688,1688,1688,1696,1696,1696,1696,1696,1696,1696,1696,1688,1688,1688,1688,1688,1688,1688,1688,1688,1688,1688,1688,1688,1688,1688,1688,1688,1680,1680,1680,1680,1680,1680,1680,1680,1680,1680,1680,1671,1671,1671,1671,1671,1663,1663,1671,1663,1663,1663,1663,1663,1663,1663,1663,1663,1663,1663,1663,1663,1663,1663,1663,1663,1663,1663,1663,1663,1671,1671,1680,1680,1688,1688,1813,1813,1813,1813,1823,1823,1823,1823,1813,1813,1804,1804,1794,1794,1794,1794,1794,1785,1785,1785,1696,1671,1671,1671,1671,1671,1671,1671,1680,1680,1680,1680,1688,1688,1688,1688,1688,1688,1696,1696,1696,1705,1705,1713,1722,1722,1731,1731,1731,1731,1739,1739,1748,1748,1757,1757,1757,1757,1757,1766,1766,1766,1766,1766,1776,1785,1794,1794,1804,1804,1804,1804,1804,1813,1813,1813,1823,1823,1823,1833,1833,1833,1843,1843,1853,1863,1863,1873,1873,1873,1873,1873,1873,1873,1883,1894,1894,1894,1904,1904,1904,1904,1904,1904,1904,1915,1915,1904,1904,0,0,0,0,0,0,0,0,0,1119,1115,1115,1115,1115,1115,1115,1112,1112,1112,1112,1112,1112,1115,1115,1119,1119,1123,1123,1123,1123,1123,1130,1134,1134,1134,0,0,0,1785,1785,1776,1776,1766,1766,1766,1766,1766,1766,1757,1757,1757,1748,1748,1739,1731,1731,1731,1722,1722,1722,1713,1713,1713,1705,1705,1705,1705,1696,1696,1696,1696,1688,1688,1688,1688,1688,1688,1680,1680,1680,1671,1671,1671,1671,1663,1663,1663,1655,1655,1647,1647,1639,1639,1639,1639,1632,1632,1632,1624,1624,1616,1616,1616,1609,1609,1609,1609,1601,1601,1601,1594,1594,1594,1586,1586,1586,1579,1579,1579,1579,1572,1572,1572,1564,1564,1557,1550,1543,1543,0,0,0,0,0,0,0,0,925,925,923,920,920,918,918,918,915,915,915,913,910,910,910,910,910,910,910,915,920,923,925,928,928,928,930,933,0,0,0,0,1464,1464,1464,1464,1464,1458,1458,1452,1452,1445,1445,1445,1445,1439,1439,1439,1439,1439,1433,1427,1427,1421,1421,1415,1415,1415,1415,1415,1410,1410,1404,1404,1398,1398,1398,1398,1398,1398,1398,1392,1392,1392,1392,1387,1381,1381,1381,1381,1376,1376,1370,1370,1370,1370,1370,1365,1365,1359,1354,1354,1354,1354,1349,1349,1349,1349,1349,1349,1343,1343,1338,1338,1338,1333,1333,1333,1333,1328,1328,1322,1317,1317,1312,1312,1312,1312,1312,1312,1312,1312,1307,1307,1302,1302,1302,1297,1292,1292,1292,1288,1288,1288,1288,1283,1283,1278,1278,1273,1273,1273,1273,1268,1268,1268,1264,1264,1264,1264,1259,1259,1259,1255,1255,1255,1250,1250,1250,1245,1245,1245,1241,1236,1236,1236,1236,1236,1232,1232,1227,1227,1223,1223,1219,1219,1219,1219,1219,1214,1214,1214,1214,1210,1210,1210,1206,1202,1202,1202,1202,1202,1197,1197,1197,1197,1197,1193,1189,1189,1189,1185,1185,1185,1185,1185,1181,1181,1181,1181,1181,1177,1177,1173,1173,1169,1169,1165,1165,1165,1161,1161,1157,1157,1153,1153,1153,1153,0,0,0,0,0,0,0,0,0,0,0,0,0,0,0,0,0,0,0,0,0,0,0,0,0,0,0,0,0,0
0,0,0,0,0,0,0,0,0,0,0,0,0,1722,1722,1713,1713,1713,1713,1713,1713,1713,1713,1713,1713,1713,1705,1705,1705,1696,1696,1696,1696,1705,1705,1696,1696,1696,1705,1705,1705,1705,1705,1705,1696,1696,1696,1696,1696,1696,1705,1696,1696,1696,1688,1688,1688,1688,1688,1688,1688,1688,1688,1688,1688,1696,1696,1696,1696,1696,1696,1688,1688,1688,1688,1688,1688,1688,1688,1688,1688,1688,1688,1688,1688,1688,1688,1688,1688,1688,1688,1680,1680,1680,1680,1680,1680,1680,1680,1680,1680,1671,1671,1671,1671,1671,1663,1663,1671,1663,1663,1663,1663,1663,1663,1663,1663,1663,1663,1663,1663,1663,1663,1663,1663,1663,1663,1663,1663,1663,1671,1671,1680,1680,1688,1688,1804,1804,1813,1813,1813,1823,1823,1823,1823,1813,1813,1804,1794,1794,1794,1794,1794,1785,1785,1766,1766,1680,1680,1671,1671,1671,1671,1671,1680,1680,1680,1680,1688,1688,1688,1688,1688,1696,1696,1696,1696,1705,1705,1713,1722,1722,1731,1731,1731,1731,1739,1739,1748,1748,1757,1757,1757,1757,1757,1766,1766,1766,1766,1766,1776,1785,1794,1794,1804,1804,1804,1804,1804,1813,1813,1813,1823,1823,1823,1833,1833,1833,1843,1843,1853,1863,1863,1873,1873,1873,1873,1873,1873,1883,1894,1894,1904,1904,1904,1904,1915,1904,1904,1904,1904,1915,1915,1904,1904,0,0,0,0,0,0,0,0,1119,1119,1119,1119,1115,1115,1115,1115,1112,1112,1112,1112,1112,1112,1115,1115,1119,1119,1123,1123,1126,1126,1126,1130,1134,1138,0,0,0,0,1785,1785,1776,1776,1766,1766,1766,1766,1766,1766,1766,1757,1757,1748,1748,1739,1739,1731,1731,1722,1722,1722,1722,1713,1713,1713,1713,1705,1705,1705,1696,1696,1696,1688,1688,1688,1688,1688,1688,1680,1680,1680,1671,1671,1671,1671,1663,1663,1655,1655,1655,1647,1647,1639,1639,1639,1639,1632,1632,1632,1624,1624,1616,1616,1616,1609,1609,1609,1609,1601,1601,1601,1601,1594,1594,1594,1586,1586,1579,1579,1579,1579,1579,1572,1572,1564,1564,1557,1550,1543,1543,0,0,0,0,0,0,0,0,925,923,923,920,920,918,918,918,915,915,915,913,913,910,910,910,910,910,913,918,920,925,925,928,928,928,930,0,0,0,0,0,1464,1464,1464,1464,1464,1464,1458,1458,1452,1452,1445,1445,1445,1439,1439,1439,1439,1439,1439,1433,1433,1427,1421,1421,1415,1415,1415,1415,1410,1410,1410,1404,1404,1398,1398,1398,1398,1398,1398,1392,1392,1392,1392,1392,1387,1381,1381,1381,1381,1376,1376,1370,1370,1370,1370,1365,1365,1365,1354,1354,1354,1354,1349,1349,1349,1349,1349,1349,1343,1343,1338,1338,1338,1333,1333,1333,1333,1328,1328,1322,1317,1317,1312,1312,1312,1312,1312,1312,1312,1312,1307,1307,1307,1302,1302,1297,1292,1292,1292,1288,1288,1288,1288,1283,1283,1278,1278,1278,1273,1273,1273,1268,1268,1268,1268,1264,1264,1264,1264,1259,1259,1255,1255,1255,1250,1250,1250,1250,1245,1245,1241,1241,1236,1236,1236,1236,1232,1232,1227,1227,1227,1223,1223,1219,1219,1219,1219,1219,1214,1214,1214,1210,1210,1210,1206,1202,1202,1202,1202,1202,1197,1197,1197,1197,1197,1193,1193,1189,1189,1185,1185,1185,1185,1185,1181,1181,1181,1181,1181,1181,1177,1177,1173,1169,1169,1165,1165,1165,1161,1161,1161,1157,1157,1157,1153,1153,0,0,0,0,0,0,0,0,0,0,0,0,0,0,0,0,0,0,0,0,0,0,0,0,0,0,0,0,0,0
0,0,0,0,0,0,0,0,0,0,0,0,0,1722,1722,1713,1713,1713,1713,1713,1713,1713,1713,1713,1713,1713,1705,1705,1705,1713,1696,1696,1696,1705,1705,1696,1696,1696,1705,1705,1705,1705,1705,1705,1705,1705,1705,1705,1705,1696,1696,1696,1696,1696,1696,1696,1696,1688,1688,1696,1688,1688,1696,1696,1696,1696,1696,1696,1696,1696,1696,1688,1688,1688,1688,1688,1688,1688,1688,1688,1688,1688,1688,1688,1688,1688,1688,1688,1688,1688,1688,1680,1680,1680,1688,1680,1680,1680,1680,1680,1680,1671,1671,1671,1671,1671,1663,1663,1671,1663,1663,1663,1663,1663,1671,1671,1663,1663,1663,1663,1663,1663,1663,1663,1663,1663,1663,1663,1663,1663,1671,1671,1680,1680,1688,1688,1804,1804,1813,1813,1813,1823,1823,1823,1823,1813,1813,1804,1794,1794,1794,1794,1794,1785,1785,1766,1688,1680,1680,1680,1680,1680,1671,1671,1680,1680,1680,1688,1688,1688,1688,1688,1688,1696,1696,1696,1705,1705,1713,1722,1722,1722,1731,1731,1731,1739,1739,1739,1748,1757,1757,1757,1757,1757,1766,1766,1766,1766,1766,1776,1785,1785,1794,1794,1804,1804,1804,1804,1804,1804,1813,1813,1823,1823,1833,1833,1833,1833,1843,1843,1853,1863,1873,1873,1873,1873,1873,1873,1873,1883,1894,1894,1904,1904,1904,1915,1915,1904,1904,1904,1915,1915,1915,0,0,0,0,0,0,0,0,0,0,1119,1119,1119,1119,1119,1115,1115,1115,1112,1112,1112,1112,1112,1112,1115,1115,1115,1119,1119,1126,1126,1130,1130,1134,1134,1138,0,0,0,1785,1785,1785,1776,1776,1766,1766,1766,1766,1766,1766,1766,1757,1757,1757,1748,1739,1739,1731,1731,1731,1731,1722,1722,1722,1713,1713,1713,1713,1713,1705,1696,1696,1696,1688,1688,1688,1688,1688,1688,1680,1680,1680,1671,1671,1671,1671,1663,1663,1655,1655,1655,1647,1647,1639,1639,1639,1639,1639,1632,1632,1632,1624,1624,1616,1616,1609,1609,1609,1609,1609,1601,1601,1601,1594,1594,1594,1586,1586,1579,1579,1579,1579,1579,1572,1572,1564,1564,1564,1557,1550,1550,0,0,0,0,0,0,0,925,925,923,923,920,920,918,918,918,918,915,915,913,913,910,910,913,913,913,915,920,923,925,928,928,928,928,930,0,0,0,0,0,1464,1464,1464,1464,1464,1458,1458,1458,1452,1452,1445,1445,1445,1439,1439,1439,1439,1439,1439,1433,1433,1427,1427,1421,1421,1415,1415,1415,1410,1410,1410,1410,1404,1404,1404,1398,1398,1398,1398,1398,1392,1392,1392,1392,1387,1381,1381,1381,1381,1376,1376,1376,1370,1370,1370,1370,1365,1365,1359,1354,1354,1354,1354,1349,1349,1349,1349,1349,1343,1343,1343,1338,1338,1333,1333,1333,1333,1328,1328,1322,1322,1317,1317,1312,1312,1312,1312,1312,1312,1312,1307,1307,1307,1302,1302,1297,1292,1292,1292,1288,1288,1288,1288,1288,1283,1278,1278,1278,1278,1273,1273,1273,1268,1268,1268,1268,1264,1264,1264,1259,1259,1255,1255,1255,1250,1250,1250,1250,1245,1245,1241,1241,1236,1236,1236,1236,1232,1232,1232,1227,1227,1223,1223,1223,1219,1219,1219,1219,1219,1214,1214,1214,1214,1210,1206,1206,1202,1202,1202,1202,1202,1202,1197,1197,1197,1197,1193,1189,1189,1189,1185,1185,1185,1185,1181,1181,1181,1181,1181,1181,1177,1177,1173,1169,1169,1165,1165,1165,1161,1161,1161,1161,1157,1157,1157,1157,0,0,0,0,0,0,0,0,0,0,0,0,0,0,0,0,0,0,0,0,0,0,0,0,0,0,0,0,0,0
0,0,0,0,0,0,0,0,0,0,0,0,0,1722,1722,1713,1713,1713,1713,1713,1713,1713,1713,1713,1722,1722,1705,1705,1705,1713,1705,1705,1713,1713,1713,1696,1696,1705,1705,1705,1705,1705,1705,1705,1705,1705,1705,1705,1705,1696,1696,1696,1696,1696,1696,1696,1696,1696,1696,1696,1696,1696,1696,1696,1696,1696,1696,1696,1696,1696,1696,1688,1688,1688,1688,1688,1688,1688,1688,1688,1688,1688,1688,1688,1688,1688,1688,1688,1688,1688,1688,1680,1680,1688,1688,1680,1680,1680,1680,1680,1680,1671,1671,1671,1671,1671,1663,1663,1671,1663,1663,1671,1663,1663,1671,1671,1671,1671,1671,1671,1663,1663,1663,1663,1663,1663,1663,1663,1663,1671,1671,1671,1680,1688,1688,1688,1804,1804,1813,1813,1823,1823,1823,1823,1823,1823,1813,1813,1804,1794,1794,1794,1794,1785,1785,1776,1688,1688,1680,1680,1680,1680,1671,1671,1680,1688,1688,1688,1688,1688,1688,1688,1696,1696,1696,1705,1705,1713,1713,1722,1722,1722,1731,1731,1731,1739,1739,1748,1757,1757,1757,1757,1757,1757,1766,1766,1766,1766,1776,1776,1785,1794,1794,1794,1804,1804,1804,1804,1804,1804,1813,1813,1823,1823,1833,1833,1833,1843,1843,1853,1853,1863,1873,1873,1873,1873,1873,1873,1873,1883,1904,1904,1904,1904,1915,1915,1915,1915,1915,1915,1915,1915,1915,0,0,0,0,0,0,0,0,0,1123,1119,1119,1119,1119,1119,1119,1115,1115,1112,1112,1112,1112,1112,1112,1115,1115,1115,1119,1119,1126,1126,1130,1134,1134,1134,1138,0,0,0,0,1785,1785,1776,1776,1766,1766,1766,1766,1766,1766,1766,1757,1757,1757,1757,1748,1739,1731,1731,1731,1731,1722,1722,1722,1722,1722,1722,1713,1713,1705,1696,1696,1696,1688,1688,1688,1688,1688,1688,1688,1680,1680,1680,1671,1671,1671,1663,1663,1655,1655,1655,1647,1647,1639,1639,1639,1639,1639,1632,1632,1632,1624,1624,1616,1616,1609,1609,1609,1609,1609,1601,1601,1601,1601,1594,1594,1586,1586,1586,1579,1579,1579,1579,1572,1572,1572,1564,1564,1557,1550,1550,0,0,0,0,0,0,0,925,925,925,923,920,920,918,918,918,918,915,915,913,913,910,910,913,913,913,918,920,923,925,928,928,928,928,928,0,0,0,0,1470,1464,1464,1464,1464,1464,1458,1458,1458,1452,1452,1445,1445,1445,1439,1439,1439,1439,1439,1439,1433,1433,1427,1427,1421,1421,1415,1415,1415,1415,1415,1415,1410,1404,1404,1404,1398,1398,1398,1398,1398,1392,1392,1392,1392,1392,1387,1387,1381,1381,1376,1376,1376,1370,1370,1370,1370,1365,1365,1359,1354,1354,1354,1354,1349,1349,1349,1349,1343,1343,1343,1343,1343,1338,1338,1333,1333,1333,1328,1328,1328,1322,1322,1317,1312,1312,1312,1312,1312,1312,1312,1307,1307,1307,1302,1297,1297,1292,1292,1292,1292,1288,1288,1288,1288,1288,1278,1278,1278,1278,1273,1273,1273,1273,1273,1268,1268,1268,1264,1264,1264,1259,1255,1255,1255,1255,1250,1250,1250,1245,1245,1241,1241,1236,1236,1236,1236,1232,1232,1232,1227,1227,1223,1223,1223,1219,1219,1219,1219,1219,1214,1214,1214,1214,1210,1210,1206,1206,1206,1202,1202,1202,1197,1197,1197,1197,1197,1193,1189,1189,1189,1185,1185,1185,1185,1181,1181,1181,1181,1181,1181,1177,1177,1177,1173,1169,1165,1165,1165,1161,1161,1161,1161,1157,1157,1157,1157,0,0,0,0,0,0,0,0,0,0,0,0,0,0,0,0,0,0,0,0,0,0,0,0,0,0,0,0,0,0
0,0,0,0,0,0,0,0,0,0,0,0,0,1722,1722,1722,1722,1722,1722,1722,1722,1713,1713,1713,1722,1722,1713,1713,1713,1713,1713,1713,1713,1713,1713,1696,1696,1696,1705,1705,1705,1705,1705,1705,1705,1705,1705,1705,1705,1705,1696,1696,1696,1696,1696,1696,1696,1696,1696,1696,1696,1696,1696,1696,1696,1696,1696,1696,1696,1696,1696,1688,1688,1688,1688,1688,1688,1688,1688,1688,1688,1688,1688,1688,1688,1688,1688,1688,1688,1688,1688,1688,1688,1688,1688,1688,1680,1680,1680,1680,1680,1671,1671,1671,1671,1671,1671,1671,1671,1671,1671,1671,1671,1671,1671,1671,1671,1671,1671,1671,1663,1663,1663,1663,1663,1663,1663,1663,1663,1671,1671,1680,1680,1688,1688,1688,1794,1804,1813,1823,1823,1833,1823,1823,1823,1823,1813,1813,1804,1794,1794,1794,1794,1794,1785,1785,1696,1688,1688,1680,1680,1680,1680,1680,1680,1688,1688,1688,1688,1688,1688,1696,1696,1696,1696,1705,1705,1713,1713,1722,1722,1722,1731,1731,1739,1739,1739,1748,1757,1757,1757,1757,1757,1757,1766,1766,1766,1766,1776,1785,1785,1794,1794,1794,1804,1804,1804,1804,1804,1813,1813,1823,1823,1833,1833,1833,1843,1843,1853,1853,1853,1863,1863,1863,1873,1873,1873,1873,1883,1894,1904,1904,1904,1915,1915,1915,1915,1915,1915,1915,1915,1915,0,0,0,0,0,0,0,0,0,1138,1123,1119,1119,1119,1119,1115,1115,1115,1112,1112,1112,1108,1108,1112,1115,1115,1115,1119,1119,1119,1126,1130,1130,1134,1134,1138,1141,0,0,0,0,1785,1785,1776,1776,1766,1766,1766,1766,1766,1766,1766,1766,1757,1757,1757,1748,1739,1731,1731,1731,1731,1731,1722,1722,1722,1722,1722,1713,1713,1713,1696,1696,1696,1688,1688,1688,1688,1696,1688,1688,1688,1680,1680,1671,1671,1671,1671,1663,1663,1655,1655,1647,1647,1647,1639,1639,1639,1639,1632,1632,1632,1632,1624,1624,1616,1616,1609,1609,1609,1609,1601,1601,1601,1601,1594,1594,1586,1586,1586,1579,1579,1579,1579,1572,1572,1572,1572,1564,1564,1550,1550,0,0,0,0,0,0,0,925,925,925,923,923,923,918,918,918,918,915,915,913,913,913,913,913,913,915,918,920,923,925,928,928,928,928,928,0,0,0,0,1464,1464,1464,1464,1464,1464,1458,1458,1452,1452,1452,1445,1445,1445,1439,1439,1439,1439,1439,1439,1433,1433,1427,1427,1421,1421,1421,1415,1415,1415,1415,1415,1415,1410,1410,1404,1398,1398,1398,1398,1392,1392,1392,1392,1392,1392,1387,1387,1381,1381,1376,1376,1376,1376,1370,1370,1370,1365,1365,1365,1354,1354,1354,1354,1349,1349,1349,1349,1343,1343,1343,1343,1343,1338,1338,1333,1333,1333,1328,1328,1328,1322,1322,1317,1312,1312,1312,1312,1312,1312,1312,1307,1307,1307,1302,1297,1297,1292,1292,1292,1292,1292,1288,1288,1288,1288,1283,1283,1278,1278,1273,1273,1273,1273,1273,1268,1268,1268,1268,1264,1264,1259,1255,1255,1255,1255,1250,1250,1250,1245,1245,1241,1241,1236,1236,1236,1236,1232,1232,1232,1232,1232,1227,1223,1223,1223,1223,1219,1219,1219,1219,1214,1214,1214,1210,1210,1206,1206,1206,1202,1202,1202,1197,1197,1197,1197,1197,1193,1189,1189,1189,1185,1185,1185,1185,1181,1181,1181,1181,1181,1181,1177,1177,1177,1173,1169,1165,1165,1165,1165,1161,1161,1161,1157,1157,1157,1157,0,0,0,0,0,0,0,0,0,0,0,0,0,0,0,0,0,0,0,0,0,0,0,0,0,0,0,0,0,0
0,0,0,0,0,0,0,0,0,0,0,0,0,1731,1722,1722,1722,1722,1722,1722,1722,1722,1722,1722,1722,1722,1713,1713,1713,1722,1722,1722,1713,1713,1713,1696,1696,1696,1705,1705,1705,1705,1705,1713,1713,1713,1713,1713,1713,1705,1705,1696,1696,1696,1696,1696,1696,1696,1696,1696,1696,1696,1696,1696,1696,1696,1696,1696,1696,1688,1688,1688,1688,1688,1688,1688,1688,1688,1688,1688,1688,1688,1688,1688,1688,1688,1688,1688,1688,1688,1688,1688,1688,1688,1688,1688,1680,1680,1680,1680,1680,1671,1671,1671,1671,1671,1671,1671,1671,1671,1671,1671,1671,1671,1671,1671,1671,1671,1671,1671,1663,1663,1663,1663,1663,1663,1663,1663,1663,1671,1671,1680,1688,1688,1696,1696,1794,1804,1813,1823,1823,1823,1823,1823,1823,1823,1813,1804,1804,1794,1794,1794,1794,1794,1785,1785,1785,1696,1688,1680,1680,1680,1671,1671,1680,1680,1688,1688,1688,1688,1696,1696,1696,1696,1705,1705,1705,1713,1713,1722,1722,1722,1731,1731,1739,1748,1748,1748,1757,1757,1757,1757,1757,1757,1757,1766,1766,1776,1776,1785,1794,1794,1794,1794,1804,1804,1804,1804,1804,1813,1813,1823,1823,1833,1833,1843,1843,1843,1853,1853,1863,1863,1863,1863,1873,1873,1873,1883,1883,1894,1904,1904,1904,1915,1915,1915,1915,1915,1915,1915,1915,1915,1915,0,0,0,0,0,0,0,0,1130,1123,1119,1119,1119,1119,1115,1115,1115,1112,1112,1112,1108,1108,1112,1115,1115,1115,1119,1119,1126,1130,1130,1130,1134,1134,1138,1141,0,0,0,0,1785,1785,1785,1776,1766,1766,1766,1766,1766,1766,1766,1757,1757,1757,1757,1748,1739,1739,1731,1731,1731,1731,1731,1722,1722,1722,1722,1713,1713,1713,1696,1696,1696,1696,1688,1688,1688,1696,1696,1688,1688,1680,1680,1671,1671,1671,1671,1663,1663,1655,1655,1647,1647,1647,1639,1639,1639,1639,1639,1632,1632,1632,1632,1624,1624,1616,1609,1609,1609,1609,1609,1601,1601,1601,1594,1594,1594,1586,1586,1579,1579,1579,1579,1572,1572,1572,1572,1564,1564,1550,1550,0,0,0,0,0,0,0,925,925,925,923,923,923,918,918,918,918,915,915,913,913,913,913,913,913,915,918,920,923,925,928,928,928,928,0,0,0,0,0,1464,1464,1464,1464,1464,1464,1458,1458,1452,1452,1452,1452,1445,1445,1439,1439,1439,1439,1439,1439,1433,1433,1433,1427,1421,1421,1421,1415,1415,1415,1415,1415,1415,1415,1410,1404,1404,1398,1398,1398,1392,1392,1392,1392,1392,1392,1387,1387,1381,1381,1381,1376,1376,1376,1370,1370,1370,1370,1365,1365,1354,1354,1354,1354,1354,1349,1349,1349,1343,1343,1343,1343,1343,1338,1338,1333,1333,1333,1328,1328,1328,1322,1322,1317,1317,1312,1312,1312,1312,1312,1312,1307,1307,1307,1302,1297,1297,1292,1292,1292,1292,1292,1288,1288,1288,1288,1283,1283,1278,1278,1278,1273,1273,1273,1273,1268,1268,1268,1268,1268,1264,1259,1255,1255,1255,1255,1250,1250,1250,1250,1250,1245,1241,1241,1236,1236,1236,1232,1232,1232,1232,1232,1227,1227,1227,1227,1223,1223,1219,1219,1219,1214,1214,1214,1210,1210,1206,1206,1206,1202,1202,1202,1197,1197,1197,1197,1197,1197,1193,1189,1189,1185,1185,1185,1185,1181,1181,1181,1181,1181,1181,1177,1177,1177,1173,1169,1165,1165,1165,1165,1161,1161,1161,1157,1157,1157,1157,0,0,0,0,0,0,0,0,0,0,0,0,0,0,0,0,0,0,0,0,0,0,0,0,0,0,0,0,0,0
0,0,0,0,0,0,0,0,0,0,0,0,0,1731,1731,1722,1722,1722,1722,1722,1722,1722,1722,1722,1722,1722,1713,1713,1713,1722,1722,1722,1713,1713,1713,1713,1705,1705,1713,1705,1705,1705,1705,1713,1713,1713,1713,1713,1713,1705,1705,1696,1696,1696,1696,1696,1696,1696,1696,1696,1696,1696,1696,1696,1696,1696,1696,1696,1696,1688,1688,1688,1688,1688,1688,1696,1696,1696,1696,1696,1688,1688,1696,1688,1688,1688,1688,1688,1688,1688,1688,1688,1688,1688,1688,1688,1680,1680,1680,1680,1680,1680,1671,1671,1680,1671,1671,1671,1671,1671,1671,1671,1671,1671,1671,1671,1671,1663,1663,1663,1663,1663,1663,1663,1663,1663,1663,1663,1671,1671,1671,1680,1688,1688,1696,1696,1794,1813,1813,1823,1823,1823,1823,1823,1823,1823,1813,1804,1804,1794,1794,1794,1794,1794,1785,1785,1776,1696,1688,1688,1680,1680,1671,1671,1680,1680,1688,1688,1688,1688,1696,1696,1696,1696,1705,1705,1705,1713,1713,1722,1722,1722,1731,1731,1739,1748,1748,1748,1757,1757,1757,1757,1757,1757,1757,1766,1766,1776,1785,1785,1794,1794,1794,1794,1804,1804,1804,1804,1804,1813,1813,1823,1823,1833,1833,1843,1843,1853,1853,1853,1863,1863,1863,1863,1873,1873,1873,1883,1883,1894,1904,1904,1904,1915,1915,1915,1915,1915,1915,1915,1915,1915,0,0,0,0,0,0,0,1134,1126,1126,1126,1123,1119,1119,1119,1119,1115,1115,1115,1112,1112,1108,1108,1112,1115,1115,1115,1119,1119,1126,1130,1130,1130,1134,1134,1138,1138,0,0,0,0,1794,1785,1785,1776,1766,1766,1766,1766,1766,1766,1766,1757,1757,1757,1757,1748,1739,1739,1731,1731,1731,1731,1731,1722,1722,1722,1722,1722,1722,1713,1705,1696,1696,1696,1688,1688,1688,1696,1696,1688,1688,1680,1680,1671,1671,1671,1671,1663,1663,1663,1655,1655,1647,1647,1647,1639,1639,1639,1639,1632,1632,1632,1632,1624,1624,1616,1616,1609,1609,1609,1609,1609,1601,1601,1594,1594,1594,1586,1586,1579,1579,1579,1579,1572,1572,1572,1572,1564,1564,1550,1550,0,0,0,0,0,0,925,925,925,925,923,923,923,918,918,918,918,915,915,913,913,913,913,915,915,915,918,920,923,925,928,928,928,928,0,0,0,0,0,1464,1464,1464,1464,1464,1464,1458,1458,1452,1452,1452,1452,1445,1445,1445,1439,1439,1439,1439,1439,1439,1433,1433,1427,1421,1421,1421,1415,1415,1415,1415,1415,1415,1415,1410,1410,1404,1398,1398,1398,1392,1392,1392,1392,1392,1392,1387,1387,1387,1387,1381,1376,1376,1376,1370,1370,1370,1370,1365,1365,1354,1354,1354,1354,1354,1354,1349,1349,1343,1343,1343,1343,1343,1338,1338,1338,1333,1333,1333,1328,1328,1328,1322,1322,1317,1312,1312,1312,1312,1312,1312,1307,1307,1307,1302,1302,1297,1297,1292,1292,1292,1292,1288,1288,1288,1288,1283,1283,1278,1278,1278,1278,1273,1273,1273,1268,1268,1268,1268,1268,1264,1259,1255,1255,1255,1255,1250,1250,1250,1250,1250,1245,1241,1241,1236,1236,1236,1236,1232,1232,1232,1232,1227,1227,1227,1223,1223,1223,1219,1219,1219,1219,1214,1214,1214,1210,1210,1210,1206,1202,1202,1202,1197,1197,1197,1197,1197,1197,1193,1189,1189,1185,1185,1185,1185,1181,1181,1181,1181,1181,1181,1177,1177,1177,1173,1169,1169,1169,1165,1165,1161,1161,1161,1157,1157,1157,1157,0,0,0,0,0,0,0,0,0,0,0,0,0,0,0,0,0,0,0,0,0,0,0,0,0,0,0,0,0,0
0,0,0,0,0,0,0,0,0,0,0,0,0,1722,1722,1722,1722,1722,1722,1722,1722,1722,1722,1722,1722,1722,1722,1722,1722,1722,1722,1722,1722,1713,1713,1722,1705,1705,1713,1713,1713,1713,1713,1713,1713,1713,1713,1713,1713,1705,1705,1696,1696,1696,1696,1696,1696,1705,1705,1705,1705,1705,1705,1696,1696,1696,1696,1696,1696,1696,1696,1696,1696,1688,1688,1696,1696,1696,1696,1696,1688,1688,1696,1688,1688,1688,1688,1688,1688,1688,1688,1688,1688,1688,1688,1688,1688,1688,1688,1688,1680,1680,1680,1680,1680,1671,1671,1671,1671,1671,1671,1680,1671,1671,1680,1671,1671,1663,1663,1663,1663,1663,1663,1663,1663,1663,1663,1663,1671,1671,1671,1680,1688,1696,1696,1696,1705,1813,1823,1823,1823,1833,1833,1833,1823,1823,1813,1813,1804,1794,1794,1794,1794,1794,1785,1785,1776,1722,1696,1688,1688,1680,1680,1680,1680,1688,1688,1688,1688,1688,1696,1696,1696,1696,1705,1705,1713,1713,1722,1722,1722,1731,1731,1739,1739,1748,1748,1757,1757,1757,1757,1757,1757,1757,1766,1766,1776,1785,1785,1794,1794,1794,1794,1794,1804,1804,1804,1804,1804,1813,1813,1823,1823,1833,1833,1843,1853,1853,1853,1863,1863,1863,1873,1873,1873,1873,1873,1883,1894,1894,1904,1904,1904,1915,1915,1915,1915,1915,1915,1915,1915,1926,1926,0,1115,1115,1108,1108,0,1130,1126,1126,1126,1123,1123,1119,1119,1119,1119,1115,1115,1112,1112,1112,1112,1112,1115,1115,1115,1119,1119,1126,1130,1130,1130,1134,1134,1134,1134,1134,0,0,0,1794,1794,1785,1776,1776,1776,1766,1766,1766,1766,1766,1766,1757,1757,1757,1748,1739,1739,1731,1731,1731,1731,1731,1722,1722,1722,1722,1722,1722,1713,1713,1705,1696,1696,1696,1688,1688,1696,1696,1696,1688,1688,1680,1671,1671,1671,1671,1663,1663,1663,1663,1655,1655,1647,1647,1639,1639,1639,1639,1632,1632,1632,1632,1624,1624,1616,1616,1609,1609,1609,1609,1609,1601,1601,1594,1594,1594,1586,1586,1579,1579,1579,1579,1572,1572,1572,1572,1564,1564,1543,1543,0,0,0,0,0,0,925,925,925,925,923,923,920,918,918,918,918,915,915,915,915,915,915,915,915,915,918,920,923,925,928,928,928,928,0,0,0,0,1470,1470,1464,1464,1464,1464,1464,1458,1458,1458,1452,1452,1452,1445,1445,1445,1445,1439,1439,1439,1439,1433,1433,1433,1427,1421,1421,1421,1415,1415,1415,1415,1415,1415,1415,1410,1410,1404,1404,1398,1398,1398,1392,1392,1392,1392,1392,1392,1387,1387,1387,1381,1376,1376,1376,1370,1370,1370,1370,1365,1365,1359,1359,1354,1354,1354,1354,1349,1349,1343,1343,1343,1343,1343,1338,1338,1338,1333,1333,1333,1328,1328,1328,1322,1322,1317,1317,1317,1312,1312,1312,1312,1307,1307,1307,1307,1302,1297,1297,1297,1292,1292,1292,1292,1292,1288,1288,1288,1283,1278,1278,1278,1273,1273,1273,1273,1268,1268,1268,1268,1268,1264,1259,1255,1255,1255,1255,1250,1250,1250,1250,1250,1245,1241,1241,1236,1236,1236,1236,1236,1232,1232,1232,1227,1227,1227,1223,1223,1223,1219,1219,1219,1214,1214,1214,1214,1210,1210,1210,1206,1202,1202,1202,1202,1197,1197,1197,1197,1197,1193,1193,1189,1185,1185,1185,1185,1181,1181,1181,1181,1181,1181,1177,1177,1173,1173,1169,1169,1169,1169,1165,1165,1165,1161,1157,1157,1153,1153,0,0,0,0,0,0,0,0,0,0,0,0,0,0,0,0,0,0,0,0,0,0,0,0,0,0,0,0,0,0
0,0,0,0,0,0,0,0,0,0,0,0,0,1722,1722,1722,1722,1722,1722,1722,1722,1722,1722,1722,1722,1722,1722,1722,1722,1722,1722,1722,1722,1722,1722,1722,1713,1713,1713,1713,1713,1713,1713,1713,1713,1722,1713,1713,1713,1705,1705,1696,1696,1696,1696,1696,1696,1705,1705,1705,1705,1705,1705,1696,1696,1696,1696,1696,1696,1696,1696,1696,1696,1696,1696,1696,1696,1696,1696,1696,1696,1696,1696,1696,1696,1696,1696,1696,1696,1688,1688,1688,1688,1688,1688,1688,1688,1688,1688,1688,1688,1680,1680,1680,1680,1671,1671,1671,1680,1671,1671,1680,1680,1680,1680,1680,1671,1671,1671,1671,1671,1671,1671,1671,1671,1671,1671,1671,1671,1671,1680,1688,1688,1696,1696,1696,1696,1823,1823,1823,1823,1833,1833,1833,1833,1823,1823,1813,1804,1804,1804,1804,1794,1794,1794,1785,1785,1731,1696,1688,1688,1680,1680,1680,1680,1680,1688,1688,1688,1688,1696,1696,1696,1705,1705,1713,1713,1722,1722,1722,1722,1731,1731,1739,1748,1757,1757,1757,1757,1757,1757,1757,1757,1757,1766,1776,1776,1785,1794,1794,1794,1794,1794,1804,1804,1804,1804,1804,1804,1813,1813,1823,1833,1833,1843,1843,1853,1853,1853,1863,1863,1863,1873,1873,1873,1873,1883,1883,1894,1894,1894,1904,1904,1904,1904,1915,1915,1915,1915,1926,1926,1105,1105,1105,1108,1105,1105,1108,1130,1130,1126,1126,1126,1123,1123,1119,1119,1119,1119,1115,1115,1112,1112,1112,1112,1112,1115,1115,1115,1119,1119,1126,1126,1130,1130,1130,1130,1130,1134,1134,0,0,1794,1794,1794,1785,1776,1776,1776,1766,1766,1766,1766,1766,1757,1757,1757,1757,1748,1739,1739,1739,1731,1731,1731,1731,1722,1722,1722,1722,1722,1722,1713,1713,1705,1705,1696,1696,1696,1696,1696,1696,1696,1688,1688,1680,1680,1671,1671,1671,1663,1663,1663,1663,1655,1655,1647,1647,1639,1639,1639,1639,1632,1632,1632,1632,1632,1624,1624,1616,1616,1609,1609,1609,1609,1601,1601,1601,1594,1594,1586,1586,1579,1579,1579,1579,1572,1572,1572,1572,1572,1564,1543,1543,0,0,0,0,0,0,928,925,925,925,923,923,920,918,918,918,918,915,915,915,915,915,915,915,915,918,918,920,923,925,928,928,928,928,0,0,0,0,1470,1470,1464,1464,1464,1464,1464,1464,1458,1458,1458,1452,1452,1452,1445,1445,1445,1439,1439,1439,1439,1433,1433,1433,1427,1421,1421,1421,1421,1415,1415,1415,1415,1415,1415,1410,1410,1404,1404,1398,1398,1398,1392,1392,1392,1392,1392,1392,1387,1387,1387,1381,1381,1376,1376,1370,1370,1370,1370,1365,1365,1359,1359,1354,1354,1354,1354,1349,1349,1349,1343,1343,1343,1343,1338,1338,1338,1333,1333,1333,1328,1328,1328,1322,1322,1317,1317,1317,1312,1312,1312,1312,1307,1307,1307,1307,1302,1297,1297,1297,1292,1292,1292,1292,1292,1288,1288,1288,1283,1278,1278,1278,1273,1273,1273,1273,1268,1268,1268,1268,1268,1264,1259,1259,1255,1255,1255,1250,1250,1250,1250,1250,1245,1241,1241,1241,1236,1236,1236,1236,1232,1232,1232,1232,1227,1227,1227,1223,1223,1219,1219,1219,1214,1214,1214,1214,1210,1210,1210,1206,1206,1202,1202,1202,1197,1197,1197,1197,1197,1197,1193,1189,1185,1185,1181,1181,1181,1181,1181,1181,1181,1181,1177,1177,1173,1173,1173,1169,1169,1169,1165,1165,1165,1161,1157,1157,1153,1153,0,0,0,0,0,0,0,0,0,0,0,0,0,0,0,0,0,0,0,0,0,0,0,0,0,0,0,0,0,0
0,0,0,0,0,0,0,0,0,0,0,0,0,1722,1722,1722,1722,1722,1722,1722,1722,1722,1722,1722,1722,1722,1722,1722,1722,1722,1722,1722,1722,1722,1722,1722,1713,1713,1713,1713,1713,1713,1713,1713,1713,1722,1713,1713,1713,1705,1705,1705,1705,1705,1705,1705,1705,1705,1705,1705,1705,1705,1705,1696,1696,1696,1696,1696,1696,1696,1696,1696,1696,1696,1696,1696,1696,1696,1696,1696,1696,1696,1696,1696,1696,1696,1696,1696,1696,1696,1696,1688,1688,1688,1688,1688,1688,1688,1688,1688,1688,1680,1680,1680,1680,1680,1680,1680,1680,1680,1680,1680,1680,1680,1680,1680,1671,1671,1671,1671,1671,1671,1671,1671,1671,1671,1671,1671,1671,1680,1680,1688,1688,1696,1696,1696,1696,1705,1823,1833,1833,1833,1833,1833,1833,1823,1823,1813,1813,1804,1804,1804,1804,1794,1794,1794,1785,1731,1696,1696,1688,1680,1680,1680,1680,1680,1688,1688,1688,1688,1696,1696,1705,1705,1713,1713,1722,1722,1722,1731,1731,1731,1739,1739,1748,1757,1757,1757,1757,1757,1757,1757,1757,1757,1766,1776,1785,1785,1794,1794,1794,1794,1794,1804,1804,1804,1804,1813,1813,1813,1823,1833,1833,1833,1843,1843,1853,1853,1853,1863,1863,1863,1873,1873,1873,1873,1873,1883,1894,1894,1894,1904,1904,1904,1904,1090,1090,1090,1090,1097,1101,1101,1101,1105,1105,1105,1105,1105,1119,1126,1119,1119,1123,1123,1123,1119,1119,1119,1119,1115,1115,1115,1112,1112,1112,1112,1115,1115,1115,1115,1119,1119,1119,1126,1126,1130,1126,1126,1126,1126,0,0,1794,1794,1794,1785,1776,1766,1766,1766,1766,1766,1766,1766,1757,1757,1757,1757,1748,1739,1739,1739,1731,1731,1731,1731,1722,1722,1722,1722,1722,1722,1713,1713,1705,1705,1696,1696,1696,1696,1696,1696,1696,1696,1688,1680,1680,1680,1671,1671,1671,1671,1663,1663,1663,1655,1655,1647,1639,1639,1639,1639,1632,1632,1632,1632,1632,1632,1624,1616,1616,1609,1609,1609,1609,1601,1601,1601,1594,1594,1594,1586,1586,1579,1579,1579,1572,1572,1572,1572,1572,1564,1564,0,0,0,0,0,0,928,928,928,925,925,925,923,920,918,918,918,915,915,915,915,915,915,915,915,915,918,918,920,925,928,928,928,928,928,0,0,0,0,1470,1470,1470,1464,1464,1464,1464,1464,1458,1458,1458,1458,1458,1452,1452,1445,1445,1445,1439,1439,1439,1439,1433,1433,1427,1427,1421,1421,1421,1415,1415,1415,1415,1415,1415,1410,1410,1404,1404,1398,1398,1398,1392,1392,1392,1392,1392,1392,1387,1387,1387,1381,1381,1376,1376,1370,1370,1370,1370,1370,1365,1359,1359,1359,1354,1354,1354,1349,1349,1349,1349,1349,1343,1343,1338,1338,1338,1333,1333,1333,1333,1328,1328,1322,1322,1322,1317,1317,1312,1312,1312,1312,1307,1307,1307,1307,1302,1297,1297,1297,1297,1292,1292,1292,1292,1288,1288,1288,1283,1283,1283,1278,1273,1273,1273,1273,1268,1268,1268,1268,1264,1264,1259,1259,1255,1255,1255,1255,1250,1250,1250,1250,1245,1241,1241,1241,1236,1236,1236,1236,1232,1232,1232,1232,1227,1227,1227,1223,1223,1219,1219,1219,1214,1214,1214,1214,1210,1210,1210,1206,1206,1202,1202,1202,1197,1197,1197,1197,1197,1197,1193,1189,1185,1185,1181,1181,1181,1181,1181,1181,1181,1181,1177,1177,1173,1173,1173,1169,1169,1169,1165,1165,1165,1161,1161,1157,1157,1157,0,0,0,0,0,0,0,0,0,0,0,0,0,0,0,0,0,0,0,0,0,0,0,0,0,0,0,0,0,0
0,0,0,0,0,0,0,0,0,0,0,0,0,1722,1722,1722,1722,1722,1722,1722,1722,1722,1722,1722,1722,1722,1722,1722,1722,1722,1722,1722,1722,1722,1722,1713,1713,1713,1713,1713,1713,1713,1722,1722,1722,1722,1722,1722,1713,1713,1705,1705,1705,1705,1705,1705,1705,1705,1705,1705,1705,1705,1705,1705,1705,1696,1696,1696,1696,1696,1696,1696,1696,1696,1696,1696,1696,1696,1696,1696,1696,1696,1696,1696,1696,1696,1696,1696,1696,1696,1696,1688,1688,1688,1688,1688,1688,1688,1688,1688,1688,1680,1680,1680,1680,1680,1680,1680,1680,1680,1680,1680,1680,1680,1680,1680,1680,1671,1671,1671,1671,1671,1671,1671,1671,1671,1671,1671,1680,1680,1680,1688,1688,1696,1696,1696,1696,1705,1823,1823,1823,1833,1833,1833,1833,1823,1823,1813,1813,1804,1804,1804,1804,1794,1794,1794,1785,1731,1696,1696,1688,1688,1680,1680,1680,1680,1688,1688,1688,1688,1696,1696,1705,1705,1713,1713,1722,1722,1722,1731,1731,1731,1739,1739,1748,1757,1757,1757,1757,1757,1757,1757,1757,1757,1766,1776,1785,1785,1794,1794,1794,1794,1794,1804,1804,1804,1804,1813,1813,1823,1823,1833,1833,1843,1843,1853,1853,1853,1853,1863,1863,1863,1873,1873,1873,1873,1873,1883,1894,1894,1894,1094,1090,1087,1087,1087,1087,1090,1090,1090,1094,1094,1097,1097,1101,1101,1101,1101,1115,1119,1119,1119,1119,1119,1123,1119,1119,1119,1119,1115,1115,1112,1112,1112,1112,1112,1112,1112,1115,1115,1119,1115,1115,1115,1119,1119,1123,1119,1119,1119,1108,0,1794,1794,1794,1776,1776,1766,1766,1766,1766,1766,1766,1766,1757,1757,1757,1757,1748,1739,1739,1739,1731,1731,1731,1731,1722,1722,1722,1722,1722,1722,1713,1713,1713,1705,1696,1696,1696,1696,1696,1696,1696,1696,1688,1688,1680,1680,1671,1671,1671,1671,1663,1663,1663,1663,1655,1647,1639,1639,1639,1639,1632,1632,1632,1632,1632,1632,1624,1616,1616,1616,1609,1609,1609,1601,1601,1601,1601,1594,1594,1594,1586,1586,1579,1579,1579,1579,1579,1572,1572,1572,1572,0,0,0,0,0,0,928,928,928,925,925,925,923,920,918,918,918,915,915,915,915,915,915,915,915,915,918,918,923,925,928,928,928,928,928,0,0,0,1483,1477,1477,1470,1470,1464,1464,1464,1464,1464,1458,1458,1458,1458,1452,1452,1445,1445,1445,1439,1439,1439,1439,1433,1433,1427,1427,1421,1421,1421,1415,1415,1415,1415,1415,1415,1410,1410,1404,1404,1398,1398,1398,1392,1392,1392,1392,1392,1392,1387,1387,1387,1381,1381,1376,1376,1370,1370,1370,1370,1370,1365,1365,1359,1359,1359,1354,1354,1354,1349,1349,1349,1349,1343,1343,1338,1338,1338,1333,1333,1333,1333,1328,1328,1328,1322,1322,1317,1317,1317,1312,1312,1312,1307,1307,1307,1307,1302,1302,1297,1297,1297,1292,1292,1292,1288,1288,1288,1288,1283,1283,1283,1278,1273,1273,1273,1273,1268,1268,1268,1268,1264,1264,1259,1259,1255,1255,1255,1255,1250,1250,1250,1250,1245,1241,1241,1241,1236,1236,1236,1236,1232,1232,1232,1232,1227,1227,1227,1227,1223,1223,1219,1219,1214,1214,1214,1214,1210,1210,1210,1206,1206,1202,1202,1202,1202,1197,1197,1197,1197,1197,1189,1189,1185,1185,1181,1181,1181,1181,1181,1181,1181,1181,1181,1177,1173,1173,1173,1169,1169,1169,1165,1165,1165,1165,1161,1161,1157,1157,0,0,0,0,0,0,0,0,0,0,0,0,0,0,0,0,0,0,0,0,0,0,0,0,0,0,0,0,0,0
0,0,0,0,0,0,0,0,0,0,0,0,0,1722,1722,1722,1722,1722,1722,1722,1722,1722,1722,1722,1722,1722,1722,1722,1722,1722,1722,1722,1722,1722,1722,1713,1713,1713,1713,1713,1713,1713,1722,1722,1722,1722,1722,1722,1713,1713,1713,1713,1713,1705,1705,1705,1705,1705,1705,1713,1705,1705,1705,1705,1705,1705,1696,1696,1696,1696,1696,1696,1696,1696,1696,1696,1696,1696,1696,1696,1696,1696,1696,1696,1696,1696,1696,1696,1696,1696,1696,1688,1688,1688,1688,1688,1688,1688,1688,1688,1688,1688,1680,1680,1680,1680,1680,1680,1680,1680,1680,1680,1680,1680,1680,1680,1680,1680,1671,1671,1671,1671,1671,1671,1671,1671,1671,1671,1680,1680,1688,1688,1688,1696,1696,1696,1696,1705,1823,1823,1823,1823,1823,1833,1833,1833,1823,1823,1823,1804,1804,1804,1804,1794,1794,1794,1785,1731,1696,1696,1688,1688,1680,1680,1680,1680,1688,1688,1688,1688,1696,1696,1705,1705,1713,1713,1722,1722,1722,1731,1731,1731,1739,1748,1748,1757,1757,1757,1757,1757,1757,1766,1766,1766,1766,1776,1785,1785,1794,1794,1794,1794,1804,1804,1804,1804,1804,1813,1813,1823,1823,1833,1833,1843,1843,1853,1853,1853,1853,1863,1863,1863,1873,1873,1873,1873,1883,1883,1894,1894,1894,1090,1087,1084,1084,1084,1084,1087,1087,1087,1090,1090,1094,1097,1097,1097,1097,1097,1101,1101,1105,1108,1119,1119,1119,1119,1119,1119,1119,1115,1115,1112,1105,1105,1108,1105,1105,1105,1108,1112,1115,1115,1112,1112,1112,1115,1112,1112,1108,1108,1108,1101,1794,1794,1794,1776,1776,1766,1766,1766,1766,1766,1766,1766,1757,1757,1757,1757,1748,1748,1739,1739,1739,1731,1731,1731,1731,1722,1722,1722,1722,1722,1722,1713,1713,1705,1696,1696,1696,1696,1696,1696,1696,1696,1696,1688,1688,1680,1671,1671,1671,1671,1671,1663,1663,1663,1655,1655,1647,1639,1639,1639,1639,1632,1632,1632,1632,1632,1624,1624,1616,1616,1609,1609,1609,1601,1601,1601,1601,1594,1594,1594,1586,1586,1579,1579,1579,1579,1579,1579,1572,1572,1572,0,0,0,0,0,928,928,928,928,928,925,925,923,920,918,918,918,918,915,915,915,915,915,915,915,915,918,920,925,928,928,928,928,0,0,0,0,0,1483,1477,1477,1470,1470,1470,1464,1464,1464,1464,1464,1464,1458,1458,1452,1452,1445,1445,1445,1439,1439,1439,1439,1433,1433,1427,1427,1427,1421,1421,1421,1421,1415,1415,1415,1415,1410,1410,1404,1404,1398,1398,1398,1398,1392,1392,1392,1392,1392,1392,1387,1387,1381,1381,1376,1376,1370,1370,1370,1370,1365,1365,1365,1365,1359,1359,1354,1354,1354,1354,1349,1349,1349,1343,1343,1338,1338,1333,1333,1333,1333,1333,1328,1328,1328,1322,1322,1317,1317,1317,1312,1312,1312,1307,1307,1307,1307,1307,1302,1297,1297,1297,1292,1292,1292,1288,1288,1288,1288,1283,1283,1278,1278,1273,1273,1273,1273,1268,1268,1268,1268,1264,1264,1259,1259,1255,1255,1255,1255,1250,1250,1250,1250,1245,1245,1241,1241,1241,1236,1236,1236,1232,1232,1232,1232,1232,1227,1227,1227,1223,1223,1219,1219,1214,1214,1214,1214,1210,1210,1210,1206,1206,1206,1202,1202,1202,1202,1197,1197,1197,1197,1189,1189,1185,1185,1181,1181,1181,1181,1181,1181,1181,1181,1181,1177,1173,1173,1173,1169,1169,1169,1169,1165,1165,1165,1165,1161,1161,1161,0,0,0,0,0,0,0,0,0,0,0,0,0,0,0,0,0,0,0,0,0,0,0,0,0,0,0,0,0,0
0,0,0,0,0,0,0,0,0,0,0,0,0,1722,1722,1722,1722,1722,1722,1722,1722,1722,1722,1722,1722,1722,1722,1722,1722,1722,1722,1722,1722,1722,1722,1722,1722,1722,1713,1713,1713,1713,1722,1722,1722,1722,1722,1722,1713,1713,1713,1713,1713,1705,1705,1705,1705,1713,1713,1713,1705,1705,1705,1705,1705,1705,1696,1696,1696,1696,1696,1696,1696,1696,1696,1696,1696,1696,1696,1696,1696,1696,1696,1696,1696,1696,1696,1696,1696,1696,1696,1688,1688,1688,1688,1688,1688,1688,1688,1688,1688,1688,1688,1688,1680,1680,1680,1680,1680,1680,1680,1680,1680,1680,1680,1680,1680,1680,1671,1671,1671,1671,1671,1671,1671,1671,1671,1671,1680,1680,1688,1688,1688,1696,1696,1696,1696,1823,1823,1823,1823,1823,1823,1833,1833,1833,1823,1823,1823,1813,1804,1804,1804,1794,1794,1794,1785,1722,1696,1696,1688,1688,1688,1680,1680,1688,1688,1688,1688,1688,1696,1696,1705,1705,1713,1713,1722,1722,1731,1731,1731,1739,1748,1748,1748,1757,1757,1757,1757,1757,1757,1757,1766,1766,1776,1776,1785,1785,1785,1794,1794,1794,1804,1804,1804,1804,1804,1813,1813,1823,1823,1833,1833,1843,1843,1853,1853,1853,1863,1863,1873,1873,1873,1873,1883,1883,1883,1883,1894,1894,1087,1087,1087,1084,1080,1080,1080,1084,1087,1087,1087,1087,1090,1090,1094,1097,1097,1097,1101,1101,1105,1105,1119,1115,1115,1115,1115,1119,1115,1115,1112,1112,1105,1105,1108,1105,1101,1101,1101,1101,1105,1101,1101,1105,1105,1105,1105,1105,1101,1101,1101,1101,1804,1804,1794,1776,1776,1766,1766,1766,1766,1766,1766,1766,1757,1757,1757,1757,1757,1748,1748,1739,1739,1731,1731,1731,1731,1722,1722,1722,1722,1722,1722,1713,1713,1705,1696,1696,1696,1696,1696,1696,1696,1696,1696,1688,1680,1680,1671,1671,1671,1671,1671,1663,1663,1663,1663,1655,1647,1647,1639,1639,1639,1639,1632,1632,1632,1632,1624,1624,1616,1616,1609,1609,1609,1601,1601,1601,1601,1594,1594,1594,1594,1586,1586,1579,1579,1579,1579,1579,1572,1572,0,0,0,0,0,0,928,928,928,928,928,925,925,923,920,918,918,918,918,918,915,915,915,915,915,918,918,920,923,925,928,928,930,930,0,0,0,0,1489,1483,1477,1477,1470,1470,1470,1464,1464,1464,1464,1464,1464,1464,1458,1452,1452,1445,1445,1445,1439,1439,1439,1439,1433,1433,1433,1427,1427,1427,1421,1421,1421,1421,1415,1415,1410,1410,1410,1404,1404,1398,1398,1398,1398,1392,1392,1392,1392,1392,1392,1387,1387,1381,1381,1376,1376,1376,1376,1370,1370,1365,1365,1365,1365,1359,1359,1359,1354,1354,1354,1349,1349,1349,1349,1343,1338,1338,1333,1333,1333,1333,1333,1333,1328,1328,1322,1322,1322,1322,1317,1312,1312,1312,1312,1307,1307,1307,1307,1302,1302,1297,1297,1292,1292,1292,1288,1288,1288,1288,1283,1283,1278,1278,1273,1273,1273,1273,1268,1268,1268,1268,1264,1264,1259,1259,1255,1255,1255,1255,1250,1250,1250,1250,1245,1245,1241,1241,1241,1241,1236,1236,1232,1232,1232,1232,1232,1227,1227,1227,1223,1223,1219,1219,1214,1214,1214,1214,1210,1210,1210,1206,1206,1206,1202,1202,1202,1202,1197,1197,1197,1197,1193,1189,1189,1185,1185,1181,1181,1181,1181,1181,1181,1181,1181,1177,1177,1173,1173,1169,1169,1169,1169,1165,1165,1165,1165,1165,1161,1161,0,0,0,0,0,0,0,0,0,0,0,0,0,0,0,0,0,0,0,0,0,0,0,0,0,0,0,0,0,0
0,0,0,0,0,0,0,0,0,0,0,0,0,1722,1722,1722,1722,1722,1722,1722,1722,1731,1731,1731,1731,1731,1731,1731,1731,1731,1731,1731,1731,1722,1722,1722,1722,1722,1713,1713,1722,1722,1722,1722,1722,1722,1722,1722,1713,1713,1713,1713,1713,1713,1713,1713,1713,1713,1713,1713,1713,1713,1705,1705,1705,1705,1705,1705,1705,1705,1705,1705,1705,1705,1696,1696,1696,1696,1696,1696,1696,1696,1696,1696,1696,1696,1696,1696,1688,1688,1696,1688,1688,1688,1688,1688,1688,1688,1688,1688,1688,1688,1688,1688,1680,1680,1680,1680,1680,1680,1680,1680,1688,1688,1688,1680,1680,1680,1680,1680,1671,1671,1671,1671,1671,1671,1671,1671,1671,1680,1680,1688,1688,1696,1696,1696,1705,1823,1823,1823,1823,1823,1833,1833,1833,1833,1833,1833,1823,1813,1804,1804,1804,1804,1794,1794,1785,1722,1696,1696,1696,1688,1688,1688,1688,1688,1688,1688,1688,1696,1696,1705,1705,1713,1713,1722,1722,1722,1731,1731,1739,1739,1748,1748,1748,1757,1757,1757,1757,1757,1757,1757,1766,1766,1766,1776,1776,1785,1785,1785,1794,1794,1804,1804,1804,1813,1813,1813,1813,1823,1833,1833,1833,1843,1853,1863,1863,1863,1057,1057,1057,1060,1873,1883,1070,1070,1073,1073,1073,1073,1080,1080,1084,1080,1080,1080,1080,1080,1084,1084,1084,1087,1087,1087,1090,1090,1090,1090,1101,1101,1105,1105,1115,1115,1115,1115,1115,1087,1087,1105,1105,1105,1105,1105,1105,1101,1101,1101,1101,1101,1097,1097,1097,1097,1097,1097,1097,1097,1097,1097,1094,1094,1094,1094,1776,1776,1776,1766,1766,1766,1766,1766,1766,1766,1757,1757,1757,1757,1757,1748,1748,1739,1739,1731,1731,1731,1731,1731,1722,1722,1722,1722,1722,1713,1713,1705,1696,1696,1696,1696,1696,1696,1696,1696,1696,1688,1680,1680,1671,1671,1671,1671,1671,1663,1663,1663,1663,1655,1647,1647,1639,1639,1639,1639,1639,1639,1632,1632,1624,1624,1616,1616,1609,1609,1609,1601,1601,1601,1594,1594,1594,1594,1594,1586,1586,1579,1579,1579,1579,1579,1572,1572,0,0,0,0,0,928,928,928,928,928,928,925,925,923,920,918,918,918,918,918,915,915,915,918,918,918,918,920,925,925,928,930,930,0,0,0,0,0,1483,1483,1477,1477,1470,1470,1470,1470,1464,1464,1464,1464,1464,1464,1458,1452,1452,1445,1445,1445,1439,1439,1439,1439,1433,1433,1433,1427,1427,1427,1427,1421,1421,1421,1415,1415,1410,1410,1410,1404,1404,1404,1398,1398,1398,1398,1392,1392,1392,1392,1392,1387,1387,1381,1381,1376,1376,1376,1376,1370,1370,1365,1365,1365,1365,1365,1359,1359,1354,1354,1354,1354,1349,1349,1349,1343,1338,1338,1333,1333,1333,1333,1333,1333,1328,1328,1328,1322,1322,1322,1317,1317,1312,1312,1312,1312,1307,1307,1307,1307,1302,1297,1297,1297,1292,1292,1288,1288,1288,1288,1283,1283,1278,1278,1273,1273,1273,1273,1268,1268,1268,1268,1268,1264,1264,1259,1259,1255,1255,1255,1250,1250,1250,1250,1250,1245,1245,1245,1245,1241,1236,1236,1236,1236,1232,1232,1232,1227,1227,1227,1223,1223,1219,1219,1219,1214,1214,1214,1210,1210,1210,1206,1206,1206,1206,1202,1202,1202,1197,1197,1197,1197,1193,1189,1189,1185,1185,1185,1181,1181,1181,1181,1181,1181,1181,1177,1177,1173,1173,1169,1169,1169,1169,1169,1165,1165,1165,1165,1161,1161,0,0,0,0,0,0,0,0,0,0,0,0,0,0,0,0,0,0,0,0,0,0,0,0,0,0,0,0,0,0
0,0,0,0,0,0,0,0,0,0,0,0,0,1722,1722,1731,1731,1731,1731,1731,1731,1731,1731,1731,1731,1731,1722,1722,1731,1731,1731,1731,1731,1731,1722,1722,1722,1722,1722,1722,1722,1722,1722,1722,1722,1722,1722,1722,1713,1713,1713,1713,1713,1705,1705,1713,1713,1713,1713,1713,1713,1713,1705,1705,1705,1705,1705,1705,1705,1705,1705,1705,1705,1705,1705,1696,1696,1696,1696,1696,1696,1696,1696,1696,1696,1696,1696,1688,1688,1688,1696,1688,1688,1688,1696,1696,1688,1688,1688,1688,1688,1688,1688,1688,1680,1680,1680,1671,1671,1671,1680,1680,1688,1688,1688,1688,1688,1680,1680,1680,1680,1671,1671,1671,1671,1671,1671,1671,1671,1680,1680,1688,1688,1696,1696,1696,1705,1823,1823,1823,1823,1823,1823,1833,1833,1833,1833,1833,1823,1813,1804,1804,1804,1804,1794,1794,1785,1713,1696,1696,1696,1688,1688,1688,1688,1688,1688,1688,1696,1696,1696,1705,1705,1713,1722,1722,1722,1731,1731,1731,1731,1739,1748,1748,1748,1748,1748,1748,1757,1757,1757,1757,1757,1766,1766,1776,1776,1785,1785,1785,1794,1794,1804,1804,1047,1047,1050,1813,1813,1823,1833,1843,1843,1853,1057,1057,1057,1054,1054,1057,1057,1057,1060,1060,1060,1060,1063,1063,1067,1070,1073,1077,1080,1077,1077,1077,1077,1077,1080,1080,1080,1084,1080,1080,1084,1084,1084,1080,1067,1067,1105,1063,1063,1063,1063,1084,1084,1077,1077,1077,1105,1105,1105,1105,1101,1101,1094,1094,1094,1094,1090,1087,1080,1067,1067,1070,1087,1087,1090,1094,1094,1090,1090,1090,1090,1090,1090,1090,1090,1757,1757,1757,1757,1766,1766,1757,1757,1757,1757,1757,1748,1739,1739,1739,1731,1731,1731,1731,1731,1722,1722,1722,1722,1713,1713,1705,1696,1696,1696,1696,1705,1696,1696,1696,1696,1688,1688,1688,1680,1671,1671,1671,1671,1671,1663,1663,1663,1655,1647,1647,1639,1639,1639,1639,1639,1639,1632,1632,1624,1624,1624,1616,1609,1609,1609,1601,1601,1601,1594,1594,1594,1594,1594,1594,1586,1579,1579,1579,1579,1579,1579,0,0,0,0,0,0,928,928,928,928,928,928,925,925,923,920,920,918,918,918,918,915,915,918,915,915,918,918,923,925,928,930,930,930,0,0,0,0,0,1483,1477,1477,1477,1477,1477,1470,1470,1470,1464,1464,1464,1464,1464,1458,1452,1452,1445,1445,1445,1439,1439,1439,1439,1433,1433,1433,1427,1427,1427,1427,1421,1421,1421,1415,1415,1415,1415,1410,1410,1404,1404,1398,1398,1398,1398,1392,1392,1392,1392,1392,1387,1387,1381,1381,1376,1376,1376,1376,1370,1370,1370,1365,1365,1365,1365,1359,1359,1359,1354,1354,1354,1354,1349,1349,1343,1338,1338,1333,1333,1333,1333,1333,1333,1328,1328,1328,1322,1322,1322,1317,1317,1317,1312,1312,1312,1307,1307,1307,1307,1302,1297,1297,1297,1292,1292,1288,1288,1288,1288,1283,1283,1278,1278,1273,1273,1273,1273,1273,1273,1268,1268,1268,1264,1264,1259,1255,1255,1255,1255,1250,1250,1250,1250,1250,1250,1245,1245,1245,1241,1241,1236,1236,1236,1236,1232,1232,1227,1227,1227,1223,1223,1223,1219,1219,1219,1214,1214,1214,1214,1210,1210,1210,1210,1206,1202,1202,1202,1202,1197,1197,1197,1193,1189,1189,1185,1185,1185,1185,1181,1181,1181,1181,1181,1181,1181,1177,1177,1173,1169,1169,1169,1169,1169,1165,1165,1165,1165,1165,1165,0,0,0,0,0,0,0,0,0,0,0,0,0,0,0,0,0,0,0,0,0,0,0,0,0,0,0,0,0,0
0,0,0,0,0,0,0,0,0,0,0,0,0,1722,1722,1731,1731,1731,1731,1731,1731,1731,1731,1731,1722,1722,1722,1722,1722,1722,1722,1722,1731,1731,1722,1722,1722,1722,1722,1722,1722,1722,1722,1722,1722,1722,1722,1722,1713,1713,1713,1713,1713,1705,1705,1713,1713,1713,1713,1713,1713,1705,1705,1705,1705,1705,1705,1705,1705,1705,1705,1705,1705,1705,1705,1705,1696,1696,1696,1696,1696,1696,1696,1696,1696,1696,1696,1688,1688,1688,1696,1696,1696,1696,1696,1696,1696,1696,1696,1696,1688,1688,1688,1688,1680,1680,1680,1671,1671,1671,1680,1680,1688,1688,1688,1688,1688,1688,1688,1688,1680,1680,1680,1680,1671,1671,1671,1671,1671,1680,1680,1688,1688,1696,1696,1696,1705,1823,1823,1823,1823,1823,1823,1833,1833,1833,1823,1823,1823,1813,1804,1804,1804,1804,1794,1794,1785,1713,1696,1696,1696,1696,1688,1688,1688,1688,1688,1688,1696,1696,1696,1705,1713,1713,1722,1722,1722,1731,1731,1731,1731,1739,1748,1748,1748,1748,1748,1748,1757,1757,1757,1757,1757,1757,1766,1776,1776,1785,1785,1785,1794,1794,1804,1041,1041,1047,1047,1050,1050,1050,1044,1044,1044,1047,1050,1054,1054,1054,1054,1057,1057,1057,1060,1060,1060,1060,1060,1060,1060,1063,1063,1063,1073,1073,1073,1073,1073,1073,1073,1073,1077,1077,1077,1077,1077,1077,1077,1063,1063,1060,1060,1063,1063,1063,1063,1084,1084,1070,1070,1070,1063,1063,1063,1063,1063,1090,1090,1090,1087,1087,1080,1080,1077,1067,1067,1067,1063,1063,1087,1090,1090,1087,1087,1084,1084,1087,1084,1080,1080,1084,1067,1067,1067,1766,1766,1757,1757,1748,1748,1748,1748,1739,1739,1739,1731,1731,1731,1731,1731,1722,1722,1722,1722,1713,1713,1705,1696,1696,1696,1696,1705,1696,1696,1696,1696,1688,1688,1688,1680,1680,1671,1671,1671,1671,1671,1663,1663,1655,1655,1647,1647,1639,1639,1639,1639,1639,1632,1632,1624,1624,1624,1616,1609,1609,1609,1601,1601,1601,1601,1594,1594,1594,1594,1594,1586,1586,1579,1579,1579,1579,1579,0,0,0,0,0,0,928,928,928,928,928,928,925,925,923,920,920,918,918,918,918,915,915,918,915,915,918,918,923,925,928,930,933,933,935,0,0,0,0,1477,1477,1477,1477,1470,1470,1470,1470,1470,1464,1464,1464,1464,1464,1458,1452,1445,1445,1445,1445,1439,1439,1439,1439,1433,1433,1433,1433,1433,1427,1427,1421,1421,1421,1415,1415,1415,1415,1410,1410,1404,1404,1404,1398,1398,1398,1392,1392,1392,1392,1392,1387,1387,1381,1381,1376,1376,1376,1376,1370,1370,1370,1370,1365,1365,1365,1365,1359,1359,1354,1354,1354,1354,1349,1349,1343,1338,1338,1338,1333,1333,1333,1333,1333,1328,1328,1328,1328,1322,1322,1317,1317,1317,1317,1312,1312,1307,1307,1307,1307,1302,1302,1297,1297,1297,1292,1292,1288,1288,1288,1288,1283,1278,1278,1273,1273,1273,1273,1273,1273,1268,1268,1268,1268,1264,1259,1255,1255,1255,1255,1250,1250,1250,1250,1250,1250,1245,1245,1245,1241,1241,1236,1236,1236,1236,1232,1232,1227,1227,1227,1227,1223,1223,1219,1219,1219,1214,1214,1214,1214,1214,1210,1210,1210,1206,1202,1202,1202,1202,1202,1197,1197,1197,1189,1189,1185,1185,1185,1185,1185,1185,1185,1181,1181,1181,1181,1177,1177,1177,1173,1173,1169,1169,1169,1169,1165,1165,1165,1165,1165,0,0,0,0,0,0,0,0,0,0,0,0,0,0,0,0,0,0,0,0,0,0,0,0,0,0,0,0,0,0
0,0,0,0,0,0,0,0,0,0,0,0,0,1731,1731,1731,1731,1731,1731,1731,1731,1731,1731,1731,1722,1722,1722,1722,1722,1722,1722,1722,1731,1731,1722,1722,1722,1722,1722,1722,1722,1722,1731,1722,1722,1722,1722,1722,1722,1713,1713,1713,1722,1713,1713,1713,1713,1713,1713,1713,1713,1705,1705,1705,1705,1705,1705,1705,1705,1713,1713,1705,1705,1705,1705,1705,1705,1705,1705,1705,1696,1696,1696,1696,1696,1696,1696,1696,1696,1696,1696,1696,1696,1696,1696,1696,1696,1696,1696,1696,1688,1688,1688,1688,1680,1680,1680,1671,1671,1680,1680,1680,1688,1688,1688,1688,1688,1688,1688,1688,1680,1680,1680,1680,1680,1671,1671,1671,1671,1680,1680,1688,1688,1696,1696,1696,1705,1833,1823,1823,1823,1823,1833,1833,1833,1833,1823,1823,1823,1813,1804,1804,1804,1804,1794,1794,1785,1705,1696,1696,1696,1696,1688,1688,1688,1688,1688,1688,1696,1696,1696,1705,1705,1713,1713,1713,1722,1731,1731,1731,1731,1739,1748,1739,1739,1748,1748,1748,1748,1757,1757,1757,1757,1757,1766,1776,1776,1785,1785,1785,1794,1025,1025,1025,1031,1044,1044,1047,1047,1047,1044,1041,1041,1047,1047,1050,1050,1050,1050,1054,1054,1057,1057,1057,1060,1060,1054,1054,1054,1050,1050,1050,1050,1070,1070,1070,1070,1070,1073,1073,1070,1070,1073,1063,1063,1063,1063,1063,1063,1060,1060,1060,1060,1060,1060,1063,1063,1060,1060,1054,1054,1050,1050,1054,1057,1060,1084,1084,1084,1080,1077,1077,1073,1067,1067,1067,1063,1063,1063,1084,1084,1080,1080,1077,1077,1073,1073,1067,1063,1063,1063,1063,1063,1063,1067,1067,1067,1067,1748,1748,1739,1739,1739,1739,1731,1731,1731,1731,1731,1731,1722,1722,1722,1722,1713,1705,1696,1696,1696,1696,1705,1696,1696,1696,1696,1696,1688,1688,1680,1680,1671,1671,1671,1671,1671,1663,1663,1655,1655,1647,1647,1639,1639,1639,1639,1639,1632,1632,1632,1624,1624,1616,1609,1609,1609,1601,1601,1601,1601,1601,1594,1594,1594,1586,1586,1586,1579,1579,1579,1579,1579,0,0,0,0,0,0,928,928,928,928,928,928,925,925,923,920,920,918,918,918,918,918,918,918,918,918,918,920,923,928,928,930,933,933,935,0,0,0,0,1470,1470,1470,1470,1470,1470,1470,1470,1470,1470,1464,1464,1464,1458,1452,1452,1445,1445,1445,1445,1439,1439,1439,1439,1439,1439,1433,1433,1433,1427,1427,1421,1421,1421,1415,1415,1415,1415,1415,1410,1410,1404,1398,1398,1398,1398,1392,1392,1392,1392,1392,1387,1387,1381,1381,1381,1376,1376,1376,1376,1370,1370,1370,1365,1365,1365,1359,1359,1359,1354,1354,1354,1354,1349,1349,1349,1343,1343,1338,1338,1333,1333,1333,1333,1328,1328,1328,1328,1322,1322,1317,1317,1317,1317,1312,1312,1307,1307,1307,1307,1302,1302,1297,1297,1297,1292,1292,1288,1288,1288,1288,1283,1283,1278,1273,1273,1273,1273,1273,1273,1268,1268,1268,1268,1264,1259,1259,1255,1255,1255,1255,1250,1250,1250,1250,1250,1250,1245,1245,1241,1241,1241,1236,1236,1236,1232,1232,1232,1227,1227,1227,1223,1223,1223,1219,1219,1219,1219,1214,1214,1214,1210,1210,1210,1206,1206,1206,1202,1202,1202,1202,1197,1197,1193,1193,1189,1189,1185,1185,1185,1185,1185,1181,1181,1181,1181,1177,1177,1177,1173,1173,1169,1169,1169,1169,1169,1165,1165,1165,1165,0,0,0,0,0,0,0,0,0,0,0,0,0,0,0,0,0,0,0,0,0,0,0,0,0,0,0,0,0,0
0,0,0,0,0,0,0,0,0,0,0,0,0,1731,1731,1731,1731,1731,1731,1731,1731,1731,1731,1731,1722,1722,1722,1722,1722,1731,1731,1731,1731,1731,1731,1731,1722,1722,1722,1722,1722,1722,1731,1722,1722,1722,1722,1722,1722,1722,1722,1722,1722,1713,1713,1713,1713,1713,1713,1713,1713,1713,1713,1705,1705,1705,1705,1705,1705,1713,1713,1713,1713,1713,1705,1705,1705,1705,1705,1705,1696,1696,1696,1696,1696,1696,1696,1696,1696,1696,1696,1696,1696,1696,1696,1696,1696,1696,1696,1696,1696,1688,1688,1688,1680,1680,1680,1680,1680,1680,1680,1680,1688,1688,1688,1688,1688,1688,1688,1688,1688,1680,1680,1680,1680,1680,1680,1680,1680,1680,1688,1688,1688,1696,1696,1705,1705,1833,1823,1823,1823,1823,1833,1833,1833,1833,1833,1833,1833,1813,1804,1804,1804,1804,1794,1794,1785,1705,1705,1696,1696,1696,1696,1688,1688,1688,1688,1688,1696,1696,1696,1705,1705,1713,1713,1713,1713,1722,1722,1722,1731,1739,1748,1739,1739,1748,1748,1016,1013,1013,1010,1010,1010,1013,1010,1010,1010,1013,1016,1022,1025,1025,1025,1025,1025,1025,1034,1038,1044,1044,1038,1038,1038,1044,1044,1047,1047,1047,1050,1054,1054,1057,1054,1054,1057,1041,1041,1044,1041,1041,1044,1044,1047,1047,1047,1047,1047,1050,1054,1060,1057,1057,1057,1060,1060,1060,1060,1057,1057,1057,1057,1057,1057,1057,1060,1050,1050,1050,1054,1050,1050,1050,1050,1054,1054,1054,1084,1084,1084,1077,1073,1073,1063,1063,1063,1063,1063,1063,1060,1060,1084,1077,1063,1063,1067,1063,1063,1063,1063,1063,1063,1063,1063,1063,1063,1063,1063,1067,1067,1063,1063,1063,1739,1739,1739,1739,1739,1731,1731,1731,1731,1731,1722,1722,1713,1713,1705,1696,1696,1696,1705,1696,1696,1696,1696,1696,1688,1688,1680,1680,1671,1671,1671,1671,1671,1663,1663,1663,1655,1647,1647,1639,1639,1639,1639,1639,1639,1632,1632,1624,1624,1616,1609,1609,1609,1601,1601,1601,1601,1601,1601,1594,1594,1586,1586,1586,1579,1579,1579,1579,1579,0,0,0,0,0,0,928,928,928,928,928,928,925,925,923,920,920,918,918,918,918,918,918,918,918,918,918,920,925,928,930,933,935,935,935,935,0,0,0,1470,1470,1470,1470,1470,1470,1470,1470,1470,1470,1464,1464,1464,1458,1452,1452,1445,1445,1445,1445,1445,1439,1439,1439,1439,1439,1433,1433,1433,1427,1427,1427,1421,1421,1421,1415,1415,1415,1415,1410,1410,1404,1398,1398,1398,1398,1392,1392,1392,1392,1392,1392,1387,1387,1381,1381,1376,1376,1376,1376,1370,1370,1370,1365,1365,1365,1359,1359,1359,1354,1354,1354,1354,1349,1349,1349,1343,1343,1338,1338,1333,1333,1333,1333,1328,1328,1328,1328,1328,1322,1322,1317,1317,1317,1317,1312,1312,1307,1307,1307,1307,1302,1297,1297,1297,1292,1292,1288,1288,1288,1288,1288,1283,1283,1278,1278,1273,1273,1273,1273,1268,1268,1268,1268,1264,1264,1259,1255,1255,1255,1255,1255,1250,1250,1250,1250,1250,1245,1241,1241,1241,1241,1236,1236,1236,1232,1232,1232,1227,1227,1227,1223,1223,1219,1219,1219,1219,1219,1219,1214,1214,1214,1210,1210,1206,1206,1206,1202,1202,1202,1202,1197,1197,1197,1193,1193,1189,1185,1185,1185,1185,1185,1185,1181,1181,1181,1181,1177,1177,1177,1173,1169,1169,1169,1169,1165,1165,1165,1165,1165,0,0,0,0,0,0,0,0,0,0,0,0,0,0,0,0,0,0,0,0,0,0,0,0,0,0,0,0,0,0
0,0,0,0,0,0,0,0,0,0,0,0,0,1731,1731,1731,1731,1731,1731,1731,1731,1731,1731,1722,1722,1722,1722,1722,1722,1731,1731,1731,1731,1731,1731,1731,1731,1731,1731,1731,1731,1731,1731,1722,1722,1722,1722,1722,1722,1722,1722,1722,1722,1722,1713,1713,1713,1713,1713,1713,1713,1713,1713,1705,1705,1713,1713,1713,1713,1713,1713,1722,1722,1713,1713,1713,1705,1705,1705,1705,1696,1696,1696,1696,1696,1696,1696,1696,1696,1696,1696,1696,1696,1696,1696,1696,1696,1696,1696,1696,1696,1688,1688,1688,1688,1688,1688,1680,1680,1688,1688,1688,1688,1688,1688,1688,1688,1688,1688,1688,1688,1688,1680,1680,1680,1680,1680,1671,1671,1680,1680,1688,1696,1696,1705,1705,1705,1833,1823,1823,1823,1823,1833,1833,1833,1833,1833,1833,1823,1813,1813,1813,1804,1804,1804,1794,1785,1713,1705,1696,1696,1696,1696,1696,1696,1696,1696,1696,1696,1696,1688,1688,998,998,1001,1001,1713,1713,1722,1004,1004,1739,1748,1010,1010,1010,1010,1010,1013,1010,1010,1010,1010,1013,1010,1010,1010,1013,1016,1019,1022,1022,1022,1022,1025,1025,1028,1028,1034,1034,1034,1031,1031,1038,1038,1041,1044,1044,1044,1047,1038,1038,1041,1041,1038,1038,1038,1034,1031,1031,1031,1031,1034,1034,1044,1044,1044,1044,1044,1044,1044,1041,1041,1041,1047,1050,1054,1050,1050,1054,1054,1054,1050,1050,1050,1044,1044,1044,1047,1047,1047,1050,1050,1050,1054,1054,1054,1050,1050,1050,1073,1060,1060,1060,1060,1060,1060,1047,1047,1047,1047,1050,1050,1057,1060,1063,1060,1060,1060,1060,1060,1060,1063,1063,1063,1063,1063,1063,1067,1063,1063,1063,1067,1067,1067,1739,1739,1731,1731,1731,1731,1731,1722,1722,1713,1713,1705,1696,1696,1696,1705,1696,1696,1696,1696,1696,1688,1688,1680,1680,1671,1671,1671,1671,1671,1663,1663,1655,1655,1647,1647,1639,1639,1639,1639,1639,1639,1632,1632,1632,1624,1616,1609,1609,1609,1609,1601,1601,1601,1601,1601,1594,1594,1594,1586,1586,1579,1579,1579,1579,1586,0,0,0,0,0,0,930,928,928,928,928,928,925,925,923,920,920,918,918,918,918,918,918,918,918,918,920,923,925,928,930,933,935,935,935,0,0,0,0,1470,1470,1470,1470,1470,1470,1470,1470,1470,1470,1464,1464,1464,1464,1452,1452,1452,1445,1445,1445,1445,1439,1439,1439,1439,1439,1433,1433,1433,1427,1421,1421,1421,1421,1421,1415,1415,1415,1415,1410,1410,1404,1404,1398,1398,1398,1392,1392,1392,1392,1392,1392,1387,1387,1387,1381,1376,1376,1376,1370,1370,1370,1370,1370,1365,1365,1359,1359,1359,1354,1354,1354,1354,1349,1349,1349,1343,1343,1338,1338,1333,1333,1333,1333,1333,1333,1328,1328,1328,1322,1322,1322,1322,1317,1317,1312,1312,1312,1307,1307,1307,1302,1302,1297,1292,1292,1292,1288,1288,1288,1288,1288,1283,1283,1278,1278,1273,1273,1273,1273,1268,1268,1268,1268,1268,1264,1259,1259,1259,1255,1255,1255,1250,1250,1250,1250,1250,1245,1241,1241,1241,1241,1236,1236,1236,1236,1232,1232,1232,1227,1227,1223,1223,1219,1219,1219,1219,1219,1219,1214,1214,1214,1214,1210,1210,1206,1206,1202,1202,1202,1202,1197,1197,1197,1193,1193,1193,1189,1189,1185,1185,1185,1185,1185,1181,1181,1181,1177,1177,1177,1173,1169,1169,1169,1169,1165,1165,1165,1165,1165,0,0,0,0,0,0,0,0,0,0,0,0,0,0,0,0,0,0,0,0,0,0,0,0,0,0,0,0,0,0
0,0,0,0,0,0,0,0,0,0,0,0,0,1731,1731,1731,1731,1731,1731,1731,1731,1731,1731,1722,1722,1722,1722,1722,1731,1731,1731,1731,1731,1731,1731,1731,1731,1731,1731,1731,1731,1731,1731,1722,1722,1731,1722,1722,1722,1722,1722,1722,1722,1722,1713,1713,1713,1713,1713,1713,1713,1713,1713,1705,1705,1713,1713,1713,1713,1713,1713,1722,1722,1713,1713,1713,1705,1705,1705,1705,1705,1696,1696,1696,1696,1696,1696,1696,1696,1696,1696,1696,1696,1696,1696,1696,1696,1696,1696,1696,1696,1688,1688,1688,1688,1688,1688,1688,1688,1688,1688,1688,1688,1688,1688,1688,1688,1688,1688,1688,1688,1688,1680,1680,1680,1680,1680,1671,1671,1680,1680,1688,1696,1696,1705,1705,1705,1833,1823,1823,1823,1823,1833,1833,1833,1833,1833,1833,1823,1813,1813,1813,1804,1804,1804,1794,1785,1731,1713,1705,1696,1696,1696,1696,1696,984,984,984,987,987,987,987,989,989,992,998,1001,1001,1001,1001,1001,1001,1748,1007,1007,1010,1007,1007,1010,1010,1010,1010,1010,1010,1010,1010,1010,1013,1016,1019,1019,1019,1019,1019,1019,1022,1019,1019,1019,1025,1028,1028,1025,1025,1025,1025,1025,1022,1019,1019,1022,1025,1041,1041,1031,1031,1034,1031,1028,1028,1028,1028,1028,1028,1041,1041,1041,1041,1041,1041,1041,1034,1031,1031,1038,1041,1047,1047,1050,1050,1050,1050,1047,1047,1047,1044,1044,1044,1047,1047,1047,1050,1050,1050,1050,1050,1050,1047,1047,1047,1047,1050,1054,1057,1057,1057,1054,1044,1044,1044,1044,1047,1047,1050,1054,1057,1057,1057,1054,1054,1050,1050,1054,1060,1060,1060,1060,1060,1060,1063,1063,1063,1063,1063,1063,1063,1731,1731,1731,1731,1731,1731,1722,1722,1722,1713,1705,1696,1696,1696,1705,1696,1696,1696,1696,1688,1688,1688,1680,1680,1671,1671,1671,1671,1671,1663,1663,1655,1647,1639,1639,1639,1639,1639,1639,1639,1639,1632,1632,1632,1624,1616,1609,1609,1609,1609,1601,1601,1601,1601,1601,1594,1594,1594,1586,1586,1579,1579,1579,1579,0,0,0,0,0,0,0,0,928,928,928,928,928,925,925,923,920,920,920,918,918,918,918,918,918,918,918,920,923,925,928,933,935,935,935,935,935,0,0,0,1470,1470,1470,1470,1470,1470,1470,1470,1470,1470,1464,1464,1464,1464,1452,1452,1452,1445,1445,1445,1445,1439,1439,1439,1439,1439,1439,1433,1433,1427,1421,1421,1421,1421,1421,1421,1415,1415,1415,1415,1410,1410,1404,1404,1398,1398,1398,1392,1392,1392,1392,1392,1387,1387,1387,1381,1381,1376,1376,1370,1370,1370,1370,1370,1365,1365,1359,1359,1354,1354,1354,1354,1354,1349,1349,1349,1343,1343,1338,1338,1338,1333,1333,1333,1333,1333,1333,1328,1328,1322,1322,1322,1322,1322,1317,1317,1312,1312,1307,1307,1307,1302,1302,1297,1292,1292,1292,1288,1288,1288,1288,1288,1283,1283,1278,1278,1273,1273,1273,1273,1273,1268,1268,1268,1268,1264,1259,1259,1259,1255,1255,1255,1255,1250,1250,1250,1250,1250,1241,1241,1241,1236,1236,1236,1236,1236,1232,1232,1232,1227,1227,1227,1223,1223,1219,1219,1219,1219,1219,1214,1214,1214,1214,1210,1210,1210,1206,1206,1202,1202,1202,1202,1197,1197,1193,1193,1193,1189,1189,1185,1185,1185,1185,1185,1181,1181,1181,1181,1177,1177,1177,1169,1169,1169,1169,1169,1165,1165,1165,1165,0,0,0,0,0,0,0,0,0,0,0,0,0,0,0,0,0,0,0,0,0,0,0,0,0,0,0,0,0,0
0,0,0,0,0,0,0,0,0,0,0,0,0,1731,1731,1731,1731,1731,1731,1731,1731,1731,1731,1731,1722,1722,1722,1722,1731,1731,1731,1731,1731,1731,1731,1731,1731,1731,1731,1731,1731,1731,1731,1731,1731,1731,1722,1722,1722,1722,1722,1722,1722,1722,1722,1722,1713,1713,1713,1713,1713,1713,1722,1722,1722,1722,1722,1722,1722,1722,1722,1722,1722,1713,1713,1713,1713,1713,1713,1713,1705,1705,1705,1705,1696,1696,1696,1696,1696,1696,1696,1696,1696,1696,1696,1696,1696,1696,1696,1696,1696,1696,1688,1688,1688,1688,1688,1688,1688,1688,1688,1688,1688,1688,1688,1688,1688,1688,1688,1688,1688,1688,1688,1688,1688,1680,1680,1680,1680,1688,1688,1688,1688,1696,1696,1705,1705,1705,1823,1823,1823,1823,1833,1833,1833,1833,1823,1823,1823,1823,1813,1813,1813,1804,1804,1794,1785,1731,1722,1713,1705,978,978,981,981,981,981,984,987,987,987,987,987,989,989,995,998,998,998,998,998,998,998,1004,1004,1007,1007,1007,1007,1010,1010,1010,1010,1010,1010,1010,1010,1010,1013,1016,1016,1016,1016,1016,1013,1013,1013,1013,1016,1016,1019,1022,1019,1019,1016,1016,1019,1019,1019,1019,1019,1019,1022,1025,1025,1025,1025,1025,1025,1025,1025,1025,1025,1025,1028,1028,1034,1034,1034,1034,1034,1031,1028,1028,1028,1028,1028,1031,1041,1047,1050,1050,1047,1038,1038,1044,1041,1041,1044,1044,1044,1047,1047,1047,1047,1050,1047,1047,1047,1047,1047,1047,1050,1050,1050,1047,1044,1041,1041,1041,1041,1044,1044,1047,1050,1050,1050,1054,1050,1050,1047,1047,1047,1054,1054,1054,1050,1050,1050,1050,1050,1057,1060,1060,1060,1060,1060,1060,1041,1041,1731,1731,1722,1722,1722,1713,1705,1696,1696,1696,1705,1696,1696,1696,1696,1688,1688,1688,1680,1680,1671,1671,1671,1671,1671,1663,1663,1655,1647,1639,1639,1639,1639,1639,1639,1639,1639,1632,1632,1632,1624,1616,1609,1609,1609,1609,1609,1609,1601,1601,1601,1601,1601,1594,1586,1586,1579,1579,1579,1579,0,0,0,0,0,0,935,935,928,928,928,928,928,925,925,923,923,920,920,918,918,918,918,918,918,918,918,920,923,925,928,933,935,935,935,935,935,0,0,0,1477,1477,1477,1477,1477,1477,1470,1470,1470,1470,1464,1464,1464,1464,1458,1458,1452,1452,1445,1445,1445,1445,1445,1439,1439,1439,1439,1433,1433,1427,1421,1421,1421,1421,1421,1421,1415,1415,1415,1415,1410,1410,1404,1404,1398,1398,1398,1398,1392,1392,1392,1392,1392,1392,1387,1387,1381,1381,1376,1376,1370,1370,1370,1370,1365,1365,1359,1359,1354,1354,1354,1354,1354,1349,1349,1349,1349,1343,1343,1338,1338,1333,1333,1333,1333,1333,1333,1328,1328,1322,1322,1322,1322,1322,1317,1317,1312,1312,1307,1307,1307,1307,1302,1297,1297,1292,1292,1292,1292,1288,1288,1288,1283,1283,1283,1278,1278,1278,1273,1273,1273,1268,1268,1268,1268,1264,1259,1259,1259,1255,1255,1255,1255,1250,1250,1250,1250,1250,1241,1241,1241,1236,1236,1236,1236,1236,1232,1232,1232,1227,1227,1227,1223,1223,1223,1219,1219,1219,1219,1214,1214,1214,1214,1210,1210,1210,1206,1206,1202,1202,1202,1202,1197,1197,1193,1193,1193,1189,1189,1185,1185,1185,1185,1185,1181,1181,1181,1181,1177,1177,1177,1173,1173,1169,1169,1169,1165,1165,1165,1165,0,0,0,0,0,0,0,0,0,0,0,0,0,0,0,0,0,0,0,0,0,0,0,0,0,0,0,0,0,0
0,0,0,0,0,0,0,0,0,0,0,0,0,1731,1731,1731,1731,1731,1731,1731,1731,1731,1731,1731,1731,1722,1722,1722,1731,1731,1731,1731,1731,1731,1731,1731,1731,1731,1731,1731,1731,1731,1731,1731,1731,1722,1722,1722,1722,1722,1722,1722,1722,1722,1722,1722,1722,1722,1722,1722,1722,1722,1722,1722,1722,1722,1722,1722,1722,1722,1722,1722,1722,1713,1713,1713,1713,1713,1713,1713,1713,1713,1713,1705,1705,1705,1705,1696,1696,1696,1696,1696,1705,1705,1705,1705,1705,1696,1696,1696,1696,1696,1696,1688,1688,1688,1688,1688,1688,1688,1688,1688,1688,1688,1688,1688,1688,1688,1688,1688,1688,1688,1688,1688,1688,1688,1688,1688,1688,1688,1688,1688,1688,1696,1696,1705,1705,1705,1823,1823,1823,1833,1833,1833,1833,1833,1823,1823,1823,1823,1813,1813,1813,1813,1804,1794,1785,1739,1731,975,975,978,978,978,978,978,981,981,984,987,987,987,987,987,989,989,989,989,992,995,995,995,995,995,995,995,998,1004,1001,1001,1007,1007,1010,1010,1007,1007,1007,1007,1010,1013,1013,1013,1013,1013,1010,1010,1013,1013,1013,1013,1013,1016,1016,1013,1013,1013,1013,1016,1016,1016,1016,1016,1019,1019,1022,1022,1022,1022,1022,1019,1019,1022,1022,1022,1022,1025,1025,1028,1028,1028,1025,1025,1025,1022,1022,1025,1025,1025,1028,1025,1025,1044,1034,1031,1031,1038,1034,1034,1038,1041,1041,1041,1041,1044,1044,1044,1044,1044,1044,1044,1044,1044,1044,1044,1044,1044,1038,1038,1038,1038,1038,1038,1041,1044,1047,1047,1047,1050,1047,1047,1047,1044,1044,1044,1041,1041,1041,1041,1044,1044,1044,1050,1050,1050,1050,1060,1060,0,1041,1041,1041,1041,1044,1044,1722,1713,1705,1705,1696,1696,1705,1705,1696,1696,1696,1688,1688,1680,1680,1671,1671,1671,1663,1663,1663,1663,1663,1655,1647,1647,1647,1639,1639,1639,1639,1639,1639,1632,1632,1632,1624,1624,1609,1609,1609,1609,1609,1609,1601,1601,1601,1601,1601,1594,1594,1586,1579,1579,1579,1579,0,0,0,0,0,0,935,935,928,928,928,928,928,928,925,923,923,920,920,918,918,918,918,918,918,918,918,923,925,925,928,933,935,935,935,935,938,938,0,1477,1477,1477,1477,1477,1477,1477,1470,1470,1470,1470,1470,1464,1464,1464,1458,1458,1458,1452,1452,1445,1445,1445,1445,1445,1439,1439,1439,1439,1433,1427,1421,1421,1421,1421,1421,1421,1421,1421,1415,1415,1415,1410,1410,1410,1404,1398,1398,1398,1398,1398,1392,1392,1392,1392,1392,1387,1381,1381,1376,1376,1376,1370,1370,1370,1365,1365,1359,1359,1359,1354,1354,1354,1354,1349,1349,1349,1349,1349,1343,1343,1338,1338,1333,1333,1333,1333,1333,1328,1328,1328,1322,1322,1322,1322,1317,1317,1312,1312,1312,1307,1307,1307,1302,1302,1302,1292,1292,1292,1292,1288,1288,1288,1288,1288,1283,1283,1278,1278,1278,1273,1273,1268,1268,1268,1268,1264,1259,1259,1259,1255,1255,1255,1255,1250,1250,1250,1250,1250,1241,1241,1241,1236,1236,1236,1236,1236,1236,1232,1232,1232,1227,1227,1227,1223,1223,1219,1219,1219,1219,1219,1214,1214,1214,1210,1210,1210,1210,1206,1202,1202,1202,1202,1197,1197,1197,1197,1193,1189,1189,1189,1189,1185,1185,1185,1185,1181,1181,1181,1181,1177,1177,1173,1169,1169,1169,1169,1165,1165,1165,1165,0,0,0,0,0,0,0,0,0,0,0,0,0,0,0,0,0,0,0,0,0,0,0,0,0,0,0,0,0,0
0,0,0,0,0,0,0,0,0,0,0,0,0,1731,1731,1731,1731,1731,1731,1731,1731,1731,1731,1731,1731,1731,1731,1731,1731,1731,1731,1731,1731,1731,1731,1731,1731,1731,1731,1731,1731,1731,1731,1731,1731,1722,1722,1722,1722,1722,1722,1722,1722,1722,1722,1722,1722,1722,1722,1722,1722,1722,1722,1722,1722,1722,1722,1722,1722,1722,1722,1722,1722,1713,1713,1713,1713,1713,1713,1713,1713,1713,1713,1705,1705,1705,1705,1705,1705,1705,1705,1705,1705,1705,1705,1705,1705,1705,1696,1696,1696,1696,1696,1696,1696,1696,1696,1696,1696,1688,1688,1688,1688,1688,1688,1688,1688,1688,1688,1688,1688,1688,1688,1688,1688,1688,1688,1688,1688,1688,1688,1688,1688,1688,1696,1705,1705,1705,1722,1823,1823,1833,1833,1833,959,959,959,956,956,959,959,959,962,962,964,964,967,1748,1739,970,970,975,975,978,975,975,978,978,981,984,984,984,987,987,989,989,987,987,989,989,989,989,989,989,992,992,992,995,998,1001,1001,1004,1007,1007,1007,1004,1004,1004,1004,1004,1007,1010,1010,1010,1010,1010,1010,1010,1010,1010,1010,1010,1013,1013,1010,1010,1010,1013,1013,1013,1013,1013,1013,1013,1016,1013,1013,1013,1013,1013,1013,1013,1013,1013,1013,1016,1016,1016,1016,1016,1019,1022,1022,1019,1019,1022,1022,1022,1022,1022,1022,1022,1028,1010,1010,1028,1028,1028,1022,1022,1022,1025,1025,1044,1044,1044,1044,1044,1044,1044,1044,1044,1041,1038,1034,1034,1034,1034,1034,1034,1031,1031,1031,1034,1041,1044,1047,1047,1047,1044,1044,1028,1028,1038,1038,1038,1038,1034,1034,1041,1041,1041,1041,1041,1041,1041,1041,1034,1041,1041,1038,1038,1041,1041,1044,1044,1757,1696,1696,1696,1705,1696,1696,1696,1688,1688,1680,1680,1671,1671,1671,1663,1663,1663,1663,1663,1663,1655,1647,1647,1647,1639,1639,1639,1639,1639,1639,1632,1632,1632,1624,1624,1616,1609,1609,1609,1609,1609,1609,1601,1601,1601,1601,1594,1594,1586,1586,1579,1579,1579,0,0,0,0,0,0,935,935,928,928,928,928,928,928,925,923,923,920,920,918,918,918,918,918,918,920,920,923,925,928,930,933,935,935,935,935,938,0,0,0,0,1477,1477,1477,1477,1477,1470,1470,1470,1470,1470,1464,1464,1464,1464,1458,1458,1458,1452,1452,1445,1445,1445,1445,1439,1439,1439,1439,1433,1427,1421,1421,1421,1421,1421,1421,1421,1421,1421,1415,1415,1415,1410,1410,1404,1398,1398,1398,1398,1398,1392,1392,1392,1392,1392,1387,1387,1381,1376,1376,1376,1370,1370,1370,1365,1365,1359,1359,1359,1354,1354,1354,1354,1349,1349,1349,1349,1349,1343,1343,1338,1338,1333,1333,1333,1333,1333,1328,1328,1328,1328,1322,1322,1322,1317,1317,1317,1312,1312,1312,1307,1307,1307,1302,1302,1297,1297,1297,1292,1292,1288,1288,1288,1288,1288,1283,1278,1278,1278,1273,1273,1268,1268,1268,1268,1264,1259,1259,1259,1259,1255,1255,1255,1250,1250,1250,1250,1250,1241,1241,1241,1236,1236,1236,1236,1236,1236,1232,1232,1232,1227,1227,1227,1223,1223,1223,1219,1219,1219,1219,1214,1214,1214,1210,1210,1210,1206,1206,1202,1202,1202,1202,1197,1197,1197,1197,1193,1193,1189,1189,1189,1185,1185,1185,1185,1181,1181,1181,1181,1177,1177,1173,1169,1169,1169,1169,1165,1165,1165,1165,0,0,0,0,0,0,0,0,0,0,0,0,0,0,0,0,0,0,0,0,0,0,0,0,0,0,0,0,0,0
0,0,0,0,0,0,0,0,0,0,0,0,0,1731,1731,1739,1739,1739,1739,1739,1739,1739,1731,1731,1731,1731,1731,1731,1731,1731,1731,1731,1731,1731,1731,1731,1731,1731,1731,1731,1731,1731,1731,1731,1731,1722,1722,1722,1722,1722,1722,1722,1722,1722,1722,1722,1722,1722,1722,1731,1731,1731,1731,1731,1731,1731,1731,1722,1722,1722,1722,1722,1722,1713,1713,1713,1713,1713,1713,1713,1713,1713,1713,1713,1705,1705,1705,1705,1705,1705,1705,1705,1705,1705,1705,1705,1696,1696,1696,1696,1696,1696,1696,1696,1696,1696,1696,1696,1696,1688,1688,1688,1688,1688,1688,1688,1688,1688,1688,1688,1688,1688,1688,1688,1688,1688,1688,1688,1688,935,935,1688,1688,1688,1688,1696,1705,1705,1713,1823,1823,1823,954,954,956,956,956,956,956,956,956,956,956,956,962,964,964,967,967,970,970,975,975,975,973,973,975,975,975,981,984,984,987,987,987,984,981,981,984,987,987,987,987,987,989,989,989,992,995,998,998,1001,992,992,992,1001,1001,1001,998,998,998,1007,1007,1007,1004,1004,1007,1007,1007,1004,1004,1007,1010,1010,1010,1007,1007,1010,1007,1004,1004,1004,992,989,989,989,989,992,992,1010,1010,1007,1007,1001,1001,1001,1001,1001,1007,1010,1013,1016,1016,1016,1016,1019,1019,1016,1016,1016,1019,1007,1007,1004,1004,1016,1016,1016,1016,1016,1016,1019,1019,1019,1019,1044,1044,1044,1044,1044,1044,1044,1028,1025,1025,1025,1031,1025,1025,1028,1028,1025,1025,1028,1031,1034,1038,1044,1044,1041,1038,1028,1028,1028,1028,1028,1028,1028,1028,1034,1031,1028,1028,1034,1034,1034,1034,1034,1034,1038,1038,1038,1038,1038,1041,1038,1031,1031,1031,1028,1028,1031,1031,1031,1031,1680,1680,1680,1671,1671,1663,1663,1663,1663,1663,1663,1663,1663,1647,1647,1647,1647,1639,1639,1639,1639,1639,1632,1632,1632,1624,1624,1616,1609,1609,1609,1609,1609,1609,1609,1601,1601,1601,1601,1594,1594,1594,1586,1586,0,0,0,0,0,0,0,938,935,928,928,928,928,928,928,925,925,923,923,920,918,918,918,918,918,920,920,923,925,928,928,930,933,935,935,935,935,938,0,0,0,1483,1477,1477,1477,1477,1477,1470,1470,1470,1470,1470,1464,1464,1464,1464,1464,1458,1458,1452,1452,1445,1445,1445,1445,1439,1439,1439,1439,1433,1433,1427,1421,1421,1421,1421,1421,1421,1421,1421,1421,1415,1415,1415,1415,1404,1404,1398,1398,1398,1398,1398,1398,1392,1392,1392,1392,1387,1381,1376,1376,1376,1376,1370,1370,1370,1365,1365,1359,1359,1359,1354,1354,1354,1354,1354,1349,1349,1349,1343,1343,1343,1338,1333,1333,1333,1333,1333,1328,1328,1328,1328,1322,1322,1322,1317,1317,1317,1312,1312,1312,1307,1307,1307,1307,1302,1302,1302,1297,1292,1292,1288,1288,1288,1288,1288,1283,1283,1283,1278,1278,1273,1273,1273,1268,1268,1268,1264,1259,1259,1259,1255,1255,1255,1255,1255,1250,1250,1250,1245,1241,1241,1236,1236,1236,1236,1236,1236,1232,1232,1232,1227,1227,1227,1223,1223,1223,1219,1219,1219,1219,1214,1214,1214,1210,1210,1210,1206,1206,1202,1202,1202,1202,1197,1197,1197,1193,1193,1193,1193,1189,1189,1185,1185,1185,1185,1181,1181,1181,1177,1177,1173,1169,1169,1169,1169,1165,1165,1165,1165,1165,0,0,0,0,0,0,0,0,0,0,0,0,0,0,0,0,0,0,0,0,0,0,0,0,0,0,0,0,0,0
0,0,0,0,0,0,0,0,0,0,0,0,0,1739,1739,1739,1739,1739,1739,1739,1739,1739,1731,1731,1731,1731,1731,1731,1731,1731,1731,1731,1731,1731,1731,1731,1731,1731,1731,1731,1731,1731,1731,1731,1722,1722,1722,1731,1731,1731,1722,1722,1722,1722,1722,1722,1722,1722,1722,1731,1731,1731,1731,1731,1731,1731,1731,1722,1722,1722,1722,1722,1722,1722,1722,1722,1722,1722,1722,1722,1722,1722,1713,1713,1705,1705,1705,1705,1705,1705,1705,1705,1705,1705,1705,1705,1696,1696,1696,1696,1696,1696,1696,1696,1696,1696,1696,1696,1696,1696,1696,1688,1688,1688,1688,1688,1688,1688,1688,1688,1688,1688,1688,1688,1688,1688,1688,1680,935,935,933,933,933,933,1680,1688,1705,1705,1713,951,951,954,954,954,954,956,956,956,954,954,954,954,954,956,962,964,964,967,967,964,964,973,973,973,970,970,973,973,970,967,967,973,984,981,981,978,978,978,981,984,981,981,984,984,984,987,987,987,989,995,995,995,989,984,984,989,987,987,992,992,992,992,998,998,998,998,1001,1001,1001,1001,1001,1001,992,989,989,995,998,1001,1004,1004,1001,1001,992,989,989,989,989,989,989,998,998,1001,1001,1001,1001,998,998,998,998,1001,1004,1010,1010,1010,1010,1013,1013,1010,1001,1001,1001,1004,1004,1004,1004,1013,1013,1013,1010,1010,1010,1013,1013,1013,1013,1013,998,992,992,1001,1001,1001,1028,1019,1019,1019,1019,1019,1022,1022,1022,1022,1022,1013,1013,1016,1016,1016,1013,1013,1025,1025,1025,1025,1025,1025,1025,1025,1025,1025,1025,1025,1025,1025,1028,1028,1031,1031,1031,1031,1031,1031,1034,1034,1034,1034,1028,1025,1025,1025,1025,1028,1028,1028,1028,1680,1680,1671,1671,1663,1655,1655,1663,1663,1663,1663,1663,1663,1663,1647,1647,1647,1639,1639,1639,1639,1632,1632,1632,1632,1624,1624,1616,1616,1616,1609,1609,1609,1609,1609,1601,1601,1601,1601,1594,1594,1594,1586,1586,0,0,0,0,0,0,0,935,935,933,930,930,928,928,928,925,925,923,923,920,920,918,918,918,918,920,923,923,925,928,928,933,933,935,935,935,935,935,0,1489,0,1483,1483,1483,1483,1477,1477,1477,1470,1470,1470,1470,1464,1464,1464,1464,1464,1458,1458,1458,1452,1452,1445,1445,1445,1439,1439,1439,1439,1433,1433,1427,1421,1421,1421,1421,1421,1421,1421,1421,1421,1415,1415,1415,1415,1410,1404,1404,1398,1398,1398,1398,1398,1392,1392,1392,1392,1387,1387,1381,1376,1376,1376,1370,1370,1370,1365,1365,1365,1359,1359,1359,1359,1354,1354,1354,1354,1349,1349,1343,1343,1343,1338,1338,1333,1333,1333,1333,1328,1328,1328,1328,1322,1322,1322,1317,1317,1317,1312,1312,1312,1307,1307,1307,1307,1307,1302,1302,1297,1292,1292,1292,1288,1288,1288,1288,1288,1283,1283,1283,1278,1278,1273,1273,1268,1268,1268,1264,1264,1259,1259,1259,1255,1255,1255,1255,1250,1250,1250,1245,1245,1241,1236,1236,1236,1236,1236,1236,1232,1232,1232,1227,1227,1227,1223,1223,1223,1219,1219,1219,1219,1214,1214,1214,1214,1214,1210,1210,1206,1206,1202,1202,1202,1197,1197,1197,1193,1193,1193,1193,1189,1189,1189,1189,1185,1185,1185,1181,1181,1177,1177,1173,1169,1169,1169,1169,1165,1165,1165,1165,1165,0,0,0,0,0,0,0,0,0,0,0,0,0,0,0,0,0,0,0,0,0,0,0,0,0,0,0,0,0,0
0,0,0,0,0,0,0,0,0,0,0,0,0,1739,1739,1739,1739,1739,1739,1739,1739,1739,1731,1731,1731,1731,1731,1731,1731,1731,1731,1731,1731,1731,1731,1731,1731,1731,1731,1731,1731,1731,1731,1731,1722,1722,1722,1731,1731,1731,1722,1722,1722,1722,1722,1722,1722,1722,1731,1731,1731,1731,1731,1731,1731,1731,1731,1722,1722,1722,1722,1722,1722,1722,1722,1722,1722,1722,1722,1722,1722,1722,1722,1713,1713,1705,1705,1705,1705,1705,1705,1705,1705,1705,1705,1705,1705,1705,1696,1696,1696,1696,1696,1696,1696,1696,1696,1696,1696,1696,1696,1696,1696,1688,1688,1688,1688,1688,1688,1688,1688,1696,1688,1688,1688,935,933,933,933,933,933,933,933,928,928,935,938,943,946,946,948,951,951,951,951,951,954,954,951,951,951,951,954,954,956,959,959,962,962,962,964,970,970,970,967,967,967,967,967,967,967,967,975,975,975,975,975,975,975,978,975,975,978,978,978,981,981,984,984,984,989,989,984,978,978,978,975,975,978,984,987,987,987,987,989,992,995,998,998,995,987,987,987,987,987,989,992,989,989,989,998,998,989,989,989,987,987,989,989,989,995,995,995,998,998,995,992,992,992,992,989,989,989,998,989,989,989,989,989,989,992,992,998,1001,1001,1001,1010,1010,1010,1007,1007,1010,1010,1004,1001,998,998,992,992,992,992,1001,1004,1007,1007,1013,1013,1013,1016,1019,1019,1013,1013,1010,1010,1013,1013,1013,1013,1013,1016,1022,1022,1022,1022,1022,1022,1022,1022,1025,1025,1025,1025,1025,1028,1028,1028,1025,1025,1028,1022,1022,1013,1013,1016,1016,1019,1016,1016,1019,1019,1025,1025,1025,1025,1025,1025,1019,1663,1663,1655,1655,1663,1663,1663,1663,1663,1663,1663,1655,1647,1647,1647,1639,1639,1639,1632,1632,1632,1632,1624,1624,1624,1616,1616,1609,1609,1609,1609,1609,1601,1601,1601,1594,1594,1594,1586,1579,1579,0,0,0,0,0,0,0,935,935,933,933,930,930,928,928,925,925,925,925,923,920,920,920,920,920,920,923,923,925,928,930,933,933,933,935,935,935,0,0,1489,1489,1489,1483,1483,1483,1477,1477,1477,1470,1470,1470,1470,1470,1464,1464,1464,1464,1458,1458,1458,1452,1452,1445,1445,1445,1445,1445,1439,1439,1439,1433,1427,1427,1421,1421,1421,1421,1421,1421,1421,1421,1415,1415,1415,1415,1410,1410,1404,1398,1398,1398,1398,1398,1392,1392,1392,1392,1392,1387,1381,1376,1376,1376,1376,1370,1370,1370,1365,1365,1365,1359,1359,1359,1354,1354,1354,1354,1349,1349,1349,1349,1343,1343,1338,1338,1333,1333,1333,1328,1328,1328,1328,1328,1322,1322,1317,1317,1317,1312,1312,1312,1307,1307,1307,1307,1307,1302,1302,1297,1292,1292,1292,1292,1288,1288,1288,1288,1288,1283,1283,1283,1278,1273,1273,1268,1268,1268,1264,1264,1264,1259,1259,1255,1255,1255,1255,1250,1250,1250,1250,1245,1241,1241,1236,1236,1236,1236,1236,1232,1232,1232,1232,1227,1227,1227,1223,1223,1219,1219,1219,1219,1214,1214,1214,1214,1214,1210,1210,1206,1206,1202,1202,1202,1197,1197,1197,1197,1193,1193,1193,1189,1189,1189,1189,1185,1185,1185,1181,1181,1181,1177,1173,1169,1169,1169,1169,1169,1165,1165,1165,1165,0,0,0,0,0,0,0,0,0,0,0,0,0,0,0,0,0,0,0,0,0,0,0,0,0,0,0,0,0,0
0,0,0,0,0,0,0,0,0,0,0,0,0,1748,1748,1748,1748,1748,1739,1739,1739,1739,1731,1731,1731,1731,1731,1731,1731,1731,1731,1731,1731,1731,1731,1731,1731,1731,1731,1731,1731,1731,1731,1731,1731,1731,1731,1731,1731,1731,1722,1722,1722,1731,1731,1731,1722,1722,1731,1731,1731,1731,1722,1722,1722,1731,1731,1722,1722,1722,1722,1722,1722,1722,1722,1722,1722,1722,1722,1722,1722,1722,1722,1713,1713,1713,1705,1705,1705,1705,1705,1705,1705,1705,1705,1705,1705,1705,1696,1696,1696,1696,1696,1696,1696,1696,1696,1696,1696,1696,1696,1696,1696,1696,1688,1688,1688,1688,1688,1696,933,930,930,930,933,933,933,933,933,933,933,933,933,928,928,935,938,940,943,943,943,943,948,948,948,948,951,948,948,948,948,948,948,948,954,954,956,956,956,956,954,954,964,964,964,962,962,962,962,962,962,964,967,967,967,973,973,973,973,973,973,973,973,973,975,975,973,970,970,970,970,970,973,973,973,973,973,973,975,978,978,978,975,975,975,978,984,984,981,981,984,981,981,981,984,984,987,987,987,987,989,992,987,984,984,984,987,987,987,987,989,989,989,989,989,989,989,989,989,987,987,987,987,989,984,984,981,981,981,981,987,987,992,998,998,998,1001,1007,1007,1007,1007,1007,1007,1004,1001,998,995,992,992,992,992,998,1001,1004,1004,1010,1010,1010,1010,1010,1010,1010,1007,1007,1007,1010,1010,1010,1010,1010,1013,1013,1007,1007,1010,1010,1016,1016,1019,1001,1001,1004,1004,1004,1013,1013,1013,1013,1013,1013,1013,1013,1010,1010,1010,1010,1016,1016,1016,1019,1019,1022,1022,1019,1019,1019,1019,1019,1019,1016,1016,1016,1016,1016,1013,1010,1010,1663,1663,1655,1655,1647,1647,1647,1639,1639,1639,1632,1632,1632,1624,1624,1624,1616,1616,1609,1609,1609,1609,1609,1601,1601,1601,1594,1594,1594,1586,1579,1579,0,0,0,0,0,0,0,935,935,933,933,930,930,928,928,925,925,925,925,923,923,923,923,920,920,923,923,925,925,928,930,933,933,933,935,935,0,0,0,1489,1489,1489,1483,1483,1483,1477,1477,1477,1477,1470,1470,1470,1470,1464,1464,1464,1464,1458,1458,1458,1458,1452,1452,1445,1445,1445,1445,1439,1439,1439,1433,1427,1427,1421,1421,1421,1421,1421,1421,1421,1421,1415,1415,1415,1415,1410,1410,1404,1404,1398,1398,1398,1398,1398,1392,1392,1392,1392,1387,1381,1381,1376,1376,1376,1370,1370,1370,1370,1365,1365,1365,1359,1359,1359,1354,1354,1354,1349,1349,1349,1349,1343,1343,1338,1338,1333,1333,1333,1328,1328,1328,1328,1328,1322,1322,1317,1317,1317,1312,1312,1312,1307,1307,1307,1307,1307,1302,1302,1297,1297,1292,1292,1292,1288,1288,1288,1288,1288,1288,1283,1283,1278,1278,1273,1268,1268,1268,1268,1264,1264,1259,1259,1255,1255,1255,1255,1250,1250,1250,1250,1245,1241,1241,1241,1236,1236,1236,1236,1236,1232,1232,1232,1227,1227,1227,1227,1223,1223,1223,1219,1219,1214,1214,1214,1214,1214,1210,1210,1206,1206,1202,1202,1202,1197,1197,1197,1197,1193,1193,1193,1193,1193,1189,1189,1189,1185,1185,1185,1181,1181,1177,1177,1173,1169,1169,1169,1169,1165,1165,1165,1165,0,0,0,0,0,0,0,0,0,0,0,0,0,0,0,0,0,0,0,0,0,0,0,0,0,0,0,0,0,0
