0,0,0,0,0,0,0,0,0,0,0,0,0,0,0,0,2016,2016,2016,2016,2016,2016,2005,2005,2005,2005,1993,1993,1981,1981,1981,1981,1970,1970,1959,1959,1959,1959,1959,1959,1959,1959,1947,1947,1936,1936,1926,1926,1926,1926,1915,1915,1915,1926,1915,1915,1904,1904,1894,1894,1894,1894,1883,1883,1883,1883,1883,1883,1883,1883,1883,1883,1883,1873,1873,1873,1873,1873,1863,1863,1863,1853,1853,1853,1843,1843,1843,1833,1833,1833,1833,1833,1833,1833,1833,1833,1833,1833,1833,1823,1823,1823,1823,1813,1813,1813,1813,1804,1804,1804,1794,1794,1794,1794,1794,1794,1794,1794,1785,1785,1785,1785,1776,1766,1766,1766,1766,1757,1757,1757,1757,1757,1757,1757,1757,1757,1748,1748,1748,1748,1739,1739,1739,1739,1731,1731,1731,1731,1731,1731,1731,1722,1722,1722,1722,1713,1713,1705,1705,1696,1696,1696,1696,1696,1696,1688,1688,1688,1688,1688,1680,1680,1680,1671,1671,1680,1680,1671,1671,1671,1663,1663,1671,1671,1671,1671,1671,1671,1671,1680,1688,1688,1696,1696,1696,2090,2078,2065,2065,2065,2040,2028,2016,2016,2005,2005,2005,1993,1993,1655,1655,1655,1655,1647,1647,1647,1647,1647,1647,1647,1647,1655,1655,1655,1655,1655,1655,1655,1663,1663,1663,1663,1663,1663,1663,1671,1671,1671,1680,1680,1680,1680,1688,1688,1688,1688,1688,0,1063,1063,1063,1063,1060,1060,1057,1057,1050,1050,1050,1047,1044,1041,1041,1038,1038,1034,1034,1034,1028,1028,1025,1022,1022,1016,1013,1010,1010,1007,1004,1001,998,998,992,989,989,987,984,981,978,975,975,973,970,967,964,962,959,956,954,951,948,946,940,938,935,933,930,928,925,923,923,915,915,915,910,908,908,906,903,898,891,889,887,885,882,880,878,875,871,871,869,864,862,858,856,854,851,849,841,837,831,827,823,821,817,815,811,807,807,805,805,803,803,803,803,803,803,803,803,805,807,807,809,809,811,811,811,813,813,813,813,813,0,0,0,0,0,0,0,0,1496,1496,1496,1489,1489,1483,1477,1477,1470,1470,1470,1464,1464,1452,1445,1445,1445,1439,1439,1439,1433,1427,1427,1421,1421,1415,1415,1410,1398,1398,1392,1392,1392,1392,1387,1387,1381,1381,1376,1370,1370,1365,1365,1359,1354,1354,1349,1349,1349,1343,1338,1333,1328,1328,1322,1317,1317,1312,1312,1312,1307,1307,1302,1302,1292,1292,1292,1288,1288,1288,1283,1273,1273,1273,1268,1268,1264,1259,1259,1255,1255,1250,1250,1245,1245,1241,1241,1236,1232,1232,1232,1223,1223,1223,1219,1219,1214,1214,1214,1210,1206,1206,1202,1197,1197,1197,1193,1193,1185,1185,1185,1181,1181,1181,1169,1169,1169,1169,1165,1165,1161,1157,1157,1153,1153,1153,1149,1149,1145,1138,1138,1138,1134,1130,1130,1130,1130,1126,1123,1123,1119,1119,1115,1115,1112,1112,1108,1108,1105,1105,1105,1101,1097,1094,1094,1090,1090,1090,1087,1084,1080,1080,1080,1077,1077,1077,1073,1070,1067,1063,1063,1063,1060,1060,1057,1057,1054,1054,1054,1050,1050,1047,1044,1041,1041,1038,1038,1034,1031,1031,1031,1028,1028,1028,1025,1025,1022,1019,1019,1019,1016,1010,1007,1004,1004,1004,1004,1001,1001,1001,1001,1001,998,995,992,989,987,987,984,981,981,981,978,978,975,973,970,970,967,967,0,0,0,0,0,0,0,0,0,0,0,0,0,0,0,0,0,0,0,0,0,0,0,0,0,0,0,0,0,0
0,0,0,0,0,0,0,0,0,0,0,0,0,0,0,0,2016,2016,2016,2016,2016,2016,2016,2005,2005,2005,1993,1993,1981,1981,1981,1981,1970,1970,1970,1959,1959,1959,1959,1959,1959,1959,1947,1936,1926,1926,1926,1926,1926,1926,1926,1926,1926,1926,1926,1915,1915,1904,1894,1894,1894,1894,1883,1883,1883,1883,1883,1883,1883,1883,1883,1883,1883,1883,1883,1873,1873,1873,1863,1863,1863,1863,1853,1853,1843,1843,1843,1833,1833,1833,1833,1833,1833,1833,1833,1833,1833,1833,1833,1823,1823,1823,1823,1823,1813,1813,1813,1813,1804,1804,1804,1794,1794,1794,1794,1794,1794,1794,1785,1785,1785,1785,1776,1766,1766,1766,1766,1766,1757,1757,1757,1757,1757,1757,1757,1757,1757,1757,1757,1748,1739,1739,1739,1739,1739,1739,1731,1731,1731,1731,1731,1722,1722,1722,1722,1722,1713,1713,1713,1705,1696,1696,1696,1696,1696,1696,1688,1688,1688,1688,1688,1680,1680,1680,1680,1680,1680,1680,1671,1671,1663,1663,1671,1671,1671,1671,1671,1671,1680,1688,1688,1696,1696,1696,1705,2090,2078,2065,2065,2065,2053,2040,2028,2016,2016,2005,2005,1993,1993,1655,1655,1655,1655,1655,1647,1647,1647,1647,1647,1655,1655,1655,1655,1655,1655,1655,1663,1663,1663,1663,1663,1663,1671,1671,1671,1671,1671,1671,1680,1680,1680,1680,1688,1688,1688,1688,1688,0,1063,1063,1063,1063,1060,1060,1057,1057,1054,1050,1050,1047,1044,1041,1041,1038,1038,1034,1034,1034,1028,1028,1025,1022,1022,1016,1013,1013,1010,1010,1004,1001,998,998,992,992,989,987,984,981,978,975,975,973,970,967,962,959,959,956,954,951,948,946,940,938,935,933,930,928,925,923,918,915,915,913,910,908,908,906,903,898,891,889,887,887,882,880,878,875,873,871,869,862,860,858,856,854,851,849,847,837,831,827,823,821,821,815,813,809,807,805,805,803,803,803,803,803,803,803,803,805,807,809,809,811,811,811,813,813,813,813,813,815,0,0,0,0,0,0,0,1496,1496,1496,1496,1489,1489,1483,1477,1477,1477,1470,1470,1464,1464,1452,1452,1445,1445,1439,1439,1439,1433,1427,1427,1421,1421,1415,1415,1410,1398,1398,1392,1392,1392,1392,1387,1387,1381,1381,1376,1370,1370,1365,1365,1359,1354,1354,1354,1349,1349,1343,1338,1333,1333,1328,1322,1322,1317,1312,1312,1312,1307,1307,1302,1302,1297,1292,1292,1292,1288,1288,1283,1278,1273,1273,1268,1268,1264,1264,1264,1259,1255,1250,1250,1245,1245,1241,1241,1236,1236,1232,1232,1227,1223,1223,1219,1219,1219,1214,1214,1210,1206,1202,1202,1197,1197,1197,1193,1193,1189,1185,1185,1181,1181,1181,1169,1169,1169,1169,1165,1165,1161,1157,1157,1153,1153,1153,1149,1149,1145,1141,1138,1138,1134,1134,1130,1130,1130,1126,1126,1123,1123,1119,1115,1115,1112,1112,1108,1108,1108,1105,1105,1101,1097,1094,1094,1090,1090,1090,1087,1084,1080,1080,1080,1077,1077,1077,1073,1070,1067,1063,1063,1063,1060,1060,1057,1057,1054,1054,1050,1050,1047,1047,1044,1041,1041,1038,1038,1034,1034,1031,1031,1028,1028,1028,1028,1025,1025,1022,1019,1019,1016,1013,1010,1007,1004,1004,1004,1001,1001,1001,1001,998,998,995,992,989,989,987,984,981,981,981,978,978,978,975,973,970,970,970,0,0,0,0,0,0,0,0,0,0,0,0,0,0,0,0,0,0,0,0,0,0,0,0,0,0,0,0,0,0
0,0,0,0,0,0,0,0,0,0,0,0,0,0,0,0,2016,2016,2016,2016,2016,2016,2016,2005,2005,2005,2005,2005,1993,1981,1981,1981,1970,1970,1970,1959,1959,1959,1959,1959,1959,1959,1947,1936,1926,1926,1936,1926,1926,1926,1926,1926,1926,1926,1926,1926,1915,1904,1904,1894,1894,1894,1883,1883,1883,1883,1883,1883,1883,1883,1883,1883,1883,1883,1883,1873,1873,1873,1863,1863,1863,1863,1863,1863,1853,1843,1843,1843,1843,1843,1833,1833,1833,1833,1833,1833,1833,1833,1833,1823,1823,1823,1823,1823,1813,1813,1813,1813,1804,1804,1804,1794,1794,1794,1794,1794,1794,1794,1794,1785,1785,1785,1785,1776,1766,1766,1766,1766,1757,1757,1757,1757,1757,1757,1757,1757,1757,1757,1757,1748,1739,1739,1739,1739,1739,1739,1731,1731,1731,1731,1731,1731,1731,1722,1722,1722,1713,1713,1713,1705,1696,1696,1696,1696,1696,1696,1688,1688,1688,1688,1688,1680,1680,1680,1680,1680,1680,1680,1671,1671,1663,1663,1671,1671,1671,1671,1671,1671,1680,1688,1688,1696,1696,1696,1705,2078,2078,2065,2065,2065,2053,2040,2028,2028,2016,2005,2005,2005,2005,1655,1655,1663,1655,1655,1647,1647,1647,1647,1647,1647,1655,1655,1655,1655,1655,1655,1663,1663,1663,1663,1663,1663,1671,1671,1671,1680,1680,1680,1680,1680,1680,1688,1688,1688,1688,1688,0,0,0,1063,1063,1063,1060,1060,1060,1057,1054,1050,1050,1047,1044,1041,1041,1038,1038,1034,1034,1034,1031,1028,1025,1025,1022,1016,1013,1013,1010,1007,1004,1001,998,998,995,992,989,987,987,981,978,978,975,973,970,964,962,959,959,956,954,951,948,946,940,938,935,933,930,928,925,925,918,915,915,913,910,908,908,906,903,898,896,889,887,887,882,880,878,875,873,871,864,862,860,858,856,854,851,849,847,839,829,827,823,821,821,815,813,809,807,805,805,805,803,803,803,803,803,803,805,807,807,809,809,811,811,813,813,813,813,815,815,817,817,0,0,0,0,0,0,1496,1496,1496,1496,1489,1489,1489,1483,1477,1477,1470,1470,1464,1464,1458,1452,1452,1445,1439,1439,1439,1433,1427,1427,1421,1421,1415,1415,1410,1404,1398,1398,1392,1392,1392,1387,1387,1381,1381,1376,1370,1370,1365,1365,1359,1354,1354,1354,1349,1349,1343,1338,1333,1333,1328,1328,1322,1322,1317,1312,1312,1307,1307,1307,1302,1297,1297,1292,1292,1288,1288,1288,1278,1278,1273,1268,1268,1264,1264,1264,1259,1255,1255,1255,1250,1245,1245,1241,1236,1236,1236,1232,1227,1223,1223,1219,1219,1219,1214,1214,1214,1210,1202,1202,1197,1197,1197,1193,1193,1189,1185,1185,1181,1181,1181,1177,1169,1169,1165,1165,1161,1161,1157,1157,1153,1153,1153,1149,1149,1145,1145,1141,1138,1134,1134,1134,1130,1130,1130,1126,1123,1123,1119,1115,1115,1115,1112,1108,1108,1108,1105,1105,1101,1097,1094,1094,1090,1090,1090,1087,1080,1080,1080,1080,1080,1077,1077,1073,1070,1067,1067,1063,1063,1060,1060,1060,1057,1054,1054,1050,1050,1047,1047,1044,1041,1041,1038,1038,1038,1034,1034,1031,1031,1031,1028,1028,1028,1025,1022,1019,1019,1016,1013,1010,1007,1004,1004,1004,1001,1001,1001,1001,998,998,995,992,989,989,987,984,981,981,981,981,978,978,975,973,970,970,970,0,0,0,0,0,0,0,0,0,0,0,0,0,0,0,0,0,0,0,0,0,0,0,0,0,0,0,0,0,0
0,0,0,0,0,0,0,0,0,0,0,0,0,0,0,0,2016,2016,2016,2016,2016,2005,2005,2005,2005,2005,2005,2005,2005,1993,1981,1981,1970,1970,1970,1959,1959,1959,1970,1959,1959,1959,1947,1936,1936,1936,1936,1926,1926,1926,1926,1926,1926,1926,1926,1926,1915,1915,1904,1894,1894,1894,1894,1894,1883,1883,1883,1883,1883,1883,1883,1883,1883,1883,1883,1873,1873,1873,1873,1863,1863,1863,1863,1863,1853,1853,1843,1843,1843,1843,1833,1833,1833,1833,1833,1833,1833,1833,1833,1823,1823,1823,1823,1823,1823,1813,1813,1813,1813,1804,1804,1804,1794,1794,1794,1794,1794,1794,1794,1794,1785,1785,1785,1776,1766,1766,1766,1766,1757,1757,1757,1757,1757,1757,1757,1757,1757,1757,1757,1748,1739,1739,1739,1739,1739,1739,1731,1731,1731,1731,1731,1731,1731,1722,1722,1722,1722,1722,1713,1713,1705,1705,1705,1696,1696,1696,1696,1696,1688,1688,1688,1688,1688,1680,1680,1680,1680,1680,1680,1671,1663,1663,1671,1671,1671,1671,1671,1680,1680,1680,1688,1688,1696,1696,1696,1696,2078,2065,2065,2065,2053,2040,2028,2028,2016,2005,2005,1993,1993,1663,1663,1663,1655,1647,1647,1647,1647,1647,1647,1647,1655,1655,1655,1655,1655,1655,1663,1663,1663,1663,1663,1663,1671,1671,1671,1680,1680,1680,1680,1680,1680,1688,1688,1688,1688,0,1688,0,1063,1063,1063,1063,1060,1060,1060,1057,1054,1050,1050,1047,1044,1044,1041,1038,1038,1038,1034,1034,1031,1028,1025,1025,1022,1016,1013,1013,1010,1007,1004,1001,1001,998,995,992,989,989,987,984,978,978,975,973,970,964,962,959,959,956,954,951,948,943,940,938,935,933,930,928,925,925,918,915,915,915,910,908,908,906,903,901,896,889,887,887,885,880,878,875,873,871,864,862,860,858,856,854,851,849,847,837,829,827,823,821,821,817,813,809,807,805,805,805,805,803,803,803,803,805,805,807,809,809,811,811,811,813,813,815,815,817,817,817,817,0,0,0,0,0,0,0,1496,1496,1496,1489,1489,1489,1483,1477,1477,1477,1470,1464,1464,1458,1452,1452,1445,1439,1439,1439,1433,1427,1427,1421,1421,1415,1415,1410,1404,1398,1398,1392,1392,1392,1392,1387,1381,1381,1376,1370,1370,1365,1365,1359,1354,1354,1354,1349,1349,1343,1343,1333,1333,1328,1328,1322,1322,1317,1317,1317,1312,1312,1307,1302,1302,1297,1292,1292,1292,1288,1288,1278,1278,1273,1268,1268,1264,1264,1264,1259,1259,1255,1255,1250,1250,1245,1241,1236,1236,1236,1232,1227,1223,1223,1219,1219,1219,1219,1214,1214,1210,1202,1202,1197,1197,1197,1193,1193,1189,1185,1185,1181,1181,1181,1177,1173,1169,1165,1165,1161,1161,1157,1157,1153,1153,1153,1149,1149,1149,1145,1141,1138,1138,1134,1134,1130,1130,1130,1123,1123,1123,1119,1115,1115,1115,1112,1112,1108,1108,1105,1105,1101,1097,1097,1094,1094,1090,1090,1087,1080,1080,1080,1080,1080,1077,1077,1073,1070,1067,1067,1063,1063,1063,1060,1060,1057,1057,1054,1050,1050,1047,1047,1044,1041,1041,1038,1038,1038,1034,1034,1034,1028,1028,1028,1028,1028,1025,1022,1019,1019,1016,1016,1010,1007,1004,1004,1004,1004,1004,1001,1001,1001,998,995,992,989,989,987,984,981,981,981,981,978,978,975,973,970,970,970,0,0,0,0,0,0,0,0,0,0,0,0,0,0,0,0,0,0,0,0,0,0,0,0,0,0,0,0,0,0
0,0,0,0,0,0,0,0,0,0,0,0,0,0,0,0,2016,2016,2016,2016,2016,2005,2005,2005,2005,2005,2005,2005,2005,1993,1993,1981,1970,1970,1970,1970,1970,1970,1970,1959,1959,1947,1947,1936,1936,1936,1936,1936,1936,1936,1926,1926,1926,1936,1926,1926,1915,1915,1915,1904,1904,1904,1894,1894,1894,1894,1883,1883,1883,1883,1883,1883,1883,1883,1883,1883,1873,1873,1873,1863,1863,1863,1863,1863,1863,1853,1853,1843,1843,1843,1843,1843,1833,1833,1843,1843,1833,1833,1833,1833,1833,1833,1833,1823,1823,1823,1823,1813,1804,1804,1804,1804,1804,1804,1794,1794,1794,1794,1794,1794,1794,1785,1776,1776,1776,1766,1766,1766,1757,1757,1766,1757,1757,1757,1757,1757,1757,1757,1757,1748,1739,1739,1739,1739,1739,1739,1731,1731,1731,1731,1731,1731,1731,1731,1722,1722,1722,1722,1713,1713,1705,1705,1705,1705,1705,1696,1696,1696,1696,1688,1688,1688,1688,1680,1680,1688,1688,1688,1680,1671,1671,1671,1671,1671,1671,1671,1671,1680,1680,1680,1688,1688,1696,1696,1696,1696,2065,2065,2065,2065,2053,2040,2040,2028,2016,2005,2005,1993,1993,1655,1655,1655,1655,1647,1647,1647,1647,1647,1647,1647,1655,1655,1655,1655,1655,1655,1663,1663,1663,1663,1663,1663,1671,1671,1671,1680,1680,1680,1680,1680,1688,1688,1688,1688,1688,1688,1696,0,1063,1063,1063,1060,1060,1060,1060,1057,1057,1054,1050,1047,1047,1044,1041,1041,1038,1038,1034,1034,1031,1028,1025,1025,1022,1016,1013,1013,1010,1010,1004,1001,1001,998,995,992,989,987,987,984,981,978,978,975,973,964,962,959,956,956,954,951,948,943,940,938,935,933,933,928,928,925,918,915,915,915,910,908,908,906,903,898,896,889,887,887,882,880,878,878,873,871,864,862,860,858,856,854,851,849,847,831,827,827,825,821,821,817,813,809,807,805,805,805,805,803,803,803,805,805,809,809,809,811,811,811,811,813,813,813,815,815,817,817,817,0,0,0,0,0,0,0,1496,1496,1496,1496,1489,1489,1483,1483,1477,1477,1470,1464,1464,1458,1452,1452,1445,1445,1439,1439,1433,1433,1427,1421,1421,1415,1415,1410,1404,1398,1398,1392,1392,1392,1392,1387,1381,1381,1376,1370,1370,1370,1365,1359,1359,1354,1354,1349,1349,1343,1343,1338,1333,1333,1328,1328,1322,1322,1317,1317,1312,1312,1307,1302,1302,1297,1292,1292,1292,1288,1288,1283,1278,1273,1273,1268,1268,1264,1264,1259,1255,1255,1255,1250,1250,1245,1241,1236,1236,1236,1232,1227,1227,1223,1223,1219,1219,1214,1214,1214,1206,1202,1202,1197,1197,1197,1193,1189,1185,1185,1185,1181,1181,1181,1181,1173,1169,1165,1165,1161,1161,1157,1157,1153,1153,1153,1149,1149,1149,1145,1141,1141,1138,1134,1134,1134,1130,1130,1123,1123,1119,1119,1115,1115,1115,1112,1108,1108,1108,1108,1105,1101,1097,1097,1094,1094,1090,1090,1087,1087,1084,1080,1080,1080,1077,1077,1073,1070,1067,1067,1063,1063,1063,1060,1060,1060,1057,1054,1054,1054,1050,1047,1047,1044,1041,1038,1038,1038,1034,1034,1034,1028,1028,1028,1028,1028,1025,1022,1019,1019,1016,1013,1013,1007,1007,1004,1004,1004,1004,1001,1001,998,998,992,992,989,989,987,984,981,981,981,981,978,978,975,973,970,970,970,0,0,0,0,0,0,0,0,0,0,0,0,0,0,0,0,0,0,0,0,0,0,0,0,0,0,0,0,0,0
0,0,0,0,0,0,0,0,0,0,0,0,0,0,0,0,2028,2028,2016,2016,2016,2016,2016,2005,2005,2005,1993,1993,2005,2005,1993,1981,1970,1970,1970,1970,1970,1970,1970,1959,1959,1947,1947,1947,1936,1936,1936,1936,1936,1936,1936,1936,1936,1936,1926,1926,1915,1915,1915,1915,1915,1915,1904,1904,1904,1894,1894,1883,1883,1883,1883,1883,1883,1883,1883,1883,1883,1873,1873,1873,1873,1863,1863,1863,1863,1863,1853,1853,1853,1853,1843,1843,1833,1833,1843,1843,1833,1833,1833,1833,1833,1833,1833,1823,1823,1823,1813,1813,1804,1804,1804,1804,1804,1804,1794,1794,1794,1794,1794,1794,1785,1785,1776,1776,1776,1766,1766,1766,1757,1757,1766,1757,1757,1757,1757,1757,1757,1757,1757,1748,1748,1748,1739,1739,1739,1739,1731,1731,1731,1731,1731,1731,1731,1731,1722,1722,1722,1722,1713,1713,1713,1705,1705,1705,1705,1705,1696,1696,1696,1696,1696,1696,1688,1688,1688,1688,1688,1688,1680,1680,1671,1671,1671,1671,1671,1671,1671,1680,1680,1680,1688,1688,1688,1688,1696,1696,2065,2065,2065,2065,2053,2053,2040,2028,2016,2016,2005,1993,1993,1655,1655,1655,1655,1655,1655,1647,1647,1647,1647,1647,1655,1655,1655,1655,1655,1655,1663,1663,1663,1663,1663,1663,1671,1671,1680,1680,1680,1680,1680,1680,1688,1688,1688,1696,1696,1696,1696,0,1063,1063,1063,1060,1060,1060,1060,1057,1057,1054,1050,1047,1047,1044,1041,1041,1038,1038,1034,1034,1031,1028,1025,1025,1022,1019,1016,1013,1013,1010,1007,1004,1001,998,995,992,989,987,987,984,981,978,978,975,970,964,962,959,956,956,954,951,948,943,940,938,935,933,933,930,928,925,923,918,918,915,910,908,908,906,903,898,898,891,887,887,882,880,878,878,875,871,864,862,860,858,856,854,851,849,847,831,827,825,823,821,821,817,813,809,807,805,805,805,805,805,805,805,805,807,809,809,809,811,811,813,813,813,813,813,815,815,817,817,817,0,0,0,0,0,0,1503,1496,1496,1496,1496,1496,1489,1489,1483,1483,1477,1470,1464,1458,1458,1452,1445,1445,1445,1439,1439,1433,1433,1427,1421,1421,1415,1415,1415,1404,1398,1398,1392,1392,1392,1392,1387,1381,1381,1376,1370,1370,1370,1365,1365,1359,1354,1354,1354,1349,1343,1343,1338,1333,1333,1328,1328,1322,1322,1317,1317,1317,1312,1307,1307,1302,1297,1292,1292,1292,1292,1288,1283,1283,1273,1273,1273,1268,1268,1264,1264,1255,1255,1255,1250,1250,1245,1241,1236,1236,1236,1232,1232,1227,1223,1223,1219,1219,1214,1214,1214,1206,1206,1202,1197,1197,1197,1193,1189,1185,1185,1185,1181,1181,1181,1181,1173,1169,1169,1165,1165,1161,1157,1157,1153,1153,1153,1149,1149,1149,1145,1145,1141,1138,1138,1134,1134,1134,1130,1126,1123,1119,1119,1115,1115,1112,1112,1108,1108,1108,1108,1105,1101,1097,1097,1094,1094,1090,1090,1090,1087,1084,1084,1080,1080,1077,1077,1073,1070,1067,1067,1063,1063,1063,1060,1060,1057,1057,1054,1054,1050,1047,1047,1047,1041,1041,1038,1038,1038,1034,1034,1034,1031,1031,1028,1028,1028,1025,1022,1019,1016,1016,1013,1013,1010,1007,1004,1004,1004,1004,1001,1001,998,998,992,992,989,989,987,987,981,981,981,981,978,978,975,975,973,970,970,0,0,0,0,0,0,0,0,0,0,0,0,0,0,0,0,0,0,0,0,0,0,0,0,0,0,0,0,0,0
0,0,0,0,0,0,0,0,0,0,0,0,0,0,0,0,2040,2028,2028,2028,2016,2016,2016,2005,2005,2005,1993,1993,2005,2005,1981,1970,1970,1970,1970,1970,1970,1970,1970,1970,1959,1947,1947,1947,1936,1936,1947,1936,1936,1947,1936,1936,1936,1936,1926,1926,1915,1915,1915,1915,1915,1915,1915,1915,1915,1904,1894,1894,1883,1883,1883,1883,1883,1883,1883,1883,1883,1883,1873,1873,1873,1863,1863,1863,1863,1863,1853,1853,1853,1853,1843,1843,1843,1843,1843,1843,1843,1833,1833,1833,1833,1833,1833,1823,1823,1823,1813,1813,1804,1804,1804,1804,1804,1794,1794,1794,1794,1794,1794,1794,1785,1785,1776,1776,1776,1766,1766,1766,1766,1766,1766,1766,1766,1757,1757,1757,1757,1757,1757,1757,1748,1748,1748,1739,1739,1739,1739,1739,1731,1731,1731,1731,1722,1722,1722,1722,1722,1722,1722,1713,1713,1713,1713,1713,1705,1705,1705,1696,1696,1696,1696,1696,1696,1688,1688,1688,1688,1688,1680,1680,1680,1680,1680,1680,1671,1671,1671,1680,1680,1680,1688,1688,1688,1688,1696,1696,2065,2065,2065,2065,2053,2053,2040,2028,2028,2016,2005,2005,2005,1655,1655,1655,1655,1655,1655,1647,1647,1647,1647,1647,1655,1655,1655,1663,1655,1655,1663,1663,1663,1663,1663,1663,1671,1680,1680,1680,1680,1680,1680,1680,1688,1688,1688,1696,1696,1696,1696,1696,0,1063,1063,1060,1060,1060,1060,1060,1057,1054,1050,1047,1047,1044,1041,1041,1038,1038,1038,1034,1034,1028,1025,1025,1022,1019,1016,1013,1013,1010,1007,1004,1001,998,995,989,987,987,987,984,981,978,978,975,970,964,962,959,956,956,954,951,946,943,940,938,935,933,930,930,928,925,923,918,918,915,910,908,908,906,903,898,898,891,887,887,882,880,878,875,875,871,864,862,860,858,856,851,851,847,845,831,827,825,823,821,821,817,813,811,807,807,805,805,805,805,805,805,805,807,809,809,809,811,811,813,813,813,815,815,817,817,817,817,0,0,0,0,0,0,0,1503,1496,1496,1496,1496,1496,1489,1489,1483,1483,1477,1470,1464,1458,1458,1452,1445,1445,1445,1439,1439,1433,1433,1427,1421,1421,1415,1415,1415,1410,1404,1398,1392,1392,1392,1392,1387,1381,1381,1376,1370,1370,1370,1370,1365,1359,1359,1354,1349,1349,1343,1343,1338,1333,1333,1328,1328,1322,1322,1317,1317,1317,1312,1312,1307,1302,1297,1297,1292,1292,1292,1288,1283,1283,1278,1278,1273,1268,1268,1264,1264,1259,1255,1255,1255,1250,1245,1241,1236,1236,1236,1236,1232,1227,1227,1223,1219,1219,1214,1214,1210,1206,1206,1202,1197,1197,1197,1193,1189,1185,1185,1185,1181,1181,1181,1181,1173,1169,1169,1165,1165,1165,1161,1157,1157,1153,1153,1153,1149,1149,1145,1145,1141,1138,1138,1134,1134,1134,1130,1126,1123,1119,1119,1115,1115,1112,1112,1108,1108,1108,1108,1105,1101,1101,1097,1094,1094,1090,1090,1090,1087,1084,1084,1080,1080,1077,1077,1073,1070,1067,1067,1063,1063,1063,1060,1060,1057,1057,1054,1054,1050,1047,1047,1047,1041,1041,1038,1038,1038,1034,1034,1034,1034,1031,1028,1028,1028,1025,1022,1019,1016,1016,1013,1013,1010,1007,1004,1004,1004,1004,1001,1001,998,998,992,992,989,989,989,987,984,984,981,981,981,981,975,975,973,970,970,0,0,0,0,0,0,0,0,0,0,0,0,0,0,0,0,0,0,0,0,0,0,0,0,0,0,0,0,0,0
0,0,0,0,0,0,0,0,0,0,0,0,0,0,0,0,2040,2040,2028,2028,2016,2016,2016,2005,2005,2005,2005,2005,2005,2005,1981,1970,1970,1959,1959,1959,1970,1970,1970,1970,1970,1959,1959,1947,1947,1947,1947,1936,1936,1947,1936,1936,1936,1936,1926,1926,1915,1915,1926,1915,1915,1915,1915,1915,1915,1915,1904,1904,1894,1883,1883,1883,1883,1883,1883,1883,1883,1883,1873,1873,1873,1863,1863,1863,1863,1863,1853,1853,1853,1853,1853,1843,1843,1843,1843,1843,1843,1843,1843,1833,1833,1833,1833,1823,1823,1823,1813,1813,1804,1804,1804,1804,1804,1794,1794,1794,1794,1794,1794,1794,1794,1794,1785,1785,1785,1776,1776,1776,1766,1766,1766,1766,1766,1766,1757,1757,1757,1757,1757,1757,1748,1748,1748,1748,1748,1748,1739,1739,1731,1731,1731,1731,1722,1722,1722,1722,1722,1722,1722,1713,1713,1713,1713,1713,1705,1705,1696,1696,1696,1696,1696,1696,1696,1688,1688,1688,1688,1688,1688,1680,1680,1680,1680,1680,1671,1671,1680,1680,1688,1688,1688,1688,1688,1696,1696,1696,2065,2065,2065,2065,2053,2053,2040,2028,2028,2016,2016,2005,2005,2005,1663,1663,1655,1655,1655,1647,1647,1647,1647,1647,1655,1655,1655,1663,1663,1663,1663,1663,1663,1663,1663,1663,1671,1671,1680,1680,1688,1688,1688,1688,1688,1696,1696,1696,1696,1696,1696,1696,1073,1070,1070,1060,1060,1060,1060,1060,1057,1054,1054,1050,1047,1044,1044,1041,1038,1038,1038,1038,1034,1031,1025,1022,1022,1019,1016,1016,1013,1010,1007,1004,1001,1001,998,989,987,987,987,984,981,978,978,975,970,964,962,959,956,956,954,954,946,943,940,938,935,933,930,930,928,925,923,918,918,915,913,908,908,906,903,898,898,891,889,887,882,880,878,875,873,871,864,862,860,858,856,851,849,847,843,835,829,827,825,823,821,817,813,811,807,807,805,805,805,805,805,805,805,809,809,809,811,811,811,813,813,813,815,817,819,819,819,819,0,0,0,0,0,0,0,1509,1503,1496,1496,1496,1496,1489,1489,1483,1483,1477,1470,1464,1464,1458,1452,1452,1445,1445,1439,1439,1439,1433,1427,1421,1421,1415,1415,1415,1410,1404,1398,1398,1392,1392,1392,1387,1387,1381,1376,1376,1376,1370,1370,1365,1365,1359,1354,1349,1349,1343,1343,1338,1333,1333,1328,1328,1322,1322,1322,1322,1317,1312,1312,1307,1307,1302,1297,1297,1292,1292,1288,1288,1288,1278,1278,1273,1268,1268,1268,1264,1259,1259,1255,1255,1255,1250,1241,1241,1241,1236,1236,1232,1227,1227,1223,1219,1219,1219,1214,1210,1206,1206,1202,1197,1197,1197,1193,1189,1185,1185,1185,1185,1181,1181,1181,1177,1173,1169,1169,1169,1165,1161,1161,1157,1153,1153,1153,1149,1149,1145,1145,1141,1138,1138,1134,1134,1134,1134,1130,1123,1119,1119,1115,1115,1112,1112,1112,1108,1108,1108,1105,1101,1101,1097,1094,1094,1090,1090,1090,1087,1084,1084,1080,1080,1077,1077,1073,1070,1070,1067,1067,1063,1063,1060,1060,1057,1054,1054,1054,1050,1050,1047,1047,1041,1041,1041,1038,1038,1034,1034,1034,1034,1031,1028,1028,1028,1025,1022,1022,1019,1016,1013,1013,1010,1010,1007,1004,1004,1004,1001,998,995,995,992,992,989,989,989,987,987,984,984,981,981,981,978,975,975,973,973,0,0,0,0,0,0,0,0,0,0,0,0,0,0,0,0,0,0,0,0,0,0,0,0,0,0,0,0,0,0
0,0,0,0,0,0,0,0,0,0,0,0,0,0,0,0,2053,2053,2040,2028,2028,2016,2016,2005,2005,2005,2005,2005,2005,2005,1981,1981,1970,1959,1959,1959,1970,1970,1970,1970,1959,1959,1959,1947,1947,1947,1947,1936,1936,1947,1936,1936,1936,1936,1926,1926,1926,1915,1915,1915,1915,1915,1915,1915,1915,1915,1904,1904,1904,1904,1894,1883,1883,1883,1883,1883,1883,1883,1873,1873,1873,1863,1863,1863,1863,1863,1863,1863,1863,1863,1853,1853,1853,1853,1843,1843,1843,1843,1843,1843,1833,1833,1833,1823,1823,1823,1813,1813,1813,1813,1813,1813,1804,1804,1804,1794,1794,1794,1794,1794,1794,1794,1794,1794,1794,1776,1776,1776,1776,1776,1766,1766,1766,1766,1766,1766,1766,1766,1757,1757,1757,1757,1748,1748,1748,1748,1739,1739,1739,1731,1731,1731,1731,1731,1722,1722,1722,1722,1722,1722,1713,1713,1713,1713,1705,1705,1696,1696,1696,1696,1696,1696,1696,1688,1688,1688,1688,1688,1680,1680,1680,1680,1680,1680,1680,1680,1680,1688,1688,1688,1688,1688,1688,1696,1696,1696,2065,2065,2065,2065,2065,2053,2053,2040,2028,2028,2016,2005,2005,2005,1663,1663,1655,1655,1655,1647,1647,1647,1647,1647,1655,1655,1655,1663,1663,1663,1663,1663,1663,1663,1663,1663,1671,1671,1680,1680,1688,1688,1688,1688,1688,1696,1696,1696,1696,1688,1688,1688,1073,1073,1070,1063,1063,1063,1060,1060,1057,1054,1054,1050,1047,1047,1044,1041,1041,1041,1038,1038,1034,1031,1025,1022,1022,1019,1016,1013,1013,1010,1010,1007,1004,1001,995,992,989,989,987,987,984,981,978,975,970,967,962,962,956,956,954,954,946,943,940,938,935,933,933,930,928,925,923,918,918,915,913,910,908,906,903,901,898,891,889,887,882,880,878,875,873,871,864,862,860,858,856,851,849,847,841,835,829,827,825,823,821,819,815,813,809,807,807,805,805,805,805,805,807,809,809,811,811,811,813,813,813,813,815,817,819,819,819,819,0,0,0,0,0,0,0,1509,1509,1503,1496,1496,1496,1489,1489,1483,1483,1477,1470,1464,1464,1458,1458,1452,1445,1445,1439,1439,1439,1433,1427,1427,1421,1421,1415,1415,1415,1410,1404,1398,1398,1392,1392,1392,1387,1381,1376,1376,1376,1370,1370,1365,1365,1359,1354,1349,1349,1349,1343,1338,1333,1333,1333,1328,1328,1322,1322,1322,1317,1312,1312,1307,1307,1302,1297,1297,1297,1292,1292,1288,1288,1283,1278,1273,1268,1268,1268,1264,1264,1259,1259,1255,1255,1250,1241,1236,1236,1236,1236,1232,1232,1227,1223,1223,1219,1219,1214,1210,1210,1206,1202,1202,1197,1197,1193,1193,1189,1189,1185,1185,1181,1181,1181,1177,1173,1169,1169,1169,1165,1161,1161,1157,1153,1153,1153,1153,1149,1149,1145,1145,1138,1138,1138,1134,1134,1134,1130,1123,1123,1119,1119,1115,1115,1112,1112,1108,1108,1108,1105,1101,1101,1097,1094,1094,1090,1090,1090,1087,1084,1080,1080,1080,1077,1077,1073,1073,1070,1070,1067,1063,1063,1060,1060,1057,1054,1054,1054,1050,1047,1047,1044,1041,1041,1041,1038,1038,1038,1038,1034,1034,1034,1031,1028,1028,1025,1022,1022,1019,1016,1013,1013,1010,1010,1007,1007,1004,1004,1001,998,995,995,992,992,992,989,989,989,987,984,984,981,981,981,978,978,975,973,973,0,0,0,0,0,0,0,0,0,0,0,0,0,0,0,0,0,0,0,0,0,0,0,0,0,0,0,0,0,0
0,0,0,0,0,0,0,0,0,0,0,0,0,0,0,0,2053,2053,2040,2040,2028,2016,2016,2005,2005,2005,2005,2005,2005,2005,1993,1993,1970,1959,1959,1970,1970,1970,1970,1970,1959,1959,1947,1947,1947,1947,1947,1936,1936,1947,1947,1936,1936,1936,1926,1926,1926,1915,1915,1915,1915,1915,1915,1915,1915,1915,1915,1915,1915,1915,1904,1904,1894,1883,1883,1883,1883,1883,1873,1873,1873,1863,1863,1863,1863,1863,1863,1863,1863,1863,1853,1853,1853,1853,1843,1843,1843,1843,1843,1843,1843,1833,1833,1833,1833,1833,1833,1823,1813,1813,1813,1813,1804,1804,1804,1804,1804,1804,1794,1794,1794,1794,1794,1794,1794,1785,1785,1776,1776,1776,1766,1766,1766,1766,1766,1766,1766,1766,1757,1757,1757,1757,1757,1748,1748,1748,1739,1739,1739,1739,1731,1731,1731,1731,1731,1722,1722,1722,1722,1722,1722,1713,1713,1713,1705,1705,1696,1696,1696,1696,1696,1696,1696,1688,1688,1688,1688,1688,1680,1680,1680,1680,1680,1680,1680,1680,1680,1688,1688,1688,1688,1688,1688,1688,1696,1696,2078,2078,2078,2065,2065,2053,2053,2040,2028,2028,2016,2005,2005,1663,1663,1663,1655,1655,1655,1655,1655,1655,1655,1655,1655,1655,1663,1663,1663,1663,1663,1663,1663,1663,1671,1671,1671,1680,1680,1680,1688,1688,1688,1688,1696,1696,1696,1696,1696,1688,1688,1688,1067,1067,1067,1063,1063,1063,1063,1060,1060,1057,1054,1054,1047,1047,1047,1044,1044,1041,1041,1038,1034,1031,1025,1025,1022,1019,1016,1013,1013,1010,1010,1007,1004,1001,995,992,989,989,987,984,984,981,978,975,970,967,964,962,959,956,954,954,946,943,940,938,935,935,933,930,928,925,923,918,918,915,913,910,908,906,903,901,898,894,889,887,882,880,878,875,873,869,867,862,860,858,856,851,847,847,841,837,829,827,823,821,821,819,815,813,809,809,807,807,807,805,805,807,807,809,811,811,811,811,813,813,815,815,817,817,819,819,821,821,0,0,0,0,0,0,0,1509,1509,1503,1496,1496,1496,1489,1489,1483,1483,1477,1470,1464,1464,1458,1458,1452,1452,1445,1445,1439,1439,1433,1427,1427,1421,1421,1415,1415,1415,1410,1404,1398,1398,1398,1392,1392,1392,1381,1376,1376,1376,1370,1370,1365,1365,1359,1354,1354,1349,1349,1343,1338,1333,1333,1333,1328,1328,1322,1322,1322,1317,1312,1312,1312,1307,1302,1302,1297,1297,1292,1292,1288,1288,1283,1278,1273,1268,1268,1268,1264,1264,1259,1259,1255,1255,1250,1241,1236,1236,1236,1236,1232,1232,1227,1223,1223,1219,1219,1214,1210,1210,1210,1206,1202,1197,1197,1193,1193,1189,1189,1189,1185,1185,1181,1181,1177,1173,1173,1169,1169,1165,1165,1161,1161,1153,1153,1153,1153,1149,1149,1145,1145,1141,1138,1138,1138,1134,1134,1130,1126,1123,1123,1119,1119,1115,1112,1112,1112,1108,1108,1105,1105,1101,1101,1097,1094,1094,1090,1090,1087,1087,1080,1080,1080,1077,1077,1073,1073,1070,1070,1067,1063,1063,1060,1060,1057,1057,1054,1054,1050,1047,1047,1044,1041,1041,1041,1038,1038,1038,1038,1034,1034,1034,1031,1028,1028,1025,1025,1022,1019,1016,1013,1013,1010,1010,1010,1007,1004,1004,1001,998,995,995,992,992,992,989,989,989,987,987,984,981,981,981,978,978,975,973,973,0,0,0,0,0,0,0,0,0,0,0,0,0,0,0,0,0,0,0,0,0,0,0,0,0,0,0,0,0,0
0,0,0,0,0,0,0,0,0,0,0,0,0,0,0,0,2053,2053,2040,2040,2028,2028,2016,2016,2016,2005,2005,2005,2005,2005,1993,1993,1981,1970,1970,1970,1970,1970,1970,1970,1970,1970,1947,1947,1947,1959,1959,1947,1947,1947,1947,1936,1936,1936,1926,1926,1926,1926,1926,1915,1915,1915,1915,1915,1915,1915,1915,1915,1915,1915,1904,1904,1894,1894,1883,1883,1883,1883,1873,1873,1873,1863,1863,1863,1863,1863,1863,1863,1863,1863,1863,1853,1853,1853,1843,1843,1843,1843,1843,1843,1843,1843,1843,1833,1833,1833,1833,1823,1823,1823,1823,1823,1813,1813,1804,1804,1804,1804,1804,1804,1804,1794,1794,1794,1794,1794,1785,1785,1785,1776,1766,1766,1766,1766,1766,1766,1766,1766,1766,1757,1757,1757,1757,1748,1748,1748,1748,1748,1739,1739,1739,1731,1731,1731,1731,1722,1722,1722,1722,1722,1722,1713,1713,1713,1713,1713,1705,1696,1696,1696,1696,1696,1696,1688,1688,1688,1688,1688,1680,1680,1680,1680,1680,1680,1680,1680,1680,1688,1688,1688,1688,1688,1688,1688,1688,1688,2090,2090,2078,2065,2065,2053,2053,2040,2028,2028,2016,2016,2005,1663,1663,1663,1655,1655,1655,1655,1655,1655,1655,1655,1655,1655,1655,1663,1663,1663,1671,1671,1671,1671,1671,1680,1680,1680,1680,1688,1688,1688,1688,1688,1696,1696,1696,1696,1696,1688,1688,1688,1067,1067,1067,1063,1063,1063,1063,1060,1060,1057,1057,1054,1050,1047,1047,1047,1044,1044,1041,1041,1034,1031,1028,1025,1022,1019,1016,1013,1013,1010,1010,1007,1004,1001,998,992,989,989,987,984,984,981,978,975,970,967,964,962,959,956,956,954,946,946,943,940,938,935,933,930,928,925,923,918,918,915,913,910,908,906,901,901,898,894,889,885,882,880,878,875,873,869,867,862,860,858,854,851,847,845,841,837,831,827,823,821,821,817,815,813,811,809,807,807,807,807,807,807,809,809,811,811,811,813,813,813,815,815,817,819,819,819,821,821,0,0,0,0,0,0,0,1509,1509,1496,1496,1496,1496,1489,1489,1483,1483,1477,1470,1464,1464,1464,1458,1452,1452,1445,1445,1445,1439,1439,1433,1427,1421,1421,1421,1415,1415,1410,1398,1398,1398,1398,1392,1392,1392,1381,1376,1376,1376,1370,1370,1370,1365,1359,1354,1354,1349,1349,1343,1338,1333,1333,1333,1328,1328,1328,1322,1322,1317,1312,1312,1312,1307,1307,1302,1302,1297,1292,1292,1288,1288,1283,1278,1273,1268,1268,1268,1268,1264,1259,1259,1255,1255,1250,1241,1236,1236,1236,1236,1232,1232,1232,1227,1223,1219,1219,1214,1210,1210,1210,1206,1202,1202,1202,1197,1197,1189,1189,1189,1185,1185,1181,1181,1181,1177,1173,1169,1169,1165,1165,1165,1161,1153,1153,1153,1153,1149,1149,1145,1145,1141,1138,1138,1138,1134,1134,1130,1126,1123,1123,1119,1119,1115,1112,1112,1108,1108,1108,1105,1105,1101,1101,1097,1094,1094,1090,1090,1087,1087,1087,1080,1080,1080,1077,1077,1073,1070,1070,1067,1063,1063,1060,1060,1057,1057,1054,1054,1050,1050,1047,1047,1044,1041,1041,1038,1038,1038,1038,1034,1034,1034,1031,1028,1028,1025,1025,1019,1019,1016,1016,1013,1013,1010,1010,1007,1004,1004,1004,1001,998,998,992,992,992,992,989,989,989,987,984,981,981,981,978,978,975,973,973,0,0,0,0,0,0,0,0,0,0,0,0,0,0,0,0,0,0,0,0,0,0,0,0,0,0,0,0,0,0
0,0,0,0,0,0,0,0,0,0,0,0,0,0,0,0,2053,2053,2053,2040,2040,2016,2016,2016,2016,2016,2005,2005,2005,1993,1993,1993,1993,1970,1970,1970,1970,1981,1970,1970,1970,1970,1970,1970,1959,1959,1959,1959,1947,1947,1947,1936,1936,1926,1926,1926,1926,1926,1926,1926,1926,1915,1915,1915,1915,1915,1915,1915,1915,1915,1915,1904,1904,1894,1883,1883,1883,1883,1883,1883,1873,1873,1873,1863,1863,1863,1863,1863,1863,1863,1863,1853,1853,1853,1843,1843,1843,1843,1843,1843,1843,1843,1843,1833,1833,1833,1833,1823,1823,1823,1823,1823,1813,1813,1804,1804,1804,1804,1804,1804,1804,1794,1794,1794,1794,1794,1785,1785,1785,1776,1766,1766,1766,1766,1766,1766,1766,1766,1766,1757,1757,1757,1757,1748,1748,1748,1748,1748,1739,1739,1731,1731,1731,1731,1722,1722,1722,1722,1722,1722,1722,1722,1722,1722,1713,1705,1705,1705,1696,1696,1696,1696,1696,1688,1688,1688,1688,1688,1680,1680,1680,1680,1680,1680,1680,1680,1680,1688,1688,1688,1688,1688,1688,1688,1688,1688,2090,2090,2078,2065,2065,2053,2053,2040,2028,2028,2016,2016,2016,1663,1663,1663,1655,1655,1655,1655,1655,1655,1655,1655,1655,1655,1655,1663,1663,1663,1671,1671,1671,1671,1671,1680,1680,1680,1680,1688,1688,1688,1688,1696,1696,1696,1696,1696,1688,1688,1688,1688,1070,1070,1070,1067,1063,1063,1063,1060,1060,1057,1054,1054,1050,1050,1050,1047,1047,1047,1044,1041,1038,1034,1028,1025,1022,1019,1016,1016,1013,1010,1010,1007,1004,1001,998,992,989,989,987,984,984,981,978,975,970,967,964,962,959,956,956,954,946,946,943,940,938,935,933,930,928,925,923,918,918,915,913,908,906,906,901,901,896,894,889,885,882,880,878,875,873,869,867,862,860,858,854,849,847,845,841,839,831,827,823,821,821,817,815,813,811,809,809,807,807,807,807,807,809,811,811,811,811,813,813,813,815,815,819,819,819,821,821,821,0,0,0,0,0,0,0,1509,1509,1496,1496,1496,1496,1489,1489,1489,1483,1477,1470,1464,1464,1464,1464,1458,1452,1452,1445,1445,1439,1439,1433,1433,1427,1421,1421,1415,1415,1410,1398,1398,1398,1398,1392,1392,1392,1381,1381,1376,1376,1370,1370,1370,1365,1359,1354,1354,1349,1349,1343,1338,1333,1333,1333,1328,1328,1328,1322,1322,1317,1312,1312,1312,1307,1307,1302,1302,1302,1297,1292,1292,1292,1288,1278,1273,1273,1273,1268,1268,1264,1259,1259,1255,1255,1250,1250,1241,1236,1236,1236,1236,1232,1232,1227,1223,1219,1219,1214,1214,1210,1210,1206,1206,1202,1202,1197,1197,1189,1189,1189,1189,1185,1181,1181,1177,1177,1173,1169,1169,1165,1165,1165,1161,1161,1157,1153,1153,1149,1149,1145,1145,1141,1138,1138,1138,1134,1134,1130,1130,1130,1123,1119,1119,1115,1112,1112,1108,1108,1108,1105,1105,1101,1101,1097,1094,1094,1090,1090,1090,1087,1087,1080,1080,1080,1077,1077,1073,1073,1070,1067,1063,1063,1063,1060,1057,1057,1054,1054,1050,1050,1047,1047,1044,1044,1041,1041,1038,1038,1038,1034,1034,1034,1031,1028,1028,1025,1025,1019,1019,1016,1016,1013,1013,1010,1010,1007,1007,1004,1004,1001,998,998,992,992,992,992,989,989,989,987,984,981,981,981,978,978,978,975,975,0,0,0,0,0,0,0,0,0,0,0,0,0,0,0,0,0,0,0,0,0,0,0,0,0,0,0,0,0,0
0,0,0,0,0,0,0,0,0,0,0,0,0,0,0,0,2053,2053,2040,2040,2028,2016,2016,2016,2016,2016,2005,2005,2005,1993,1993,1993,1993,1981,1981,1970,1970,1981,1970,1970,1970,1970,1970,1970,1959,1959,1947,1947,1947,1947,1936,1936,1936,1926,1926,1926,1926,1926,1926,1926,1926,1915,1915,1915,1915,1915,1915,1915,1915,1915,1915,1904,1904,1894,1883,1883,1883,1883,1883,1883,1873,1873,1873,1863,1863,1863,1863,1863,1863,1863,1863,1863,1853,1853,1853,1843,1843,1843,1843,1843,1843,1843,1843,1833,1833,1833,1833,1823,1823,1823,1823,1823,1813,1813,1804,1804,1804,1804,1804,1804,1804,1804,1804,1804,1804,1794,1794,1785,1785,1776,1776,1776,1776,1776,1776,1766,1766,1766,1766,1757,1757,1757,1757,1757,1757,1757,1748,1748,1739,1739,1731,1731,1731,1731,1722,1722,1722,1722,1722,1722,1722,1722,1722,1722,1713,1705,1705,1705,1696,1696,1696,1696,1696,1688,1688,1688,1688,1688,1688,1688,1688,1688,1688,1680,1680,1688,1688,1688,1688,1688,1688,1696,1696,1696,1696,1696,1696,2090,2078,2065,2065,2053,2053,2040,2028,2028,2016,2016,2016,1663,1663,1663,1655,1655,1655,1655,1655,1655,1655,1655,1655,1655,1663,1663,1663,1663,1671,1671,1671,1671,1680,1680,1680,1680,1688,1688,1688,1688,1688,1696,1696,1696,1696,1696,1688,1688,1688,1073,1073,1070,1070,1067,1067,1063,1063,1060,1060,1057,1054,1054,1050,1050,1050,1050,1050,1047,1047,1044,1041,1038,1025,1022,1019,1019,1016,1013,1013,1010,1010,1007,1004,1001,995,992,989,989,989,987,987,981,978,975,973,967,967,964,962,959,956,954,946,946,943,940,938,935,933,930,928,925,923,918,918,915,913,908,906,906,901,901,896,894,889,885,882,880,878,875,873,869,867,864,860,858,854,849,847,843,841,839,831,827,823,821,821,817,815,813,811,811,809,809,809,807,807,809,809,811,811,811,813,813,813,815,817,819,819,821,821,821,821,821,0,0,0,0,0,0,0,1509,1509,1496,1496,1496,1496,1496,1489,1489,1483,1477,1470,1470,1464,1464,1464,1458,1458,1452,1452,1445,1445,1439,1433,1433,1427,1421,1421,1415,1415,1415,1404,1398,1398,1398,1392,1392,1392,1387,1381,1376,1376,1376,1370,1370,1365,1365,1354,1354,1349,1349,1349,1343,1338,1333,1333,1328,1328,1328,1328,1322,1317,1312,1312,1312,1307,1307,1302,1302,1302,1297,1292,1292,1288,1283,1278,1273,1273,1273,1268,1268,1264,1264,1259,1259,1255,1250,1250,1241,1236,1236,1236,1236,1232,1232,1232,1227,1223,1219,1214,1214,1210,1210,1206,1206,1202,1202,1197,1197,1193,1193,1189,1189,1185,1185,1181,1177,1177,1173,1169,1169,1169,1165,1165,1165,1161,1157,1153,1153,1149,1149,1145,1145,1141,1138,1138,1138,1134,1134,1130,1130,1130,1123,1123,1119,1119,1112,1112,1112,1112,1108,1105,1105,1105,1101,1097,1094,1094,1090,1090,1090,1090,1084,1080,1080,1080,1080,1077,1077,1073,1070,1067,1067,1063,1063,1060,1060,1057,1057,1054,1054,1050,1050,1047,1044,1044,1041,1041,1038,1038,1038,1034,1034,1034,1031,1028,1028,1025,1025,1019,1019,1016,1016,1013,1013,1013,1010,1010,1007,1007,1004,1001,1001,998,995,992,992,992,989,989,989,989,987,984,984,981,981,978,975,975,975,0,0,0,0,0,0,0,0,0,0,0,0,0,0,0,0,0,0,0,0,0,0,0,0,0,0,0,0,0,0
0,0,0,0,0,0,0,0,0,0,0,0,0,0,0,0,2053,2053,2040,2040,2028,2016,2016,2016,2016,2016,2005,2005,2005,1993,1993,1993,1993,1981,1981,1970,1970,1981,1981,1970,1970,1959,1959,1959,1959,1959,1947,1947,1936,1936,1936,1936,1936,1926,1926,1926,1926,1926,1926,1926,1926,1926,1926,1926,1915,1915,1915,1915,1915,1915,1915,1915,1904,1894,1883,1883,1883,1883,1883,1873,1873,1873,1873,1863,1863,1863,1863,1863,1863,1863,1863,1863,1853,1853,1853,1853,1853,1853,1843,1843,1843,1843,1843,1843,1833,1833,1823,1823,1823,1823,1823,1823,1813,1813,1804,1804,1804,1804,1804,1804,1804,1804,1804,1804,1804,1794,1794,1785,1785,1785,1776,1776,1776,1766,1766,1766,1766,1766,1766,1757,1757,1757,1757,1757,1757,1757,1748,1748,1748,1739,1739,1731,1731,1731,1731,1722,1722,1722,1722,1722,1722,1722,1722,1722,1713,1713,1705,1705,1696,1696,1696,1696,1696,1696,1696,1688,1688,1688,1688,1688,1688,1688,1688,1680,1680,1680,1688,1688,1688,1688,1696,1696,1696,1696,1696,1696,1696,2078,2078,2065,2065,2053,2053,2040,2028,2028,2016,2016,2016,2016,1680,1663,1663,1663,1663,1663,1655,1655,1655,1655,1655,1655,1663,1663,1663,1671,1671,1671,1671,1680,1680,1680,1680,1688,1688,1688,1688,1688,1696,1688,1688,1688,1688,1688,1688,1688,1688,1070,1070,1070,1070,1070,1067,1067,1063,1060,1060,1057,1057,1057,1054,1050,1050,1050,1050,1050,1050,1050,1047,1041,1022,1019,1019,1016,1016,1013,1013,1010,1010,1010,1004,1001,995,992,989,989,989,987,984,981,978,975,973,970,967,964,962,959,956,954,946,946,943,940,938,935,933,930,930,928,923,918,918,915,913,908,906,906,903,901,896,894,891,887,882,880,878,875,869,867,867,862,860,858,854,849,847,843,843,839,831,827,825,823,821,817,815,813,811,811,809,809,809,809,809,809,811,811,811,811,813,813,815,817,819,819,819,821,821,821,821,821,821,0,0,0,0,0,0,1509,1509,1503,1496,1496,1496,1496,1489,1489,1483,1477,1470,1470,1470,1464,1464,1458,1458,1452,1452,1445,1445,1439,1433,1433,1427,1421,1421,1415,1415,1415,1410,1398,1398,1398,1398,1392,1392,1387,1381,1381,1376,1376,1370,1370,1365,1365,1359,1354,1349,1349,1349,1343,1338,1333,1333,1333,1328,1328,1328,1322,1317,1312,1312,1312,1307,1307,1307,1302,1302,1297,1292,1292,1288,1283,1278,1273,1273,1273,1268,1268,1264,1264,1264,1255,1255,1250,1250,1245,1241,1241,1236,1236,1236,1232,1232,1227,1223,1219,1219,1214,1214,1210,1210,1206,1202,1202,1197,1197,1193,1193,1189,1189,1185,1185,1181,1181,1177,1173,1173,1169,1169,1165,1165,1165,1161,1161,1153,1153,1149,1149,1149,1145,1141,1138,1138,1138,1134,1134,1130,1130,1130,1123,1123,1119,1119,1115,1115,1112,1112,1108,1108,1108,1105,1101,1101,1094,1094,1094,1090,1090,1090,1084,1084,1080,1080,1080,1077,1077,1077,1070,1067,1067,1067,1063,1063,1060,1057,1057,1054,1054,1054,1050,1047,1044,1044,1041,1041,1041,1038,1038,1038,1034,1034,1031,1028,1028,1028,1025,1022,1019,1016,1016,1013,1013,1013,1013,1010,1007,1007,1004,1001,1001,998,998,995,992,992,989,989,989,989,987,984,984,981,981,978,975,975,0,0,0,0,0,0,0,0,0,0,0,0,0,0,0,0,0,0,0,0,0,0,0,0,0,0,0,0,0,0,0
0,0,0,0,0,0,0,0,0,0,0,0,0,0,0,0,2053,2053,2040,2040,2028,2016,2016,2016,2016,2016,2005,2005,2005,1993,1993,1993,1993,1981,1981,1981,1981,1981,1981,1970,1970,1959,1959,1959,1947,1947,1947,1947,1936,1936,1936,1936,1936,1936,1926,1926,1926,1926,1926,1926,1926,1926,1926,1926,1926,1915,1915,1915,1915,1915,1915,1904,1904,1894,1894,1883,1883,1883,1873,1873,1873,1873,1873,1863,1863,1863,1863,1863,1863,1863,1863,1863,1853,1853,1853,1843,1843,1853,1843,1843,1843,1843,1843,1843,1833,1833,1823,1823,1823,1823,1823,1823,1813,1813,1804,1804,1804,1804,1804,1804,1804,1804,1804,1804,1804,1794,1794,1794,1794,1785,1785,1776,1776,1766,1766,1766,1766,1766,1766,1766,1766,1757,1757,1757,1757,1757,1748,1748,1748,1739,1739,1731,1731,1731,1731,1731,1731,1722,1722,1722,1722,1722,1722,1722,1713,1713,1705,1705,1705,1696,1696,1696,1696,1696,1696,1688,1688,1688,1688,1688,1688,1688,1688,1680,1680,1680,1688,1688,1688,1688,1688,1696,1696,1696,1696,1696,1696,2103,2090,2078,2065,2065,2053,2053,2040,2028,2028,2016,2016,2016,1680,1671,1663,1663,1663,1663,1663,1663,1655,1655,1655,1655,1663,1663,1663,1671,1671,1671,1671,1680,1680,1680,1680,1688,1688,1688,1688,1688,1696,1688,1688,1688,1688,1688,1696,1696,1073,1073,1070,1070,1070,1070,1067,1067,1063,1060,1060,1057,1057,1057,1054,1054,1050,1050,1050,1054,1057,1057,1057,1057,1022,1016,1016,1016,1013,1013,1013,1010,1010,1010,1004,1001,998,995,992,989,989,987,984,981,978,975,973,970,967,964,964,959,956,954,951,946,943,940,938,935,933,933,930,928,925,918,918,915,913,908,906,906,903,898,896,894,891,889,885,882,880,875,869,867,864,862,860,858,854,849,845,843,843,839,829,827,825,823,821,817,815,813,811,811,809,809,809,809,809,809,811,811,811,813,813,813,815,817,819,819,821,821,821,821,819,819,821,0,0,0,0,0,0,0,1509,1503,1503,1503,1496,1496,1489,1489,1483,1477,1477,1470,1470,1464,1464,1458,1458,1458,1452,1445,1445,1439,1433,1433,1427,1427,1421,1415,1415,1415,1410,1404,1404,1398,1398,1392,1392,1387,1381,1381,1376,1376,1370,1370,1365,1365,1359,1354,1349,1349,1349,1343,1338,1333,1333,1333,1328,1328,1328,1322,1317,1312,1312,1312,1307,1307,1307,1302,1302,1297,1292,1292,1288,1283,1278,1278,1273,1273,1268,1268,1264,1264,1264,1255,1255,1255,1250,1245,1241,1241,1241,1236,1236,1236,1232,1227,1223,1219,1219,1219,1214,1214,1210,1206,1206,1202,1202,1197,1197,1193,1189,1189,1185,1185,1185,1181,1177,1177,1173,1169,1169,1169,1165,1165,1161,1161,1157,1153,1153,1149,1149,1149,1145,1141,1138,1138,1134,1134,1134,1130,1130,1123,1123,1119,1119,1115,1115,1112,1112,1108,1108,1108,1105,1101,1101,1094,1094,1094,1090,1090,1090,1087,1084,1080,1080,1080,1077,1077,1077,1070,1070,1067,1067,1063,1063,1060,1060,1057,1057,1054,1054,1050,1047,1044,1044,1041,1041,1041,1038,1038,1038,1034,1034,1031,1031,1028,1028,1025,1022,1019,1019,1016,1016,1016,1013,1013,1010,1010,1007,1004,1004,1001,1001,998,998,995,992,992,989,989,989,987,987,984,981,981,978,978,978,0,0,0,0,0,0,0,0,0,0,0,0,0,0,0,0,0,0,0,0,0,0,0,0,0,0,0,0,0,0,0
0,0,0,0,0,0,0,0,0,0,0,0,0,0,0,0,2053,2053,2053,2040,2040,2028,2016,2016,2016,2016,2005,2005,2005,1993,1993,1993,1993,1993,1993,1981,1981,1981,1981,1970,1970,1959,1959,1959,1947,1947,1947,1947,1947,1947,1936,1936,1936,1936,1926,1926,1926,1926,1926,1926,1926,1926,1926,1926,1926,1915,1915,1915,1915,1915,1904,1904,1904,1894,1894,1883,1883,1883,1873,1873,1873,1873,1873,1873,1863,1863,1873,1863,1863,1863,1863,1863,1853,1853,1853,1843,1843,1853,1843,1843,1843,1843,1843,1843,1843,1833,1823,1823,1823,1823,1823,1823,1813,1813,1804,1804,1804,1804,1804,1804,1804,1804,1804,1804,1804,1794,1794,1794,1794,1785,1785,1785,1776,1766,1766,1766,1766,1766,1766,1766,1766,1757,1757,1757,1757,1757,1757,1757,1748,1739,1739,1731,1731,1731,1731,1731,1731,1731,1731,1722,1722,1722,1722,1722,1722,1713,1705,1705,1705,1696,1696,1696,1696,1696,1696,1688,1688,1688,1688,1688,1688,1688,1680,1680,1680,1688,1688,1688,1688,1688,1688,1696,1696,1696,1696,1696,1696,2103,2090,2078,2078,2065,2065,2053,2040,2040,2028,2028,2016,2016,1680,1663,1663,1671,1671,1663,1663,1663,1655,1655,1655,1655,1663,1663,1671,1671,1671,1671,1680,1680,1680,1688,1688,1688,1688,1688,1688,1696,1696,1696,1688,1688,1696,1696,1696,1696,1073,1073,1070,1070,1073,1070,1067,1067,1063,1060,1060,1057,1057,1057,1054,1054,1057,1057,1057,1057,1057,1057,1060,1060,1060,1016,1013,1013,1013,1013,1013,1010,1010,1010,1007,1001,998,995,992,992,989,987,984,984,978,975,973,970,967,964,964,959,956,954,951,946,943,940,938,935,933,930,930,928,925,918,918,915,913,908,906,906,903,898,896,894,891,889,885,882,880,873,869,867,864,862,860,858,854,849,845,843,841,841,829,827,825,823,819,817,815,813,811,811,811,809,809,809,809,811,811,811,811,813,813,815,817,819,819,821,821,821,819,819,819,819,821,0,0,0,0,0,0,0,1509,1509,1503,1503,1496,1496,1496,1489,1489,1477,1477,1470,1470,1464,1464,1464,1458,1458,1452,1445,1445,1439,1439,1433,1433,1427,1421,1421,1415,1415,1410,1410,1404,1398,1398,1392,1392,1387,1381,1381,1376,1376,1370,1370,1370,1365,1359,1354,1354,1349,1349,1349,1343,1338,1338,1333,1333,1328,1328,1322,1317,1312,1312,1312,1307,1307,1307,1307,1302,1297,1292,1292,1288,1283,1278,1278,1273,1273,1268,1268,1264,1264,1264,1259,1255,1255,1250,1245,1245,1245,1241,1236,1236,1236,1232,1227,1223,1219,1219,1219,1214,1214,1210,1206,1206,1202,1202,1197,1197,1193,1193,1189,1185,1185,1185,1181,1181,1177,1173,1169,1169,1169,1165,1165,1165,1161,1153,1153,1153,1153,1149,1149,1145,1141,1138,1138,1134,1134,1134,1130,1130,1123,1123,1119,1119,1115,1115,1112,1112,1108,1108,1108,1105,1101,1101,1094,1094,1094,1090,1090,1090,1087,1084,1080,1080,1080,1077,1077,1073,1070,1070,1067,1067,1063,1063,1063,1060,1057,1057,1054,1054,1050,1050,1047,1044,1044,1041,1041,1041,1038,1038,1034,1034,1031,1031,1028,1028,1025,1022,1019,1019,1016,1016,1016,1013,1013,1010,1010,1010,1007,1004,1004,1001,1001,998,995,995,992,992,989,989,987,987,984,981,981,978,978,978,0,0,0,0,0,0,0,0,0,0,0,0,0,0,0,0,0,0,0,0,0,0,0,0,0,0,0,0,0,0,0
0,0,0,0,0,0,0,0,0,0,0,0,0,0,0,0,2053,2053,2053,2040,2040,2040,2028,2028,2016,2016,2016,2005,2005,1993,1993,1993,1993,1993,1993,1993,1993,1993,1993,1981,1970,1970,1970,1959,1959,1959,1947,1947,1947,1947,1936,1936,1936,1936,1936,1926,1926,1926,1926,1926,1926,1926,1926,1926,1926,1915,1915,1915,1915,1915,1904,1904,1904,1894,1894,1894,1894,1883,1883,1883,1873,1873,1873,1873,1873,1873,1873,1873,1873,1863,1863,1873,1863,1863,1853,1853,1853,1853,1853,1843,1843,1843,1843,1843,1843,1833,1823,1823,1823,1823,1823,1823,1813,1813,1804,1804,1804,1804,1804,1804,1804,1804,1804,1804,1804,1804,1804,1794,1794,1794,1785,1785,1776,1776,1776,1776,1766,1766,1766,1766,1766,1766,1757,1757,1757,1757,1757,1757,1748,1748,1739,1739,1739,1731,1731,1731,1731,1731,1731,1731,1731,1722,1722,1722,1722,1722,1713,1705,1705,1705,1705,1696,1696,1696,1696,1696,1696,1688,1688,1688,1688,1688,1680,1680,1680,1688,1688,1688,1688,1688,1696,1696,1696,1696,1696,1696,1696,2103,2103,2078,2078,2065,2065,2053,2053,2040,2040,2028,2028,2016,2005,1663,1663,1671,1671,1671,1663,1663,1663,1663,1663,1663,1663,1663,1671,1671,1671,1671,1680,1680,1680,1688,1688,1688,1688,1688,1688,1696,1696,1696,1696,1696,1696,1696,1705,1705,1073,1073,1073,1073,1073,1070,1070,1067,1063,1060,1060,1057,1057,1057,1054,1054,1057,1060,1060,1060,1060,1063,1060,1060,1063,1063,1013,1013,1013,1013,1013,1010,1010,1010,1007,1001,998,995,992,992,989,987,984,984,978,975,973,970,967,964,964,962,959,954,951,946,943,940,938,935,933,930,928,928,925,918,918,915,913,910,908,906,903,898,896,891,891,889,887,882,880,873,869,864,864,862,860,858,854,849,845,843,841,837,829,827,825,823,819,817,815,813,811,811,811,811,811,809,809,811,811,811,813,813,815,815,817,819,819,821,821,821,819,819,819,819,821,0,0,0,0,0,0,1516,1509,1509,1503,1503,1496,1496,1496,1489,1489,1483,1477,1477,1470,1470,1470,1464,1464,1458,1452,1445,1445,1445,1439,1439,1433,1427,1421,1421,1415,1415,1410,1410,1404,1398,1398,1392,1392,1387,1387,1381,1376,1376,1376,1370,1370,1365,1365,1354,1354,1354,1349,1349,1343,1338,1338,1333,1333,1328,1328,1322,1317,1312,1312,1312,1312,1307,1307,1307,1302,1297,1292,1292,1288,1283,1278,1278,1273,1273,1273,1268,1264,1264,1264,1259,1255,1255,1255,1250,1245,1245,1245,1241,1236,1236,1236,1232,1232,1219,1219,1219,1214,1214,1210,1210,1206,1206,1202,1202,1197,1197,1193,1189,1185,1185,1185,1181,1181,1177,1173,1173,1169,1169,1165,1165,1165,1161,1153,1153,1153,1153,1149,1149,1145,1145,1141,1138,1138,1134,1134,1130,1130,1126,1123,1123,1119,1115,1115,1112,1112,1112,1108,1108,1105,1105,1101,1094,1094,1094,1090,1090,1090,1090,1087,1084,1084,1080,1080,1077,1073,1070,1070,1067,1067,1063,1063,1063,1060,1057,1057,1054,1054,1050,1050,1050,1047,1044,1044,1041,1041,1041,1038,1038,1034,1031,1031,1028,1028,1025,1022,1019,1019,1016,1016,1016,1013,1013,1013,1010,1010,1007,1007,1004,1004,1001,998,998,995,992,992,989,989,987,987,984,981,981,978,978,978,0,0,0,0,0,0,0,0,0,0,0,0,0,0,0,0,0,0,0,0,0,0,0,0,0,0,0,0,0,0,0
0,0,0,0,0,0,0,0,0,0,0,0,0,0,0,0,2053,2053,2053,2040,2040,2040,2028,2028,2016,2016,2005,2005,2005,2005,2005,1993,1993,1993,1993,1993,1993,1993,1993,1993,1981,1970,1970,1959,1959,1959,1959,1947,1947,1947,1936,1936,1936,1936,1936,1926,1926,1926,1926,1926,1926,1926,1926,1926,1926,1915,1915,1915,1915,1915,1904,1904,1904,1904,1894,1894,1894,1894,1883,1883,1873,1873,1873,1873,1873,1873,1873,1873,1873,1873,1873,1873,1873,1873,1873,1863,1863,1853,1853,1853,1853,1843,1843,1843,1843,1833,1833,1833,1833,1823,1823,1823,1823,1813,1813,1804,1804,1804,1804,1804,1804,1813,1813,1804,1804,1804,1804,1794,1794,1794,1794,1785,1785,1785,1776,1776,1766,1766,1766,1766,1766,1766,1766,1757,1757,1757,1757,1757,1748,1748,1739,1739,1739,1739,1731,1731,1731,1731,1731,1731,1731,1731,1722,1722,1722,1722,1713,1713,1713,1705,1705,1705,1696,1696,1696,1696,1696,1696,1696,1688,1688,1688,1688,1688,1688,1688,1688,1688,1688,1688,1696,1696,1696,1696,1705,1705,1705,2103,2103,2090,2078,2065,2065,2053,2053,2040,2040,2028,2028,2016,2005,2005,2005,1671,1671,1671,1663,1663,1663,1663,1663,1663,1663,1663,1671,1671,1671,1671,1680,1680,1680,1688,1688,1688,1688,1688,1688,1696,1696,1696,1696,1696,1696,1696,1696,1073,1073,1073,1073,1073,1073,1070,1070,1067,1063,1060,1060,1057,1057,1057,1057,1057,1060,1060,1060,1063,1063,1063,1063,1067,1067,1067,1067,1067,1016,1013,1013,1013,1013,1013,1010,1001,998,995,992,992,989,987,987,984,978,975,973,970,970,964,964,962,959,954,951,946,943,940,938,935,933,930,928,925,923,920,920,915,913,910,908,906,903,898,896,891,891,889,887,882,880,873,869,864,864,862,860,858,854,849,847,845,841,837,829,827,825,823,819,817,815,813,813,811,811,811,811,809,809,811,811,813,813,813,815,817,819,819,819,821,821,821,821,821,821,821,0,0,0,0,0,0,0,1516,1509,1509,1503,1503,1496,1496,1496,1489,1489,1483,1477,1477,1470,1470,1470,1464,1464,1458,1452,1445,1445,1439,1439,1439,1433,1427,1421,1421,1415,1415,1415,1410,1410,1404,1398,1398,1398,1392,1387,1381,1376,1376,1376,1370,1370,1365,1365,1354,1354,1354,1349,1349,1343,1338,1338,1333,1333,1328,1328,1322,1317,1317,1312,1312,1312,1307,1307,1307,1302,1297,1297,1292,1288,1283,1283,1278,1278,1273,1273,1268,1264,1264,1264,1259,1255,1255,1255,1250,1250,1245,1245,1241,1241,1236,1236,1232,1232,1223,1219,1219,1214,1214,1214,1210,1210,1206,1202,1202,1197,1197,1197,1193,1189,1185,1185,1185,1181,1181,1177,1173,1173,1169,1165,1165,1165,1161,1157,1153,1153,1153,1149,1149,1149,1145,1141,1138,1138,1134,1134,1130,1130,1126,1123,1123,1119,1115,1115,1115,1112,1112,1108,1108,1105,1105,1101,1097,1094,1094,1090,1090,1090,1090,1087,1087,1084,1084,1080,1077,1077,1073,1073,1070,1067,1063,1063,1063,1060,1057,1057,1054,1054,1054,1054,1050,1047,1044,1044,1041,1041,1041,1038,1038,1034,1034,1031,1028,1028,1025,1022,1019,1019,1016,1016,1016,1016,1013,1013,1013,1010,1007,1007,1004,1004,1001,998,998,995,992,992,989,989,987,987,984,981,981,978,978,978,0,0,0,0,0,0,0,0,0,0,0,0,0,0,0,0,0,0,0,0,0,0,0,0,0,0,0,0,0,0,0
0,0,0,0,0,0,0,0,0,0,0,0,0,0,0,0,2053,2053,2053,2053,2040,2040,2028,2028,2016,2016,2005,2005,2005,2005,2005,1993,1993,1993,1993,1993,1993,1993,1993,1993,1970,1970,1970,1970,1959,1959,1959,1959,1947,1947,1947,1936,1936,1936,1936,1936,1936,1926,1926,1926,1926,1926,1926,1926,1926,1926,1926,1915,1915,1915,1915,1915,1904,1904,1904,1894,1894,1894,1883,1883,1883,1883,1873,1873,1873,1873,1873,1873,1873,1873,1873,1873,1873,1873,1873,1873,1863,1863,1863,1853,1853,1843,1843,1843,1843,1833,1833,1833,1833,1823,1823,1823,1823,1813,1813,1813,1813,1804,1804,1813,1813,1813,1813,1804,1804,1804,1804,1794,1794,1794,1794,1785,1785,1785,1785,1785,1776,1766,1766,1766,1766,1766,1766,1757,1757,1757,1757,1757,1757,1748,1748,1748,1748,1748,1739,1739,1739,1731,1731,1731,1731,1731,1722,1722,1722,1722,1722,1713,1713,1713,1713,1705,1705,1705,1705,1696,1696,1696,1696,1688,1688,1688,1688,1688,1688,1688,1688,1688,1688,1696,1696,1696,1696,1705,1705,1705,1705,2116,2103,2090,2090,2078,2065,2065,2053,2040,2040,2028,2028,2016,2016,2005,2005,1680,1671,1671,1671,1663,1663,1663,1663,1663,1663,1663,1671,1671,1671,1671,1680,1680,1680,1688,1688,1688,1688,1696,1696,1696,1696,1696,1696,1696,1696,1696,1696,1696,1077,1077,1077,1073,1073,1073,1070,1067,1063,1060,1060,1057,1057,1057,1057,1057,1060,1060,1063,1063,1063,1063,1067,1067,1067,1070,1073,1073,1019,1016,1013,1013,1013,1013,1013,1001,1001,998,998,998,992,987,987,984,978,975,975,973,970,967,964,962,959,954,951,946,943,940,938,935,933,930,928,925,923,920,920,918,915,910,908,906,901,898,896,894,891,889,887,885,880,871,869,864,864,862,860,858,856,849,847,845,841,835,829,827,825,821,819,817,815,813,813,811,811,811,811,811,811,811,811,813,813,815,815,817,819,819,821,821,821,823,823,821,821,821,0,0,0,0,0,0,1523,1516,1516,1509,1509,1503,1496,1496,1496,1496,1489,1483,1483,1477,1477,1470,1470,1464,1464,1458,1452,1445,1445,1439,1439,1439,1433,1427,1421,1421,1421,1415,1415,1415,1410,1404,1398,1398,1398,1392,1392,1387,1381,1376,1376,1370,1370,1365,1365,1354,1354,1354,1349,1349,1349,1343,1338,1333,1333,1333,1328,1322,1317,1317,1312,1312,1312,1312,1307,1307,1307,1302,1297,1292,1288,1288,1283,1278,1278,1273,1273,1268,1268,1264,1264,1259,1255,1255,1255,1250,1250,1250,1245,1241,1241,1236,1236,1232,1232,1223,1219,1219,1214,1214,1214,1210,1210,1210,1206,1202,1197,1197,1197,1197,1189,1185,1185,1185,1181,1181,1177,1177,1173,1169,1169,1165,1165,1161,1157,1153,1153,1153,1149,1149,1149,1145,1141,1138,1138,1134,1134,1130,1130,1126,1126,1123,1119,1119,1115,1115,1112,1112,1108,1108,1108,1105,1105,1097,1094,1094,1090,1090,1090,1090,1090,1087,1087,1084,1080,1077,1077,1073,1073,1070,1070,1067,1067,1063,1060,1060,1057,1054,1054,1054,1054,1047,1047,1044,1041,1041,1041,1041,1038,1038,1034,1034,1031,1028,1028,1025,1025,1022,1022,1019,1016,1016,1016,1016,1013,1013,1010,1010,1007,1004,1004,1001,1001,998,995,992,992,992,989,989,987,984,981,981,978,978,978,0,0,0,0,0,0,0,0,0,0,0,0,0,0,0,0,0,0,0,0,0,0,0,0,0,0,0,0,0,0,0
0,0,0,0,0,0,0,0,0,0,0,0,0,0,0,0,2053,2053,2053,2053,2053,2040,2040,2028,2016,2016,2016,2005,2005,2005,2005,2005,1993,1993,1993,1993,1993,1993,1993,1981,1970,1970,1970,1970,1959,1959,1959,1959,1947,1947,1947,1947,1936,1936,1936,1936,1936,1926,1926,1926,1926,1926,1926,1926,1926,1926,1926,1915,1915,1915,1915,1915,1915,1904,1904,1894,1894,1894,1894,1894,1883,1883,1883,1883,1873,1873,1883,1883,1883,1883,1873,1873,1873,1873,1873,1863,1863,1853,1853,1853,1853,1853,1853,1853,1853,1833,1833,1833,1833,1833,1823,1823,1823,1823,1813,1813,1813,1813,1813,1813,1813,1813,1813,1804,1804,1804,1804,1794,1794,1794,1794,1785,1785,1785,1785,1785,1776,1776,1766,1766,1766,1766,1766,1757,1757,1757,1757,1757,1757,1757,1748,1748,1748,1748,1748,1748,1748,1739,1739,1731,1731,1731,1731,1722,1722,1722,1722,1722,1713,1713,1713,1705,1705,1705,1705,1696,1696,1696,1696,1696,1688,1688,1688,1688,1688,1688,1688,1688,1688,1696,1696,1696,1696,1696,1705,1705,2116,2116,2103,2090,2090,2078,2065,2065,2053,2040,2040,2028,2028,2016,2016,2016,1993,1993,1680,1680,1671,1671,1671,1663,1663,1663,1671,1671,1671,1671,1671,1680,1680,1680,1688,1688,1688,1688,1696,1696,1696,1696,1696,1696,1696,1696,1696,1696,1696,1696,1077,1077,1077,1077,1073,1073,1070,1067,1063,1060,1060,1060,1060,1060,1057,1057,1060,1063,1063,1063,1063,1067,1067,1067,1067,1070,1070,1073,1073,1073,1077,1013,1013,1013,1013,1001,1001,998,998,998,995,989,987,984,975,975,973,970,967,964,964,962,959,954,951,946,943,940,938,935,933,930,928,925,923,920,920,918,915,910,908,906,901,898,896,894,891,889,887,885,875,871,869,864,864,862,860,858,856,851,849,845,839,835,829,827,825,821,819,817,815,813,813,811,811,811,811,811,811,811,813,813,813,817,817,819,819,819,821,823,823,823,825,823,823,0,0,0,0,0,0,0,1523,1516,1516,1509,1509,1503,1496,1496,1496,1489,1489,1483,1483,1477,1477,1470,1470,1464,1464,1458,1452,1445,1445,1439,1439,1439,1433,1427,1421,1421,1421,1415,1415,1415,1410,1404,1398,1398,1398,1392,1392,1387,1381,1381,1376,1376,1370,1370,1365,1365,1354,1354,1354,1349,1349,1343,1338,1338,1333,1333,1328,1328,1322,1322,1317,1317,1317,1312,1312,1307,1307,1302,1297,1292,1288,1288,1283,1278,1278,1273,1273,1268,1268,1268,1264,1259,1259,1255,1255,1250,1250,1250,1245,1241,1241,1236,1236,1232,1232,1227,1223,1223,1214,1214,1214,1210,1210,1210,1206,1202,1202,1197,1197,1197,1189,1185,1185,1185,1181,1181,1181,1177,1177,1169,1169,1165,1165,1165,1161,1157,1157,1153,1149,1149,1149,1145,1145,1138,1138,1138,1134,1134,1130,1126,1126,1123,1123,1119,1119,1115,1112,1112,1112,1108,1108,1108,1105,1101,1097,1094,1094,1090,1090,1090,1090,1087,1087,1084,1080,1077,1077,1073,1073,1070,1070,1067,1067,1063,1063,1060,1057,1054,1054,1050,1050,1047,1047,1044,1041,1041,1041,1041,1041,1038,1038,1034,1031,1028,1028,1025,1025,1022,1022,1019,1016,1016,1016,1016,1013,1013,1010,1010,1007,1004,1001,1001,1001,998,998,995,995,992,989,989,989,984,981,981,981,978,978,0,0,0,0,0,0,0,0,0,0,0,0,0,0,0,0,0,0,0,0,0,0,0,0,0,0,0,0,0,0,0
0,0,0,0,0,0,0,0,0,0,0,0,0,0,0,0,2053,2053,2065,2053,2053,2053,2028,2028,2016,2016,2016,2016,2016,2016,2005,2005,2005,2005,2005,2005,2005,1993,1993,1981,1981,1970,1970,1970,1970,1970,1959,1959,1959,1959,1947,1947,1936,1936,1936,1936,1936,1936,1936,1936,1936,1936,1936,1926,1926,1926,1926,1926,1915,1915,1915,1915,1915,1904,1904,1894,1894,1894,1894,1883,1883,1894,1894,1883,1883,1883,1883,1883,1883,1883,1873,1873,1873,1873,1873,1863,1863,1853,1853,1853,1853,1853,1853,1853,1853,1843,1843,1833,1833,1833,1833,1823,1823,1823,1823,1823,1813,1813,1813,1813,1813,1813,1813,1804,1804,1804,1804,1794,1794,1794,1794,1794,1794,1785,1785,1785,1785,1776,1776,1766,1766,1766,1766,1766,1757,1757,1757,1757,1757,1757,1757,1757,1757,1757,1748,1748,1748,1748,1739,1739,1739,1731,1731,1731,1722,1722,1722,1722,1713,1713,1713,1705,1705,1705,1696,1696,1696,1696,1696,1696,1688,1688,1688,1688,1688,1688,1688,1696,1696,1696,1696,1696,1696,1696,1705,1705,1705,2116,2103,2103,2090,2078,2078,2065,2053,2053,2040,2040,2028,2016,2016,2005,1993,1993,1680,1680,1671,1671,1671,1663,1663,1671,1671,1671,1680,1680,1680,1680,1680,1680,1688,1688,1688,1688,1696,1696,1696,1696,1696,1696,1696,1696,1696,1696,1696,1696,1077,1077,1077,1077,1073,1073,1070,1067,1063,1063,1060,1060,1060,1060,1060,1060,1060,1063,1063,1063,1063,1067,1067,1070,1070,1070,1070,1073,1073,1073,1073,1785,1785,1785,1785,1776,1776,1785,1785,1785,1794,1794,1794,1794,975,975,973,967,967,964,964,962,959,954,951,946,943,943,940,938,933,930,928,928,923,923,920,918,915,913,908,908,901,898,896,891,891,889,887,885,875,871,869,867,864,862,860,858,858,851,849,847,839,835,829,827,825,821,819,817,815,813,813,811,811,811,811,811,811,811,813,813,817,817,819,819,819,821,821,823,825,825,825,825,825,0,0,0,0,0,0,0,1523,1523,1516,1516,1509,1503,1503,1496,1496,1489,1489,1483,1483,1477,1477,1470,1470,1464,1464,1458,1452,1445,1445,1445,1439,1439,1433,1433,1427,1421,1421,1421,1415,1415,1415,1410,1404,1398,1398,1392,1392,1387,1381,1381,1376,1376,1370,1370,1370,1365,1359,1354,1354,1349,1349,1349,1343,1338,1333,1333,1328,1328,1322,1322,1317,1317,1317,1312,1312,1307,1307,1302,1297,1292,1288,1288,1283,1283,1278,1278,1273,1273,1268,1268,1264,1264,1259,1255,1255,1250,1250,1250,1245,1241,1241,1236,1236,1232,1232,1227,1223,1223,1219,1214,1214,1214,1210,1210,1206,1202,1202,1202,1197,1197,1197,1189,1185,1185,1181,1181,1181,1177,1177,1173,1169,1165,1165,1165,1161,1157,1157,1157,1153,1149,1149,1149,1145,1138,1138,1138,1134,1134,1130,1130,1126,1126,1123,1119,1119,1115,1112,1112,1112,1108,1108,1108,1105,1101,1097,1094,1094,1090,1090,1090,1090,1087,1087,1084,1080,1077,1077,1073,1073,1070,1070,1067,1067,1063,1063,1060,1057,1054,1054,1050,1050,1050,1047,1047,1044,1041,1041,1041,1041,1038,1038,1034,1031,1028,1028,1025,1025,1022,1022,1019,1016,1016,1016,1016,1013,1013,1010,1010,1007,1004,1001,1001,1001,998,998,995,995,992,989,989,987,984,981,981,981,978,978,0,0,0,0,0,0,0,0,0,0,0,0,0,0,0,0,0,0,0,0,0,0,0,0,0,0,0,0,0,0,0
0,0,0,0,0,0,0,0,0,0,0,0,0,0,0,0,2065,2065,2065,2053,2053,2040,2028,2028,2016,2016,2016,2016,2016,2016,2016,2005,2005,2005,2005,2005,2005,2005,2005,2005,1981,1981,1970,1970,1970,1970,1970,1959,1959,1959,1959,1959,1947,1947,1936,1936,1947,1936,1936,1936,1936,1936,1936,1926,1926,1926,1926,1926,1926,1915,1915,1915,1915,1904,1904,1904,1894,1894,1894,1883,1883,1894,1894,1894,1883,1883,1883,1883,1883,1883,1883,1883,1873,1873,1873,1873,1863,1863,1853,1853,1853,1853,1853,1853,1853,1853,1843,1843,1833,1833,1833,1833,1833,1823,1823,1823,1823,1813,1813,1813,1813,1813,1813,1804,1804,1804,1804,1804,1804,1794,1794,1794,1794,1794,1794,1785,1785,1785,1776,1766,1766,1766,1766,1766,1766,1766,1766,1766,1757,1757,1757,1757,1757,1757,1757,1748,1748,1748,1739,1739,1739,1739,1731,1731,1731,1722,1722,1722,1713,1713,1713,1705,1705,1705,1696,1696,1696,1696,1696,1696,1696,1688,1688,1696,1696,1696,1696,1696,1696,1696,1696,1696,1705,1705,1705,1705,1705,2116,2116,2103,2103,2090,2078,2065,2053,2053,2040,2040,2028,2016,2016,2005,1993,1981,1688,1680,1671,1671,1671,1663,1663,1671,1671,1671,1680,1680,1680,1680,1688,1688,1688,1688,1688,1696,1696,1696,1696,1696,1696,1696,1696,1696,1696,1696,1696,1696,1077,1077,1077,1077,1073,1070,1070,1067,1063,1063,1060,1060,1060,1060,1060,1060,1063,1063,1063,1067,1067,1067,1070,1070,1070,1070,1073,1073,1073,1073,0,0,1785,1785,1785,1785,1785,1785,1785,1785,1794,1794,1794,1794,1794,975,973,967,967,964,964,962,959,954,951,946,943,943,943,938,935,933,930,925,925,923,923,918,915,913,910,908,901,898,896,891,891,889,887,885,875,871,869,867,864,862,862,860,858,854,849,847,841,835,829,827,825,821,819,817,815,813,813,813,813,813,811,811,811,813,813,815,817,819,819,819,821,821,823,825,825,825,825,825,825,0,0,0,0,0,0,0,1523,1523,1516,1516,1509,1503,1503,1496,1496,1489,1489,1483,1483,1477,1477,1470,1470,1464,1464,1458,1452,1452,1445,1445,1439,1439,1433,1433,1427,1421,1421,1421,1421,1415,1415,1410,1404,1404,1398,1398,1392,1392,1381,1381,1376,1376,1370,1370,1370,1365,1359,1354,1354,1354,1349,1349,1343,1338,1333,1333,1328,1328,1322,1322,1317,1312,1312,1312,1312,1307,1307,1302,1302,1292,1288,1288,1288,1283,1283,1278,1273,1273,1268,1268,1264,1264,1259,1255,1255,1250,1250,1250,1245,1241,1241,1236,1236,1232,1232,1227,1227,1219,1219,1214,1214,1214,1210,1210,1206,1202,1202,1202,1197,1197,1197,1189,1185,1185,1181,1181,1181,1177,1177,1173,1169,1169,1165,1165,1165,1161,1161,1157,1153,1149,1149,1145,1145,1141,1138,1138,1138,1134,1134,1130,1130,1126,1123,1119,1119,1115,1112,1112,1112,1108,1108,1108,1105,1101,1097,1094,1094,1090,1090,1090,1090,1087,1087,1084,1080,1077,1077,1073,1073,1070,1070,1067,1067,1063,1063,1060,1057,1057,1054,1050,1050,1050,1047,1047,1044,1041,1041,1041,1041,1038,1038,1034,1031,1028,1028,1025,1025,1022,1022,1019,1019,1016,1016,1016,1013,1013,1010,1010,1007,1004,1001,1001,1001,998,998,995,995,992,989,989,987,984,981,981,981,978,978,0,0,0,0,0,0,0,0,0,0,0,0,0,0,0,0,0,0,0,0,0,0,0,0,0,0,0,0,0,0,0
0,0,0,0,0,0,0,0,0,0,0,0,0,0,0,0,2065,2065,2065,2053,2053,2040,2028,2028,2016,2016,2016,2016,2016,2016,2016,2005,2005,2005,2005,2005,2005,2005,2005,2005,1981,1970,1970,1970,1970,1970,1970,1959,1959,1959,1959,1959,1959,1947,1947,1947,1947,1947,1947,1947,1947,1936,1936,1936,1926,1926,1926,1926,1926,1915,1915,1915,1915,1904,1904,1904,1904,1904,1894,1894,1894,1894,1904,1894,1894,1894,1894,1883,1883,1883,1883,1883,1873,1873,1873,1873,1873,1863,1853,1853,1853,1853,1853,1853,1853,1853,1853,1843,1843,1843,1833,1833,1833,1833,1833,1823,1823,1823,1823,1813,1813,1813,1813,1804,1804,1804,1804,1804,1804,1794,1794,1794,1794,1794,1794,1794,1794,1785,1785,1776,1776,1766,1766,1766,1766,1766,1766,1766,1757,1757,1757,1757,1757,1757,1757,1748,1748,1748,1739,1739,1739,1739,1731,1731,1731,1722,1722,1722,1713,1713,1713,1705,1705,1705,1705,1696,1696,1696,1696,1696,1696,1696,1696,1696,1696,1696,1696,1696,1696,1696,1696,1696,1705,1705,1705,1713,1713,1713,2116,2103,2103,2090,2078,2078,2065,2053,2053,2040,2040,2028,2016,2005,1993,1688,1688,1680,1671,1671,1671,1671,1671,1671,1671,1680,1680,1680,1680,1688,1688,1688,1688,1688,1696,1696,1696,1696,1696,1696,1696,1696,1696,1696,1696,1688,1688,1696,1696,1077,1077,1073,1073,1070,1070,1067,1063,1063,1060,1060,1060,1060,1060,1060,1063,1063,1063,1067,1067,1070,1070,1073,1073,1073,1073,1073,1073,1073,0,1794,1785,1785,1785,1785,1785,1785,1785,1794,1794,1794,1794,1794,1794,1804,1804,1804,1804,1794,1794,1804,962,954,954,946,946,946,943,938,935,933,930,925,925,923,923,918,915,913,908,908,903,898,896,894,891,889,887,885,875,871,869,867,864,862,862,860,858,854,849,847,841,835,829,827,823,821,821,819,817,815,813,813,813,813,813,813,813,813,815,815,817,819,819,819,821,821,823,825,825,825,827,825,825,0,0,0,0,0,0,0,1523,1523,1523,1516,1516,1509,1503,1503,1496,1489,1489,1483,1483,1477,1477,1470,1470,1464,1464,1464,1458,1452,1445,1445,1445,1439,1433,1433,1427,1427,1421,1421,1421,1415,1415,1410,1410,1404,1398,1398,1392,1392,1387,1381,1376,1376,1370,1370,1370,1365,1359,1354,1354,1354,1349,1349,1343,1338,1338,1333,1328,1328,1322,1322,1322,1312,1312,1312,1312,1307,1307,1302,1302,1292,1292,1288,1288,1283,1283,1278,1278,1273,1273,1268,1268,1264,1264,1255,1255,1250,1250,1250,1245,1241,1241,1236,1236,1236,1232,1227,1227,1219,1219,1214,1214,1214,1210,1210,1206,1206,1202,1202,1197,1197,1197,1189,1189,1185,1185,1185,1181,1177,1177,1173,1169,1169,1169,1169,1165,1161,1161,1157,1153,1149,1149,1145,1145,1141,1138,1138,1138,1134,1134,1134,1134,1130,1126,1123,1119,1119,1115,1112,1112,1112,1108,1108,1105,1101,1097,1097,1094,1090,1090,1090,1090,1087,1087,1084,1080,1080,1077,1077,1073,1070,1070,1067,1067,1063,1063,1060,1057,1057,1054,1054,1050,1050,1047,1047,1044,1044,1041,1041,1041,1038,1038,1034,1031,1031,1028,1025,1025,1022,1022,1019,1019,1016,1016,1016,1013,1013,1010,1010,1007,1004,1004,1001,1001,998,998,995,995,992,992,989,989,984,984,984,981,978,978,981,0,0,0,0,0,0,0,0,0,0,0,0,0,0,0,0,0,0,0,0,0,0,0,0,0,0,0,0,0,0
0,0,0,0,0,0,0,0,0,0,0,0,0,0,0,0,2053,2053,2053,2053,2053,2040,2028,2028,2016,2016,2016,2016,2016,2016,2016,2016,2005,2005,2016,2005,2005,1993,1993,1993,1981,1970,1970,1970,1981,1981,1970,1970,1970,1959,1959,1959,1959,1947,1947,1947,1947,1947,1947,1947,1947,1936,1936,1936,1926,1926,1926,1926,1926,1926,1926,1915,1915,1915,1915,1904,1904,1904,1904,1904,1904,1904,1904,1904,1904,1904,1894,1894,1883,1883,1883,1883,1873,1873,1873,1873,1863,1863,1853,1853,1853,1853,1853,1853,1853,1853,1853,1843,1843,1843,1843,1833,1833,1833,1833,1833,1823,1823,1823,1813,1813,1813,1813,1804,1804,1804,1804,1804,1804,1794,1794,1794,1794,1794,1794,1794,1794,1794,1785,1785,1785,1776,1776,1766,1766,1766,1766,1766,1757,1757,1757,1757,1757,1757,1757,1748,1748,1748,1739,1739,1739,1739,1731,1731,1731,1722,1722,1722,1722,1722,1713,1713,1713,1713,1705,1705,1705,1705,1705,1705,1696,1696,1696,1696,1696,1696,1696,1696,1705,1705,1705,1705,1713,1713,1713,1713,1713,1713,1713,2103,2103,2090,2090,2078,2078,2065,2053,2053,2040,2028,2016,2016,1981,1688,1688,1680,1680,1671,1671,1663,1663,1671,1671,1680,1680,1688,1688,1688,1688,1688,1688,1688,1696,1696,1696,1696,1696,1696,1696,1696,1696,1696,1696,1688,1688,1688,1688,1073,1073,1073,1073,1070,1070,1067,1063,1063,1063,1060,1060,1060,1060,1063,1063,1067,1067,1070,1070,1070,1073,1073,1073,1073,1073,1073,1073,1073,0,1794,1794,1785,1785,1785,1785,1785,1785,1794,1794,1794,1794,1794,1794,1804,1804,1804,1804,1804,1804,1804,1804,1804,1804,948,946,946,943,940,935,933,930,925,925,923,923,918,915,913,908,908,903,901,896,894,891,889,887,885,875,873,871,869,867,864,862,860,858,854,851,847,843,835,829,827,823,821,821,819,817,815,813,813,813,813,813,813,813,813,815,817,819,819,819,819,821,821,825,825,825,827,827,825,825,0,0,0,0,0,0,0,1523,1523,1523,1516,1516,1509,1503,1503,1496,1489,1489,1483,1483,1477,1477,1470,1470,1464,1464,1464,1458,1458,1452,1445,1445,1439,1439,1439,1433,1427,1421,1421,1421,1415,1415,1410,1410,1404,1404,1398,1392,1392,1387,1381,1381,1376,1370,1370,1370,1365,1359,1359,1354,1354,1354,1349,1349,1343,1338,1333,1328,1328,1322,1322,1322,1312,1312,1312,1312,1307,1307,1302,1302,1292,1292,1288,1288,1283,1283,1278,1278,1273,1273,1268,1268,1268,1264,1259,1255,1255,1250,1250,1245,1241,1241,1236,1236,1236,1232,1232,1227,1223,1219,1219,1214,1214,1214,1210,1206,1206,1202,1202,1197,1197,1197,1193,1189,1189,1185,1185,1181,1177,1177,1173,1169,1169,1169,1169,1165,1161,1161,1157,1153,1149,1149,1145,1145,1141,1138,1138,1138,1138,1134,1134,1134,1130,1126,1123,1123,1119,1115,1115,1112,1112,1108,1108,1105,1105,1101,1097,1097,1094,1090,1090,1090,1087,1087,1084,1080,1080,1077,1077,1073,1073,1070,1067,1067,1063,1063,1063,1060,1057,1054,1054,1050,1050,1047,1047,1044,1044,1041,1041,1041,1038,1038,1034,1031,1031,1028,1028,1025,1022,1022,1019,1019,1019,1016,1016,1013,1013,1013,1010,1007,1004,1004,1001,1001,998,998,998,995,992,992,992,989,987,987,984,984,981,981,981,0,0,0,0,0,0,0,0,0,0,0,0,0,0,0,0,0,0,0,0,0,0,0,0,0,0,0,0,0,0
0,0,0,0,0,0,0,0,0,0,0,0,0,0,0,0,2053,2053,2053,2053,2053,2040,2028,2028,2016,2016,2016,2016,2016,2028,2016,2016,2005,2005,2016,2005,2005,1993,1993,1993,1981,1970,1970,1970,1981,1981,1970,1970,1970,1959,1959,1959,1959,1947,1947,1959,1947,1947,1947,1959,1959,1947,1936,1936,1936,1926,1926,1926,1926,1926,1926,1915,1915,1915,1915,1904,1904,1904,1915,1915,1904,1904,1915,1915,1915,1904,1894,1894,1883,1883,1883,1883,1873,1873,1873,1873,1863,1863,1863,1863,1853,1853,1853,1853,1853,1853,1853,1853,1853,1843,1843,1843,1833,1833,1833,1833,1833,1823,1823,1823,1813,1813,1804,1804,1804,1804,1804,1804,1804,1794,1794,1794,1794,1794,1794,1794,1794,1794,1785,1785,1785,1785,1776,1776,1776,1766,1766,1766,1766,1757,1757,1757,1757,1757,1757,1748,1748,1748,1748,1739,1739,1739,1731,1731,1731,1731,1731,1722,1722,1722,1713,1713,1713,1713,1705,1705,1705,1705,1705,1705,1696,1696,1696,1696,1696,1696,1696,1696,1705,1705,1705,1713,1713,1713,1722,1713,1713,1713,1713,2103,2103,2090,2078,2078,2078,2065,2065,2053,2040,2040,2028,2016,1981,1688,1688,1680,1680,1671,1671,1663,1663,1671,1671,1680,1680,1688,1688,1688,1688,1688,1696,1696,1696,1696,1696,1696,1696,1696,1696,1696,1696,1696,1696,1688,1680,1663,1663,1073,1073,1073,1073,1070,1070,1067,1063,1063,1063,1060,1060,1060,1060,1063,1063,1067,1067,1070,1070,1073,1073,1073,1073,1073,1073,1073,0,0,0,0,1794,1785,1785,1785,1794,1794,1794,1794,1794,1794,1804,1804,1804,1804,1804,1804,1804,1804,1804,1813,1813,1813,1813,948,948,948,946,943,943,935,935,925,923,923,923,920,915,913,910,910,903,901,898,894,894,889,889,885,875,873,871,869,867,864,862,860,858,854,851,847,843,835,829,827,823,821,821,819,817,815,813,813,813,813,813,813,813,813,815,817,819,819,819,819,821,823,825,825,825,827,827,827,0,0,0,0,0,0,0,1529,1529,1523,1523,1516,1516,1509,1509,1503,1496,1489,1489,1489,1483,1477,1470,1470,1470,1464,1464,1464,1464,1464,1452,1452,1445,1445,1439,1439,1433,1427,1421,1421,1421,1415,1415,1410,1404,1404,1398,1398,1392,1392,1387,1387,1381,1376,1376,1370,1370,1365,1359,1359,1354,1354,1354,1349,1349,1343,1343,1333,1333,1328,1322,1322,1322,1317,1317,1312,1312,1307,1307,1302,1302,1297,1292,1288,1288,1283,1283,1278,1278,1273,1273,1268,1268,1268,1264,1259,1255,1255,1250,1250,1250,1245,1241,1236,1236,1236,1232,1232,1227,1223,1219,1219,1214,1214,1214,1210,1210,1206,1202,1202,1197,1197,1197,1193,1189,1189,1185,1185,1181,1177,1177,1173,1169,1169,1169,1169,1165,1165,1165,1161,1157,1153,1149,1145,1145,1145,1141,1141,1138,1138,1134,1134,1134,1130,1126,1123,1123,1119,1115,1115,1112,1112,1108,1108,1105,1105,1101,1097,1094,1094,1094,1090,1090,1087,1087,1084,1080,1080,1080,1077,1073,1073,1070,1070,1067,1067,1063,1063,1060,1060,1057,1054,1050,1050,1047,1047,1044,1044,1041,1041,1041,1038,1038,1038,1034,1031,1028,1028,1025,1022,1022,1019,1019,1019,1016,1016,1013,1013,1013,1013,1007,1004,1004,1001,1001,998,998,998,995,992,992,992,989,989,987,987,987,984,981,981,0,0,0,0,0,0,0,0,0,0,0,0,0,0,0,0,0,0,0,0,0,0,0,0,0,0,0,0,0,0
0,0,0,0,0,0,0,0,0,0,0,0,0,0,0,0,2065,2065,2053,2053,2053,2040,2028,2028,2016,2016,2016,2016,2016,2028,2028,2016,2016,2016,2016,2005,2005,2005,1993,1993,1981,1981,1970,1970,1981,1981,1970,1970,1970,1959,1959,1970,1970,1959,1959,1959,1959,1959,1959,1959,1959,1959,1947,1947,1936,1936,1926,1926,1926,1926,1926,1926,1915,1915,1915,1915,1915,1915,1915,1915,1904,1904,1915,1915,1915,1904,1894,1894,1883,1883,1883,1883,1873,1873,1873,1873,1873,1873,1863,1863,1853,1853,1853,1853,1853,1853,1853,1853,1863,1853,1843,1843,1833,1833,1833,1833,1833,1833,1823,1823,1823,1813,1804,1804,1804,1804,1804,1804,1804,1804,1804,1804,1794,1794,1794,1794,1794,1785,1785,1785,1785,1785,1776,1776,1776,1766,1766,1766,1766,1766,1757,1757,1757,1757,1757,1748,1748,1748,1748,1739,1739,1739,1731,1731,1731,1731,1731,1722,1722,1722,1713,1713,1713,1713,1713,1705,1705,1705,1705,1705,1696,1696,1705,1696,1696,1696,1696,1705,1705,1705,1713,1713,1722,1722,1722,1713,1713,1713,1713,2103,2103,2090,2078,2078,2078,2065,2065,2053,2053,2053,2053,2040,1696,1688,1688,1680,1680,1671,1671,1671,1671,1671,1671,1680,1688,1688,1688,1688,1688,1688,1696,1696,1696,1696,1696,1696,1696,1705,1705,1696,1696,1696,1696,1688,1680,1663,1663,1077,1077,1077,1073,1073,1070,1067,1063,1063,1063,1060,1060,1060,1060,1063,1063,1067,1067,1070,1070,1073,1073,1073,1073,1070,1070,1073,0,0,0,0,0,1794,1794,1794,1794,1794,1794,1794,1794,1794,1794,1794,1794,1804,1804,1813,1813,1813,1813,1823,1823,1823,1823,948,948,951,951,951,1833,1833,1833,925,923,923,923,920,918,915,913,910,903,898,898,894,894,889,889,887,878,873,871,869,867,864,862,860,858,854,851,847,845,835,829,823,823,821,821,819,817,815,813,813,813,813,813,813,813,815,815,817,819,819,819,821,821,823,825,827,827,827,827,827,0,0,0,0,0,0,0,1529,1529,1523,1523,1516,1516,1509,1509,1503,1503,1496,1489,1489,1483,1477,1470,1470,1470,1464,1464,1464,1464,1464,1458,1452,1445,1445,1439,1439,1433,1427,1427,1421,1421,1415,1415,1410,1404,1404,1398,1398,1392,1392,1387,1387,1381,1376,1376,1370,1370,1365,1359,1359,1359,1354,1354,1349,1349,1343,1343,1338,1333,1328,1322,1322,1322,1317,1317,1312,1312,1307,1307,1307,1302,1297,1292,1288,1288,1283,1283,1278,1278,1273,1273,1268,1268,1268,1264,1259,1259,1255,1250,1250,1250,1245,1241,1236,1236,1236,1232,1232,1227,1223,1219,1219,1219,1214,1214,1214,1210,1206,1202,1202,1197,1197,1197,1193,1189,1189,1185,1185,1181,1181,1177,1173,1173,1169,1169,1169,1165,1165,1165,1161,1157,1153,1149,1149,1145,1145,1141,1141,1138,1138,1134,1134,1134,1130,1130,1126,1123,1119,1119,1115,1115,1112,1108,1108,1105,1105,1101,1097,1094,1094,1094,1090,1090,1087,1087,1084,1080,1080,1080,1077,1077,1073,1070,1070,1067,1067,1063,1063,1063,1060,1057,1054,1050,1050,1050,1047,1044,1044,1041,1041,1041,1038,1038,1038,1034,1031,1028,1028,1025,1022,1022,1019,1019,1019,1016,1016,1013,1013,1013,1010,1007,1004,1004,1001,1001,998,998,998,995,992,992,992,989,989,987,987,987,984,981,981,0,0,0,0,0,0,0,0,0,0,0,0,0,0,0,0,0,0,0,0,0,0,0,0,0,0,0,0,0,0
0,0,0,0,0,0,0,0,0,0,0,0,0,0,0,0,2053,2053,2053,2053,2053,2040,2040,2028,2028,2040,2040,2040,2040,2028,2028,2016,2016,2016,2016,2005,2005,2005,2005,2005,1981,1981,1981,1981,1981,1981,1970,1970,1970,1970,1970,1970,1970,1959,1959,1959,1959,1959,1959,1959,1959,1959,1947,1947,1936,1936,1926,1926,1926,1926,1915,1915,1926,1915,1915,1915,1915,1915,1915,1915,1904,1904,1915,1915,1915,1904,1904,1894,1883,1883,1883,1883,1883,1873,1873,1873,1873,1873,1863,1863,1853,1853,1853,1853,1853,1853,1853,1853,1863,1853,1843,1843,1843,1843,1843,1833,1833,1833,1833,1833,1823,1823,1813,1813,1804,1804,1804,1804,1804,1804,1804,1804,1794,1794,1794,1794,1794,1785,1785,1785,1785,1785,1785,1776,1776,1776,1776,1776,1766,1766,1766,1766,1757,1748,1748,1748,1748,1748,1739,1739,1739,1739,1731,1731,1731,1731,1731,1722,1722,1722,1722,1722,1722,1722,1722,1713,1713,1713,1713,1713,1713,1705,1705,1705,1705,1696,1696,1705,1705,1705,1713,1713,1722,1722,1722,1722,1722,1722,1722,2103,2090,2078,2078,2078,2078,2078,2065,2065,2065,2065,2053,2040,1688,1688,1688,1680,1680,1680,1680,1671,1671,1680,1680,1680,1688,1688,1688,1688,1688,1696,1696,1696,1696,1696,1696,1696,1696,1705,1705,1705,1705,1713,1705,1696,1696,1680,1680,1077,1077,1077,1073,1073,1070,1067,1067,1063,1063,1060,1060,1060,1063,1063,1063,1067,1070,1070,1073,1073,1073,1073,1073,1070,1070,1073,0,0,0,0,0,1794,1794,1794,1794,1794,1794,1794,1794,1794,1794,1794,1794,1804,1804,1813,1813,1813,1813,1823,1823,1823,1823,1823,1833,1833,1833,1833,1833,1833,1833,1833,1823,1813,1813,920,915,915,913,913,906,898,898,894,894,889,889,887,880,873,871,869,867,864,862,860,858,856,851,847,843,835,829,823,823,821,821,819,817,817,815,813,813,813,813,813,813,815,815,817,819,819,819,821,821,823,825,827,827,827,827,827,0,0,0,0,0,0,0,1529,1529,1523,1523,1516,1516,1509,1509,1509,1503,1496,1489,1489,1483,1477,1477,1470,1470,1470,1464,1464,1464,1464,1458,1452,1445,1445,1439,1439,1433,1433,1427,1421,1421,1421,1415,1410,1404,1404,1398,1398,1398,1392,1392,1387,1381,1376,1376,1376,1370,1365,1359,1359,1359,1354,1354,1349,1349,1349,1343,1338,1333,1328,1322,1322,1322,1317,1317,1312,1312,1307,1307,1307,1307,1302,1292,1292,1292,1288,1283,1278,1278,1273,1273,1268,1268,1268,1264,1259,1259,1255,1250,1250,1250,1245,1241,1236,1236,1236,1236,1232,1232,1227,1223,1219,1219,1214,1214,1214,1210,1206,1202,1202,1202,1197,1197,1193,1189,1189,1189,1185,1181,1181,1177,1177,1173,1169,1169,1169,1165,1165,1161,1161,1157,1153,1153,1149,1149,1145,1141,1138,1138,1138,1134,1134,1134,1130,1130,1126,1123,1119,1119,1115,1115,1112,1108,1108,1105,1105,1101,1097,1097,1094,1094,1094,1090,1087,1087,1084,1084,1080,1080,1077,1077,1073,1070,1067,1067,1067,1063,1063,1063,1060,1054,1054,1050,1050,1050,1047,1044,1044,1044,1041,1038,1038,1038,1034,1034,1031,1028,1028,1025,1025,1022,1019,1019,1019,1016,1016,1016,1013,1013,1010,1007,1004,1004,1001,1001,1001,998,998,995,992,992,992,989,989,989,987,987,981,981,981,0,0,0,0,0,0,0,0,0,0,0,0,0,0,0,0,0,0,0,0,0,0,0,0,0,0,0,0,0,0
0,0,0,0,0,0,0,0,0,0,0,0,0,0,0,0,2053,2053,2053,2053,2053,2040,2040,2028,2028,2053,2040,2040,2040,2040,2028,2016,2016,2016,2016,2005,2005,2005,2005,2005,1981,1981,1981,1981,1981,1981,1970,1970,1970,1970,1970,1970,1970,1959,1959,1959,1959,1959,1959,1959,1959,1959,1947,1947,1936,1936,1936,1926,1926,1926,1915,1915,1926,1915,1915,1915,1915,1915,1915,1915,1915,1915,1915,1915,1915,1904,1904,1894,1894,1883,1883,1883,1883,1873,1873,1873,1873,1873,1863,1863,1853,1853,1853,1853,1853,1853,1863,1863,1863,1863,1853,1843,1843,1833,1833,1833,1833,1833,1833,1833,1833,1833,1823,1813,1813,1804,1804,1804,1804,1804,1804,1804,1804,1794,1794,1794,1794,1794,1785,1785,1785,1785,1785,1785,1776,1776,1776,1776,1766,1766,1766,1766,1757,1748,1748,1748,1748,1748,1739,1739,1739,1739,1731,1731,1731,1731,1731,1722,1722,1722,1722,1722,1722,1722,1722,1722,1722,1713,1713,1713,1713,1705,1705,1705,1705,1705,1705,1705,1705,1713,1713,1722,1722,1722,1722,1722,1722,1722,1705,1705,2090,2078,2065,2065,2065,2065,2065,2065,2053,2053,2053,2053,1688,1688,1688,1688,1680,1680,1680,1680,1680,1680,1680,1688,1688,1688,1688,1688,1688,1696,1696,1696,1696,1696,1696,1705,1705,1705,1705,1705,1705,1705,1713,1705,1705,1696,1696,1077,1077,1077,1073,1073,1070,1067,1067,1063,1063,1063,1063,1063,1063,1063,1063,1067,1070,1070,1073,1073,1073,1073,1073,1073,1073,1073,0,0,0,0,1794,1794,1794,1794,1794,1794,1794,1794,1794,1794,1804,1804,1804,1804,1804,1813,1813,1813,1813,1823,1823,1823,1823,1823,1833,1833,1823,1823,1823,1833,1833,1823,1823,1813,1813,1804,915,915,913,913,1766,1757,1757,894,894,889,889,887,880,875,873,869,867,864,862,860,856,856,851,847,843,835,829,825,823,821,821,819,819,817,815,815,813,813,813,813,815,815,817,819,819,819,819,823,823,825,827,827,827,827,827,827,0,0,0,0,0,0,0,1529,1529,1523,1523,1516,1516,1509,1509,1509,1503,1496,1489,1489,1483,1477,1477,1470,1470,1470,1464,1464,1464,1464,1464,1458,1452,1445,1439,1439,1433,1433,1427,1421,1421,1421,1415,1415,1410,1404,1404,1398,1398,1392,1392,1387,1387,1381,1376,1376,1370,1370,1365,1359,1359,1354,1354,1354,1349,1349,1343,1338,1333,1328,1328,1328,1322,1322,1317,1312,1312,1312,1307,1307,1307,1302,1292,1292,1292,1288,1288,1283,1283,1278,1273,1273,1268,1268,1264,1264,1259,1255,1250,1250,1250,1245,1241,1241,1236,1236,1236,1232,1232,1227,1227,1223,1219,1219,1214,1214,1210,1210,1206,1202,1202,1197,1197,1197,1193,1193,1189,1185,1181,1181,1177,1177,1173,1169,1169,1169,1165,1165,1161,1161,1157,1153,1153,1149,1149,1145,1141,1138,1138,1138,1134,1134,1134,1130,1126,1126,1123,1119,1119,1115,1115,1112,1108,1108,1105,1105,1101,1097,1097,1094,1094,1094,1090,1087,1087,1084,1084,1084,1080,1080,1077,1073,1070,1067,1067,1067,1067,1063,1063,1060,1054,1054,1050,1050,1050,1050,1047,1044,1044,1041,1038,1038,1038,1034,1034,1031,1028,1028,1025,1025,1022,1022,1022,1019,1016,1016,1016,1013,1013,1010,1007,1004,1004,1001,1001,1001,998,998,995,995,992,992,992,989,989,989,987,981,981,0,0,0,0,0,0,0,0,0,0,0,0,0,0,0,0,0,0,0,0,0,0,0,0,0,0,0,0,0,0,0
0,0,0,0,0,0,0,0,0,0,0,0,0,0,0,0,2065,2053,2053,2053,2053,2040,2040,2053,2053,2053,2040,2040,2040,2040,2016,2016,2016,2016,2016,2016,2016,2005,2005,2005,1981,1981,1981,1981,1981,1981,1970,1970,1970,1970,1970,1970,1970,1959,1959,1959,1959,1959,1959,1959,1959,1959,1947,1947,1947,1936,1936,1936,1926,1926,1915,1915,1915,1915,1915,1915,1915,1915,1915,1915,1915,1915,1915,1915,1915,1904,1904,1894,1894,1883,1883,1883,1883,1873,1873,1873,1873,1873,1873,1863,1863,1863,1863,1863,1863,1863,1863,1863,1863,1863,1853,1843,1843,1833,1833,1843,1833,1833,1833,1833,1833,1833,1823,1823,1813,1813,1804,1804,1804,1804,1804,1804,1804,1804,1794,1794,1794,1794,1794,1794,1785,1785,1785,1785,1776,1776,1776,1776,1766,1766,1766,1766,1766,1757,1757,1757,1757,1748,1748,1739,1739,1739,1739,1739,1731,1731,1731,1731,1722,1722,1722,1722,1722,1722,1722,1722,1722,1713,1713,1713,1713,1713,1713,1705,1705,1705,1705,1705,1705,1713,1713,1722,1722,1722,1722,1722,1722,1722,1705,1705,2065,2065,2065,2053,2053,2065,2065,2065,2053,2053,2053,2053,1688,1688,1688,1688,1680,1680,1680,1680,1680,1680,1688,1688,1688,1688,1688,1688,1688,1696,1696,1696,1696,1696,1705,1705,1705,1705,1705,1705,1705,1705,1713,1705,1705,1705,1705,1077,1077,1077,1073,1073,1070,1070,1067,1063,1063,1063,1063,1063,1063,1063,1067,1067,1070,1070,1073,1073,1073,1073,1073,1073,1073,1073,0,0,0,0,1794,1794,1794,1794,1794,1794,1794,1794,1794,1804,1804,1804,1804,1804,1804,1813,1813,1813,1813,1823,1823,1823,1833,1833,1833,1833,1823,1823,1823,1833,1833,1823,1823,1813,1813,1804,1794,1785,1785,1766,1766,1757,1757,1766,1766,889,889,887,880,878,873,871,867,864,862,858,854,854,851,849,837,835,829,825,823,821,821,821,819,817,817,815,815,815,815,815,815,815,819,819,819,819,819,823,823,825,827,827,827,827,829,829,0,0,0,0,0,0,1536,1529,1529,1523,1523,1516,1516,1509,1509,1509,1503,1496,1496,1489,1489,1483,1477,1477,1470,1470,1470,1464,1464,1464,1464,1464,1452,1445,1445,1439,1439,1433,1427,1427,1421,1421,1415,1415,1410,1404,1404,1398,1398,1392,1392,1387,1387,1381,1376,1370,1370,1370,1365,1365,1359,1354,1354,1354,1349,1349,1349,1343,1338,1328,1328,1328,1328,1322,1317,1317,1312,1312,1307,1307,1307,1302,1292,1292,1292,1288,1288,1283,1283,1278,1273,1273,1268,1264,1264,1264,1259,1255,1255,1250,1250,1245,1241,1241,1236,1236,1236,1232,1232,1227,1227,1223,1219,1219,1214,1214,1210,1210,1206,1202,1202,1197,1197,1197,1193,1193,1189,1185,1185,1181,1181,1177,1173,1169,1169,1169,1165,1161,1161,1161,1157,1153,1153,1149,1149,1145,1141,1138,1138,1138,1134,1134,1130,1130,1126,1126,1123,1119,1119,1119,1115,1112,1108,1108,1105,1105,1101,1101,1097,1097,1094,1094,1090,1090,1087,1087,1084,1084,1080,1080,1077,1077,1070,1070,1067,1067,1067,1063,1063,1060,1057,1054,1054,1050,1050,1050,1047,1047,1044,1044,1041,1041,1038,1038,1034,1034,1034,1028,1028,1025,1025,1022,1022,1019,1019,1019,1016,1013,1013,1010,1007,1004,1004,1001,1001,1001,998,998,995,995,992,992,992,989,989,989,984,984,984,0,0,0,0,0,0,0,0,0,0,0,0,0,0,0,0,0,0,0,0,0,0,0,0,0,0,0,0,0,0,0
0,0,0,0,0,0,0,0,0,0,0,0,0,0,0,0,2065,2053,2053,2053,2053,2040,2040,2053,2053,2053,2053,2053,2053,2040,2016,2016,2016,2016,2016,2016,2016,2005,2005,2005,1981,1981,1981,1981,1981,1981,1981,1981,1970,1970,1970,1970,1970,1970,1959,1959,1959,1959,1959,1959,1959,1959,1947,1947,1947,1936,1936,1936,1926,1926,1915,1915,1915,1915,1915,1915,1915,1915,1915,1915,1915,1915,1915,1915,1915,1904,1904,1894,1894,1894,1883,1883,1883,1883,1883,1883,1873,1873,1873,1873,1863,1863,1863,1863,1873,1863,1863,1863,1863,1853,1853,1843,1843,1833,1833,1843,1833,1833,1833,1833,1833,1833,1833,1823,1813,1813,1813,1813,1804,1804,1804,1804,1804,1804,1794,1794,1794,1794,1794,1794,1794,1794,1785,1785,1785,1776,1776,1776,1776,1766,1766,1766,1766,1757,1757,1757,1757,1757,1748,1739,1739,1739,1739,1739,1731,1731,1731,1731,1731,1722,1722,1722,1722,1722,1722,1722,1722,1722,1722,1713,1713,1713,1713,1705,1705,1705,1705,1705,1705,1713,1713,1722,1722,1722,1722,1722,1722,1713,1705,1705,2053,2053,2053,2040,2040,2053,2053,2053,2040,2040,2053,2053,1688,1688,1688,1688,1688,1688,1688,1680,1680,1688,1688,1688,1688,1688,1688,1688,1688,1688,1696,1696,1696,1696,1705,1705,1713,1713,1713,1713,1713,1713,1713,1713,1705,1705,1705,1077,1077,1077,1073,1073,1070,1070,1067,1063,1063,1063,1063,1063,1063,1063,1067,1067,1070,1070,1073,1073,1073,1073,1073,1073,1073,1073,0,0,0,0,0,1794,1794,1794,1794,1794,1794,1794,1794,1794,1804,1804,1804,1804,1804,1813,1813,1813,1823,1823,1823,1833,1823,1823,1833,1823,1823,1823,1833,1833,1833,1823,1823,1813,1813,1813,1794,1794,1785,1766,1766,1766,1766,1766,1766,1766,1766,1766,1766,0,0,0,869,864,860,858,854,851,851,839,835,835,829,825,823,821,821,821,819,819,817,817,815,815,815,815,815,817,819,819,819,819,821,823,825,827,827,827,829,829,829,0,0,0,0,0,0,0,1536,1529,1529,1523,1523,1516,1516,1509,1509,1509,1503,1496,1496,1489,1489,1483,1483,1477,1470,1470,1470,1464,1464,1464,1464,1458,1452,1445,1445,1439,1439,1433,1427,1427,1421,1421,1415,1415,1410,1404,1404,1398,1398,1392,1392,1392,1387,1381,1376,1370,1370,1370,1365,1365,1359,1354,1354,1354,1354,1349,1349,1343,1338,1333,1328,1328,1328,1322,1317,1317,1312,1312,1307,1307,1307,1302,1292,1292,1292,1288,1288,1283,1283,1278,1278,1273,1268,1264,1264,1264,1259,1259,1255,1250,1250,1250,1245,1241,1236,1236,1236,1232,1232,1227,1227,1223,1219,1219,1219,1214,1214,1210,1206,1206,1202,1202,1197,1197,1193,1193,1189,1185,1185,1181,1181,1177,1177,1169,1169,1169,1165,1161,1161,1161,1157,1153,1153,1149,1149,1149,1145,1141,1138,1138,1134,1134,1130,1130,1126,1126,1123,1123,1119,1119,1119,1115,1108,1108,1108,1105,1101,1101,1097,1097,1094,1094,1090,1090,1090,1087,1084,1084,1080,1080,1080,1077,1073,1070,1067,1067,1067,1067,1063,1060,1057,1054,1054,1054,1050,1050,1047,1047,1044,1041,1041,1041,1041,1038,1034,1034,1031,1028,1028,1028,1025,1025,1022,1019,1019,1019,1016,1013,1013,1010,1007,1007,1004,1004,1001,1001,998,998,995,995,992,992,992,989,989,989,984,984,984,0,0,0,0,0,0,0,0,0,0,0,0,0,0,0,0,0,0,0,0,0,0,0,0,0,0,0,0,0,0,0
0,0,0,0,0,0,0,0,0,0,0,0,0,0,0,0,2065,2053,2053,2053,2053,2053,2053,2053,2053,2053,2053,2053,2053,2053,2016,2016,2016,2016,2016,2016,2016,2005,2005,2005,1993,1981,1981,1981,1981,1981,1981,1981,1981,1970,1970,1970,1970,1970,1959,1959,1959,1959,1959,1959,1959,1959,1959,1959,1947,1947,1947,1936,1936,1936,1926,1926,1915,1915,1926,1915,1915,1915,1915,1915,1915,1915,1915,1915,1904,1904,1904,1894,1894,1894,1883,1883,1883,1883,1883,1883,1883,1883,1883,1873,1873,1873,1873,1873,1873,1863,1863,1863,1863,1853,1853,1843,1843,1843,1843,1843,1843,1843,1833,1833,1833,1833,1833,1823,1813,1813,1813,1813,1804,1804,1804,1804,1804,1804,1794,1794,1794,1794,1794,1794,1794,1794,1794,1785,1785,1785,1785,1776,1776,1776,1766,1766,1766,1766,1757,1757,1757,1757,1748,1748,1748,1739,1739,1739,1731,1731,1731,1731,1731,1722,1722,1722,1722,1722,1722,1722,1722,1722,1722,1713,1713,1713,1713,1713,1705,1705,1705,1705,1705,1713,1713,1713,1713,1722,1722,1722,1722,1713,1713,1713,2040,2040,2040,2028,2028,2016,2016,2016,2005,2005,2005,2005,1688,1688,1688,1688,1688,1688,1688,1688,1688,1688,1688,1688,1688,1688,1688,1688,1688,1688,1696,1696,1696,1705,1705,1705,1713,1713,1713,1713,1713,1713,1713,1705,1705,1705,1705,1077,1077,1077,1073,1073,1070,1070,1067,1063,1063,1063,1063,1063,1063,1067,1067,1067,1070,1070,1073,1073,1073,1073,1073,1073,1073,1073,0,0,0,0,0,1794,1794,1794,1794,1794,1794,1794,1794,1794,1804,1804,1804,1804,1804,1813,1813,1813,1823,1823,1823,1823,1823,1823,1833,1823,1823,1823,1823,1833,1833,1823,1823,1833,1813,1813,1794,1794,1785,1776,1766,1766,1766,1766,1766,1766,1766,1766,1766,0,0,0,0,0,860,858,854,851,851,839,835,835,829,825,823,821,821,821,819,819,819,817,817,817,817,817,817,819,819,819,819,821,821,823,825,827,827,829,829,829,829,0,0,0,0,0,0,0,1536,1529,1529,1529,1523,1516,1516,1516,1509,1509,1503,1496,1496,1489,1489,1489,1489,1489,1477,1470,1470,1464,1464,1464,1458,1452,1452,1445,1445,1445,1439,1439,1433,1427,1421,1421,1415,1415,1410,1404,1404,1398,1398,1392,1392,1392,1387,1387,1376,1370,1370,1370,1365,1365,1359,1359,1354,1354,1354,1349,1349,1343,1338,1333,1328,1328,1328,1322,1317,1317,1312,1312,1307,1307,1307,1302,1297,1292,1292,1292,1288,1288,1283,1278,1278,1273,1268,1264,1264,1264,1259,1259,1255,1255,1255,1250,1245,1241,1241,1236,1236,1232,1232,1232,1227,1223,1223,1219,1219,1214,1214,1210,1210,1206,1202,1202,1197,1197,1197,1193,1189,1185,1185,1181,1181,1177,1177,1177,1169,1169,1165,1165,1165,1161,1157,1157,1153,1149,1149,1149,1145,1141,1138,1138,1138,1134,1134,1130,1130,1126,1123,1123,1119,1119,1119,1115,1112,1108,1108,1105,1105,1101,1101,1097,1094,1094,1090,1090,1087,1087,1087,1084,1080,1080,1080,1077,1073,1070,1070,1067,1067,1067,1063,1060,1060,1057,1054,1054,1050,1050,1050,1047,1044,1041,1041,1041,1041,1038,1038,1034,1031,1031,1028,1028,1025,1025,1022,1022,1022,1019,1016,1016,1013,1010,1007,1007,1004,1004,1001,1001,1001,998,995,995,992,992,992,989,989,987,984,984,984,0,0,0,0,0,0,0,0,0,0,0,0,0,0,0,0,0,0,0,0,0,0,0,0,0,0,0,0,0,0,0
0,0,0,0,0,0,0,0,0,0,0,0,0,0,0,0,2065,2053,2053,2053,2053,2053,2053,2053,2053,2053,2053,2053,2053,2053,2016,2016,2016,2016,2016,2016,2016,2016,2016,2005,1993,1993,1993,1981,1981,1981,1981,1981,1981,1981,1981,1970,1970,1970,1970,1970,1970,1959,1959,1959,1959,1959,1959,1959,1947,1947,1947,1936,1936,1936,1926,1926,1915,1915,1926,1915,1915,1915,1926,1915,1915,1915,1915,1915,1904,1904,1904,1904,1894,1894,1894,1894,1894,1883,1883,1883,1883,1883,1883,1873,1873,1873,1873,1873,1873,1873,1863,1863,1853,1853,1853,1843,1843,1843,1843,1843,1843,1843,1843,1833,1833,1833,1833,1823,1823,1813,1813,1813,1804,1804,1804,1804,1804,1804,1794,1794,1794,1794,1794,1794,1794,1794,1794,1785,1785,1785,1785,1785,1776,1776,1776,1776,1766,1766,1766,1757,1757,1757,1757,1748,1748,1739,1739,1739,1739,1739,1731,1731,1731,1731,1722,1722,1722,1722,1722,1722,1722,1722,1722,1713,1713,1713,1713,1713,1705,1705,1705,1705,1705,1713,1713,1713,1713,1722,1722,1722,1722,1713,1713,1696,1696,2040,1981,1981,1981,1981,1981,1981,1970,1970,1970,1926,1926,1688,1688,1688,1688,1688,1688,1688,1688,1688,1688,1688,1688,1688,1688,1688,1688,1696,1696,1696,1696,1705,1705,1713,1713,1713,1713,1713,1713,1713,1713,1705,1705,1705,1705,1080,1080,1077,1073,1073,1070,1070,1067,1063,1063,1063,1063,1063,1063,1067,1067,1067,1070,1070,1073,1073,1073,1073,1073,1077,1077,1077,0,0,0,0,1794,1794,1794,1794,1794,1794,1794,1794,1794,1804,1804,1804,1804,1804,1813,1813,1813,1813,1823,1823,1823,1823,1823,1823,1833,1823,1823,1823,1823,1833,1833,1833,1833,1833,1823,1813,1804,1794,1785,1776,1776,1766,1766,1766,1766,1776,1766,1766,1766,0,0,0,0,0,0,0,0,0,839,837,835,835,829,825,823,821,821,821,819,819,819,817,817,817,817,817,817,819,819,819,821,821,821,823,825,827,827,829,829,829,829,0,0,0,0,0,0,0,1543,1536,1529,1529,1523,1516,1516,1516,1509,1509,1503,1496,1496,1489,1489,1489,1489,1489,1483,1477,1470,1470,1464,1464,1458,1452,1452,1445,1445,1445,1439,1439,1433,1427,1421,1421,1415,1415,1410,1404,1404,1398,1398,1398,1392,1392,1392,1387,1376,1376,1370,1370,1365,1365,1359,1359,1359,1354,1354,1349,1349,1349,1338,1333,1333,1328,1328,1322,1322,1317,1312,1312,1312,1307,1307,1302,1297,1292,1292,1292,1288,1288,1283,1283,1278,1273,1268,1268,1268,1264,1259,1259,1255,1255,1255,1250,1245,1241,1241,1241,1236,1232,1232,1232,1227,1223,1223,1219,1219,1219,1214,1214,1210,1206,1202,1202,1197,1197,1197,1193,1193,1189,1185,1185,1181,1181,1177,1177,1169,1169,1165,1165,1165,1165,1161,1157,1153,1153,1149,1149,1145,1141,1138,1138,1138,1138,1134,1130,1130,1126,1123,1123,1123,1119,1119,1115,1112,1108,1108,1108,1105,1105,1101,1101,1094,1094,1090,1090,1087,1087,1084,1084,1084,1080,1080,1077,1073,1073,1070,1070,1067,1067,1063,1063,1060,1057,1054,1054,1054,1050,1050,1047,1047,1044,1041,1041,1041,1038,1038,1038,1034,1031,1028,1028,1028,1025,1022,1022,1022,1019,1016,1016,1013,1010,1007,1007,1004,1004,1004,1001,1001,998,995,995,992,992,992,989,989,987,984,984,984,0,0,0,0,0,0,0,0,0,0,0,0,0,0,0,0,0,0,0,0,0,0,0,0,0,0,0,0,0,0,0
