0,0,0,0,0,0,0,0,0,1483,1483,1483,1483,1483,1483,1483,1477,1477,1470,1470,1470,1470,1470,1470,1470,1477,1477,1477,1477,1477,1477,1470,1470,1464,1464,1464,1464,1464,1464,1464,1464,1458,1458,1464,1464,1458,1458,1458,1458,1464,1458,1458,1458,1464,1464,1464,1464,1458,1458,1458,1458,1458,1458,1458,1464,0,0,1050,1050,1050,1041,1041,1044,1044,1044,1044,1047,1047,1047,1047,1050,1050,1054,1057,1057,1057,1060,1060,1060,1063,1063,1063,0,1458,1458,1452,1452,1452,1452,1452,1445,1439,1439,0,0,0,0,0,0,0,0,0,0,0,741,739,739,736,727,722,722,720,720,720,722,722,723,723,725,727,727,728,728,730,731,731,733,733,733,734,734,736,738,739,741,741,0,0,0,0,0,0,0,1165,1165,1165,1165,1161,1161,1161,1165,1165,1169,1169,1169,1169,1173,1173,1173,1173,1173,1173,1173,1177,1177,1177,1177,1177,1173,1173,1169,1165,1165,1165,1165,1165,1165,1165,1165,1165,1165,1193,1197,1197,1202,1202,1202,1202,1206,1206,1206,1206,1404,1404,1404,1404,1404,1404,1410,1410,1410,1410,1410,1410,1410,1404,1404,1404,1404,1404,1404,1404,1404,1404,1404,1404,1398,1398,1404,1404,1404,1404,1404,1404,1404,1404,1398,1398,1404,1404,1404,1398,1398,1398,1398,1398,1398,1392,1392,1392,1387,1387,1322,1317,1307,1307,1307,1307,1307,1307,1307,1307,1307,1307,1312,1312,1312,1307,1307,1392,1392,1387,1387,1387,1387,1387,1381,1381,1381,1381,1387,1381,1381,1381,1381,1381,1376,1376,1376,1376,1376,1381,1381,1381,1381,1381,1381,1381,1376,1376,1370,1370,1370,1370,1370,1370,1370,1370,1370,1370,1370,1370,1370,1370,1370,1370,1370,1370,1370,0,1038,1038,1034,1031,1031,1028,1025,1025,1022,1019,1019,1019,1019,1019,1019,1022,1022,1028,1028,1031,1031,1031,1034,1034,1354,1354,1354,1354,1359,1359,1359,1359,1359,1359,1365,1359,1359,1359,1359,1359,1359,1359,1354,1354,1354,1354,1354,1349,1349,1349,1349,1349,1349,1349,1349,1349,1349,1349,1349,1349,1349,1349,1349,1349,1349,1349,1349,1349,1349,1349,1349,1349,1349,1349,1349,1343,1343,1349,1349,1343,1343,1343,1343,1338,1338,1338,1338,1338,1338,1338,1338,1338,1338,1338,1338,1333,1333,1333,1333,1333,1333,1333,1333,1333,1333,1333,1333,1333,1328,1328,1328,1328,1328,1328,1322,1322,1328,1328,1328,1328,1328,1328,1328,1328,1328,1328,1328,1328,1328,1322,1317,1317,1317,1317,1312,1312,1317,1317,1317,1317,1322,1317,1317,1317,1312,1312,1312,1312,1312,1312,1312,1312,1312,1312,1307,1307,1307,1307,1307,1302,1302,1302,1307,1307,1307,1307,1307,1307,1307,1307,1302,1302,1302,1302,1302,1302,1307,1307,1302,1302,1302,1302,1302,1297,1297,1297,1297,1297,1297,1292,1292,1292,1292,1292,1288,1288,1288,1288,1288,1288,1283,1283,1278,1278,1273,1268,1268,1268,1268,1264,1264,1259,1255,1255,1250,1250,1250,1245,1245,1241,1236,1236,1236,1232,1232,1232,1227,1223,1223,1219,1219,1219,1214,1214,1214,1214,1210,1206,1202,1202,1202,1197,1197,1197,1197,1197,1047,1041,1041,1038,1034,1031,1028,1025,1022,1016,1013,1004,1001,998,995,989,987,984,981,978,975,975,975,970,970,967,967,967,967,967,967,967,967,803,803,803,0,0,0,0,0,0,0,0,0,0,0,0,0,0,0,0,0,0,0,0,0,0,0,0,0,0,0,0,0,0,0,0,0,0,0,0,0,0
0,0,0,0,0,0,0,0,0,1483,1483,1477,1477,1477,1477,1477,1470,1470,1464,1464,1464,1464,1464,1464,1464,1464,1464,1464,1464,1464,1470,1470,1464,1464,1464,1464,1458,1458,1458,1458,1458,1458,1458,1458,1458,1458,1458,1452,1452,1458,1458,1458,1458,1452,1452,1452,1452,1458,1452,1452,1452,1452,1452,1452,1452,0,0,0,0,1050,1047,1047,1047,1047,1047,1047,1047,1047,1050,1050,1050,1054,1054,1057,1057,1060,1060,1060,1060,1063,1063,1063,1063,1458,1458,1452,1452,1445,1445,1445,1439,1433,1433,0,0,0,0,0,0,0,0,0,0,0,741,739,739,738,738,728,722,722,722,722,722,722,723,725,727,727,728,728,728,731,731,733,733,733,733,734,734,738,739,739,741,741,0,0,0,0,0,0,0,1161,1161,1161,1161,1161,1161,1161,1165,1165,1165,1165,1169,1169,1173,1173,1173,1173,1173,1173,1173,1177,1177,1177,1177,1177,1173,1169,1169,1165,1165,1165,1165,1161,1161,1161,1161,1157,1157,1157,1161,1197,1202,1202,1202,1202,1206,1206,1206,1404,1404,1404,1404,1398,1398,1404,1404,1410,1404,1404,1404,1404,1404,1398,1398,1404,1404,1404,1404,1404,1404,1398,1398,1398,1392,1392,1392,1392,1398,1398,1398,1398,1398,1398,1398,1392,1392,1398,1398,1392,1392,1392,1392,1392,1392,1392,1392,1387,1381,1381,1322,1322,1312,1312,1307,1307,1307,1307,1307,1307,1307,1307,1312,1317,1312,1312,1312,1317,1387,1381,1381,1381,1381,1381,1376,1376,1376,1376,1381,1376,1376,1376,1376,1376,1370,1370,1370,1370,1370,1370,1370,1370,1370,1370,1376,1376,1370,1370,1370,1370,1370,1365,1365,1370,1370,1365,1365,1365,1365,1370,1370,1365,1365,1365,1365,1365,1365,0,1034,1034,1034,1031,1031,1028,1028,1025,1022,1022,1022,1022,1022,1022,1022,1025,1025,1028,1028,1031,1031,1034,1034,1354,1354,1354,1354,1354,1354,1359,1354,1354,1354,1359,1359,1359,1354,1354,1354,1354,1354,1354,1354,1354,1354,1349,1349,1349,1349,1349,1349,1349,1349,1349,1349,1343,1343,1349,1343,1343,1343,1343,1343,1343,1338,1338,1343,1343,1343,1343,1343,1343,1343,1343,1343,1338,1338,1338,1338,1338,1338,1338,1338,1338,1333,1333,1333,1333,1333,1333,1333,1333,1333,1333,1333,1333,1333,1333,1328,1328,1328,1328,1328,1328,1328,1328,1328,1328,1328,1328,1328,1322,1322,1322,1322,1322,1322,1322,1322,1322,1322,1322,1322,1322,1322,1322,1322,1322,1322,1317,1312,1312,1312,1312,1312,1312,1312,1312,1317,1317,1317,1317,1312,1312,1312,1312,1312,1312,1312,1312,1312,1307,1307,1307,1307,1307,1307,1302,1302,1302,1302,1302,1302,1302,1302,1302,1302,1302,1302,1302,1297,1297,1297,1297,1297,1297,1297,1297,1297,1297,1297,1297,1297,1297,1297,1297,1292,1292,1292,1292,1292,1292,1288,1288,1288,1288,1288,1288,1288,1283,1283,1283,1278,1278,1273,1268,1268,1268,1268,1268,1264,1264,1255,1255,1250,1250,1250,1245,1245,1241,1236,1236,1236,1236,1232,1232,1227,1223,1223,1219,1219,1219,1214,1214,1214,1214,1210,1210,1202,1202,1202,1197,1197,1197,1197,1047,1044,1041,1041,1038,1034,1031,1028,1025,1016,1016,1013,1004,998,998,992,987,984,981,981,978,975,975,973,970,967,967,967,967,967,967,970,970,803,803,803,803,0,0,0,0,0,0,0,0,0,0,0,0,0,0,0,0,0,0,0,0,0,0,0,0,0,0,0,0,0,0,0,0,0,0,0,0,0,0
0,0,0,0,0,0,0,0,0,1477,1477,1470,1470,1470,1470,1464,1464,1464,1458,1458,1458,1458,1458,1458,1458,1458,1458,1458,1458,1458,1458,1464,1464,1464,1458,1458,1458,1458,1458,1458,1452,1452,1452,1452,1452,1452,1452,1452,1452,1458,1452,1452,1452,1452,1445,1445,1445,1445,1439,1439,1439,1445,1445,1445,0,0,0,0,1044,0,1044,1044,1047,1047,1047,1047,1047,1047,1050,1050,1050,1054,1054,1057,1057,1060,1060,1060,1060,1063,1063,1063,1063,1458,1458,1452,1452,1445,1439,1439,1439,1433,1433,0,0,0,0,0,0,0,0,0,0,0,741,741,739,739,738,734,725,723,723,723,723,723,725,727,727,728,728,730,730,731,731,733,733,733,734,734,736,739,739,739,741,742,0,0,0,0,0,0,0,1161,1161,1161,1161,1161,1161,1161,1165,1165,1165,1165,1169,1169,1169,1173,1173,1173,1173,1173,1177,1177,1177,1177,1177,1173,1173,1169,1165,1165,1165,1161,1161,1161,1161,1157,1153,1153,1149,1149,1149,1145,1145,1202,1202,1202,1206,1206,1398,1398,1398,1398,1398,1398,1398,1404,1404,1404,1398,1398,1398,1398,1392,1392,1392,1392,1392,1392,1398,1398,1398,1392,1392,1392,1392,1392,1392,1392,1392,1392,1392,1392,1392,1392,1392,1387,1387,1387,1387,1387,1387,1387,1387,1387,1392,1387,1387,1381,1376,1365,1328,1317,1312,1312,1307,1307,1307,1307,1307,1307,1307,1307,1312,1317,1317,1317,1317,1317,1381,1381,1376,1376,1376,1376,1376,1370,1370,1376,1376,1376,1370,1370,1370,1370,1370,1370,1370,1365,1365,1370,1370,1370,1370,1370,1370,1370,1365,1365,1365,1365,1365,1365,1365,1365,1365,1365,1365,1365,1365,1365,1365,1365,1359,1359,1354,1354,1354,1349,1034,1034,1034,1034,1031,1028,1028,1025,1025,1022,1022,1022,1022,1022,1022,1025,1028,1028,1028,1031,1031,1034,1034,1038,1354,1354,1354,1354,1354,1354,1354,1354,1354,1354,1349,1349,1349,1349,1349,1349,1349,1349,1349,1349,1349,1349,1349,1343,1343,1343,1343,1343,1343,1343,1343,1343,1343,1343,1343,1343,1343,1338,1338,1338,1338,1338,1338,1338,1338,1338,1338,1343,1343,1343,1338,1338,1338,1338,1333,1333,1333,1333,1333,1333,1333,1333,1333,1333,1333,1328,1328,1328,1328,1328,1328,1328,1328,1328,1328,1328,1328,1328,1328,1328,1328,1328,1328,1328,1328,1322,1322,1322,1317,1317,1317,1317,1317,1317,1317,1317,1317,1317,1317,1317,1312,1312,1312,1317,1317,1312,1312,1312,1312,1312,1312,1312,1312,1312,1312,1312,1312,1312,1307,1307,1307,1307,1307,1307,1307,1307,1307,1307,1307,1307,1307,1302,1302,1302,1302,1297,1297,1297,1297,1292,1292,1292,1292,1292,1297,1292,1292,1297,1297,1297,1297,1297,1297,1292,1292,1288,1288,1288,1292,1292,1292,1292,1292,1292,1292,1288,1288,1288,1288,1288,1288,1283,1283,1283,1283,1283,1278,1278,1278,1278,1273,1268,1268,1268,1268,1268,1264,1264,1255,1255,1250,1250,1250,1250,1245,1241,1241,1236,1236,1236,1232,1232,1227,1223,1223,1219,1219,1219,1214,1214,1214,1214,1210,1210,1202,1202,1202,1197,1197,1197,1197,1044,1041,1041,1038,1038,1034,1028,1025,1022,1016,1016,1007,1001,995,995,992,987,984,981,978,978,975,973,970,967,967,967,967,967,967,967,970,970,803,803,803,803,0,0,0,0,0,0,0,0,0,0,0,0,0,0,0,0,0,0,0,0,0,0,0,0,0,0,0,0,0,0,0,0,0,0,0,0,0,0
0,0,0,0,0,0,0,0,0,1470,1470,1464,1464,1464,1464,1464,1458,1458,1458,1458,1458,1458,1452,1452,1452,1452,1445,1445,1452,1452,1452,1458,1458,1458,1458,1458,1458,1458,1458,1452,1452,1452,1452,1445,1445,1445,1445,1452,1452,1458,1452,1452,1452,1452,1445,1439,1439,1439,1439,1439,1439,1439,1433,1433,1433,0,1427,0,0,0,1044,1044,1047,1047,1047,1047,1047,1047,1050,1050,1050,1054,1054,1057,1057,1060,1060,1060,1060,1060,1060,1063,1063,1433,1433,1433,1439,1433,1433,1433,1427,1427,1427,0,0,0,0,0,0,0,0,0,0,0,0,741,739,739,738,734,727,725,723,723,723,723,725,727,727,728,730,731,731,731,733,733,733,734,734,734,738,739,739,739,741,742,0,0,0,0,0,0,1157,1157,1157,1161,1161,1161,1161,1161,1161,1165,1165,1165,1165,1165,1169,1173,1173,1173,1173,1177,1177,1177,1177,1177,1177,1173,1173,1169,1165,1165,1161,1161,1161,1157,1157,1153,1153,1149,1149,1149,1145,1145,1141,1141,1141,1398,1398,1398,1398,1398,1398,1392,1392,1392,1392,1392,1392,1392,1392,1392,1392,1392,1387,1387,1387,1387,1392,1392,1392,1392,1392,1392,1387,1387,1387,1387,1387,1387,1387,1387,1387,1387,1387,1387,1387,1387,1387,1387,1387,1387,1387,1387,1387,1387,1381,1381,1381,1370,1370,1365,1328,1317,1317,1312,1312,1307,1307,1307,1307,1307,1307,1307,1312,1317,1317,1317,1322,1322,1370,1370,1376,1376,1370,1370,1370,1370,1370,1370,1370,1370,1370,1370,1370,1370,1370,1365,1365,1365,1365,1365,1365,1365,1365,1365,1365,1365,1365,1365,1359,1359,1359,1359,1359,1354,1354,1359,1359,1359,1359,1359,1359,1359,1354,1354,1354,1349,1349,1349,0,1038,1034,1034,1031,1031,1028,1028,1025,1025,1025,1025,1025,1025,1025,1025,1028,1028,1028,1031,1031,1034,1038,1038,1354,1354,1349,1349,1354,1354,1349,1349,1349,1349,1349,1343,1343,1343,1343,1343,1349,1349,1343,1343,1343,1343,1343,1343,1338,1338,1338,1338,1338,1338,1338,1338,1338,1338,1338,1338,1338,1333,1333,1333,1333,1333,1333,1333,1333,1333,1333,1333,1333,1338,1338,1333,1333,1333,1333,1333,1333,1333,1333,1333,1333,1333,1328,1328,1328,1328,1328,1328,1328,1328,1328,1328,1328,1322,1322,1322,1322,1322,1322,1322,1322,1322,1322,1322,1322,1322,1322,1317,1317,1317,1312,1312,1312,1317,1312,1312,1312,1312,1312,1312,1312,1312,1312,1312,1312,1312,1307,1307,1307,1307,1307,1307,1307,1307,1307,1307,1307,1307,1307,1307,1307,1307,1307,1307,1307,1302,1302,1302,1302,1302,1302,1297,1297,1297,1297,1292,1292,1292,1292,1288,1288,1288,1288,1288,1292,1292,1292,1292,1292,1292,1292,1292,1292,1288,1288,1288,1288,1288,1288,1288,1292,1292,1288,1288,1292,1288,1288,1288,1288,1283,1283,1283,1283,1283,1283,1283,1278,1278,1278,1278,1273,1273,1268,1268,1268,1268,1268,1264,1264,1255,1255,1250,1250,1250,1245,1241,1241,1236,1236,1236,1232,1232,1227,1223,1223,1223,1219,1214,1214,1214,1214,1214,1210,1206,1202,1202,1202,1197,1197,1197,1197,1041,1041,1038,1034,1034,1031,1028,1025,1019,1016,1013,1004,998,992,992,989,987,984,978,978,975,973,973,970,967,967,967,967,967,967,967,807,805,805,805,803,803,0,0,0,0,0,0,0,0,0,0,0,0,0,0,0,0,0,0,0,0,0,0,0,0,0,0,0,0,0,0,0,0,0,0,0,0,0,0
0,0,0,0,0,0,0,0,0,1464,1464,1464,1458,1458,1458,1458,1458,1458,1458,1458,1458,1452,1452,1445,1445,1445,1439,1439,1445,1445,1445,1452,1452,1458,1458,1452,1452,1452,1452,1452,1452,1452,1445,1445,1445,1445,1445,1445,1445,1452,1452,1452,1452,1452,1439,1439,1439,1439,1439,1433,1433,1433,1433,1427,1427,1427,1427,0,0,1047,1047,1047,1047,1047,1047,1047,1047,1050,1050,1050,1054,1054,1054,1057,1060,1060,1060,1060,1060,1060,1060,1063,1063,1427,1427,1427,1433,1427,1421,1421,1421,1421,1421,0,0,0,0,0,0,0,0,0,0,0,0,741,741,739,739,738,728,727,725,723,723,723,725,727,727,728,731,731,731,731,733,733,733,734,734,734,738,739,739,739,741,0,0,0,0,0,0,0,1153,1153,1153,1157,1157,1157,1161,1161,1161,1165,1165,1165,1165,1165,1169,1173,1173,1173,1173,1177,1177,1177,1177,1177,1177,1173,1169,1169,1165,1165,1161,1161,1161,1157,1153,1153,1149,1149,1149,1145,1145,1145,1141,1141,1141,1392,1392,1392,1392,1392,1392,1387,1387,1387,1387,1387,1387,1387,1387,1387,1387,1387,1381,1381,1381,1381,1381,1387,1387,1387,1387,1387,1387,1381,1381,1381,1381,1381,1381,1376,1376,1381,1381,1381,1381,1381,1381,1381,1381,1381,1381,1381,1381,1381,1381,1381,1376,1370,1365,1359,1333,1322,1317,1317,1312,1307,1307,1307,1307,1307,1307,1307,1312,1317,1317,1322,1322,1328,1365,1365,1365,1365,1365,1365,1370,1370,1370,1370,1370,1370,1365,1365,1365,1365,1365,1365,1365,1365,1365,1365,1359,1359,1359,1359,1359,1359,1354,1354,1354,1354,1354,1354,1354,1354,1354,1354,1354,1354,1354,1354,1354,1354,1354,1354,1354,1349,1349,1349,0,1038,1034,1034,1034,1031,1028,1028,1025,1025,1025,1025,1025,1025,1025,1025,1028,1028,1031,1031,1031,1038,1038,1038,1038,1349,1349,1349,1354,1349,1349,1349,1349,1343,1343,1343,1338,1338,1338,1338,1338,1338,1338,1338,1338,1338,1338,1338,1338,1338,1338,1333,1333,1333,1333,1333,1333,1333,1333,1333,1333,1333,1333,1333,1333,1333,1333,1333,1333,1333,1333,1333,1333,1328,1328,1328,1328,1328,1328,1328,1328,1328,1328,1328,1328,1328,1328,1328,1328,1322,1322,1322,1322,1322,1322,1322,1322,1322,1322,1322,1317,1317,1317,1317,1317,1317,1317,1317,1317,1317,1317,1317,1312,1312,1312,1312,1312,1312,1312,1312,1312,1312,1312,1312,1312,1307,1307,1307,1307,1307,1307,1307,1307,1307,1307,1307,1307,1307,1302,1302,1302,1302,1302,1302,1302,1302,1302,1302,1302,1302,1297,1297,1297,1297,1297,1297,1292,1292,1292,1292,1292,1288,1288,1288,1288,1288,1283,1283,1288,1292,1292,1292,1292,1292,1292,1288,1288,1288,1283,1283,1283,1283,1288,1288,1288,1288,1288,1288,1288,1283,1283,1283,1278,1278,1283,1283,1278,1278,1278,1278,1278,1273,1273,1273,1273,1273,1268,1268,1268,1268,1268,1264,1264,1259,1259,1255,1250,1250,1245,1241,1241,1236,1236,1236,1236,1232,1232,1227,1223,1223,1219,1214,1214,1214,1214,1214,1214,1206,1202,1202,1202,1197,1197,1197,1197,1041,1038,1038,1034,1034,1031,1025,1022,1019,1013,1013,998,995,992,989,989,987,981,978,978,975,973,973,970,970,967,967,967,967,967,807,807,805,805,805,805,805,0,0,0,0,0,0,0,0,0,0,0,0,0,0,0,0,0,0,0,0,0,0,0,0,0,0,0,0,0,0,0,0,0,0,0,0,0,0
0,0,0,0,0,0,0,0,0,1458,1458,1458,1458,1458,1458,1458,1458,1458,1452,1452,1452,1452,1445,1445,1445,1439,1439,1439,1439,1439,1445,1445,1445,1445,1452,1445,1445,1445,1445,1445,1445,1439,1439,1439,1439,1439,1439,1439,1439,1439,1445,1439,1439,1439,1439,1433,1433,1433,1433,1433,1433,1427,1427,1421,1421,1421,0,1415,1063,1060,1060,1060,1050,1050,1050,1050,1050,1050,1050,1050,1054,1057,1057,1057,1060,1060,1060,1060,1060,1060,1060,1063,1063,1421,1421,1421,1421,1421,1421,1415,1415,1415,1415,0,0,0,0,0,0,0,0,0,0,0,0,741,741,739,739,738,728,727,725,725,723,723,725,727,727,728,731,731,731,731,733,733,733,734,734,736,739,739,739,739,739,0,0,0,0,0,0,0,1153,1153,1153,1157,1157,1157,1161,1161,1161,1165,1165,1165,1165,1165,1169,1173,1173,1173,1177,1177,1177,1177,1177,1177,1177,1173,1169,1165,1165,1165,1161,1161,1157,1153,1153,1145,1145,1145,1145,1145,1145,1141,1141,1138,1138,1138,1138,1392,1392,1392,1392,1387,1387,1381,1381,1387,1387,1381,1381,1381,1381,1381,1381,1381,1381,1381,1381,1381,1381,1381,1381,1381,1381,1381,1381,1376,1376,1376,1376,1376,1376,1376,1376,1376,1376,1376,1376,1376,1376,1376,1376,1376,1376,1376,1376,1376,1370,1370,1365,1359,1349,1322,1322,1317,1312,1312,1307,1307,1307,1307,1307,1312,1312,1317,1317,1322,1328,1333,1359,1365,1365,1365,1365,1365,1365,1365,1365,1365,1365,1365,1365,1359,1359,1359,1359,1359,1359,1359,1359,1359,1359,1359,1354,1354,1354,1354,1354,1354,1354,1354,1354,1349,1349,1349,1349,1349,1349,1349,1349,1354,1354,1354,1349,1349,1349,1349,1349,1349,0,1038,1038,1034,1034,1031,1031,1028,1028,1025,1025,1025,1025,1025,1025,1028,1028,1028,1031,1031,1034,1038,1038,1038,1038,1349,1349,1349,1354,1349,1349,1343,1343,1343,1338,1338,1333,1333,1333,1333,1338,1338,1338,1338,1338,1333,1333,1333,1333,1333,1333,1333,1333,1333,1328,1328,1328,1328,1328,1328,1328,1328,1328,1328,1328,1328,1328,1328,1328,1328,1328,1328,1328,1328,1328,1322,1322,1322,1322,1322,1322,1322,1322,1322,1322,1322,1322,1322,1322,1322,1322,1317,1317,1317,1317,1317,1317,1317,1317,1317,1312,1312,1312,1312,1312,1312,1312,1312,1312,1312,1312,1312,1312,1307,1307,1307,1307,1307,1307,1307,1307,1307,1307,1307,1307,1307,1307,1307,1307,1307,1302,1302,1297,1297,1297,1297,1302,1302,1297,1297,1302,1302,1302,1302,1297,1297,1302,1297,1297,1292,1292,1292,1292,1292,1292,1292,1292,1292,1292,1288,1288,1288,1288,1283,1283,1283,1283,1283,1283,1288,1288,1288,1288,1288,1288,1288,1283,1283,1283,1278,1278,1278,1283,1283,1278,1278,1278,1278,1278,1278,1278,1278,1278,1278,1278,1273,1273,1273,1273,1273,1273,1273,1273,1273,1268,1268,1268,1268,1268,1268,1264,1264,1264,1259,1259,1255,1255,1250,1250,1241,1241,1241,1236,1236,1236,1236,1232,1227,1227,1223,1219,1219,1214,1214,1214,1214,1214,1206,1206,1202,1202,1197,1197,1197,1197,1038,1034,1034,1031,1028,1025,1022,1016,1016,1004,1001,995,992,992,989,987,984,978,978,978,975,973,973,970,970,967,967,967,967,809,807,807,807,807,807,807,807,0,0,0,0,0,0,0,0,0,0,0,0,0,0,0,0,0,0,0,0,0,0,0,0,0,0,0,0,0,0,0,0,0,0,0,0,0,0
0,0,0,0,0,0,0,0,0,1452,1452,1458,1458,1452,1452,1458,1458,1452,1452,1452,1452,1445,1445,1439,1439,1439,1439,1439,1439,1439,1439,1439,1439,1439,1439,1439,1439,1439,1439,1439,1439,1433,1433,1433,1433,1433,1433,1427,1427,1433,1433,1433,1427,1427,1433,1433,1427,1427,1427,1427,1427,1427,1427,1421,1421,1415,1415,0,0,1063,1060,1060,1054,1050,1050,1050,1050,1050,1050,1050,1054,1057,1057,1057,1060,1060,1060,1060,1060,1060,1063,1063,1063,1421,1421,1415,1415,1415,1415,1415,1410,1410,1410,0,0,0,0,0,0,0,0,0,0,0,0,0,741,741,739,738,728,727,727,725,723,723,725,727,728,728,731,731,733,733,733,733,734,734,736,736,739,739,739,739,739,0,0,0,0,0,0,0,1153,1153,1153,1153,1157,1157,1161,1161,1161,1161,1165,1165,1165,1165,1169,1173,1173,1177,1177,1177,1177,1177,1177,1177,1177,1173,1169,1165,1165,1165,1161,1161,1157,1153,1149,1145,1145,1145,1145,1141,1141,1141,1138,1138,1134,1134,1134,1387,1387,1387,1387,1381,1381,1376,1376,1376,1381,1376,1376,1376,1376,1376,1376,1376,1376,1376,1376,1376,1376,1376,1376,1376,1376,1376,1376,1370,1370,1370,1370,1370,1370,1370,1370,1370,1370,1370,1370,1370,1370,1370,1370,1370,1370,1370,1370,1370,1370,1365,1365,1359,1349,1333,1322,1322,1317,1312,1312,1312,1312,1312,1312,1312,1312,1317,1317,1322,1328,1333,1349,1359,1359,1359,1359,1359,1359,1359,1354,1354,1354,1354,1359,1354,1354,1354,1354,1354,1354,1354,1354,1359,1354,1354,1354,1354,1354,1354,1349,1349,1349,1349,1349,1349,1349,1349,1349,1349,1349,1349,1349,1349,1349,1349,1349,1349,1349,1349,1349,1349,0,1038,1038,1038,1038,1038,1034,1031,1028,1028,1028,1028,1028,1028,1028,1028,1028,1031,1031,1031,1038,1038,1038,1038,1041,1349,1349,1349,1349,1349,1343,1338,1338,1338,1333,1333,1333,1333,1333,1333,1333,1333,1333,1333,1333,1333,1333,1333,1333,1333,1333,1328,1328,1328,1328,1328,1328,1328,1328,1328,1328,1322,1322,1322,1322,1322,1322,1322,1322,1322,1328,1322,1322,1322,1322,1322,1317,1317,1317,1317,1317,1317,1317,1317,1322,1322,1317,1317,1317,1317,1317,1317,1312,1312,1312,1312,1312,1312,1312,1312,1312,1312,1312,1312,1312,1307,1307,1307,1307,1307,1307,1307,1307,1307,1307,1307,1302,1302,1302,1302,1307,1307,1307,1307,1307,1307,1307,1302,1302,1302,1302,1302,1297,1297,1297,1297,1292,1292,1292,1297,1297,1297,1297,1297,1297,1297,1297,1292,1292,1292,1292,1292,1292,1292,1292,1292,1288,1288,1288,1288,1288,1288,1283,1278,1278,1278,1278,1278,1278,1283,1283,1283,1283,1283,1283,1283,1283,1283,1283,1278,1278,1278,1278,1278,1278,1278,1273,1273,1273,1273,1268,1268,1268,1268,1268,1268,1268,1268,1268,1268,1273,1268,1268,1268,1268,1268,1268,1268,1268,1268,1264,1264,1264,1259,1255,1255,1255,1250,1250,1245,1241,1241,1241,1236,1236,1236,1232,1232,1227,1227,1223,1219,1219,1219,1219,1214,1214,1210,1210,1202,1202,1202,1197,1197,1038,1038,1034,1034,1028,1028,1025,1019,1013,1013,1001,998,995,992,992,989,987,984,978,978,975,975,973,970,970,970,967,967,967,967,809,809,809,809,809,809,809,811,0,0,0,0,0,0,0,0,0,0,0,0,0,0,0,0,0,0,0,0,0,0,0,0,0,0,0,0,0,0,0,0,0,0,0,0,0,0
0,0,0,0,0,0,0,0,0,1452,1452,1452,1452,1445,1445,1452,1452,1452,1445,1445,1445,1445,1439,1439,1439,1439,1439,1439,1439,1439,1439,1439,1439,1439,1439,1433,1433,1433,1433,1433,1433,1433,1433,1433,1433,1427,1427,1421,1421,1427,1421,1421,1421,1421,1421,1421,1421,1421,1427,1427,1427,1427,1421,1421,1421,1415,1415,1415,1063,1063,1063,1060,1054,1054,1050,1050,1050,1050,1050,1054,1054,1057,1057,1057,1060,1060,1060,1060,1060,1063,1063,1063,1063,1063,1410,1410,1410,1410,1410,1410,1410,1410,1410,0,0,0,0,0,0,0,0,0,0,0,0,0,741,741,739,738,730,727,727,725,725,725,725,727,728,728,730,731,731,733,733,733,734,734,736,738,739,739,739,739,739,0,0,0,0,0,0,0,1153,1153,1153,1153,1157,1157,1161,1161,1161,1161,1165,1165,1165,1165,1169,1173,1173,1177,1177,1177,1177,1177,1177,1177,1177,1173,1169,1165,1165,1165,1161,1157,1157,1153,1145,1145,1145,1141,1141,1141,1138,1138,1138,1134,1134,1134,1134,1130,1130,1387,1387,1376,1370,1370,1370,1370,1370,1370,1370,1376,1376,1376,1376,1376,1370,1370,1376,1370,1370,1376,1370,1370,1370,1370,1370,1370,1370,1370,1370,1370,1370,1370,1370,1370,1365,1365,1365,1365,1365,1365,1365,1365,1365,1365,1365,1365,1365,1365,1365,1354,1349,1338,1333,1322,1317,1317,1312,1312,1312,1312,1312,1312,1317,1322,1322,1328,1328,1333,1333,1349,1354,1354,1354,1349,1349,1349,1349,1349,1349,1349,1349,1349,1349,1349,1349,1354,1349,1349,1354,1354,1349,1349,1349,1349,1349,1349,1349,1349,1349,1349,1349,1343,1343,1343,1343,1343,1343,1343,1343,1349,1349,1349,1343,1343,1343,1343,1343,1343,1333,1038,1038,1038,1038,1038,1038,1034,1031,1028,1028,1028,1028,1028,1028,1028,1028,1031,1031,1031,1038,1038,1038,1041,1041,1041,1349,1349,1349,1343,1343,1338,1333,1333,1333,1328,1328,1328,1328,1328,1328,1328,1328,1328,1328,1328,1328,1328,1328,1328,1328,1328,1328,1322,1322,1322,1322,1322,1322,1322,1322,1322,1317,1317,1322,1317,1317,1317,1317,1317,1322,1322,1317,1317,1322,1317,1317,1312,1312,1312,1312,1312,1307,1307,1312,1312,1312,1312,1312,1312,1312,1312,1312,1312,1312,1312,1312,1312,1307,1307,1307,1312,1312,1307,1307,1307,1307,1307,1307,1307,1307,1307,1307,1302,1302,1302,1302,1302,1302,1302,1302,1302,1302,1302,1302,1307,1307,1302,1302,1302,1297,1297,1292,1292,1292,1292,1292,1292,1292,1288,1288,1288,1292,1292,1292,1292,1292,1288,1288,1288,1288,1288,1288,1288,1288,1288,1288,1288,1288,1288,1283,1283,1278,1278,1278,1273,1273,1273,1273,1273,1278,1278,1278,1278,1278,1273,1273,1273,1273,1273,1273,1273,1273,1273,1273,1273,1273,1268,1268,1268,1268,1268,1268,1268,1268,1268,1268,1268,1268,1268,1268,1268,1268,1264,1264,1264,1264,1268,1268,1264,1264,1259,1259,1259,1255,1255,1250,1250,1245,1245,1241,1241,1241,1241,1236,1236,1232,1232,1227,1227,1223,1223,1219,1219,1219,1214,1214,1210,1210,1206,1206,1206,1202,1202,1038,1034,1028,1025,1025,1025,1022,1016,1007,1004,1001,995,995,992,992,989,989,984,978,978,975,973,973,970,970,970,970,967,811,811,811,811,811,811,811,811,811,811,0,0,0,0,0,0,0,0,0,0,0,0,0,0,0,0,0,0,0,0,0,0,0,0,0,0,0,0,0,0,0,0,0,0,0,0,0,0
0,0,0,0,0,0,0,0,0,1439,1439,1445,1445,1445,1445,1445,1445,1445,1439,1439,1439,1439,1439,1439,1439,1433,1433,1433,1433,1433,1433,1433,1433,1427,1427,1427,1427,1427,1427,1427,1427,1427,1427,1427,1427,1421,1421,1421,1421,1415,1415,1415,1415,1415,1421,1415,1415,1415,1421,1421,1421,1421,1421,1421,1415,1415,1415,1410,1410,1410,1057,1057,1057,1054,1050,1050,1050,1050,1050,1054,1057,1057,1057,1057,1060,1060,1060,1060,1060,1063,1063,1063,1060,1060,1410,1410,1410,1410,1410,1410,1410,1404,1404,0,0,0,0,0,0,0,0,0,0,0,0,0,744,741,741,741,739,727,725,725,723,723,725,727,728,728,730,731,731,733,733,733,734,736,738,738,739,739,739,739,739,741,0,0,0,0,0,0,1153,1153,1153,1157,1157,1157,1161,1161,1161,1161,1161,1165,1165,1165,1169,1173,1173,1177,1177,1177,1177,1177,1177,1177,1177,1173,1173,1169,1165,1165,1161,1157,1157,1153,1145,1145,1141,1141,1138,1138,1138,1134,1134,1134,1134,1130,1130,1123,1123,1123,1387,1376,1370,1365,1365,1365,1370,1370,1370,1370,1370,1370,1376,1370,1370,1370,1370,1370,1370,1370,1370,1365,1365,1370,1370,1370,1370,1370,1370,1370,1370,1370,1365,1365,1365,1365,1365,1365,1359,1359,1359,1359,1365,1365,1365,1365,1365,1365,1359,1354,1349,1338,1333,1328,1322,1317,1317,1317,1317,1317,1317,1317,1322,1322,1322,1328,1328,1333,1333,1343,1349,1349,1349,1349,1349,1349,1343,1343,1343,1349,1343,1343,1343,1343,1343,1343,1343,1349,1349,1349,1349,1349,1349,1349,1349,1349,1349,1349,1343,1343,1343,1343,1343,1343,1338,1338,1338,1338,1343,1349,1343,1343,1343,1343,1338,1338,1333,1333,1333,0,1041,1041,1041,1041,1038,1038,1031,1031,1028,1028,1028,1028,1028,1028,1028,1031,1031,1038,1038,1041,1041,1041,1044,1044,1349,1349,1333,1333,1338,1333,1333,1328,1328,1328,1328,1328,1322,1322,1322,1322,1322,1322,1322,1322,1328,1328,1328,1328,1328,1322,1322,1317,1317,1317,1317,1317,1317,1317,1317,1317,1312,1312,1312,1312,1312,1312,1312,1312,1312,1312,1312,1312,1312,1312,1312,1312,1312,1307,1307,1307,1307,1307,1302,1302,1302,1307,1307,1307,1307,1312,1312,1307,1307,1307,1307,1307,1307,1307,1307,1307,1307,1307,1307,1307,1307,1302,1302,1302,1302,1302,1302,1302,1302,1297,1297,1297,1292,1292,1297,1297,1297,1297,1297,1302,1302,1297,1297,1292,1292,1292,1292,1292,1288,1288,1288,1288,1288,1288,1288,1283,1283,1288,1288,1288,1288,1288,1288,1288,1288,1288,1288,1288,1288,1288,1283,1283,1283,1283,1283,1278,1278,1273,1273,1273,1273,1273,1273,1273,1273,1273,1273,1273,1273,1273,1273,1273,1268,1268,1268,1273,1273,1268,1268,1268,1268,1268,1264,1264,1264,1264,1264,1259,1259,1259,1259,1264,1264,1268,1264,1264,1264,1264,1259,1259,1259,1264,1264,1264,1264,1259,1259,1259,1255,1255,1250,1250,1245,1245,1241,1241,1241,1241,1236,1236,1232,1232,1227,1227,1223,1223,1223,1219,1219,1219,1214,1214,1210,1210,1206,1206,1206,1206,1038,1034,1028,1025,1025,1019,1016,1016,1004,1004,998,995,995,992,992,989,989,984,978,978,975,973,973,973,970,970,970,970,811,811,811,811,811,811,811,813,813,813,0,0,0,0,0,0,0,0,0,0,0,0,0,0,0,0,0,0,0,0,0,0,0,0,0,0,0,0,0,0,0,0,0,0,0,0,0,0
0,0,0,0,0,0,0,0,0,1433,1433,1439,1439,1439,1439,1439,1439,1439,1439,1439,1439,1439,1433,1433,1433,1433,1433,1433,1433,1433,1427,1427,1427,1421,1421,1421,1421,1421,1421,1421,1421,1421,1421,1421,1421,1421,1415,1415,1415,1415,1415,1415,1415,1415,1415,1415,1415,1415,1415,1415,1415,1415,1415,1415,1415,1415,1410,1410,1410,1410,1410,1057,1057,1057,1054,1054,1050,1050,1050,1054,1057,1057,1057,1060,1060,1060,1060,1063,1063,1063,1063,1063,1060,1060,1060,1398,1398,1398,1398,1404,1404,1404,1404,0,0,0,0,0,0,0,0,0,0,0,0,0,744,744,742,742,741,727,725,725,723,723,725,727,727,728,730,731,731,733,733,734,734,736,738,738,739,739,739,741,741,741,0,0,0,0,0,0,1157,1153,1153,1157,1157,1161,1161,1161,1161,1161,1161,1165,1165,1165,1169,1173,1177,1177,1177,1177,1177,1177,1177,1177,1177,1173,1173,1165,1165,1161,1161,1157,1157,1153,1145,1145,1141,1138,1138,1134,1134,1134,1134,1130,1130,1130,1130,1123,1123,1119,1119,1370,1370,1365,1365,1365,1365,1370,1370,1370,1370,1370,1370,1370,1370,1370,1370,1370,1370,1365,1365,1365,1365,1365,1365,1365,1365,1365,1365,1365,1365,1365,1365,1365,1359,1359,1359,1359,1359,1359,1359,1359,1359,1359,1359,1359,1359,1359,1359,1354,1349,1343,1333,1333,1328,1322,1322,1317,1317,1317,1317,1322,1322,1322,1322,1328,1328,1333,1338,1338,1343,1343,1343,1343,1343,1343,1343,1343,1343,1343,1343,1343,1343,1343,1343,1343,1343,1338,1338,1343,1343,1343,1343,1343,1343,1343,1343,1343,1343,1343,1343,1338,1338,1338,1338,1338,1333,1333,1338,1343,1343,1343,1338,1338,1333,1333,1333,1333,1333,1333,1041,1041,1041,1041,1038,1038,1034,1031,1031,1028,1028,1028,1028,1028,1028,1031,1031,1038,1041,1044,1044,1044,1044,1044,1044,1328,1328,1328,1328,1328,1328,1328,1328,1322,1322,1322,1322,1322,1317,1317,1317,1317,1317,1317,1322,1322,1322,1322,1322,1317,1317,1312,1312,1312,1312,1312,1312,1312,1312,1312,1312,1312,1312,1312,1312,1312,1312,1307,1307,1312,1312,1312,1307,1307,1307,1307,1307,1307,1307,1307,1302,1302,1302,1302,1302,1302,1297,1297,1297,1297,1307,1307,1307,1307,1302,1302,1302,1302,1302,1302,1302,1302,1302,1302,1302,1302,1302,1297,1297,1297,1297,1297,1297,1292,1292,1292,1292,1292,1292,1292,1292,1292,1292,1292,1292,1292,1292,1288,1288,1288,1288,1288,1288,1288,1283,1283,1283,1283,1283,1278,1278,1283,1283,1283,1283,1283,1288,1283,1283,1283,1283,1283,1283,1283,1278,1278,1283,1283,1278,1278,1273,1273,1273,1273,1268,1268,1268,1268,1273,1273,1273,1268,1268,1268,1268,1268,1268,1268,1268,1268,1268,1268,1268,1268,1268,1264,1255,1255,1255,1259,1259,1259,1259,1255,1255,1259,1259,1259,1259,1259,1264,1259,1259,1259,1259,1259,1264,1264,1259,1259,1259,1259,1255,1255,1250,1250,1245,1245,1241,1241,1241,1241,1236,1236,1232,1232,1227,1227,1227,1223,1223,1223,1219,1219,1214,1214,1210,1210,1206,1206,1206,1206,1206,1206,1010,1010,1007,1007,1007,1004,1001,1001,998,995,995,992,992,989,989,987,978,978,975,975,975,975,975,975,813,813,811,811,811,811,813,813,813,813,811,811,0,0,0,0,0,0,0,0,0,0,0,0,0,0,0,0,0,0,0,0,0,0,0,0,0,0,0,0,0,0,0,0,0,0,0,0,0,0
0,0,0,0,0,0,0,0,0,1433,1427,1427,1427,1427,1427,1433,1433,1433,1433,1433,1433,1433,1433,1433,1433,1427,1427,1427,1427,1427,1427,1427,1421,1415,1415,1415,1415,1415,1415,1415,1415,1415,1415,1415,1415,1415,1415,1415,1410,1410,1410,1410,1410,1410,1410,1410,1410,1410,1410,1410,1410,1415,1415,1415,1415,1415,1410,1410,1410,1410,1410,1060,1060,1057,1057,1057,1057,1057,1057,1057,1057,1060,1060,1060,1060,1063,1063,1063,1063,1063,1063,1063,1060,1060,1060,1392,1392,1392,1392,1398,1398,1398,1392,1392,0,0,0,0,0,0,0,0,0,0,0,0,744,744,742,742,742,741,727,725,725,725,725,727,727,728,730,731,731,733,733,734,734,736,738,739,739,739,739,741,741,742,742,0,0,0,0,0,0,1161,1161,1161,1161,1161,1161,1161,1161,1165,1165,1165,1165,1165,1169,1173,1177,1177,1177,1177,1177,1177,1177,1177,1177,1177,1173,1165,1165,1161,1161,1157,1157,1149,1145,1141,1141,1138,1134,1134,1130,1130,1130,1126,1126,1126,1123,1119,1119,1119,1119,1119,1119,1365,1365,1365,1365,1365,1365,1365,1365,1365,1365,1365,1365,1365,1365,1365,1365,1365,1365,1365,1359,1359,1359,1359,1359,1359,1359,1359,1365,1365,1359,1359,1359,1354,1354,1359,1354,1354,1354,1354,1359,1354,1354,1354,1354,1354,1354,1349,1349,1343,1338,1333,1328,1322,1322,1322,1322,1322,1322,1322,1322,1322,1328,1328,1328,1333,1333,1333,1338,1343,1338,1338,1338,1338,1338,1338,1338,1343,1338,1338,1338,1338,1338,1338,1338,1333,1333,1338,1333,1333,1333,1338,1338,1338,1338,1338,1338,1338,1338,1333,1333,1333,1333,1333,1333,1333,1333,1338,1333,1333,1333,1333,1333,1333,1328,1328,1333,1333,1041,1041,1041,1041,1041,1038,1038,1034,1031,1028,1028,1028,1028,1028,1031,1031,1031,1038,1041,1044,1044,1044,1044,1044,1044,1317,1317,1317,1317,1322,1317,1317,1317,1317,1322,1322,1317,1317,1317,1312,1312,1312,1312,1312,1312,1317,1317,1317,1317,1312,1312,1312,1312,1312,1312,1312,1307,1307,1307,1307,1307,1307,1307,1307,1307,1307,1307,1307,1307,1307,1307,1307,1307,1307,1307,1307,1302,1302,1302,1302,1302,1302,1297,1297,1297,1297,1297,1292,1292,1297,1297,1297,1297,1302,1302,1302,1297,1297,1302,1302,1297,1297,1297,1297,1297,1292,1292,1292,1292,1292,1288,1288,1288,1288,1288,1288,1288,1288,1288,1288,1288,1288,1288,1288,1288,1288,1288,1283,1283,1283,1283,1283,1283,1283,1278,1278,1283,1278,1278,1273,1273,1273,1273,1278,1278,1278,1278,1278,1283,1278,1278,1283,1283,1278,1278,1278,1278,1278,1273,1273,1268,1268,1268,1268,1268,1268,1268,1268,1268,1268,1264,1264,1264,1264,1264,1264,1264,1264,1264,1264,1264,1259,1259,1264,1264,1255,1255,1255,1255,1255,1255,1255,1255,1255,1255,1255,1255,1255,1255,1255,1255,1255,1255,1255,1255,1255,1255,1255,1255,1255,1255,1255,1250,1250,1245,1245,1245,1245,1241,1241,1241,1241,1236,1236,1232,1232,1227,1227,1227,1223,1223,1223,1219,1219,1214,1214,1214,1210,1210,1210,1206,1206,1206,1206,1010,1010,1007,1004,1004,1004,1001,1001,998,995,995,995,992,989,989,987,981,981,981,978,975,975,975,813,813,813,811,811,811,811,813,813,813,813,811,811,0,0,0,0,0,0,0,0,0,0,0,0,0,0,0,0,0,0,0,0,0,0,0,0,0,0,0,0,0,0,0,0,0,0,0,0,0,0
0,0,0,0,0,0,0,0,0,1433,1427,1427,1427,1427,1421,1421,1421,1421,1421,1427,1427,1427,1427,1421,1421,1421,1421,1421,1421,1421,1427,1421,1421,1415,1415,1415,1415,1415,1415,1415,1415,1415,1415,1415,1415,1415,1415,1410,1410,1410,1410,1410,1410,1410,1410,1410,1410,1410,1410,1410,1410,1410,1410,1410,1410,1410,1410,1404,1404,1410,1410,1060,1060,1060,1057,1057,1057,1057,1057,1057,1060,1060,1060,1063,1063,1063,1063,1063,1063,1067,1067,1067,1063,1063,1063,1392,1392,1392,1392,1392,1392,1392,1392,1392,0,0,0,0,0,0,0,0,0,0,0,0,744,744,742,742,742,741,741,727,727,727,727,727,728,728,730,731,731,733,734,734,736,736,738,739,739,739,739,741,742,742,742,0,0,0,0,0,0,1165,1165,1161,1161,1161,1161,1161,1161,1165,1165,1165,1165,1165,1169,1173,1177,1177,1177,1177,1177,1177,1177,1177,1177,1177,1354,1169,1165,1161,1161,1157,1157,1149,1145,1141,1141,1138,1134,1134,1130,1130,1126,1126,1123,1123,1123,1119,1119,1119,1119,1119,1119,1119,1370,1370,1365,1365,1365,1365,1365,1365,1365,1365,1365,1365,1365,1365,1359,1359,1359,1359,1354,1354,1354,1354,1354,1354,1354,1354,1354,1354,1354,1354,1354,1354,1354,1354,1354,1349,1349,1349,1354,1349,1349,1349,1349,1349,1349,1349,1343,1343,1338,1333,1328,1328,1322,1322,1322,1322,1322,1322,1322,1322,1328,1328,1328,1328,1333,1333,1333,1333,1338,1338,1338,1338,1333,1333,1338,1338,1338,1333,1333,1333,1333,1333,1333,1328,1328,1328,1328,1328,1328,1328,1328,1328,1328,1328,1333,1328,1328,1328,1328,1328,1328,1328,1328,1328,1328,1333,1333,1333,1328,1328,1328,1328,1328,1328,1328,1328,1044,1044,1044,1041,1041,1038,1038,1034,1031,1028,1028,1028,1028,1028,1031,1031,1034,1041,1041,1044,1044,1044,1044,1041,1041,1317,1317,1312,1312,1317,1312,1312,1312,1312,1312,1312,1312,1312,1312,1312,1312,1312,1312,1312,1312,1312,1312,1312,1312,1312,1312,1312,1307,1307,1307,1307,1307,1307,1307,1307,1302,1302,1302,1302,1302,1307,1307,1302,1302,1307,1307,1302,1302,1302,1302,1302,1302,1302,1302,1302,1297,1297,1297,1297,1297,1292,1292,1292,1292,1292,1292,1292,1292,1292,1292,1297,1297,1297,1297,1292,1292,1292,1292,1292,1292,1288,1288,1288,1288,1288,1288,1288,1288,1288,1288,1288,1288,1288,1288,1283,1283,1283,1283,1283,1278,1278,1278,1278,1278,1278,1278,1278,1278,1278,1278,1278,1278,1273,1273,1273,1273,1273,1273,1273,1273,1273,1273,1273,1273,1268,1268,1273,1273,1273,1273,1273,1273,1273,1268,1264,1264,1264,1264,1264,1264,1264,1264,1264,1264,1259,1259,1259,1259,1259,1259,1259,1259,1259,1259,1259,1259,1255,1255,1255,1255,1250,1250,1250,1250,1250,1255,1255,1250,1250,1250,1255,1255,1250,1250,1250,1250,1255,1250,1250,1250,1255,1250,1250,1250,1250,1250,1250,1250,1245,1245,1241,1241,1241,1241,1241,1241,1236,1236,1236,1232,1232,1227,1227,1227,1227,1223,1223,1223,1219,1219,1214,1214,1214,1210,1210,1210,1210,1214,1013,1013,1010,1007,1004,1004,1004,1001,1001,998,998,995,995,992,989,989,987,981,981,981,981,981,819,815,815,813,813,811,811,815,815,813,813,813,813,813,813,0,0,0,0,0,0,0,0,0,0,0,0,0,0,0,0,0,0,0,0,0,0,0,0,0,0,0,0,0,0,0,0,0,0,0,0,0,0
0,0,0,0,0,0,0,0,0,1433,1427,1427,1427,1421,1421,1415,1415,1415,1415,1415,1415,1415,1415,1415,1415,1415,1415,1421,1421,1421,1421,1415,1415,1410,1410,1410,1410,1410,1410,1410,1410,1410,1410,1410,1410,1410,1410,1410,1410,1410,1404,1404,1404,1404,1404,1404,1404,1404,1404,1404,1404,1410,1410,1410,1410,1404,1404,1398,1398,1398,1398,1060,1060,1060,1057,1057,1057,1057,1057,1060,1060,1060,1060,1063,1063,1063,1063,1063,1067,1067,1067,1067,1070,1070,1070,1381,1381,1381,1387,1387,1387,1387,1387,1387,1387,0,0,0,0,0,0,0,0,0,0,0,746,744,744,742,742,741,741,728,727,727,727,728,728,728,730,731,731,733,734,734,736,736,738,739,739,739,741,742,744,744,746,746,0,0,0,0,0,1165,1165,1165,1165,1165,1161,1161,1165,1165,1165,1165,1165,1165,1173,1177,1177,1177,1177,1177,1177,1365,1365,1365,1365,1354,1354,1349,1349,1343,1343,1157,1153,1149,1145,1141,1138,1134,1134,1130,1130,1126,1126,1123,1123,1123,1119,1119,1119,1119,1119,1119,1119,1115,1115,1365,1365,1365,1359,1359,1359,1359,1359,1359,1354,1354,1359,1354,1354,1354,1354,1354,1349,1349,1349,1349,1349,1349,1349,1349,1349,1349,1349,1349,1349,1349,1349,1349,1349,1349,1349,1349,1349,1349,1349,1343,1343,1343,1343,1343,1343,1343,1338,1333,1328,1328,1328,1322,1322,1322,1322,1322,1322,1322,1322,1328,1328,1328,1328,1328,1333,1333,1333,1333,1333,1333,1333,1333,1333,1333,1333,1333,1333,1333,1333,1328,1328,1328,1328,1322,1322,1322,1322,1322,1322,1322,1322,1322,1322,1322,1328,1328,1322,1322,1322,1322,1322,1322,1328,1328,1328,1328,1328,1328,1328,1322,1322,1322,1322,1322,1047,1047,1044,1044,1041,1041,1038,1034,1031,1028,1028,1028,1028,1031,1031,1034,1038,1041,1041,1044,1044,1044,1044,1041,1041,1041,1312,1312,1312,1312,1312,1307,1307,1307,1307,1307,1307,1307,1307,1307,1307,1307,1307,1307,1307,1307,1307,1307,1307,1307,1307,1307,1307,1307,1307,1307,1302,1302,1302,1302,1302,1297,1297,1297,1297,1302,1302,1302,1302,1302,1302,1297,1297,1297,1297,1297,1297,1297,1302,1297,1297,1297,1292,1292,1292,1292,1292,1288,1288,1292,1292,1292,1292,1292,1292,1292,1292,1292,1292,1292,1288,1288,1288,1288,1288,1283,1283,1283,1283,1283,1283,1283,1283,1283,1283,1283,1283,1283,1283,1283,1283,1278,1278,1278,1273,1273,1273,1273,1273,1273,1273,1278,1273,1273,1273,1273,1273,1273,1268,1268,1268,1268,1273,1273,1273,1268,1268,1268,1268,1264,1264,1259,1259,1259,1273,1273,1268,1268,1268,1264,1264,1264,1264,1264,1264,1264,1259,1259,1259,1259,1259,1259,1255,1255,1255,1255,1255,1259,1259,1259,1255,1255,1255,1255,1250,1250,1250,1250,1250,1250,1250,1250,1250,1250,1250,1250,1250,1250,1250,1250,1250,1250,1250,1250,1250,1245,1245,1250,1245,1245,1245,1245,1245,1245,1241,1241,1236,1236,1241,1236,1236,1236,1236,1236,1232,1232,1227,1227,1227,1227,1227,1223,1223,1219,1219,1214,1214,1214,1214,1210,1210,1214,1214,1013,1013,1010,1010,1007,1004,1004,1001,1001,998,998,995,995,995,989,989,987,987,987,987,817,817,819,819,815,815,815,815,815,815,815,815,815,815,815,813,813,0,0,0,0,0,0,0,0,0,0,0,0,0,0,0,0,0,0,0,0,0,0,0,0,0,0,0,0,0,0,0,0,0,0,0,0,0,0
0,0,0,0,0,0,0,0,0,1427,1427,1427,1427,1421,1421,1415,1415,1415,1415,1415,1410,1410,1410,1410,1410,1410,1410,1410,1415,1415,1415,1415,1415,1410,1404,1404,1410,1410,1410,1410,1410,1410,1410,1410,1410,1410,1410,1404,1404,1404,1404,1404,1404,1404,1404,1404,1404,1404,1404,1398,1398,1398,1398,1404,1404,1398,1398,1398,1398,1398,1398,1063,1063,1060,1060,1060,1060,1060,1060,1060,1060,1060,1060,1063,1063,1063,1063,1063,1067,1067,1067,1067,1070,1070,1070,1381,1381,1381,1381,1387,1381,1381,1381,1387,1387,0,0,0,0,0,0,0,0,0,0,0,746,746,744,744,744,744,744,728,727,727,728,728,728,730,731,733,733,733,734,734,736,738,739,739,739,739,742,744,746,746,746,746,0,0,0,0,0,0,1165,1165,1165,1165,1165,1165,1165,1165,1165,1169,1169,1173,1173,1359,1359,1359,1359,1365,1365,1365,1365,1365,1359,1354,1354,1349,1349,1349,1349,1349,1153,1149,1145,1141,1138,1134,1130,1130,1130,1126,1123,1123,1119,1119,1115,1115,1115,1115,1115,1115,1115,1115,1112,1108,1108,1365,1359,1359,1354,1354,1349,1349,1349,1349,1349,1349,1349,1349,1349,1349,1349,1349,1349,1349,1349,1343,1343,1343,1343,1349,1349,1349,1349,1343,1343,1343,1343,1343,1343,1343,1343,1343,1343,1343,1338,1338,1338,1338,1338,1338,1333,1333,1328,1328,1328,1322,1322,1322,1322,1322,1322,1322,1322,1328,1328,1328,1328,1328,1328,1328,1328,1328,1333,1333,1328,1328,1328,1328,1328,1328,1328,1328,1328,1328,1322,1322,1322,1322,1322,1322,1322,1322,1322,1322,1322,1322,1322,1322,1322,1317,1317,1317,1317,1322,1317,1317,1328,1328,1328,1322,1322,1322,1322,1317,1317,1317,1322,1322,1047,1047,1047,1044,1041,1041,1038,1034,1031,1028,1028,1028,1028,1031,1031,1034,1038,1041,1041,1044,1044,1044,1044,1044,1044,1044,1307,1307,1307,1307,1307,1307,1307,1302,1302,1302,1302,1307,1307,1307,1307,1307,1307,1307,1307,1302,1302,1302,1302,1302,1302,1302,1302,1302,1302,1302,1302,1302,1297,1297,1297,1297,1297,1297,1297,1297,1297,1292,1292,1292,1292,1292,1292,1292,1297,1297,1297,1297,1297,1297,1292,1292,1292,1292,1292,1288,1288,1288,1288,1288,1288,1288,1288,1288,1288,1288,1288,1288,1288,1283,1283,1288,1288,1283,1283,1278,1278,1283,1278,1278,1278,1278,1278,1278,1278,1278,1278,1278,1278,1273,1273,1273,1273,1273,1273,1273,1273,1273,1273,1273,1273,1273,1273,1273,1268,1268,1268,1268,1268,1268,1268,1268,1268,1268,1268,1268,1268,1264,1264,1259,1259,1259,1255,1255,1255,1255,1264,1264,1264,1259,1259,1259,1259,1259,1259,1259,1259,1259,1259,1259,1255,1255,1255,1255,1250,1250,1255,1255,1255,1255,1255,1255,1255,1250,1250,1250,1250,1250,1250,1250,1245,1245,1245,1245,1245,1245,1245,1245,1245,1245,1245,1250,1245,1245,1245,1241,1241,1241,1241,1241,1241,1245,1241,1241,1241,1236,1236,1236,1236,1236,1236,1236,1236,1236,1232,1227,1227,1227,1227,1227,1227,1223,1223,1219,1219,1214,1214,1214,1210,1210,1210,1210,1013,1013,1013,1010,1010,1007,1004,1004,1004,1004,1001,998,998,992,992,989,989,987,987,987,817,817,817,819,819,817,817,817,817,817,817,817,815,815,815,815,813,813,0,0,0,0,0,0,0,0,0,0,0,0,0,0,0,0,0,0,0,0,0,0,0,0,0,0,0,0,0,0,0,0,0,0,0,0,0,0
0,0,0,0,0,0,0,0,0,1427,1421,1421,1421,1421,1415,1415,1415,1415,1410,1410,1410,1410,1410,1410,1410,1404,1404,1410,1404,1404,1410,1410,1410,1404,1398,1398,1404,1404,1404,1404,1404,1404,1404,1404,1404,1404,1404,1404,1404,1404,1398,1398,1398,1398,1398,1398,1398,1392,1392,1392,1392,1392,1392,1392,1398,1392,1392,1392,1392,1392,1398,1063,1063,1060,1060,1060,1060,1060,1060,1060,1060,1060,1060,1063,1063,1063,1063,1067,1067,1067,1067,1070,1073,1073,1073,1381,1381,1381,1381,1381,1381,1381,1381,1376,1376,0,0,0,0,0,0,0,0,0,0,0,0,746,746,746,746,744,744,728,728,728,728,728,730,730,731,733,733,733,734,734,736,738,739,739,739,741,742,744,746,746,746,746,0,0,0,0,0,0,1165,1161,1161,1161,1161,1165,1165,1169,1169,1173,1173,1349,1349,1354,1354,1354,1359,1359,1359,1359,1359,1359,1359,1354,1354,1349,1349,1349,1349,1349,1349,1153,1145,1141,1138,1134,1130,1130,1126,1126,1123,1119,1115,1115,1115,1115,1112,1112,1112,1112,1112,1112,1108,1105,1105,1108,1108,1359,1349,1349,1349,1349,1343,1343,1343,1343,1343,1343,1343,1343,1343,1343,1343,1343,1343,1343,1343,1343,1343,1343,1343,1343,1343,1343,1338,1338,1338,1333,1333,1333,1333,1333,1333,1333,1333,1333,1333,1333,1333,1333,1333,1328,1328,1328,1328,1322,1322,1322,1322,1322,1322,1322,1322,1322,1322,1328,1328,1328,1328,1328,1328,1328,1328,1328,1328,1328,1328,1328,1328,1328,1328,1322,1322,1322,1322,1322,1322,1317,1317,1317,1317,1317,1317,1317,1317,1317,1317,1317,1317,1317,1317,1317,1317,1317,1317,1317,1322,1322,1322,1322,1317,1317,1317,1317,1317,1317,1317,1317,1050,1050,1047,1044,1044,1041,1038,1038,1034,1028,1028,1028,1028,1031,1031,1034,1038,1041,1041,1044,1044,1044,1044,1044,1044,1044,1307,1307,1307,1307,1307,1302,1302,1302,1302,1297,1297,1302,1302,1302,1302,1302,1302,1302,1302,1297,1297,1302,1302,1302,1297,1297,1297,1297,1297,1297,1297,1297,1297,1297,1297,1297,1292,1292,1292,1292,1292,1292,1292,1292,1292,1292,1292,1292,1292,1292,1292,1292,1292,1292,1292,1292,1292,1292,1288,1288,1283,1283,1283,1283,1283,1283,1283,1278,1278,1283,1283,1283,1283,1278,1278,1278,1278,1278,1278,1278,1278,1278,1278,1278,1273,1273,1273,1273,1273,1273,1273,1273,1273,1273,1273,1273,1273,1268,1268,1273,1273,1273,1273,1273,1273,1273,1273,1273,1268,1268,1268,1268,1264,1264,1264,1264,1268,1268,1264,1264,1264,1255,1255,1255,1255,1255,1255,1255,1255,1255,1255,1255,1255,1255,1255,1259,1259,1259,1255,1255,1255,1259,1255,1255,1255,1255,1255,1255,1250,1250,1250,1250,1250,1250,1250,1250,1250,1245,1245,1245,1245,1245,1245,1245,1245,1245,1241,1241,1241,1241,1241,1241,1241,1241,1241,1241,1241,1236,1236,1241,1241,1241,1236,1236,1236,1241,1236,1236,1236,1236,1236,1236,1236,1236,1236,1236,1232,1232,1232,1227,1227,1227,1227,1223,1223,1223,1223,1219,1219,1214,1214,1214,1210,1210,1210,1210,1016,1016,1016,1013,1013,1010,1007,1007,1004,1004,1001,998,998,992,992,989,989,987,987,987,817,817,817,819,817,815,815,817,817,817,817,817,817,817,817,817,815,815,0,0,0,0,0,0,0,0,0,0,0,0,0,0,0,0,0,0,0,0,0,0,0,0,0,0,0,0,0,0,0,0,0,0,0,0,0,0
0,0,0,0,0,0,0,0,0,1415,1415,1415,1415,1415,1415,1410,1410,1410,1410,1404,1404,1404,1404,1404,1404,1404,1404,1404,1398,1398,1398,1398,1392,1392,1392,1392,1398,1398,1398,1398,1398,1398,1398,1398,1398,1398,1398,1398,1398,1398,1398,1398,1398,1398,1398,1392,1392,1392,1392,1392,1392,1392,1392,1392,1392,1392,1392,1392,1392,1392,1392,1063,1063,1060,1060,1060,1060,1060,1060,1060,1060,1060,1063,1063,1063,1063,1063,1067,1067,1067,1067,1070,1073,1073,1080,1381,1381,1381,1381,1381,1101,1101,1376,1101,1101,1101,1101,0,0,0,0,0,0,0,0,0,0,746,746,746,746,744,744,728,728,728,728,730,730,731,731,733,733,734,734,736,736,738,739,739,739,742,744,746,746,746,746,746,747,0,0,0,0,0,1165,1161,1161,1161,1161,1165,1165,1349,1349,1343,1343,1343,1349,1349,1349,1349,1354,1359,1359,1354,1354,1354,1354,1354,1354,1349,1349,1349,1349,1349,1343,1343,1141,1141,1138,1134,1130,1130,1126,1126,1123,1119,1115,1115,1112,1112,1108,1108,1108,1108,1108,1105,1105,1105,1105,1105,1108,1108,1349,1349,1343,1343,1343,1343,1338,1338,1338,1338,1338,1338,1338,1343,1343,1338,1338,1338,1338,1338,1338,1338,1338,1338,1338,1338,1338,1333,1333,1333,1333,1333,1333,1328,1328,1328,1328,1333,1333,1328,1328,1328,1328,1328,1328,1328,1328,1328,1322,1322,1322,1322,1322,1322,1322,1322,1322,1322,1322,1322,1322,1322,1322,1322,1322,1328,1322,1322,1322,1322,1322,1322,1322,1322,1322,1322,1317,1317,1317,1317,1317,1317,1317,1317,1317,1317,1317,1312,1312,1312,1312,1312,1312,1312,1312,1312,1307,1307,1312,1312,1317,1312,1312,1312,1312,1312,1312,1312,1312,1312,1050,1050,1047,1044,1044,1041,1038,1038,1034,1031,1031,1031,1031,1031,1031,1034,1038,1041,1041,1044,1044,1044,1044,1044,1044,1312,1312,1307,1307,1307,1307,1302,1297,1297,1297,1297,1297,1297,1297,1297,1297,1297,1302,1297,1297,1297,1292,1292,1292,1292,1297,1292,1292,1292,1292,1292,1292,1292,1292,1292,1292,1292,1292,1292,1292,1288,1288,1288,1288,1288,1288,1288,1288,1288,1288,1288,1292,1292,1292,1292,1292,1288,1288,1288,1288,1283,1283,1278,1278,1278,1278,1278,1278,1273,1273,1273,1273,1278,1278,1278,1273,1273,1273,1273,1273,1273,1273,1273,1273,1273,1273,1273,1273,1273,1273,1273,1273,1273,1268,1268,1268,1268,1268,1268,1268,1268,1268,1268,1268,1268,1268,1268,1268,1268,1268,1268,1264,1264,1264,1259,1259,1259,1259,1259,1259,1259,1255,1255,1255,1255,1250,1250,1250,1250,1250,1250,1255,1255,1255,1255,1255,1255,1255,1255,1255,1250,1250,1255,1255,1255,1255,1250,1250,1250,1250,1250,1250,1250,1250,1250,1250,1250,1250,1245,1245,1245,1245,1245,1245,1245,1241,1241,1241,1241,1241,1241,1236,1236,1236,1236,1236,1236,1236,1236,1236,1236,1236,1236,1236,1236,1236,1236,1236,1232,1232,1236,1236,1236,1236,1232,1232,1232,1232,1232,1232,1227,1227,1227,1223,1223,1223,1223,1219,1219,1219,1219,1214,1214,1214,1210,1210,1019,1016,1016,1016,1016,1013,1013,1010,1007,1004,1004,1004,1001,998,995,995,989,989,987,987,987,0,0,815,815,815,815,815,817,817,817,819,819,819,819,817,817,815,815,0,0,0,0,0,0,0,0,0,0,0,0,0,0,0,0,0,0,0,0,0,0,0,0,0,0,0,0,0,0,0,0,0,0,0,0,0,0
0,0,0,0,0,0,0,0,1415,1415,1415,1410,1410,1415,1410,1410,1404,1404,1404,1404,1398,1398,1398,1398,1398,1398,1398,1398,1398,1392,1392,1392,1392,1392,1387,1387,1392,1392,1392,1392,1392,1398,1398,1392,1392,1392,1392,1392,1392,1392,1392,1392,1392,1392,1392,1387,1387,1387,1387,1387,1387,1387,1387,1387,1387,1387,1387,1392,1387,1387,1387,1063,1063,1060,1060,1060,1060,1060,1060,1060,1060,1060,1063,1063,1063,1063,1063,1067,1067,1067,1070,1070,1073,1077,1080,1084,1381,1381,1376,1101,1101,1101,1105,1101,1101,1101,1101,1105,0,1101,1101,0,0,0,0,0,0,0,746,746,746,744,744,734,730,730,730,730,731,731,733,733,734,734,734,736,738,739,739,739,741,742,744,746,746,747,747,747,747,0,0,0,0,0,0,1161,1161,1161,1165,1165,1349,1349,1349,1343,1343,1343,1349,1349,1349,1349,1349,1354,1354,1349,1349,1349,1349,1349,1349,1349,1349,1343,1343,1343,1338,1338,1338,1134,1134,1134,1130,1130,1126,1126,1123,1119,1115,1115,1112,1108,1108,1108,1105,1105,1105,1105,1105,1101,1101,1105,1105,1105,1349,1349,1343,1343,1343,1338,1338,1333,1333,1333,1333,1333,1338,1338,1338,1338,1338,1338,1333,1333,1333,1333,1333,1333,1333,1333,1333,1328,1328,1328,1328,1328,1328,1328,1328,1328,1328,1328,1328,1328,1328,1328,1322,1322,1322,1322,1322,1322,1322,1322,1322,1322,1322,1322,1322,1322,1322,1317,1317,1317,1322,1317,1317,1322,1322,1322,1322,1317,1317,1317,1317,1317,1317,1317,1317,1317,1317,1312,1312,1312,1312,1312,1312,1312,1312,1312,1312,1307,1307,1307,1307,1307,1307,1307,1307,1307,1307,1307,1307,1307,1307,1307,1307,1307,1307,1307,1307,1307,1307,1307,1054,1054,1050,1044,1044,1041,1038,1038,1034,1034,1031,1031,1031,1031,1034,1038,1038,1041,1041,1044,1044,1044,1044,1047,1047,1312,1312,1307,1302,1302,1302,1297,1297,1297,1297,1297,1297,1297,1297,1297,1292,1292,1297,1297,1292,1292,1292,1292,1292,1288,1288,1288,1292,1292,1292,1292,1292,1292,1292,1292,1288,1288,1288,1288,1288,1288,1283,1283,1283,1283,1283,1283,1283,1288,1288,1288,1288,1288,1288,1288,1288,1288,1288,1283,1283,1278,1278,1273,1273,1273,1273,1273,1273,1273,1273,1273,1273,1273,1273,1273,1273,1273,1273,1273,1273,1273,1273,1273,1273,1273,1273,1273,1273,1273,1268,1268,1268,1268,1268,1268,1268,1268,1268,1264,1264,1264,1268,1268,1264,1264,1264,1264,1264,1268,1259,1259,1259,1255,1255,1259,1255,1255,1255,1255,1255,1255,1255,1250,1250,1250,1250,1250,1250,1250,1250,1250,1250,1255,1255,1250,1250,1250,1250,1250,1250,1250,1250,1255,1250,1250,1250,1250,1250,1250,1245,1245,1245,1245,1245,1241,1241,1245,1245,1241,1241,1245,1245,1241,1241,1241,1241,1236,1236,1236,1236,1236,1236,1236,1236,1236,1236,1236,1232,1232,1232,1232,1232,1232,1232,1232,1232,1232,1232,1232,1232,1232,1232,1232,1232,1232,1232,1227,1227,1227,1227,1223,1223,1223,1223,1223,1223,1223,1219,1219,1219,1219,1214,1214,1214,1214,1028,1019,1019,1019,1016,1016,1016,1013,1010,1010,1004,1004,1004,998,998,992,992,989,989,989,0,0,0,0,819,815,815,815,815,817,819,819,819,819,819,819,817,817,815,815,0,0,0,0,0,0,0,0,0,0,0,0,0,0,0,0,0,0,0,0,0,0,0,0,0,0,0,0,0,0,0,0,0,0,0,0,0,0
0,0,0,0,0,0,0,0,1410,1410,1410,1410,1410,1410,1404,1404,1404,1404,1398,1398,1398,1398,1398,1398,1392,1392,1392,1398,1392,1392,1392,1392,1387,1387,1387,1387,1387,1387,1387,1387,1387,1387,1387,1387,1392,1392,1392,1387,1387,1387,1387,1387,1387,1381,1381,1387,1381,1381,1381,1381,1381,1381,1381,1381,1381,1381,1387,1387,1381,1381,1381,1063,1063,1060,1060,1060,1060,1060,1060,1060,1060,1060,1063,1063,1063,1063,1063,1067,1067,1067,1070,1070,1073,1077,1080,1084,1090,1381,1376,1101,1101,1101,1105,1105,1105,1105,1105,1105,1105,1101,1101,1105,0,0,0,0,0,0,0,746,746,744,744,733,731,730,730,731,731,731,733,733,734,734,734,736,738,739,739,739,741,742,744,746,746,747,747,747,747,749,0,0,0,0,0,1161,1161,1161,1165,1349,1349,1349,1349,1349,1343,1343,1349,1349,1343,1343,1349,1349,1349,1349,1349,1349,1349,1349,1349,1343,1343,1343,1343,1338,1338,1333,1328,1328,1134,1134,1130,1130,1126,1123,1119,1119,1115,1115,1112,1108,1105,1105,1105,1105,1101,1101,1101,1101,1101,1101,1097,1094,1094,1343,1343,1338,1338,1338,1333,1333,1328,1328,1328,1328,1328,1333,1333,1333,1333,1333,1333,1328,1328,1328,1328,1328,1328,1328,1328,1328,1328,1328,1328,1328,1328,1322,1322,1322,1322,1322,1322,1322,1322,1322,1322,1322,1322,1322,1322,1322,1322,1322,1322,1322,1322,1322,1317,1317,1317,1317,1317,1317,1317,1317,1317,1317,1317,1317,1317,1317,1312,1312,1312,1312,1312,1312,1312,1312,1312,1307,1307,1307,1307,1307,1307,1307,1307,1307,1307,1307,1307,1307,1307,1307,1307,1302,1302,1307,1302,1302,1307,1307,1307,1307,1307,1307,1307,1302,1302,1302,1302,1302,1054,1054,1050,1050,1044,1044,1041,1038,1038,1034,1031,1031,1031,1031,1034,1038,1038,1041,1041,1044,1047,1047,1047,1050,1050,1312,1312,1302,1302,1297,1292,1292,1292,1292,1292,1292,1292,1292,1292,1292,1292,1292,1292,1292,1292,1292,1292,1288,1288,1283,1283,1283,1283,1283,1283,1288,1288,1288,1288,1288,1288,1288,1288,1288,1283,1283,1278,1278,1278,1278,1278,1278,1278,1283,1283,1283,1283,1283,1283,1283,1283,1283,1283,1283,1278,1278,1273,1273,1273,1273,1273,1273,1273,1268,1268,1268,1268,1273,1273,1273,1273,1268,1268,1268,1268,1268,1268,1268,1268,1268,1268,1268,1268,1268,1268,1268,1268,1264,1264,1264,1264,1264,1264,1259,1259,1259,1264,1264,1259,1259,1259,1259,1259,1255,1255,1255,1255,1255,1255,1255,1255,1255,1255,1255,1255,1255,1255,1250,1250,1250,1250,1250,1250,1250,1250,1250,1250,1250,1250,1250,1250,1250,1245,1245,1245,1245,1245,1250,1250,1250,1250,1250,1245,1241,1241,1236,1236,1236,1236,1236,1236,1236,1236,1236,1236,1236,1236,1236,1236,1236,1236,1236,1236,1236,1236,1236,1236,1236,1236,1236,1232,1232,1232,1232,1232,1232,1232,1232,1232,1227,1227,1227,1227,1227,1227,1227,1227,1227,1227,1227,1223,1223,1223,1223,1223,1223,1219,1219,1219,1219,1219,1219,1219,1219,1214,1214,1214,1214,1034,1031,1028,1025,1019,1019,1016,1016,1016,1013,1010,1010,1004,1004,1004,998,995,992,989,989,989,0,0,0,0,0,819,819,817,815,815,817,819,819,819,819,819,819,817,817,817,817,0,0,0,0,0,0,0,0,0,0,0,0,0,0,0,0,0,0,0,0,0,0,0,0,0,0,0,0,0,0,0,0,0,0,0,0,0,0
0,0,0,0,0,0,0,0,1404,1404,1404,1404,1404,1404,1398,1398,1392,1392,1392,1392,1392,1392,1392,1392,1392,1392,1392,1392,1392,1392,1392,1387,1387,1387,1387,1387,1387,1381,1381,1381,1381,1376,1376,1381,1381,1381,1381,1381,1381,1381,1381,1381,1381,1376,1376,1381,1381,1376,1376,1376,1376,1376,1376,1376,1376,1376,1376,1381,1376,1376,1376,1376,1060,1060,1060,1060,1060,1060,1060,1060,1060,1060,1063,1063,1063,1063,1063,1067,1067,1070,1070,1073,1077,1077,1084,1087,1090,1097,1101,1101,1101,1105,1105,1105,1105,1105,1105,1105,1105,1105,1101,1101,0,0,0,0,0,0,752,747,747,746,746,733,731,730,730,731,731,731,733,733,734,734,734,736,739,739,739,741,741,744,746,746,747,747,747,747,747,749,0,0,0,0,0,0,0,0,0,1343,1343,1349,1349,1349,1343,1343,1349,1343,1343,1343,1343,1343,1343,1343,1343,1343,1343,1343,1343,1343,1343,1338,1333,1333,1333,1328,1328,1328,1328,1134,1126,1126,1126,1123,1119,1119,1115,1112,1108,1108,1105,1105,1101,1101,1101,1101,1101,1097,1097,1097,1094,1090,1090,1087,1087,1338,1338,1333,1328,1328,1328,1328,1328,1328,1328,1328,1328,1328,1328,1328,1328,1328,1328,1328,1328,1322,1322,1322,1322,1328,1328,1322,1322,1328,1328,1322,1322,1322,1322,1322,1322,1322,1317,1317,1322,1322,1317,1317,1317,1322,1322,1322,1322,1322,1317,1317,1317,1317,1317,1312,1312,1312,1312,1312,1312,1312,1312,1312,1312,1312,1312,1312,1312,1312,1307,1307,1307,1307,1307,1307,1307,1302,1302,1302,1302,1302,1302,1302,1302,1302,1302,1302,1302,1302,1297,1297,1297,1297,1297,1297,1302,1302,1302,1302,1302,1302,1302,1302,1297,1297,1297,1297,1297,1054,1054,1050,1047,1047,1041,1041,1038,1038,1034,1034,1034,1034,1034,1038,1038,1041,1044,1044,1047,1050,1050,1050,1050,1050,1302,1302,1297,1292,1292,1292,1292,1288,1288,1288,1288,1288,1288,1288,1288,1288,1288,1288,1288,1288,1288,1283,1283,1278,1278,1278,1278,1278,1278,1278,1278,1278,1283,1288,1283,1283,1283,1283,1283,1278,1273,1273,1273,1273,1273,1273,1273,1278,1278,1278,1278,1278,1278,1278,1278,1278,1278,1273,1273,1273,1273,1268,1268,1268,1268,1268,1268,1268,1268,1268,1268,1268,1268,1268,1268,1268,1268,1268,1268,1264,1264,1268,1264,1264,1264,1264,1264,1264,1264,1264,1268,1264,1259,1259,1259,1259,1259,1259,1255,1255,1259,1259,1255,1255,1255,1255,1255,1255,1255,1250,1250,1250,1250,1255,1250,1250,1250,1250,1250,1250,1250,1250,1250,1250,1245,1245,1245,1245,1245,1245,1245,1245,1245,1245,1245,1245,1245,1245,1241,1241,1241,1236,1236,1236,1241,1245,1236,1236,1236,1236,1236,1232,1232,1232,1232,1232,1232,1232,1236,1236,1236,1236,1236,1236,1236,1236,1236,1232,1232,1236,1232,1232,1232,1232,1232,1232,1232,1227,1227,1227,1223,1223,1223,1223,1223,1223,1223,1223,1223,1223,1223,1219,1219,1223,1219,1219,1219,1219,1219,1219,1219,1219,1219,1219,1214,1214,1214,1214,1038,1038,1038,1038,1034,1031,1028,1025,1019,1019,1019,1019,1016,1013,1013,1010,1004,1004,1001,998,995,992,989,989,989,0,0,0,0,0,0,819,817,817,817,817,819,819,819,819,819,819,819,819,817,817,0,0,0,0,0,0,0,0,0,0,0,0,0,0,0,0,0,0,0,0,0,0,0,0,0,0,0,0,0,0,0,0,0,0,0,0,0,0
0,0,0,0,0,0,0,0,1404,1404,1398,1392,1392,1392,1392,1392,1387,1387,1387,1387,1387,1387,1387,1387,1387,1387,1387,1392,1392,1392,1387,1387,1387,1387,1387,1381,1376,1376,1370,1370,1376,1370,1370,1376,1376,1376,1376,1376,1370,1370,1376,1381,1376,1376,1376,1376,1376,1376,1370,1370,1376,1376,1376,1370,1370,1376,1376,1376,1370,1370,1370,1370,1370,1063,1063,1063,1063,1063,1063,1060,1060,1060,1063,1063,1063,1063,1063,1067,1067,1070,1070,1073,1073,1077,1087,1094,1097,1097,1101,1101,1101,1105,1105,1105,1105,1105,1105,1105,1105,1105,1101,1101,0,0,0,0,0,0,752,750,749,746,744,734,733,731,731,731,731,733,733,733,734,734,734,738,739,739,739,741,742,744,746,746,747,747,749,749,749,750,0,0,0,0,0,0,0,0,0,1343,1343,1343,1343,1343,1343,1343,1343,1343,1343,1343,1338,1338,1338,1338,1338,1338,1338,1333,1333,1338,1333,1333,1333,1333,1328,1328,1328,1328,1328,1328,1126,1126,1126,1123,1119,1119,1115,1112,1108,1108,1105,1101,1101,1097,1097,1094,1094,1094,1094,1094,1094,1090,1090,1087,1084,1084,1333,1333,1328,1328,1322,1322,1322,1322,1322,1322,1322,1322,1322,1322,1322,1322,1322,1322,1322,1322,1322,1322,1322,1322,1322,1322,1322,1322,1322,1322,1322,1322,1322,1317,1317,1317,1317,1317,1317,1317,1312,1312,1317,1312,1312,1317,1317,1317,1317,1317,1312,1312,1312,1312,1312,1312,1307,1307,1307,1307,1307,1312,1307,1307,1307,1307,1307,1307,1307,1307,1307,1302,1302,1302,1302,1302,1302,1302,1302,1302,1302,1302,1302,1302,1302,1297,1297,1297,1292,1292,1292,1292,1292,1292,1297,1297,1297,1297,1302,1297,1297,1297,1292,1292,1292,1292,1292,1292,1054,1054,1050,1047,1044,1041,1041,1038,1034,1034,1034,1034,1034,1038,1038,1041,1044,1044,1047,1050,1050,1050,1050,1050,1297,1297,1292,1292,1292,1288,1288,1283,1283,1283,1283,1283,1278,1278,1283,1283,1283,1278,1278,1278,1283,1278,1278,1278,1278,1273,1273,1273,1273,1273,1273,1273,1278,1278,1273,1273,1278,1278,1278,1273,1273,1273,1273,1273,1273,1273,1273,1273,1273,1273,1273,1273,1273,1273,1273,1273,1273,1273,1268,1268,1268,1268,1268,1268,1268,1268,1268,1268,1264,1264,1264,1264,1264,1264,1264,1264,1264,1264,1264,1264,1264,1264,1264,1259,1259,1259,1259,1259,1259,1259,1259,1255,1255,1255,1255,1255,1255,1255,1255,1255,1255,1255,1255,1255,1250,1250,1250,1250,1250,1250,1250,1250,1250,1250,1250,1250,1250,1250,1245,1245,1245,1241,1241,1241,1241,1241,1241,1245,1245,1241,1241,1245,1245,1241,1236,1236,1236,1236,1236,1236,1236,1236,1232,1232,1232,1232,1232,1232,1232,1232,1232,1232,1227,1227,1227,1227,1227,1227,1232,1232,1232,1232,1232,1232,1232,1232,1232,1232,1232,1232,1232,1232,1232,1232,1232,1232,1227,1227,1227,1223,1219,1219,1219,1219,1219,1219,1219,1219,1219,1219,1219,1219,1219,1219,1219,1219,1219,1219,1219,1219,1219,1219,1214,1214,1214,1210,1210,1210,1038,1038,1038,1038,1034,1034,1031,1028,1022,1019,1019,1019,1016,1013,1010,1007,1004,1004,1001,998,995,992,989,989,0,0,0,0,0,0,0,821,817,817,817,819,819,819,819,819,819,819,819,819,817,817,0,0,0,0,0,0,0,0,0,0,0,0,0,0,0,0,0,0,0,0,0,0,0,0,0,0,0,0,0,0,0,0,0,0,0,0,0,0
0,0,0,0,0,0,0,0,1398,1398,1392,1392,1392,1392,1387,1387,1387,1381,1381,1381,1381,1381,1381,1381,1381,1381,1381,1387,1387,1387,1387,1387,1381,1381,1381,1376,1370,1370,1370,1370,1370,1370,1370,1370,1370,1376,1376,1370,1370,1370,1370,1370,1370,1370,1370,1370,1376,1370,1370,1370,1370,1370,1370,1370,1370,1370,1370,1370,1370,1370,1370,1370,1370,1070,1070,1063,1063,1063,1063,1063,1063,1063,1063,1063,1063,1063,1067,1067,1067,1070,1070,1073,1073,1077,1084,1090,1094,1094,1097,1101,1101,1105,1105,1105,1105,1105,1105,1105,1101,1101,1101,1101,0,0,0,0,0,0,752,752,750,746,744,736,734,733,733,733,733,733,733,734,734,734,736,738,739,739,741,741,744,744,746,746,747,747,749,749,749,750,0,0,0,0,0,0,0,0,0,1343,1343,1343,1343,1343,1343,1343,1343,1343,1338,1338,1338,1338,1333,1333,1338,1333,1333,1333,1333,1333,1333,1328,1328,1328,1328,1328,1328,1328,1328,1328,1130,1130,1126,1123,1119,1115,1115,1112,1108,1105,1101,1101,1097,1094,1094,1094,1094,1090,1090,1090,1090,1087,1087,1087,1084,1084,1084,1328,1328,1328,1322,1322,1322,1322,1322,1322,1322,1322,1322,1322,1322,1322,1322,1322,1317,1317,1317,1317,1317,1317,1317,1317,1317,1322,1322,1322,1317,1317,1317,1312,1312,1312,1312,1312,1312,1312,1312,1312,1312,1312,1312,1312,1312,1312,1312,1312,1312,1312,1312,1307,1307,1307,1307,1307,1307,1307,1307,1307,1307,1307,1307,1307,1302,1302,1302,1302,1302,1302,1302,1297,1297,1297,1297,1297,1297,1297,1297,1297,1297,1297,1297,1297,1292,1292,1292,1288,1288,1288,1292,1292,1292,1297,1297,1297,1297,1297,1297,1292,1292,1292,1288,1288,1288,1288,1057,1050,1050,1050,1047,1044,1041,1038,1038,1038,1034,1034,1038,1038,1041,1041,1044,1047,1050,1050,1054,1054,1054,1057,1297,1297,1292,1288,1288,1283,1283,1278,1278,1278,1278,1278,1278,1278,1278,1278,1278,1273,1273,1273,1273,1273,1273,1273,1273,1273,1273,1273,1273,1273,1273,1273,1273,1273,1268,1268,1268,1268,1273,1273,1273,1273,1273,1273,1273,1273,1273,1268,1268,1268,1268,1268,1268,1268,1268,1268,1268,1268,1268,1268,1268,1264,1264,1264,1264,1264,1264,1264,1264,1264,1264,1259,1259,1259,1259,1259,1259,1259,1259,1259,1259,1259,1259,1255,1255,1255,1255,1255,1255,1255,1255,1255,1255,1250,1250,1255,1255,1255,1255,1255,1255,1255,1250,1250,1250,1245,1245,1245,1245,1245,1245,1245,1245,1245,1245,1245,1245,1245,1241,1241,1241,1236,1236,1236,1236,1236,1236,1241,1241,1236,1236,1236,1236,1236,1236,1236,1236,1236,1236,1236,1236,1232,1232,1232,1227,1227,1232,1232,1232,1232,1232,1232,1227,1227,1227,1227,1227,1227,1227,1232,1232,1232,1232,1227,1227,1227,1227,1227,1227,1232,1232,1232,1232,1227,1227,1227,1227,1223,1223,1223,1219,1219,1219,1219,1219,1219,1219,1219,1219,1219,1219,1219,1219,1214,1214,1214,1214,1214,1214,1214,1214,1214,1214,1214,1214,1210,1210,1210,1038,1038,1038,1038,1034,1034,1031,1028,1025,1022,1022,1019,1016,1013,1010,1007,1004,1004,1001,998,998,995,995,0,0,0,0,0,0,0,827,823,819,819,821,821,821,821,821,821,821,819,819,819,817,817,819,0,0,0,0,0,0,0,0,0,0,0,0,0,0,0,0,0,0,0,0,0,0,0,0,0,0,0,0,0,0,0,0,0,0,0,0,0
0,0,0,0,0,0,0,0,1398,1398,1392,1387,1387,1387,1381,1381,1381,1381,1381,1381,1381,1381,1381,1376,1376,1376,1376,1381,1381,1381,1381,1381,1381,1381,1376,1376,1370,1365,1365,1370,1365,1365,1365,1370,1370,1370,1370,1370,1370,1370,1370,1370,1365,1365,1365,1365,1365,1365,1365,1370,1370,1370,1370,1365,1365,1365,1365,1365,1359,1359,1365,1365,1359,1070,1070,1067,1067,1067,1063,1063,1063,1063,1063,1063,1063,1063,1067,1067,1067,1070,1073,1073,1077,1080,1084,1087,1090,1094,1097,1097,1101,1101,1101,1101,1101,1101,1105,1105,1101,1101,1101,1101,0,0,0,0,0,0,754,752,752,746,746,738,734,733,733,733,733,733,733,734,734,734,736,738,739,739,741,742,744,744,746,746,747,747,749,749,750,752,752,0,0,0,0,0,0,0,0,1343,1343,1343,1343,1343,1338,1338,1338,1338,1338,1338,1338,1333,1333,1333,1333,1333,1328,1328,1328,1328,1328,1328,1328,1328,1328,1328,1322,1322,1322,1322,1317,1307,1307,1119,1119,1115,1115,1112,1108,1105,1101,1101,1097,1094,1094,1090,1090,1090,1090,1087,1087,1087,1087,1084,1084,1084,1084,1328,1328,1328,1322,1322,1322,1322,1322,1317,1317,1317,1317,1317,1317,1317,1317,1317,1317,1312,1312,1312,1312,1312,1312,1312,1312,1317,1317,1312,1312,1307,1307,1307,1307,1307,1307,1307,1307,1307,1307,1307,1307,1307,1307,1307,1307,1307,1307,1307,1307,1302,1302,1307,1307,1307,1302,1302,1307,1307,1302,1302,1302,1302,1302,1302,1302,1302,1302,1297,1297,1297,1297,1297,1297,1297,1297,1297,1297,1297,1292,1292,1297,1292,1292,1292,1292,1292,1288,1288,1288,1288,1288,1288,1292,1292,1292,1292,1292,1292,1292,1292,1292,1288,1288,1288,1288,1288,1057,1057,1054,1050,1047,1044,1041,1041,1038,1038,1038,1038,1038,1038,1041,1044,1044,1047,1050,1054,1054,1054,1054,1057,1057,1283,1283,1283,1283,1278,1278,1278,1273,1273,1273,1273,1273,1273,1273,1273,1273,1273,1273,1273,1268,1268,1268,1273,1268,1268,1268,1268,1268,1268,1268,1268,1268,1268,1268,1268,1268,1268,1268,1268,1268,1268,1268,1268,1268,1268,1268,1268,1268,1264,1264,1264,1268,1268,1268,1268,1268,1268,1268,1268,1264,1264,1264,1264,1264,1264,1259,1259,1259,1259,1259,1259,1259,1255,1255,1255,1255,1255,1255,1255,1255,1255,1255,1255,1255,1255,1255,1255,1250,1250,1250,1250,1250,1250,1250,1250,1250,1250,1250,1250,1250,1250,1250,1250,1245,1245,1241,1241,1241,1241,1241,1241,1245,1245,1241,1241,1241,1241,1241,1236,1236,1236,1236,1236,1236,1232,1232,1236,1236,1236,1236,1232,1232,1236,1232,1232,1232,1232,1232,1232,1232,1232,1232,1227,1227,1227,1227,1227,1227,1227,1227,1227,1227,1227,1223,1223,1223,1223,1223,1227,1227,1227,1227,1223,1223,1223,1223,1223,1223,1227,1227,1227,1227,1227,1227,1223,1223,1219,1219,1219,1219,1219,1219,1214,1214,1214,1214,1214,1214,1214,1214,1214,1214,1214,1214,1214,1214,1214,1214,1214,1214,1214,1214,1214,1210,1210,1210,1210,1038,1038,1038,1038,1038,1038,1034,1028,1028,1025,1022,1022,1016,1013,1010,1010,1007,1004,1001,1001,998,998,0,0,0,0,0,0,0,827,827,825,823,823,825,823,823,821,821,821,821,819,819,819,819,819,819,0,0,0,0,0,0,0,0,0,0,0,0,0,0,0,0,0,0,0,0,0,0,0,0,0,0,0,0,0,0,0,0,0,0,0,0,0
0,0,0,0,0,0,0,0,1392,1392,1387,1387,1381,1381,1376,1376,1381,1381,1381,1381,1381,1381,1376,1376,1376,1370,1370,1370,1370,1376,1376,1376,1376,1376,1376,1370,1365,1365,1365,1365,1365,1365,1365,1365,1365,1370,1370,1370,1365,1365,1365,1365,1365,1365,1365,1365,1365,1365,1365,1365,1365,1365,1365,1365,1365,1365,1365,1365,1359,1359,1359,1359,1359,1073,1073,1070,1070,1067,1067,1063,1063,1063,1063,1063,1063,1067,1067,1067,1067,1073,1073,1077,1077,1080,1087,1087,1090,1090,1094,1097,1101,1101,1101,1101,1101,1101,1105,1105,1101,1101,1101,1101,0,0,0,0,0,0,754,754,750,749,746,741,734,733,733,733,733,733,733,734,734,734,736,738,739,739,741,742,744,746,746,747,747,749,750,750,750,752,752,0,0,0,0,0,0,0,0,1343,1338,1338,1338,1338,1333,1333,1333,1333,1333,1333,1333,1333,1333,1333,1328,1328,1328,1328,1328,1328,1322,1322,1322,1322,1322,1322,1322,1322,1322,1322,1317,1307,1307,1119,1119,1119,1115,1112,1108,1105,1101,1101,1094,1094,1090,1090,1090,1087,1087,1087,1087,1084,1084,1084,1084,1084,1084,1084,1328,1322,1322,1322,1322,1322,1317,1317,1317,1312,1312,1312,1312,1312,1312,1312,1312,1307,1307,1307,1307,1307,1307,1307,1307,1312,1307,1307,1307,1302,1302,1302,1302,1297,1297,1302,1302,1302,1302,1302,1302,1302,1302,1302,1302,1302,1302,1302,1302,1302,1302,1297,1297,1297,1297,1302,1302,1302,1302,1302,1302,1302,1302,1302,1297,1297,1297,1297,1292,1292,1292,1292,1292,1292,1292,1292,1292,1292,1288,1288,1292,1288,1288,1288,1288,1288,1283,1283,1283,1283,1283,1283,1288,1288,1288,1288,1292,1292,1292,1292,1292,1288,1288,1288,1288,1054,1054,1054,1054,1054,1050,1047,1044,1041,1041,1041,1038,1038,1041,1041,1041,1044,1044,1047,1050,1054,1054,1057,1057,1057,1060,1283,1283,1278,1278,1273,1273,1273,1273,1273,1273,1273,1273,1273,1273,1273,1273,1268,1268,1268,1268,1268,1268,1268,1268,1268,1268,1268,1268,1268,1264,1264,1264,1264,1264,1264,1264,1264,1264,1268,1264,1264,1264,1264,1264,1268,1264,1264,1264,1259,1259,1259,1264,1264,1264,1264,1264,1264,1264,1264,1259,1259,1259,1259,1259,1259,1259,1259,1259,1259,1255,1255,1255,1255,1255,1255,1255,1255,1255,1255,1255,1250,1250,1250,1250,1250,1250,1250,1250,1250,1250,1250,1250,1245,1245,1245,1245,1245,1245,1245,1250,1245,1245,1245,1245,1241,1241,1241,1236,1236,1236,1241,1241,1241,1236,1236,1236,1236,1236,1236,1232,1232,1232,1232,1232,1232,1232,1232,1232,1232,1232,1232,1232,1232,1232,1232,1232,1232,1232,1232,1232,1232,1227,1227,1223,1223,1227,1223,1223,1223,1223,1223,1223,1223,1223,1223,1219,1219,1219,1219,1219,1223,1223,1223,1223,1219,1219,1223,1223,1219,1219,1223,1223,1223,1219,1219,1219,1219,1214,1214,1214,1214,1214,1210,1210,1214,1214,1210,1210,1210,1210,1210,1214,1210,1210,1210,1210,1214,1214,1214,1214,1214,1214,1214,1206,1206,1202,1202,1038,1038,1038,1038,1038,1038,1034,1034,1028,1028,1025,1022,1016,1013,1010,1010,1007,1004,1004,1001,1001,0,0,0,0,0,0,0,827,827,827,825,825,825,825,823,823,823,821,821,821,819,819,819,819,819,819,0,0,0,0,0,0,0,0,0,0,0,0,0,0,0,0,0,0,0,0,0,0,0,0,0,0,0,0,0,0,0,0,0,0,0,0,0
0,0,0,0,0,0,0,0,1387,1381,1381,1376,1376,1376,1376,1376,1376,1376,1376,1376,1381,1376,1376,1370,1370,1370,1370,1370,1370,1370,1370,1370,1370,1370,1370,1365,1359,1359,1365,1365,1365,1365,1365,1365,1365,1365,1365,1365,1365,1365,1365,1365,1365,1365,1359,1359,1359,1359,1359,1359,1359,1359,1359,1359,1359,1359,1359,1359,1354,1354,1354,1354,1349,1349,1073,1070,1070,1067,1067,1063,1063,1063,1063,1063,1063,1067,1070,1070,1070,1073,1077,1077,1077,1080,1087,1087,1090,1090,1094,1097,1097,1097,1097,1101,1101,1101,1101,1101,1105,1101,1101,1101,0,0,0,0,0,0,754,752,750,747,746,742,738,734,734,733,733,733,733,734,736,736,736,738,739,739,741,742,744,746,746,747,747,749,750,750,750,752,752,752,0,0,0,0,0,0,0,0,1338,1328,1328,1333,1328,1328,1328,1328,1328,1328,1328,1328,1328,1328,1328,1328,1328,1322,1322,1322,1322,1322,1322,1322,1317,1317,1322,1317,1317,1317,1317,1307,1307,1119,1119,1119,1115,1115,1112,1108,1105,1101,1094,1094,1090,1090,1087,1087,1087,1084,1084,1084,1084,1084,1080,1080,1080,1080,1322,1322,1322,1322,1317,1317,1312,1312,1312,1307,1307,1307,1307,1307,1307,1307,1307,1307,1307,1307,1307,1307,1307,1302,1302,1307,1307,1302,1302,1302,1302,1302,1297,1297,1297,1297,1297,1297,1297,1297,1297,1297,1297,1297,1297,1297,1297,1297,1297,1297,1297,1292,1292,1292,1292,1292,1288,1288,1292,1292,1292,1292,1297,1297,1292,1292,1292,1292,1288,1288,1288,1288,1288,1288,1288,1288,1288,1288,1288,1288,1288,1288,1288,1283,1283,1283,1283,1283,1283,1283,1278,1278,1283,1283,1288,1288,1288,1288,1288,1288,1288,1288,1288,1288,1288,1050,1050,1050,1054,1050,1050,1047,1047,1044,1041,1041,1041,1041,1041,1041,1041,1044,1044,1047,1050,1054,1057,1057,1057,1060,1060,1060,1283,1273,1273,1273,1273,1268,1268,1268,1268,1268,1268,1268,1268,1268,1268,1268,1268,1268,1268,1268,1268,1268,1268,1268,1268,1268,1268,1264,1264,1259,1259,1259,1259,1259,1259,1259,1259,1264,1264,1264,1264,1259,1259,1259,1259,1259,1259,1259,1259,1259,1259,1259,1259,1259,1259,1259,1259,1259,1259,1255,1255,1255,1255,1255,1255,1255,1255,1255,1255,1255,1255,1255,1250,1250,1250,1250,1250,1250,1250,1245,1245,1250,1250,1250,1245,1245,1245,1245,1245,1245,1245,1241,1241,1241,1241,1236,1236,1241,1241,1241,1241,1241,1241,1241,1236,1236,1236,1236,1236,1236,1236,1236,1236,1236,1236,1236,1236,1232,1232,1232,1232,1232,1227,1227,1227,1227,1227,1227,1227,1232,1227,1227,1227,1227,1227,1223,1223,1223,1223,1223,1223,1223,1223,1223,1223,1223,1219,1219,1219,1219,1219,1219,1219,1219,1219,1219,1219,1219,1219,1219,1219,1219,1219,1219,1219,1219,1219,1214,1214,1219,1219,1214,1214,1214,1214,1214,1214,1214,1214,1214,1210,1206,1206,1206,1206,1206,1206,1206,1206,1206,1210,1206,1206,1206,1206,1210,1210,1210,1214,1214,1214,1214,1202,1202,1202,1202,1038,1038,1038,1038,1038,1038,1034,1034,1031,1028,1025,1022,1016,1013,1013,1010,1007,1007,1004,1004,1004,1004,0,827,827,827,829,827,827,827,827,825,825,825,825,823,823,823,821,821,821,819,819,819,819,819,819,0,0,0,0,0,0,0,0,0,0,0,0,0,0,0,0,0,0,0,0,0,0,0,0,0,0,0,0,0,0,0,0,0,0,0,0,0
0,0,0,0,0,0,0,0,1376,1376,1376,1376,1376,1376,1370,1370,1370,1370,1376,1376,1376,1376,1370,1370,1365,1365,1365,1365,1365,1365,1365,1365,1365,1365,1365,1359,1359,1359,1359,1359,1359,1359,1359,1359,1359,1365,1365,1365,1365,1365,1365,1365,1359,1354,1349,1349,1349,1349,1349,1349,1354,1359,1359,1354,1354,1354,1354,1349,1349,1343,1343,1349,1343,1343,1073,1073,1070,1070,1067,1067,1067,1067,1067,1067,1067,1070,1070,1070,1070,1073,1077,1077,1077,1084,1087,1087,1087,1090,1090,1097,1097,1097,1097,1101,1101,1101,1101,1101,1105,1101,1101,1101,1105,0,0,0,0,0,0,752,750,747,746,742,741,738,738,736,734,734,734,736,736,736,738,739,739,741,742,744,746,746,747,747,747,750,750,750,750,752,752,752,0,0,0,0,0,0,0,1322,1322,1322,1322,1322,1322,1322,1322,1322,1322,1328,1328,1328,1328,1322,1322,1322,1322,1322,1317,1317,1317,1317,1317,1317,1317,1317,1317,1317,1317,1312,1312,1307,1307,1307,1119,1119,1115,1115,1112,1108,1105,1101,1097,1094,1090,1090,1087,1084,1084,1080,1080,1080,1080,1080,1077,1077,1077,1077,1073,1073,1322,1317,1317,1317,1312,1307,1307,1307,1302,1302,1302,1302,1302,1302,1302,1302,1302,1302,1302,1302,1302,1302,1302,1302,1302,1297,1297,1297,1297,1297,1297,1292,1292,1292,1292,1292,1292,1292,1292,1292,1292,1292,1292,1292,1292,1292,1292,1292,1288,1288,1288,1288,1288,1288,1288,1288,1283,1283,1283,1283,1288,1288,1288,1288,1288,1288,1288,1288,1288,1283,1283,1283,1288,1288,1288,1288,1283,1283,1283,1283,1283,1278,1278,1278,1278,1278,1278,1278,1278,1278,1278,1278,1283,1283,1283,1288,1288,1288,1288,1283,1283,1050,1050,1050,1050,1050,1050,1050,1050,1047,1044,1044,1044,1041,1041,1041,1041,1041,1044,1044,1047,1050,1050,1054,1057,1060,1060,1060,1060,1060,1273,1273,1273,1268,1268,1268,1268,1268,1268,1268,1268,1268,1268,1268,1268,1268,1264,1264,1264,1264,1264,1264,1264,1264,1264,1264,1264,1264,1264,1259,1259,1259,1259,1259,1259,1255,1255,1259,1259,1259,1259,1255,1255,1255,1255,1255,1255,1255,1255,1255,1255,1255,1259,1259,1259,1259,1259,1255,1255,1255,1255,1255,1250,1250,1250,1250,1250,1250,1250,1250,1250,1250,1250,1250,1250,1250,1245,1245,1245,1245,1245,1245,1245,1241,1241,1241,1241,1241,1241,1241,1241,1236,1236,1236,1236,1236,1232,1232,1236,1236,1236,1236,1236,1236,1236,1236,1232,1232,1232,1236,1236,1236,1236,1236,1232,1232,1232,1232,1232,1227,1227,1227,1223,1223,1223,1223,1223,1223,1227,1227,1227,1227,1223,1223,1223,1223,1219,1219,1219,1219,1219,1219,1219,1219,1219,1219,1219,1219,1219,1214,1214,1214,1214,1214,1214,1214,1214,1214,1219,1219,1219,1214,1214,1214,1214,1214,1210,1210,1210,1214,1210,1210,1206,1206,1206,1210,1210,1210,1210,1210,1206,1202,1202,1206,1206,1206,1202,1202,1202,1202,1206,1206,1202,1202,1202,1202,1206,1206,1210,1214,1214,1219,1202,1202,1202,1202,1041,1041,1038,1038,1038,1038,1034,1034,1031,1028,1025,1016,1013,1013,1013,1010,1010,1007,1007,1007,1007,827,827,827,827,827,827,827,827,827,827,827,827,825,825,825,825,825,823,821,821,821,819,819,819,819,819,0,0,0,0,0,0,0,0,0,0,0,0,0,0,0,0,0,0,0,0,0,0,0,0,0,0,0,0,0,0,0,0,0,0,0,0,0
0,0,0,0,0,0,0,0,1376,1376,1376,1376,1370,1370,1370,1370,1365,1365,1370,1370,1370,1370,1365,1365,1365,1359,1359,1359,1359,1359,1359,1354,1354,1354,1354,1349,1349,1354,1354,1354,1354,1354,1354,1354,1359,1359,1359,1359,1359,1359,1354,1354,1349,1349,1343,1343,1343,1343,1343,1343,1343,1349,1354,1349,1349,1349,1349,1349,1343,1338,1338,1338,1338,1343,1073,1073,1073,1070,1067,1067,1067,1067,1067,1067,1067,1070,1070,1070,1070,1073,1077,1077,1080,1084,1087,1087,1087,1087,1090,1094,1097,1097,1097,1097,1101,1101,1101,1101,1105,1105,1105,1105,1105,0,0,0,0,0,0,0,0,746,746,744,741,738,738,738,736,736,736,738,738,738,738,739,739,741,742,744,746,746,747,747,747,750,750,750,750,752,752,752,0,0,0,0,0,0,0,1322,1322,1322,1322,1322,1322,1322,1322,1317,1317,1322,1317,1317,1322,1317,1317,1317,1317,1317,1312,1312,1312,1312,1312,1312,1312,1312,1312,1312,1312,1312,1307,1307,1307,1307,1302,1119,1115,1115,1112,1108,1105,1101,1097,1094,1090,1087,1087,1084,1084,1080,1077,1073,1073,1073,1073,1073,1073,1073,1070,1067,1067,1317,1317,1312,1312,1307,1307,1302,1302,1297,1297,1297,1297,1297,1297,1297,1297,1297,1297,1297,1297,1297,1297,1292,1292,1292,1292,1292,1292,1292,1292,1292,1292,1288,1288,1288,1288,1288,1288,1288,1288,1288,1288,1288,1288,1288,1288,1288,1288,1288,1288,1283,1283,1283,1283,1283,1283,1283,1283,1283,1283,1283,1288,1288,1288,1288,1288,1283,1283,1283,1283,1283,1283,1283,1283,1283,1283,1278,1278,1278,1278,1273,1273,1273,1273,1273,1273,1273,1273,1273,1278,1278,1278,1283,1283,1283,1283,1288,1283,1283,1047,1047,1047,1047,1047,1047,1047,1047,1047,1047,1044,1044,1044,1041,1041,1041,1041,1041,1044,1044,1047,1050,1050,1054,1057,1060,1060,1060,1060,1273,1273,1268,1268,1268,1268,1264,1264,1264,1264,1264,1264,1264,1264,1268,1264,1264,1259,1259,1259,1259,1259,1259,1259,1259,1259,1255,1255,1259,1259,1255,1255,1255,1255,1255,1255,1255,1255,1255,1255,1255,1255,1250,1250,1250,1250,1250,1250,1250,1250,1250,1250,1255,1255,1255,1255,1255,1255,1255,1255,1250,1250,1250,1250,1250,1250,1250,1245,1245,1245,1245,1245,1245,1245,1245,1245,1245,1241,1241,1241,1241,1241,1241,1241,1241,1236,1236,1236,1236,1236,1236,1236,1236,1236,1232,1232,1232,1227,1227,1227,1232,1232,1232,1232,1232,1232,1232,1232,1232,1232,1232,1232,1232,1232,1232,1232,1232,1232,1232,1227,1227,1227,1223,1223,1223,1223,1223,1223,1223,1223,1219,1219,1219,1219,1219,1219,1219,1219,1219,1219,1219,1219,1219,1214,1214,1214,1214,1214,1214,1214,1214,1210,1210,1210,1210,1214,1210,1210,1210,1210,1210,1214,1214,1214,1210,1210,1210,1210,1210,1210,1206,1206,1206,1206,1206,1206,1206,1206,1206,1206,1206,1206,1202,1202,1202,1202,1202,1202,1202,1197,1197,1202,1202,1197,1197,1197,1202,1206,1206,1210,0,0,0,0,0,0,0,0,1041,1038,1038,1038,1038,1038,1034,1031,1028,1025,1016,1013,1013,1013,1013,1013,1010,1007,1007,1007,827,827,827,827,827,827,827,827,827,827,827,827,827,825,825,825,825,823,823,823,821,821,821,819,819,819,0,0,0,0,0,0,0,0,0,0,0,0,0,0,0,0,0,0,0,0,0,0,0,0,0,0,0,0,0,0,0,0,0,0,0,0,0
0,0,0,0,0,0,0,0,1370,1370,1370,1370,1370,1370,1365,1365,1365,1365,1365,1365,1365,1365,1365,1365,1365,1359,1359,1354,1354,1354,1354,1349,1349,1349,1349,1349,1349,1349,1349,1349,1349,1349,1349,1349,1349,1349,1349,1349,1349,1349,1349,1349,1349,1343,1343,1343,1343,1343,1338,1338,1343,1343,1349,1349,1349,1343,1343,1343,1338,1338,1338,1328,1328,1343,1073,1073,1073,1070,1070,1067,1067,1067,1067,1067,1067,1070,1070,1070,1070,1073,1077,1077,1080,1087,1084,1084,1087,1087,1090,1090,1094,1094,1097,1097,1101,1101,1101,1101,1105,1105,1105,1105,1105,0,0,0,0,0,0,0,0,746,746,0,741,741,739,738,736,736,736,738,738,739,739,739,741,741,744,744,746,746,747,747,749,750,750,752,752,752,752,752,0,0,0,0,0,0,0,1317,1317,1317,1317,1317,1317,1317,1317,1312,1312,1312,1312,1312,1317,1312,1312,1312,1312,1312,1312,1312,1312,1312,1312,1312,1307,1307,1307,1307,1307,1307,1307,1302,1302,1307,1302,1302,1119,1115,1112,1108,1105,1101,1097,1094,1090,1087,1087,1084,1080,1077,1073,1073,1070,1070,1070,1067,1067,1070,1067,1067,1067,1067,1312,1312,1307,1307,1302,1302,1297,1292,1292,1292,1292,1292,1292,1292,1292,1292,1292,1292,1292,1292,1292,1292,1292,1292,1292,1288,1288,1288,1288,1288,1288,1288,1288,1288,1288,1288,1288,1288,1288,1288,1288,1288,1288,1283,1283,1283,1283,1283,1283,1283,1283,1283,1283,1278,1278,1278,1278,1278,1278,1278,1283,1283,1278,1278,1283,1283,1283,1283,1283,1283,1283,1283,1278,1273,1273,1273,1273,1268,1268,1268,1268,1268,1268,1268,1268,1268,1268,1268,1273,1273,1278,1278,1278,1283,1283,1283,1283,1044,1044,1044,1044,1044,1044,1044,1044,1044,1044,1044,1044,1044,1044,1041,1041,1041,1041,1041,1044,1044,1047,1050,1054,1054,1060,1060,1060,1060,1060,1268,1268,1268,1268,1268,1264,1264,1259,1259,1259,1259,1259,1259,1259,1264,1259,1259,1259,1255,1255,1255,1255,1255,1255,1255,1255,1255,1255,1255,1255,1255,1255,1255,1255,1255,1255,1255,1250,1250,1250,1250,1250,1245,1245,1245,1250,1250,1250,1245,1245,1245,1245,1245,1245,1245,1250,1250,1250,1250,1250,1250,1250,1250,1245,1245,1245,1245,1241,1241,1241,1241,1241,1241,1241,1241,1241,1236,1236,1236,1236,1236,1236,1236,1236,1236,1236,1236,1236,1236,1236,1232,1232,1232,1232,1232,1227,1227,1223,1223,1223,1227,1227,1227,1223,1223,1227,1227,1223,1223,1227,1227,1227,1232,1232,1232,1227,1227,1227,1227,1227,1223,1223,1223,1219,1219,1219,1219,1219,1219,1219,1219,1219,1219,1214,1214,1214,1214,1214,1214,1219,1219,1219,1214,1214,1214,1214,1214,1210,1210,1210,1210,1210,1206,1206,1206,1206,1206,1206,1206,1206,1206,1206,1206,1210,1210,1210,1206,1206,1206,1206,1202,1202,1202,1202,1202,1202,1206,1202,1202,1202,1202,1202,1202,1202,1202,1202,1202,1202,1197,1197,1197,1197,1197,1197,1197,1197,1197,1202,1206,0,0,0,0,0,0,0,0,0,1041,1038,1038,1038,1038,1038,1034,1031,1028,1025,1016,1013,1013,1013,1013,1013,1010,1010,1010,1010,0,827,827,827,827,827,827,827,827,827,827,827,827,827,827,827,825,825,823,823,823,821,821,821,821,821,0,0,0,0,0,0,0,0,0,0,0,0,0,0,0,0,0,0,0,0,0,0,0,0,0,0,0,0,0,0,0,0,0,0,0,0,0
0,0,0,0,0,0,0,0,1365,1365,1365,1365,1365,1365,1365,1359,1359,1359,1359,1359,1359,1359,1354,1354,1359,1354,1354,1354,1354,1354,1349,1349,1349,1343,1343,1343,1343,1343,1343,1343,1343,1343,1343,1343,1343,1343,1349,1349,1349,1349,1349,1343,1343,1343,1338,1338,1338,1338,1338,1338,1338,1338,1338,1343,1343,1338,1338,1338,1333,1333,1328,1322,1322,1328,1328,1073,1073,1070,1067,1067,1067,1067,1067,1067,1070,1070,1070,1070,1070,1077,1077,1077,1080,1084,1084,1084,1087,1087,1090,1090,1094,1094,1097,1097,1101,1101,1101,1101,1105,1105,1105,1105,1105,1108,0,0,0,0,0,0,0,0,0,0,0,0,739,738,738,738,738,738,738,739,739,739,741,742,746,746,746,746,747,747,749,750,750,752,752,752,752,752,0,0,0,0,0,0,0,1317,1317,1317,1317,1312,1312,1317,1312,1312,1312,1307,1307,1307,1312,1307,1307,1307,1307,1307,1307,1307,1307,1307,1307,1307,1307,1307,1307,1307,1307,1307,1302,1302,1302,1302,1302,1302,1119,1115,1112,1108,1105,1105,1101,1097,1094,1087,1084,1084,1080,1077,1073,1070,1070,1067,1067,1067,1067,1067,1067,1063,1063,1063,1067,1307,1307,1302,1302,1302,1297,1292,1292,1292,1292,1292,1288,1288,1288,1288,1288,1288,1292,1288,1288,1288,1288,1288,1288,1288,1288,1288,1288,1288,1288,1283,1283,1283,1283,1283,1283,1283,1283,1283,1283,1283,1283,1283,1283,1283,1283,1283,1283,1283,1283,1283,1278,1278,1278,1273,1273,1273,1273,1273,1278,1278,1273,1273,1273,1273,1273,1278,1278,1278,1278,1278,1278,1273,1268,1268,1268,1268,1268,1268,1268,1268,1268,1268,1268,1268,1268,1268,1273,1273,1273,1273,1278,1283,1283,1044,1044,1041,1041,1044,1044,1044,1044,1044,1044,1044,1044,1044,1044,1044,1044,1044,1044,1044,1044,1047,1047,1047,1047,1050,1054,1057,1060,1060,1060,1060,1063,1264,1264,1264,1264,1264,1259,1259,1255,1255,1255,1255,1259,1255,1255,1259,1255,1255,1255,1255,1255,1255,1255,1250,1250,1250,1250,1250,1250,1250,1250,1250,1250,1250,1250,1250,1250,1250,1245,1245,1245,1245,1245,1241,1241,1241,1245,1245,1245,1241,1241,1245,1241,1241,1241,1241,1241,1241,1245,1245,1245,1245,1245,1245,1241,1241,1241,1241,1241,1236,1236,1236,1236,1236,1236,1236,1236,1232,1232,1232,1232,1232,1232,1232,1232,1232,1232,1232,1232,1232,1232,1227,1227,1227,1227,1227,1223,1223,1223,1223,1223,1223,1227,1223,1223,1223,1223,1223,1223,1223,1219,1219,1223,1223,1227,1227,1223,1223,1223,1223,1223,1219,1219,1219,1219,1219,1219,1214,1214,1219,1219,1219,1214,1214,1214,1214,1214,1214,1214,1214,1214,1214,1214,1210,1210,1210,1210,1210,1210,1210,1210,1210,1206,1202,1202,1202,1202,1206,1202,1202,1202,1202,1202,1202,1202,1202,1202,1206,1206,1202,1202,1202,1202,1202,1202,1202,1202,1202,1197,1197,1202,1202,1202,1197,1197,1197,1197,1197,1197,1197,1193,1189,1189,1189,1193,1193,1193,1193,1197,0,0,0,0,0,0,0,0,0,0,0,1041,1038,1038,1038,1038,1038,1031,1028,1025,1016,1013,1013,1013,1013,1013,1010,1010,1010,1010,827,827,827,827,827,827,827,827,827,827,827,827,827,827,827,827,825,825,823,823,823,823,823,821,821,821,0,0,0,0,0,0,0,0,0,0,0,0,0,0,0,0,0,0,0,0,0,0,0,0,0,0,0,0,0,0,0,0,0,0,0,0,0
0,0,0,0,0,0,0,0,1365,1365,1365,1365,1365,1365,1359,1359,1354,1354,1349,1349,1354,1354,1349,1349,1349,1349,1349,1349,1349,1349,1343,1343,1343,1343,1343,1343,1343,1343,1343,1343,1343,1343,1343,1343,1343,1343,1343,1343,1338,1338,1338,1338,1338,1338,1338,1333,1333,1333,1333,1333,1333,1333,1333,1333,1333,1333,1333,1333,1333,1328,1328,1322,1322,1322,1322,1322,1070,1070,1067,1067,1067,1067,1067,1067,1067,1070,1070,1070,1073,1077,1077,1077,1080,1084,1084,1084,1087,1087,1090,1090,1094,1094,1097,1097,1101,1101,1101,1101,1105,1105,1105,1105,1105,1108,0,0,0,0,0,0,0,0,0,0,0,0,739,739,739,738,738,739,739,739,739,739,741,744,746,746,746,747,747,749,749,750,752,752,752,752,752,754,0,0,0,0,0,0,0,1312,1312,1312,1312,1312,1312,1312,1307,1307,1307,1307,1307,1307,1307,1307,1307,1307,1307,1307,1307,1307,1307,1307,1307,1307,1307,1302,1302,1302,1302,1302,1302,1302,1302,1302,1297,1297,1297,1292,1115,1112,1108,1105,1101,1097,1090,1087,1084,1084,1080,1077,1073,1070,1067,1063,1063,1063,1063,1063,1063,1063,1063,1060,1060,1060,1302,1302,1302,1302,1297,1292,1292,1288,1288,1288,1288,1288,1288,1288,1288,1288,1288,1288,1288,1288,1288,1288,1288,1288,1288,1288,1288,1283,1283,1283,1283,1283,1278,1278,1278,1278,1278,1283,1278,1278,1278,1278,1278,1278,1278,1278,1278,1278,1278,1278,1278,1273,1273,1273,1273,1273,1273,1273,1273,1273,1273,1268,1268,1273,1273,1268,1268,1268,1273,1268,1268,1268,1268,1268,1268,1264,1264,1264,1264,1264,1264,1264,1264,1264,1264,1264,1268,1273,1273,1273,1273,1047,1041,1041,1041,1041,1041,1041,1041,1041,1041,1041,1041,1041,1041,1041,1041,1041,1044,1044,1044,1044,1047,1047,1050,1050,1050,1050,1054,1057,1060,1060,1060,1060,1063,1264,1264,1264,1259,1259,1255,1255,1255,1255,1255,1255,1255,1255,1255,1255,1250,1250,1250,1250,1250,1250,1250,1250,1250,1250,1245,1245,1245,1245,1245,1245,1245,1245,1250,1250,1250,1250,1245,1245,1241,1241,1241,1241,1236,1236,1241,1241,1241,1241,1241,1241,1241,1236,1236,1236,1236,1241,1236,1236,1236,1236,1241,1241,1241,1236,1236,1236,1236,1236,1236,1236,1232,1232,1232,1232,1232,1232,1232,1232,1232,1232,1232,1232,1232,1227,1227,1227,1227,1223,1223,1223,1223,1223,1223,1219,1219,1219,1219,1219,1219,1219,1223,1223,1219,1219,1219,1219,1219,1219,1214,1214,1219,1219,1219,1219,1219,1219,1219,1219,1219,1219,1214,1214,1214,1214,1214,1214,1214,1214,1214,1214,1214,1214,1214,1210,1210,1210,1210,1210,1214,1214,1210,1206,1206,1206,1206,1206,1202,1202,1202,1202,1202,1202,1197,1197,1197,1197,1197,1197,1197,1197,1197,1197,1197,1197,1197,1197,1197,1202,1202,1202,1202,1197,1197,1197,1197,1197,1197,1197,1197,1197,1197,1197,1197,1197,1197,1193,1193,1193,1189,1189,1185,1185,1189,1189,1189,1189,1197,0,0,0,0,0,0,0,0,0,0,0,1044,1041,1038,1038,1034,1034,1022,1019,1019,1016,1013,1013,1010,1010,1010,1010,1010,1010,0,827,827,827,827,829,827,827,827,827,827,827,827,827,827,827,827,825,825,825,823,823,823,823,821,821,0,0,0,0,0,0,0,0,0,0,0,0,0,0,0,0,0,0,0,0,0,0,0,0,0,0,0,0,0,0,0,0,0,0,0,0,0,0
0,0,0,0,0,0,0,0,1359,1359,1365,1365,1365,1359,1359,1359,1354,1349,1349,1349,1349,1349,1349,1343,1343,1343,1343,1343,1343,1343,1338,1338,1338,1338,1338,1338,1338,1338,1338,1338,1343,1343,1343,1343,1343,1343,1338,1338,1333,1333,1338,1338,1333,1333,1333,1333,1333,1333,1333,1333,1333,1333,1333,1333,1333,1328,1328,1328,1328,1328,1328,1322,1322,1322,1322,1322,1317,1070,1070,1067,1067,1067,1067,1067,1067,1067,1070,1070,1073,1073,1077,1077,1080,1084,1084,1084,1087,1087,1090,1090,1094,1094,1097,1097,1101,1101,1101,1101,1105,1105,1105,1105,1105,1108,1112,0,0,0,0,0,0,0,0,0,0,0,741,739,739,739,739,739,739,739,739,741,741,744,746,746,746,747,747,749,750,750,752,752,752,752,754,754,0,0,0,0,0,0,0,1307,1307,1307,1307,1307,1307,1307,1307,1307,1307,1302,1302,1302,1302,1302,1302,1302,1302,1302,1302,1302,1302,1302,1302,1302,1302,1302,1302,1297,1297,1302,1302,1302,1302,1297,1297,1292,1292,1288,1115,1112,1108,1105,1105,1101,1090,1087,1084,1080,1080,1077,1073,1070,1063,1063,1063,1063,1063,1063,1060,1060,1060,1060,1057,1054,1054,1307,1307,1302,1297,1292,1288,1288,1288,1288,1283,1283,1283,1283,1283,1283,1288,1283,1283,1288,1288,1288,1288,1288,1288,1283,1283,1283,1283,1278,1278,1278,1278,1273,1273,1278,1278,1278,1273,1273,1273,1273,1273,1273,1273,1273,1278,1273,1273,1273,1268,1268,1268,1268,1268,1268,1268,1268,1268,1268,1268,1268,1268,1268,1268,1268,1264,1264,1264,1264,1264,1264,1264,1264,1264,1264,1264,1264,1264,1264,1264,1264,1264,1264,1264,1264,1268,1273,1273,1273,1273,1041,1038,1038,1038,1038,1038,1041,1041,1041,1041,1041,1041,1041,1041,1041,1041,1041,1044,1044,1044,1047,1047,1047,1050,1050,1050,1054,1054,1057,1060,1060,1060,1060,1063,1063,1264,1259,1255,1255,1255,1255,1250,1250,1250,1250,1250,1250,1245,1245,1245,1250,1245,1245,1245,1250,1250,1245,1245,1245,1241,1241,1241,1241,1241,1241,1241,1245,1245,1245,1245,1245,1241,1241,1236,1236,1241,1236,1236,1236,1236,1241,1236,1236,1236,1236,1236,1236,1232,1232,1236,1236,1236,1236,1236,1236,1236,1236,1236,1236,1236,1236,1236,1232,1232,1232,1232,1227,1227,1227,1227,1227,1227,1227,1227,1227,1227,1227,1227,1227,1223,1223,1223,1223,1223,1223,1219,1219,1219,1219,1219,1219,1219,1219,1219,1219,1219,1219,1214,1214,1214,1214,1214,1210,1210,1210,1210,1214,1214,1214,1214,1214,1214,1214,1214,1214,1214,1214,1214,1214,1210,1210,1210,1210,1210,1210,1210,1210,1210,1210,1210,1210,1206,1206,1206,1206,1206,1202,1202,1202,1202,1202,1202,1202,1197,1197,1202,1197,1197,1193,1193,1197,1193,1193,1193,1193,1197,1193,1193,1197,1197,1197,1197,1197,1197,1197,1197,1197,1197,1193,1193,1193,1193,1193,1193,1193,1193,1197,1193,1193,1193,1189,1189,1189,1185,1185,1185,1185,1185,1185,1185,1185,0,0,0,0,0,0,0,0,0,0,0,0,0,1041,1038,1034,1031,1022,1019,1016,1013,1013,1010,1010,1010,1010,1010,0,0,0,827,827,827,827,827,829,827,827,827,827,829,827,827,827,827,827,827,827,825,825,825,823,823,823,821,821,0,0,0,0,0,0,0,0,0,0,0,0,0,0,0,0,0,0,0,0,0,0,0,0,0,0,0,0,0,0,0,0,0,0,0,0,0,0
0,0,0,0,0,0,0,0,1359,1359,1359,1359,1354,1354,1359,1354,1354,1349,1349,1349,1349,1349,1343,1343,1343,1343,1343,1343,1343,1338,1333,1333,1333,1333,1333,1333,1333,1338,1338,1338,1338,1338,1338,1338,1338,1338,1338,1333,1333,1333,1333,1333,1333,1333,1328,1328,1328,1328,1328,1328,1328,1328,1328,1328,1328,1328,1328,1322,1322,1322,1322,1322,1317,1317,1317,1317,1317,1067,1067,1067,1067,1067,1063,1063,1067,1067,1070,1070,1070,1073,1077,1077,1080,1084,1084,1084,1087,1087,1090,1090,1094,1094,1097,1101,1101,1101,1101,1105,1105,1105,1105,1108,1108,1108,1108,0,0,0,0,0,0,0,0,0,0,0,741,739,739,739,739,739,739,739,739,741,741,746,746,746,746,747,747,749,750,750,752,752,754,754,754,755,759,0,0,0,0,0,0,1307,1302,1302,1302,1302,1302,1302,1302,1302,1302,1302,1302,1302,1302,1302,1302,1297,1297,1297,1297,1302,1302,1302,1302,1302,1297,1297,1292,1292,1292,1297,1297,1297,1297,1292,1292,1288,1288,1288,1288,1283,1108,1105,1101,1097,1090,1087,1084,1080,1077,1077,1073,1067,1063,1063,1063,1063,1060,1060,1060,1060,1057,1057,1054,1050,1050,1047,1047,1307,1297,1292,1288,1288,1283,1283,1283,1283,1283,1283,1283,1283,1283,1283,1283,1283,1283,1283,1283,1283,1283,1283,1283,1278,1278,1278,1278,1278,1273,1273,1273,1273,1273,1273,1273,1273,1273,1268,1268,1268,1268,1273,1273,1268,1268,1268,1268,1268,1268,1268,1268,1268,1268,1268,1268,1268,1268,1264,1264,1264,1264,1264,1259,1259,1259,1259,1259,1259,1259,1259,1264,1264,1264,1264,1264,1264,1264,1264,1264,1264,1264,1264,1268,1273,1273,1273,1041,1034,1034,1034,1034,1038,1038,1038,1038,1038,1038,1038,1038,1038,1038,1038,1041,1041,1044,1044,1047,1047,1047,1047,1050,1050,1050,1054,1054,1057,1060,1063,1060,1060,1063,1063,1259,1259,1255,1255,1250,1250,1250,1250,1250,1250,1250,1245,1245,1245,1245,1245,1245,1245,1245,1245,1245,1245,1241,1241,1236,1236,1236,1236,1236,1236,1236,1241,1241,1241,1241,1241,1236,1236,1236,1236,1236,1236,1236,1236,1236,1236,1236,1236,1236,1232,1232,1232,1232,1232,1232,1232,1232,1232,1232,1232,1232,1232,1232,1232,1232,1232,1232,1232,1227,1227,1227,1227,1227,1223,1223,1223,1223,1223,1223,1223,1223,1223,1223,1223,1223,1219,1219,1219,1219,1219,1219,1219,1214,1214,1214,1214,1214,1214,1219,1219,1219,1214,1214,1214,1214,1210,1210,1210,1210,1210,1210,1210,1210,1210,1210,1210,1210,1210,1210,1210,1210,1210,1210,1210,1206,1206,1206,1202,1202,1202,1202,1202,1202,1206,1206,1206,1202,1202,1202,1202,1202,1202,1197,1197,1197,1197,1197,1197,1197,1197,1197,1197,1193,1193,1193,1189,1189,1189,1189,1193,1193,1189,1189,1193,1193,1193,1193,1193,1193,1193,1193,1193,1193,1189,1189,1189,1189,1193,1193,1193,1193,1193,1193,1193,1193,1185,1185,1185,1185,1181,1181,1181,1181,1181,1181,1185,0,0,0,0,0,0,0,0,0,0,0,0,0,0,1041,1034,1028,1019,1019,1016,1013,1013,1010,1010,1010,0,0,0,829,0,829,829,829,829,829,829,827,827,829,829,829,827,827,827,827,827,825,825,825,825,825,825,823,823,821,821,0,0,0,0,0,0,0,0,0,0,0,0,0,0,0,0,0,0,0,0,0,0,0,0,0,0,0,0,0,0,0,0,0,0,0,0,0,0
0,0,0,0,0,0,0,0,1354,1354,1354,1354,1354,1349,1349,1354,1349,1349,1349,1349,1349,1349,1343,1343,1343,1343,1338,1338,1338,1333,1333,1333,1333,1333,1333,1333,1333,1333,1338,1338,1338,1338,1338,1338,1333,1333,1333,1333,1333,1328,1328,1328,1328,1328,1328,1328,1328,1328,1328,1328,1328,1328,1328,1328,1322,1322,1328,1322,1322,1322,1322,1322,1317,1317,1317,1317,1067,1067,1067,1067,1067,1067,1063,1063,1067,1067,1070,1070,1070,1077,1077,1077,1084,1084,1084,1084,1087,1090,1090,1090,1094,1097,1097,1101,1101,1101,1105,1105,1105,1105,1108,1108,1108,1108,1108,0,0,0,0,0,0,0,0,0,0,0,0,739,739,739,739,739,739,739,739,741,744,746,746,746,746,747,747,749,750,752,752,754,754,754,755,755,759,0,0,0,0,0,0,0,1302,1297,1297,1297,1297,1297,1297,1297,1297,1297,1297,1297,1297,1297,1297,1292,1292,1292,1297,1297,1297,1297,1297,1297,1292,1292,1292,1288,1288,1292,1292,1292,1292,1292,1288,1288,1288,1283,1283,1283,1108,1105,1101,1094,1090,1087,1084,1080,1077,1077,1073,1067,1063,1063,1063,1060,1060,1060,1057,1054,1054,1050,1050,1050,1047,1047,1044,1044,1044,1292,1288,1283,1283,1278,1278,1278,1278,1278,1278,1278,1278,1278,1278,1278,1278,1278,1278,1273,1273,1278,1273,1273,1273,1273,1273,1273,1268,1268,1273,1273,1273,1268,1268,1268,1268,1268,1268,1268,1268,1268,1268,1268,1264,1264,1264,1264,1264,1264,1264,1264,1264,1264,1264,1264,1264,1264,1264,1259,1259,1259,1255,1255,1255,1255,1255,1255,1255,1255,1255,1255,1255,1255,1259,1259,1259,1259,1259,1259,1259,1268,1028,1028,1028,1031,1031,1031,1031,1031,1031,1031,1031,1034,1034,1034,1034,1038,1038,1038,1038,1038,1041,1041,1041,1044,1047,1047,1047,1047,1050,1050,1050,1054,1054,1057,1060,1063,1063,1063,1063,1063,1250,1250,1250,1250,1245,1245,1245,1245,1241,1241,1241,1241,1241,1241,1241,1241,1241,1241,1241,1241,1245,1241,1241,1236,1236,1236,1236,1236,1236,1236,1236,1236,1236,1236,1236,1236,1236,1236,1232,1232,1232,1232,1232,1232,1232,1236,1232,1232,1232,1227,1227,1227,1227,1227,1227,1227,1227,1227,1227,1227,1227,1227,1227,1227,1227,1227,1227,1227,1227,1227,1223,1223,1223,1219,1219,1219,1219,1219,1219,1219,1219,1223,1219,1219,1219,1219,1219,1214,1214,1214,1214,1214,1214,1214,1214,1214,1214,1214,1214,1214,1214,1214,1210,1210,1206,1206,1206,1206,1206,1206,1206,1206,1210,1210,1210,1206,1206,1210,1206,1206,1206,1206,1210,1206,1202,1202,1202,1202,1202,1202,1202,1202,1202,1202,1202,1202,1202,1202,1202,1202,1202,1197,1197,1197,1197,1197,1197,1197,1197,1193,1193,1189,1189,1189,1189,1189,1189,1189,1189,1189,1189,1189,1189,1189,1189,1189,1189,1189,1189,1193,1193,1189,1185,1185,1189,1185,1185,1189,1189,1189,1189,1193,1189,1189,1185,1185,1185,1185,1181,1181,1181,1181,1181,1181,1181,0,0,0,0,0,0,0,0,0,0,0,0,0,0,0,0,1025,1022,1019,1016,1016,1013,1013,1010,1010,0,1010,0,0,0,829,829,829,829,829,829,829,829,829,829,829,829,827,827,827,827,825,825,825,825,825,825,825,823,823,823,823,0,0,0,0,0,0,0,0,0,0,0,0,0,0,0,0,0,0,0,0,0,0,0,0,0,0,0,0,0,0,0,0,0,0,0,0,0,0
