0,0,0,0,0,0,0,0,0,0,0,1688,1688,1688,1688,1680,1680,1680,1680,1680,1680,1680,1680,1680,1688,1688,1688,1680,1680,1680,1680,1688,1688,1688,1696,1696,1696,1688,1688,1688,1688,1696,1696,1696,1696,1696,1696,1696,1696,1696,1696,1696,1696,1696,1705,1705,1705,1705,1705,1705,1705,1705,1705,1705,1705,1705,1705,1705,1705,1713,1713,1713,1713,1713,1713,1705,1705,1696,1696,1705,1705,1705,1705,1705,1713,0,0,0,0,0,0,0,0,915,913,913,913,913,910,908,906,903,903,903,903,903,903,903,906,906,906,908,908,910,910,913,913,915,915,851,851,851,854,851,849,849,849,849,847,845,843,841,837,835,833,833,833,831,827,825,821,817,817,817,815,813,811,809,805,803,802,800,796,794,794,790,789,789,787,787,785,780,778,776,774,774,774,771,769,766,766,764,731,728,728,727,727,727,725,722,720,717,716,714,713,713,711,710,710,708,708,707,706,704,704,703,703,703,703,703,703,703,707,707,707,707,707,707,708,708,707,707,707,707,708,708,708,711,711,711,711,713,711,711,710,710,710,710,708,707,707,707,708,710,710,710,710,711,711,711,713,711,711,711,711,711,719,719,717,717,717,719,719,720,720,720,722,722,722,722,722,722,720,720,722,722,720,720,720,720,720,720,720,722,722,722,723,723,723,725,723,723,733,733,733,733,733,731,731,730,728,727,727,727,725,725,727,727,727,727,728,728,728,728,728,730,730,733,734,736,739,741,741,742,744,746,746,747,750,752,752,755,759,761,762,764,766,767,767,769,769,769,771,776,811,811,813,815,817,817,819,821,821,823,827,829,831,835,837,839,841,845,847,849,854,856,858,862,864,867,869,871,873,878,880,882,885,887,889,891,896,898,903,906,906,906,908,908,908,956,956,954,951,948,948,946,946,946,946,948,948,948,948,951,954,956,959,959,959,962,962,0,0,0,0,0,1550,1550,1543,1543,1543,1543,1536,1529,1529,1529,1523,1523,1523,1523,1523,1516,1516,1516,1516,1509,1503,1503,1503,1496,1496,1496,1489,1489,1489,1483,1477,1477,1477,1470,1470,1470,1470,1470,1470,1464,1464,1464,1464,1458,1458,1452,1452,1445,1445,1445,1445,1439,1439,1439,1433,1433,1433,1427,1421,1421,1421,1421,1415,1415,1415,1415,1415,1415,1415,1410,1410,1404,1404,1398,1398,1392,1392,1392,1387,1387,1387,1381,1376,1376,1376,1376,1376,1370,1370,1370,1370,1365,1365,1359,1359,1354,1354,1354,1349,1349,1349,1349,1343,1338,1338,1333,1333,1333,1333,1328,1328,1328,1328,1328,1322,1322,1317,1317,1312,1312,1307,1307,1307,1307,1302,1302,1302,1297,1297,1297,1297,1292,1292,1292,1292,1288,1288,1288,1283,1278,1273,1273,1273,1273,1273,1268,1268,1268,1268,1264,1264,1264,1259,1259,1259,1259,1255,1255,1250,1250,1250,1245,1245,1245,1241,1241,1236,1236,1236,1232,1232,1232,1232,1227,1223,1223,1219,1219,1219,1219,1214,1214,1214,1214,1210,1210,1210,1206,1206,1206,1202,1202,1202,1202,1197,1197,1197,1193,1193,1189,1189,1185,1185,0,0,0,0,0,0,0,0,0,0,0,0,0,0,0,0,0,0,0,0,0,0,0,0,0,0,0,0,0,0,0
0,0,0,0,0,0,0,0,0,0,0,1680,1680,1680,1680,1680,1671,1671,1671,1671,1671,1671,1671,1671,1680,1680,1680,1671,1671,1671,1671,1671,1671,1680,1688,1688,1688,1688,1688,1688,1688,1688,1688,1688,1696,1696,1696,1688,1688,1696,1688,1688,1688,1688,1696,1696,1696,1688,1688,1688,1696,1705,1705,1696,1696,1705,1705,1705,1705,1705,1705,1705,1705,1705,1705,1696,1696,1696,1696,1696,1696,1705,1705,1705,1705,0,0,0,0,0,0,0,0,915,913,913,913,913,910,908,906,903,903,903,903,903,903,903,906,908,908,908,908,910,910,913,913,915,915,915,915,915,851,851,849,849,849,849,847,845,843,841,837,835,835,833,833,831,829,827,825,821,817,817,815,813,813,809,807,803,802,800,796,794,794,790,790,789,787,787,785,780,780,778,776,776,774,773,769,766,766,764,762,728,728,727,727,727,725,722,719,717,716,714,713,713,711,710,710,708,707,707,706,703,703,701,700,700,700,700,700,700,700,700,703,701,700,698,698,704,704,704,706,706,707,706,706,707,708,708,708,708,708,708,708,708,707,707,707,706,704,704,706,706,707,708,708,708,710,710,710,708,708,708,708,707,704,704,706,716,716,717,717,719,719,720,720,719,719,720,720,720,720,720,720,720,719,719,719,719,720,720,720,720,720,720,719,719,720,720,716,711,711,733,733,733,733,730,727,725,725,725,725,723,722,722,722,722,723,723,725,725,727,727,728,728,730,733,734,736,738,739,741,742,744,744,746,747,750,752,752,755,759,761,762,764,766,767,767,769,769,769,771,807,809,811,813,815,817,817,819,821,821,823,827,829,831,835,837,839,841,845,847,851,854,858,860,862,864,867,869,873,875,878,880,885,885,887,889,891,894,896,901,903,903,903,906,908,908,956,956,954,951,951,948,948,948,948,948,948,948,948,951,951,954,956,959,959,959,962,962,0,0,0,0,0,1550,1550,1543,1543,1543,1543,1536,1529,1529,1523,1523,1523,1523,1523,1523,1516,1516,1516,1516,1509,1503,1503,1503,1496,1496,1496,1489,1489,1489,1483,1477,1477,1477,1470,1470,1470,1470,1470,1470,1464,1464,1464,1464,1458,1458,1452,1452,1445,1445,1439,1439,1439,1439,1439,1433,1433,1427,1427,1421,1421,1421,1421,1415,1415,1415,1415,1415,1415,1415,1410,1410,1404,1404,1398,1398,1392,1392,1392,1387,1387,1387,1381,1381,1381,1376,1376,1376,1376,1370,1370,1370,1365,1359,1359,1359,1354,1354,1354,1349,1349,1349,1349,1343,1338,1338,1333,1333,1333,1333,1328,1328,1328,1328,1328,1322,1322,1322,1317,1317,1312,1312,1307,1307,1307,1307,1302,1302,1302,1302,1297,1297,1292,1292,1292,1292,1288,1288,1288,1283,1278,1273,1273,1273,1273,1273,1268,1268,1268,1268,1264,1264,1264,1259,1259,1259,1259,1259,1255,1255,1255,1250,1250,1245,1245,1241,1236,1236,1236,1232,1232,1232,1232,1232,1227,1223,1223,1219,1219,1219,1219,1219,1214,1214,1214,1210,1210,1210,1206,1206,1206,1202,1202,1202,1202,1197,1197,1197,1193,1193,1193,1189,1185,1185,0,0,0,0,0,0,0,0,0,0,0,0,0,0,0,0,0,0,0,0,0,0,0,0,0,0,0,0,0,0,0
0,0,0,0,0,0,0,0,0,0,0,1663,1663,1663,1671,1671,1663,1663,1663,1663,1663,1663,1663,1663,1671,1663,1663,1663,1663,1663,1663,1663,1663,1671,1671,1671,1671,1671,1671,1680,1671,1671,1671,1680,1688,1688,1688,1688,1688,1688,1680,1680,1680,1680,1680,1688,1688,1688,1688,1688,1688,1688,1688,1688,1688,1696,1696,1688,1688,1696,1696,1696,1696,1696,1696,1696,1696,1688,1688,1696,1696,1696,1696,1696,1696,0,0,0,0,0,0,0,0,915,913,913,913,913,910,908,906,903,903,903,903,903,903,903,906,908,908,908,910,913,913,913,913,915,915,915,915,915,915,851,851,849,849,849,847,845,843,841,839,835,835,833,833,831,827,827,823,821,817,817,815,815,813,811,809,805,803,802,798,794,794,790,790,789,787,787,783,780,780,778,776,776,774,773,771,766,766,764,762,762,728,727,727,725,720,720,717,717,716,714,714,713,711,710,708,708,707,706,704,703,701,700,700,698,698,698,698,698,698,698,698,698,697,697,697,701,703,703,704,704,706,706,706,706,707,707,706,706,706,706,706,706,704,704,703,703,703,703,703,703,706,706,706,707,707,708,708,706,706,707,707,706,704,704,704,704,703,703,704,717,717,719,719,716,716,719,719,719,719,719,719,719,719,717,717,717,717,717,717,717,717,717,716,716,717,719,711,711,711,711,711,710,710,720,720,720,720,720,719,719,717,717,717,717,719,720,722,722,725,727,727,728,730,733,734,736,738,739,741,742,744,744,746,747,749,752,752,755,759,761,762,764,766,767,767,767,767,769,771,805,807,809,811,815,817,819,819,821,823,825,827,829,833,835,837,839,843,845,847,851,856,858,860,862,864,867,869,873,875,878,882,885,887,887,889,891,894,896,901,903,903,898,898,908,959,959,956,956,954,951,948,948,948,948,948,948,948,948,951,951,954,956,959,959,962,964,964,0,0,0,0,0,1550,1543,1543,1543,1543,1543,1536,1529,1529,1523,1523,1523,1523,1523,1523,1516,1516,1516,1516,1509,1509,1503,1503,1496,1496,1496,1496,1489,1489,1483,1477,1477,1477,1470,1470,1470,1470,1470,1470,1464,1464,1464,1464,1458,1458,1452,1452,1445,1445,1439,1439,1439,1439,1439,1433,1433,1427,1427,1421,1421,1421,1421,1415,1415,1415,1415,1415,1415,1415,1410,1410,1404,1404,1398,1398,1392,1392,1392,1387,1387,1387,1381,1381,1381,1376,1376,1376,1376,1370,1370,1370,1370,1359,1359,1359,1359,1354,1354,1349,1349,1349,1349,1343,1338,1338,1333,1333,1333,1333,1328,1328,1328,1328,1328,1322,1322,1322,1317,1317,1312,1312,1312,1312,1307,1307,1302,1302,1302,1302,1297,1297,1292,1292,1292,1292,1288,1288,1288,1283,1278,1273,1273,1273,1273,1273,1268,1268,1268,1268,1268,1268,1264,1259,1259,1259,1259,1259,1255,1255,1255,1250,1250,1245,1245,1241,1236,1236,1236,1232,1232,1232,1232,1232,1227,1223,1223,1219,1219,1219,1219,1219,1214,1214,1214,1214,1210,1210,1210,1206,1206,1206,1202,1202,1202,1197,1197,1197,1193,1193,1193,1189,1185,1185,0,0,0,0,0,0,0,0,0,0,0,0,0,0,0,0,0,0,0,0,0,0,0,0,0,0,0,0,0,0,0
0,0,0,0,0,0,0,0,0,0,0,1647,1647,1647,1655,1663,1663,1655,1655,1663,1663,1663,1663,1663,1663,1663,1663,1663,1663,1655,1655,1655,1655,1655,1655,1671,1663,1663,1663,1671,1671,1671,1671,1671,1680,1688,1680,1680,1680,1680,1671,1663,1663,1671,1671,1680,1680,1680,1680,1680,1680,1680,1680,1680,1680,1680,1688,1688,1688,1688,1688,1688,1688,1688,1688,1688,1688,1688,1688,1688,1688,1688,1688,1688,1688,0,0,0,0,0,0,0,0,915,913,913,913,913,913,910,908,906,903,903,903,903,903,906,906,908,908,910,910,910,913,915,915,915,918,918,918,918,0,0,0,851,849,849,847,847,845,841,839,837,835,833,833,831,827,827,823,821,819,817,817,815,815,811,809,809,807,805,800,796,796,792,790,789,787,787,783,781,780,778,776,776,774,773,769,766,766,764,762,762,761,727,727,723,720,719,717,717,716,716,714,713,711,710,708,708,707,706,703,703,701,700,698,698,697,697,697,697,696,696,696,696,693,693,693,694,701,701,701,701,704,704,704,704,704,698,698,697,697,701,701,701,701,701,701,701,700,700,700,700,700,701,701,701,701,703,701,698,698,707,703,700,700,700,700,700,700,700,700,700,704,704,704,711,708,706,706,707,707,711,711,716,716,714,714,716,716,716,714,714,714,713,711,711,711,711,710,710,710,710,710,708,707,707,720,719,719,717,716,716,716,716,716,716,717,719,719,720,722,725,727,728,730,733,734,734,738,739,741,741,742,744,744,747,749,752,752,755,757,761,762,764,764,767,767,767,767,803,803,805,807,809,811,815,817,819,819,821,823,825,827,829,833,837,839,841,843,845,849,854,858,860,860,862,864,867,869,873,875,878,882,885,887,887,889,894,896,896,898,901,898,898,898,962,959,959,959,956,956,951,951,948,948,948,948,948,948,948,951,954,956,959,959,962,962,964,964,0,0,0,0,0,1550,1543,1543,1543,1543,1543,1536,1536,1529,1523,1523,1523,1523,1523,1523,1516,1516,1516,1516,1509,1509,1503,1503,1496,1496,1496,1496,1489,1489,1483,1477,1477,1477,1470,1470,1470,1470,1470,1470,1464,1464,1464,1464,1458,1458,1452,1452,1445,1445,1439,1439,1439,1439,1439,1433,1433,1433,1427,1427,1427,1421,1421,1421,1421,1415,1415,1415,1415,1415,1410,1410,1404,1404,1398,1398,1392,1392,1392,1392,1392,1387,1387,1381,1381,1376,1376,1376,1376,1370,1370,1370,1370,1365,1365,1359,1359,1354,1354,1354,1349,1349,1349,1349,1343,1338,1338,1333,1333,1333,1328,1328,1328,1328,1328,1322,1322,1322,1322,1317,1312,1312,1312,1312,1307,1307,1307,1302,1302,1302,1297,1297,1297,1292,1292,1292,1288,1288,1283,1283,1278,1273,1273,1273,1273,1273,1273,1268,1268,1268,1268,1268,1264,1264,1264,1264,1259,1259,1255,1255,1255,1250,1250,1250,1245,1241,1241,1236,1236,1236,1232,1232,1232,1232,1227,1223,1223,1223,1219,1219,1219,1219,1214,1214,1214,1214,1214,1210,1210,1206,1206,1206,1202,1202,1202,1197,1197,1197,1193,1193,1193,1189,1185,1185,0,0,0,0,0,0,0,0,0,0,0,0,0,0,0,0,0,0,0,0,0,0,0,0,0,0,0,0,0,0,0
0,0,0,0,0,0,0,0,0,0,0,1639,1639,1639,1647,1655,1655,1655,1655,1655,1655,1655,1655,1655,1655,1663,1663,1655,1655,1655,1655,1647,1647,1647,1647,1671,1663,1663,1663,1663,1663,1663,1663,1663,1671,1671,1671,1671,1680,1680,1671,1663,1663,1671,1671,1680,1671,1671,1671,1671,1671,1671,1671,1671,1671,1671,1680,1680,1671,1671,1671,1671,1680,1688,1688,1688,1688,1688,1688,1688,1688,1688,1688,1688,1688,1688,0,0,0,0,0,0,0,0,915,915,915,913,913,910,908,906,906,903,903,903,903,906,906,908,908,910,910,910,913,915,915,915,918,918,920,920,0,0,0,0,0,0,0,847,845,845,841,837,835,833,831,831,827,827,825,823,819,817,817,815,815,813,811,811,809,807,800,796,796,794,792,790,789,787,783,781,780,780,776,776,774,773,769,769,766,764,764,762,761,759,759,723,722,719,717,717,716,716,714,713,711,710,708,708,707,706,703,703,701,700,698,697,697,697,696,694,694,694,694,694,693,691,691,691,693,693,693,696,704,701,696,694,694,693,693,688,688,691,696,698,698,698,698,700,698,698,698,698,698,700,700,700,700,700,698,698,698,700,700,698,698,698,697,697,698,698,698,698,698,700,700,700,700,700,706,704,704,708,708,710,713,713,713,713,713,713,713,711,711,711,711,711,711,710,708,708,708,708,708,707,706,706,706,708,710,711,713,714,716,716,716,716,716,717,719,720,722,723,725,727,728,731,733,734,736,738,739,741,742,744,744,747,749,752,752,755,757,761,761,762,764,766,767,767,798,802,803,805,807,809,811,815,817,819,819,821,823,825,827,831,835,837,841,843,843,845,851,856,858,860,862,864,867,869,871,875,878,880,882,885,887,889,891,894,894,896,898,898,898,898,964,962,962,959,959,959,956,954,951,948,948,948,948,948,948,951,951,954,956,959,959,962,964,964,967,0,0,0,0,0,1550,1543,1543,1543,1543,1543,1536,1536,1529,1529,1529,1523,1523,1523,1523,1516,1516,1516,1516,1509,1509,1503,1503,1496,1496,1496,1496,1489,1489,1483,1477,1477,1477,1470,1470,1470,1470,1470,1470,1464,1464,1464,1464,1464,1458,1452,1452,1445,1445,1439,1439,1439,1439,1439,1439,1439,1433,1433,1427,1427,1427,1427,1421,1421,1415,1415,1415,1415,1415,1410,1410,1404,1398,1398,1398,1392,1392,1392,1392,1392,1387,1387,1381,1381,1376,1376,1376,1376,1370,1370,1370,1370,1365,1365,1359,1359,1354,1354,1354,1354,1349,1349,1349,1343,1338,1338,1333,1333,1333,1333,1328,1328,1328,1328,1322,1322,1322,1322,1317,1312,1312,1312,1312,1307,1307,1307,1307,1302,1302,1297,1297,1297,1292,1292,1292,1288,1288,1283,1283,1273,1273,1273,1273,1273,1273,1273,1268,1268,1268,1268,1268,1268,1264,1264,1264,1259,1259,1255,1255,1255,1250,1250,1250,1245,1241,1241,1236,1236,1236,1232,1232,1232,1232,1227,1227,1223,1223,1219,1219,1219,1219,1219,1214,1214,1214,1214,1210,1210,1206,1206,1202,1202,1202,1202,1202,1197,1197,1197,1193,1193,1189,1189,1189,0,0,0,0,0,0,0,0,0,0,0,0,0,0,0,0,0,0,0,0,0,0,0,0,0,0,0,0,0,0,0
0,0,0,0,0,0,0,0,0,0,0,1639,1632,1632,1632,1655,1655,1655,1655,1655,1655,1655,1655,1655,1655,1655,1655,1655,1655,1655,1647,1647,1647,1647,1639,1639,1655,1655,1655,1655,1655,1655,1655,1655,1663,1663,1671,1663,1663,1671,1663,1663,1663,1663,1663,1671,1671,1663,1663,1663,1663,1663,1671,1663,1663,1671,1671,1671,1671,1671,1671,1671,1671,1671,1671,1671,1688,1680,1680,1680,1688,1688,1688,1688,1688,1688,0,0,0,0,0,0,0,0,918,918,918,915,913,913,908,906,906,903,903,903,903,906,906,908,908,910,910,913,913,915,915,915,915,918,918,918,0,0,0,0,0,0,0,0,0,0,841,835,835,833,831,829,827,827,825,823,821,817,817,815,813,811,811,811,809,805,802,800,796,794,794,792,790,789,785,783,780,780,778,776,774,773,771,769,766,766,764,762,761,759,759,757,755,719,717,717,716,716,714,713,711,710,708,708,707,706,704,703,701,700,698,697,697,697,694,694,693,693,691,690,690,690,688,688,688,688,687,687,687,687,687,690,688,688,690,688,688,687,687,687,696,696,696,697,697,696,696,696,694,694,696,697,697,697,696,696,694,694,697,697,697,697,696,696,697,697,697,697,697,697,698,698,698,698,698,700,700,704,704,704,710,710,710,713,713,713,713,711,711,710,710,710,708,708,708,707,707,707,707,704,703,703,703,704,707,708,710,713,713,714,714,714,716,716,717,719,720,723,725,727,728,731,733,734,736,738,739,741,742,744,744,747,747,749,750,755,757,761,761,762,764,766,796,798,798,802,802,805,807,809,813,815,817,819,821,823,823,825,829,831,835,837,841,843,843,845,851,856,860,862,862,864,867,869,871,875,878,880,882,885,887,889,891,894,894,896,898,898,898,967,967,964,962,962,959,959,956,956,954,951,948,948,948,948,951,951,951,954,956,959,962,962,964,967,967,0,0,0,0,0,1543,1543,1543,1543,1543,1543,1536,1536,1529,1529,1529,1529,1523,1523,1523,1516,1516,1516,1516,1509,1509,1503,1503,1496,1496,1496,1496,1496,1489,1483,1483,1477,1477,1477,1470,1470,1470,1470,1470,1470,1464,1464,1464,1458,1458,1452,1452,1445,1445,1439,1439,1439,1439,1439,1439,1439,1439,1433,1433,1427,1427,1427,1421,1421,1421,1415,1415,1415,1415,1410,1410,1404,1398,1398,1398,1392,1392,1392,1392,1392,1387,1387,1381,1381,1376,1376,1376,1376,1370,1370,1370,1370,1365,1365,1359,1359,1354,1354,1354,1354,1349,1349,1349,1343,1343,1338,1333,1333,1333,1333,1328,1328,1328,1328,1322,1322,1322,1322,1317,1317,1312,1312,1312,1307,1307,1307,1307,1302,1302,1297,1297,1297,1292,1292,1288,1288,1288,1283,1278,1273,1273,1273,1273,1273,1273,1273,1268,1268,1268,1268,1268,1268,1264,1264,1259,1259,1259,1255,1255,1255,1255,1250,1250,1245,1241,1241,1236,1236,1236,1232,1232,1232,1232,1227,1227,1227,1223,1223,1223,1223,1219,1219,1219,1214,1214,1214,1210,1210,1206,1206,1202,1202,1202,1202,1197,1197,1197,1197,1193,1193,1193,1189,1189,0,0,0,0,0,0,0,0,0,0,0,0,0,0,0,0,0,0,0,0,0,0,0,0,0,0,0,0,0,0,0
0,0,0,0,0,0,0,0,0,0,0,1632,1632,1632,1632,1639,1632,1632,1647,1647,1647,1647,1647,1647,1647,1647,1655,1647,1647,1647,1639,1639,1632,1632,1632,1632,1639,1647,1647,1655,1655,1655,1655,1655,1655,1655,1663,1663,1663,1663,1663,1663,1655,1655,1663,1663,1663,1663,1663,1655,1655,1663,1655,1655,1663,1663,1663,1663,1663,1663,1663,1663,1663,1663,1663,1671,1671,1671,1671,1671,1680,1680,1680,1680,1680,1688,0,0,0,0,0,0,0,925,923,920,918,915,915,913,910,908,908,903,903,903,903,906,906,908,910,910,910,913,915,915,915,915,915,918,918,918,0,0,0,0,0,0,0,0,0,0,0,835,835,833,831,827,827,827,825,825,823,817,815,813,813,811,811,811,809,805,802,800,796,794,794,794,790,789,787,783,781,781,778,778,774,773,771,769,766,766,764,762,761,759,759,757,755,754,717,717,716,716,714,713,711,711,708,708,707,706,704,703,701,700,698,697,696,696,694,693,693,691,691,690,690,688,688,688,688,687,687,686,683,683,686,684,684,686,687,687,687,687,687,687,687,690,690,693,694,694,694,694,693,693,693,694,694,693,693,694,693,693,693,693,696,696,694,694,694,696,696,696,696,696,697,698,697,696,696,698,698,698,698,698,698,701,700,700,700,713,710,710,710,708,708,708,707,707,707,704,704,704,703,703,701,701,703,703,704,706,707,710,711,713,714,714,716,716,717,717,720,722,725,727,728,731,733,734,736,738,739,741,742,742,744,747,747,749,750,755,780,783,762,762,792,792,796,798,800,802,802,805,807,809,813,815,817,819,821,823,823,827,829,831,837,841,843,843,845,847,851,858,860,862,864,864,867,869,871,875,878,878,882,882,885,887,889,894,894,894,898,898,901,967,967,964,962,962,959,959,956,956,954,954,951,951,951,951,951,951,951,954,956,959,962,964,967,967,967,0,0,0,0,0,1543,1543,1543,1543,1543,1543,1543,1536,1536,1529,1529,1529,1523,1523,1523,1516,1516,1516,1516,1509,1509,1503,1503,1496,1496,1496,1496,1496,1489,1483,1483,1477,1477,1477,1470,1470,1470,1470,1470,1470,1464,1464,1464,1458,1458,1452,1452,1445,1445,1439,1439,1439,1439,1439,1439,1439,1439,1439,1433,1433,1427,1427,1421,1421,1415,1415,1415,1415,1410,1410,1410,1404,1398,1398,1398,1398,1392,1392,1392,1392,1392,1387,1381,1381,1381,1376,1376,1376,1370,1370,1370,1370,1365,1365,1359,1359,1354,1354,1354,1354,1349,1349,1349,1343,1343,1338,1333,1333,1333,1333,1328,1328,1328,1328,1328,1322,1322,1322,1317,1317,1317,1312,1312,1307,1307,1307,1307,1302,1302,1297,1297,1297,1292,1292,1288,1288,1288,1283,1278,1273,1273,1273,1273,1273,1273,1273,1268,1268,1268,1268,1268,1268,1264,1264,1259,1259,1255,1255,1255,1255,1255,1250,1250,1245,1241,1241,1236,1236,1236,1236,1232,1232,1232,1232,1232,1227,1223,1223,1223,1223,1223,1219,1219,1214,1214,1214,1210,1210,1206,1206,1202,1202,1202,1202,1197,1197,1197,1197,1197,1197,1193,1193,1193,0,0,0,0,0,0,0,0,0,0,0,0,0,0,0,0,0,0,0,0,0,0,0,0,0,0,0,0,0,0,0
0,0,0,0,0,0,0,0,0,0,0,1632,1632,1632,1632,1639,1632,1632,1639,1639,1639,1639,1639,1639,1639,1639,1647,1647,1647,1639,1639,1632,1632,1632,1632,1632,1632,1639,1647,1647,1647,1647,1647,1647,1655,1655,1655,1655,1655,1655,1663,1655,1655,1655,1655,1655,1655,1655,1655,1655,1655,1655,1655,1655,1655,1655,1663,1663,1663,1663,1663,1663,1663,1663,1663,1663,1663,1663,1663,1663,1663,1663,1663,1663,1671,1688,0,0,0,0,0,0,0,923,923,920,918,915,915,913,910,908,908,906,903,903,903,906,906,908,910,910,913,913,915,915,915,915,918,918,918,918,0,0,0,0,0,0,0,0,0,0,0,0,0,833,831,827,825,825,825,825,823,817,815,813,813,811,811,809,809,805,803,802,800,796,794,794,792,790,789,785,783,781,780,778,774,773,771,769,767,766,764,762,761,759,759,757,755,754,752,717,717,716,714,713,711,711,710,708,708,707,704,703,701,698,698,697,696,696,693,693,691,690,690,688,688,687,687,687,686,686,686,682,682,683,683,683,684,684,686,686,686,684,684,684,683,683,686,688,690,691,691,693,691,691,693,693,693,691,691,691,691,690,690,690,691,691,694,693,693,694,693,693,693,693,694,694,694,693,693,696,697,697,697,697,697,697,697,696,696,697,708,708,708,708,708,707,706,706,706,703,703,703,703,703,701,701,703,703,704,704,706,708,710,711,714,714,714,716,716,717,719,722,725,727,730,731,733,733,734,736,739,741,741,742,744,747,747,780,780,780,780,783,785,787,790,792,796,798,800,802,803,805,807,809,813,815,817,819,821,823,825,827,829,833,837,841,843,845,847,849,851,856,860,862,864,867,867,869,871,873,875,878,880,882,885,887,889,894,894,894,898,898,970,970,967,967,964,962,962,959,959,956,956,954,951,951,951,951,951,951,954,956,956,959,964,964,967,967,970,0,0,0,0,0,1543,1543,1543,1543,1543,1543,1543,1536,1536,1529,1529,1529,1529,1523,1523,1523,1516,1516,1516,1509,1509,1503,1503,1496,1496,1496,1496,1496,1489,1489,1483,1483,1477,1477,1470,1470,1470,1470,1470,1470,1464,1464,1464,1464,1464,1458,1452,1445,1445,1445,1445,1439,1439,1439,1439,1439,1439,1439,1433,1433,1433,1421,1421,1421,1415,1415,1415,1415,1410,1410,1410,1404,1398,1398,1398,1398,1392,1392,1392,1392,1392,1387,1387,1381,1381,1376,1376,1376,1376,1370,1370,1370,1365,1365,1359,1359,1354,1354,1354,1354,1349,1349,1349,1349,1343,1343,1338,1333,1333,1333,1333,1328,1328,1328,1328,1322,1322,1322,1317,1317,1317,1312,1312,1312,1307,1307,1307,1302,1302,1297,1297,1297,1292,1292,1288,1288,1288,1288,1283,1278,1278,1273,1273,1273,1273,1273,1268,1268,1268,1268,1268,1268,1264,1264,1259,1259,1255,1255,1255,1255,1250,1250,1250,1245,1241,1241,1236,1236,1236,1236,1236,1232,1232,1232,1232,1232,1227,1227,1223,1223,1223,1219,1219,1219,1214,1214,1214,1210,1206,1206,1206,1202,1202,1202,1197,1197,1197,1197,1197,1197,1193,1193,1193,0,0,0,0,0,0,0,0,0,0,0,0,0,0,0,0,0,0,0,0,0,0,0,0,0,0,0,0,0,0,0
0,0,0,0,0,0,0,0,0,0,0,1632,1624,1624,1624,1624,1632,1632,1632,1632,1632,1632,1632,1632,1639,1639,1639,1639,1639,1639,1632,1632,1624,1624,1624,1624,1632,1632,1639,1639,1639,1639,1639,1639,1639,1647,1647,1647,1647,1647,1655,1647,1647,1647,1647,1655,1655,1647,1647,1647,1647,1647,1647,1647,1647,1655,1655,1655,1655,1655,1655,1655,1655,1655,1655,1655,1655,1655,1655,1655,1655,1655,1663,1663,1663,1663,0,0,0,0,0,0,0,923,923,920,918,915,915,913,910,910,908,903,903,903,903,906,908,908,910,910,913,913,915,915,918,918,918,920,920,920,0,0,0,0,0,0,0,0,0,0,0,0,0,0,0,0,825,825,825,825,823,819,817,815,813,811,811,809,809,805,803,802,800,796,796,794,792,790,789,789,783,781,780,778,774,774,773,769,767,766,764,762,761,759,759,757,755,754,750,749,747,746,744,713,711,711,710,708,708,707,704,703,701,698,698,697,696,696,693,691,691,690,688,687,686,686,684,684,686,684,682,682,680,680,680,680,682,683,683,683,684,683,683,683,682,682,683,683,687,690,690,691,690,690,690,691,690,688,687,687,688,686,686,687,687,687,687,690,690,691,691,690,690,690,690,690,690,691,691,693,694,694,696,696,697,697,696,693,693,693,691,691,708,707,707,707,704,704,701,698,698,698,700,700,700,701,701,703,703,704,704,707,708,711,713,714,714,716,716,717,719,722,727,728,728,731,733,733,733,736,739,739,741,742,774,774,776,780,780,781,781,783,785,787,790,792,796,798,800,802,803,805,807,809,813,815,817,819,821,823,825,827,831,833,837,843,843,845,847,849,851,854,858,862,864,867,869,869,871,873,875,878,880,882,885,887,889,891,894,894,898,970,970,970,967,967,964,964,962,959,959,956,956,954,954,954,954,951,951,951,954,956,959,962,964,967,967,970,970,0,0,0,0,0,1543,1543,1543,1543,1543,1543,1543,1536,1536,1529,1529,1529,1529,1523,1523,1523,1516,1516,1516,1509,1509,1503,1503,1496,1496,1496,1496,1496,1489,1489,1483,1483,1477,1477,1477,1477,1470,1470,1470,1470,1470,1464,1464,1464,1464,1464,1458,1452,1445,1445,1445,1439,1439,1439,1439,1439,1439,1439,1433,1433,1433,1421,1421,1421,1415,1415,1415,1415,1410,1410,1410,1404,1404,1398,1398,1398,1392,1392,1392,1392,1392,1387,1387,1381,1381,1376,1376,1376,1376,1376,1370,1370,1370,1365,1359,1359,1354,1354,1354,1354,1354,1349,1349,1349,1349,1343,1338,1333,1333,1333,1333,1328,1328,1328,1328,1322,1322,1322,1317,1317,1317,1312,1312,1312,1307,1307,1307,1302,1302,1297,1297,1297,1292,1292,1288,1288,1288,1288,1283,1278,1278,1273,1273,1273,1273,1273,1268,1268,1268,1268,1268,1268,1264,1264,1259,1259,1255,1255,1255,1255,1250,1250,1250,1245,1241,1241,1236,1236,1236,1236,1236,1232,1232,1232,1232,1232,1227,1227,1227,1223,1223,1219,1219,1219,1214,1214,1214,1214,1210,1206,1206,1206,1202,1202,1202,1202,1197,1197,1197,1197,1197,1193,1193,0,0,0,0,0,0,0,0,0,0,0,0,0,0,0,0,0,0,0,0,0,0,0,0,0,0,0,0,0,0,0
0,0,0,0,0,0,0,0,0,0,0,1624,1624,1624,1624,1624,1616,1616,1616,1616,1624,1624,1624,1632,1632,1632,1632,1632,1632,1632,1632,1632,1624,1624,1624,1624,1632,1632,1632,1639,1639,1639,1639,1639,1639,1639,1639,1639,1632,1632,1639,1639,1639,1639,1647,1647,1647,1647,1647,1647,1639,1639,1639,1639,1639,1647,1655,1655,1655,1655,1655,1655,1655,1647,1647,1647,1647,1647,1647,1647,1647,1655,1655,1655,1663,1663,0,0,0,0,0,0,925,923,920,918,918,915,915,913,913,910,908,903,903,903,903,906,908,908,910,910,913,913,915,915,918,918,918,920,920,920,0,0,0,0,0,0,0,1655,1655,1655,1655,0,0,0,0,0,0,825,825,823,821,819,817,815,813,811,809,809,809,805,803,802,800,796,796,794,794,792,790,789,785,783,780,778,774,774,773,769,769,766,764,762,761,759,759,757,755,754,750,749,747,746,744,744,742,711,710,708,708,707,704,703,701,698,698,697,696,696,693,691,691,690,688,687,686,686,684,683,682,682,682,680,680,679,679,679,679,680,682,682,682,682,682,682,682,682,682,683,684,687,688,690,688,688,688,688,687,687,687,686,686,684,684,686,686,686,686,686,687,687,688,688,688,688,688,688,688,688,688,690,691,691,691,693,694,694,693,691,690,690,690,688,688,690,690,691,696,693,693,696,696,696,697,698,698,700,700,701,703,703,704,706,708,711,713,714,714,716,716,717,720,722,725,727,728,730,731,731,731,733,739,739,767,771,773,774,776,778,778,781,781,783,787,787,790,792,796,798,800,802,803,805,807,811,813,815,817,819,821,823,827,829,833,835,837,843,845,847,849,851,851,854,856,862,864,867,869,869,871,873,875,878,880,882,882,887,889,889,891,891,970,970,970,970,970,967,967,964,962,959,959,956,956,954,954,954,954,954,954,954,954,956,959,962,964,967,967,970,973,0,0,0,0,1543,1543,1543,1543,1543,1543,1543,1543,1536,1536,1536,1529,1529,1529,1523,1523,1523,1516,1516,1516,1509,1509,1503,1503,1503,1496,1496,1496,1496,1489,1489,1483,1483,1483,1477,1477,1477,1477,1470,1470,1470,1470,1464,1464,1464,1464,1464,1458,1452,1452,1445,1445,1445,1445,1445,1439,1439,1439,1439,1439,1433,1433,1427,1421,1421,1415,1415,1415,1415,1410,1410,1410,1404,1404,1398,1398,1398,1392,1392,1392,1392,1392,1387,1387,1381,1381,1376,1376,1376,1376,1376,1370,1370,1370,1365,1365,1359,1354,1354,1354,1354,1354,1349,1349,1349,1349,1343,1338,1338,1333,1333,1333,1328,1328,1328,1328,1322,1322,1322,1317,1317,1317,1312,1312,1312,1307,1307,1307,1302,1302,1297,1297,1297,1292,1292,1292,1292,1292,1288,1283,1283,1283,1278,1278,1273,1273,1273,1273,1273,1268,1268,1268,1268,1264,1264,1259,1259,1255,1255,1255,1255,1250,1250,1250,1245,1241,1241,1236,1236,1236,1236,1236,1232,1232,1232,1232,1232,1227,1227,1227,1223,1223,1219,1219,1219,1219,1214,1214,1214,1210,1206,1206,1206,1202,1202,1202,1202,1202,1197,1197,1197,1197,1193,1193,0,0,0,0,0,0,0,0,0,0,0,0,0,0,0,0,0,0,0,0,0,0,0,0,0,0,0,0,0,0,0
0,0,0,0,0,0,0,0,0,0,0,1624,1624,1624,1616,1609,1609,1609,1609,1616,1616,1616,1616,1624,1624,1624,1624,1624,1624,1624,1624,1624,1624,1624,1624,1624,1624,1624,1624,1632,1632,1632,1632,1632,1632,1632,1632,1632,1632,1632,1632,1632,1632,1632,1639,1632,1632,1639,1639,1639,1632,1632,1632,1632,1632,1632,1639,1639,1647,1647,1647,1647,1647,1647,1639,1639,1639,1639,1639,1639,1647,1647,1655,1655,1663,1663,0,0,0,0,0,0,923,923,920,918,918,915,915,913,913,910,908,906,903,903,903,906,908,908,910,910,913,913,915,918,918,918,918,920,920,920,0,0,0,0,0,0,1655,1655,1655,1655,1655,1655,0,0,0,0,0,0,825,821,821,819,817,815,813,811,809,809,807,805,803,802,800,798,796,796,794,792,790,789,785,783,781,780,776,774,773,771,769,766,764,762,762,761,759,759,757,754,752,749,747,746,746,744,742,741,741,741,708,704,704,703,701,698,698,697,697,694,694,693,691,690,690,687,686,684,683,683,682,682,679,678,676,676,676,678,678,679,679,679,680,680,680,680,680,680,680,682,682,683,686,690,687,687,687,687,686,686,686,684,684,683,683,683,683,682,682,682,683,686,686,686,686,686,686,686,686,687,687,687,687,688,688,688,691,691,691,691,690,690,688,687,687,688,688,688,688,691,691,693,694,696,697,697,698,698,700,701,701,703,704,706,707,711,713,714,716,716,717,717,720,722,723,727,728,730,730,730,730,733,764,767,767,771,773,773,774,776,778,781,781,785,787,787,790,792,796,798,800,803,805,807,809,811,813,815,817,821,823,825,827,829,833,835,837,839,845,847,849,851,854,854,856,862,864,864,867,869,869,871,873,878,880,882,882,885,887,889,891,891,0,0,973,973,970,967,967,964,962,959,959,959,956,956,954,954,954,954,954,954,956,959,959,964,967,967,970,970,0,0,0,0,0,1543,1543,1543,1543,1543,1543,1543,1543,1543,1536,1536,1536,1536,1529,1523,1523,1523,1516,1516,1516,1509,1509,1509,1503,1503,1503,1496,1496,1496,1489,1489,1483,1483,1483,1477,1477,1477,1477,1470,1470,1470,1470,1464,1464,1464,1464,1464,1458,1452,1452,1445,1445,1445,1445,1445,1439,1439,1439,1439,1439,1433,1427,1427,1421,1421,1421,1415,1415,1415,1410,1410,1410,1404,1404,1398,1398,1398,1392,1392,1392,1392,1392,1387,1387,1381,1381,1381,1376,1376,1376,1376,1370,1370,1370,1365,1359,1359,1354,1354,1354,1354,1354,1349,1349,1349,1349,1343,1343,1338,1333,1333,1333,1333,1328,1328,1328,1322,1322,1322,1317,1317,1317,1312,1312,1312,1307,1307,1307,1302,1302,1302,1297,1297,1292,1292,1292,1292,1292,1288,1283,1283,1283,1278,1278,1273,1273,1273,1273,1273,1268,1268,1268,1268,1264,1264,1259,1259,1259,1255,1255,1255,1255,1250,1250,1245,1241,1241,1236,1236,1236,1236,1232,1232,1232,1232,1232,1232,1227,1227,1227,1227,1223,1223,1219,1219,1219,1219,1214,1214,1210,1210,1210,1206,1202,1202,1202,1202,1202,1197,1197,1197,1197,1193,1193,0,0,0,0,0,0,0,0,0,0,0,0,0,0,0,0,0,0,0,0,0,0,0,0,0,0,0,0,0,0,0
0,0,0,0,0,0,0,0,0,0,0,1624,1624,1616,1609,1609,1609,1601,1601,1609,1609,1609,1609,1616,1616,1616,1616,1616,1616,1624,1624,1624,1616,1616,1616,1616,1616,1616,1616,1624,1632,1632,1632,1624,1624,1624,1624,1624,1624,1624,1624,1624,1632,1632,1632,1632,1632,1639,1632,1632,1632,1632,1632,1624,1624,1624,1632,1632,1632,1639,1639,1639,1639,1639,1639,1632,1632,1632,1632,1632,1639,1639,1647,1655,1647,1647,0,0,0,0,0,0,923,923,920,920,918,915,915,915,913,910,908,906,906,906,906,906,908,910,913,913,913,915,918,918,918,918,918,920,920,920,0,0,0,0,0,0,1655,1655,1655,1655,1655,1655,0,0,0,0,0,0,0,821,821,819,817,815,813,811,809,807,807,805,803,802,802,798,796,796,794,792,790,789,785,785,783,781,780,778,774,771,769,766,764,764,762,761,759,759,757,754,750,749,747,746,746,744,742,741,741,739,739,704,704,703,700,700,698,698,697,694,694,693,691,690,690,687,686,684,683,682,682,680,679,676,676,675,675,675,675,672,672,676,676,678,678,678,678,679,679,680,680,680,682,690,687,686,686,684,684,684,684,683,682,682,682,682,682,680,680,680,682,683,683,683,683,683,684,684,683,683,683,683,683,683,683,683,691,691,691,690,688,688,688,687,687,687,687,687,687,688,688,690,691,693,694,696,697,698,700,701,701,703,703,704,706,710,713,714,716,716,717,719,720,722,723,725,727,730,730,730,730,761,764,766,767,771,773,773,774,776,778,781,783,785,787,789,790,792,796,798,802,803,805,807,809,813,815,815,819,821,825,827,831,833,835,835,837,839,845,849,851,851,854,856,858,860,864,864,867,869,869,871,873,878,880,880,880,882,887,889,889,889,0,0,975,973,970,970,967,967,964,959,959,959,956,956,956,956,954,954,954,956,956,959,962,964,967,970,970,973,975,0,0,0,0,1543,1543,1543,1543,1543,1543,1543,1543,1543,1536,1536,1536,1536,1529,1523,1523,1523,1516,1516,1516,1509,1509,1509,1503,1503,1503,1496,1496,1496,1489,1489,1489,1489,1483,1483,1477,1477,1477,1470,1470,1470,1470,1464,1464,1464,1464,1464,1458,1458,1458,1452,1445,1445,1445,1445,1445,1439,1439,1439,1433,1433,1427,1421,1421,1421,1415,1415,1415,1415,1415,1410,1410,1410,1404,1404,1398,1398,1398,1392,1392,1392,1392,1387,1387,1381,1381,1381,1376,1376,1376,1376,1370,1370,1370,1365,1359,1359,1354,1354,1354,1354,1354,1349,1349,1349,1349,1343,1343,1338,1338,1333,1333,1333,1328,1328,1328,1328,1322,1322,1317,1317,1312,1312,1312,1312,1307,1307,1307,1302,1302,1302,1297,1297,1292,1292,1292,1292,1292,1288,1288,1283,1283,1278,1278,1273,1273,1273,1273,1273,1268,1268,1268,1268,1264,1264,1259,1259,1255,1255,1255,1255,1255,1250,1250,1245,1241,1241,1236,1236,1236,1236,1232,1232,1232,1232,1232,1232,1227,1227,1227,1227,1223,1223,1219,1219,1219,1219,1214,1214,1210,1210,1210,1206,1202,1202,1202,1202,1202,1197,1197,1197,1197,1193,1193,0,0,0,0,0,0,0,0,0,0,0,0,0,0,0,0,0,0,0,0,0,0,0,0,0,0,0,0,0,0,0
0,0,0,0,0,0,0,0,0,0,0,1616,1616,1616,1609,1601,1601,1601,1601,1609,1601,1601,1601,1609,1616,1616,1609,1609,1609,1616,1616,1616,1616,1609,1609,1609,1609,1609,1616,1616,1624,1624,1624,1624,1624,1616,1616,1616,1624,1616,1616,1616,1624,1624,1632,1624,1624,1632,1624,1624,1624,1624,1624,1616,1616,1624,1624,1624,1624,1632,1632,1632,1639,1632,1632,1632,1632,1632,1632,1632,1632,1632,1639,1639,1639,1639,0,0,0,0,0,0,920,920,920,918,918,915,915,915,913,910,908,906,906,906,906,908,908,910,913,913,915,915,918,918,918,918,918,920,923,923,0,0,0,0,0,0,1655,1655,1655,1655,1655,1647,1624,1624,0,0,0,0,0,0,0,0,0,0,813,811,809,807,807,805,803,802,802,800,798,796,794,794,790,789,785,785,783,781,780,778,774,773,769,766,766,764,762,761,761,759,757,754,750,749,747,746,744,744,742,741,741,739,739,738,734,703,698,698,698,698,697,694,694,693,691,691,690,687,686,684,683,682,682,680,678,676,675,675,674,674,672,671,671,671,671,671,675,675,676,676,678,678,679,679,679,686,684,684,684,682,682,682,682,682,682,680,680,680,680,680,679,679,679,680,680,680,680,682,682,682,682,682,682,682,683,683,682,682,682,675,690,690,686,686,686,686,686,686,687,687,687,688,688,690,691,691,693,694,696,697,698,700,701,703,703,704,706,708,711,714,714,716,717,717,720,722,723,725,727,730,730,759,761,762,764,766,769,771,771,773,774,776,778,781,783,785,789,789,790,792,798,800,802,805,807,809,811,813,815,817,821,823,825,829,831,833,835,835,837,839,845,849,851,854,854,856,858,860,862,864,867,869,869,871,873,878,880,880,880,882,0,0,1663,0,0,0,978,973,970,970,967,967,964,962,959,959,959,956,956,956,956,956,956,956,956,962,964,967,970,970,973,973,975,0,0,0,0,1543,1543,1543,1543,1543,1543,1543,1543,1543,1543,1536,1536,1536,1529,1529,1523,1523,1523,1516,1516,1509,1509,1509,1503,1503,1503,1503,1496,1496,1489,1489,1489,1489,1483,1483,1483,1477,1477,1470,1470,1470,1470,1464,1464,1464,1464,1464,1458,1458,1458,1452,1445,1445,1445,1445,1445,1439,1439,1439,1433,1433,1427,1421,1421,1421,1415,1415,1415,1415,1415,1410,1410,1410,1404,1404,1398,1398,1398,1398,1392,1392,1392,1392,1387,1387,1381,1381,1376,1376,1376,1370,1370,1370,1370,1365,1365,1359,1354,1354,1354,1354,1354,1349,1349,1349,1349,1343,1343,1338,1338,1338,1333,1333,1333,1328,1328,1328,1322,1322,1317,1317,1312,1312,1312,1312,1307,1307,1307,1307,1302,1302,1297,1297,1292,1292,1292,1292,1292,1288,1288,1283,1283,1283,1278,1278,1273,1273,1273,1273,1268,1268,1268,1268,1264,1259,1259,1255,1255,1255,1255,1255,1250,1250,1250,1245,1241,1241,1241,1241,1236,1236,1232,1232,1232,1232,1232,1232,1232,1227,1227,1227,1223,1223,1219,1219,1219,1219,1214,1214,1214,1210,1210,1206,1206,1202,1202,1202,1202,1202,1197,1197,1197,1193,1193,0,0,0,0,0,0,0,0,0,0,0,0,0,0,0,0,0,0,0,0,0,0,0,0,0,0,0,0,0,0,0
0,0,0,0,0,0,0,0,0,0,0,1609,1609,1601,1601,1601,1601,1594,1594,1601,1601,1601,1601,1601,1609,1609,1601,1601,1601,1609,1609,1609,1601,1601,1601,1601,1609,1609,1609,1616,1616,1616,1616,1616,1616,1616,1616,1616,1616,1616,1609,1609,1616,1624,1624,1624,1624,1624,1624,1624,1624,1616,1616,1616,1616,1616,1616,1616,1624,1624,1624,1624,1632,1632,1624,1624,1624,1624,1624,1624,1624,1624,1632,1632,1632,1632,0,0,0,0,0,0,920,920,920,918,918,915,915,915,913,910,908,906,906,906,906,908,910,910,913,913,915,915,918,918,920,920,920,923,923,923,0,0,0,0,0,0,1647,1647,1647,1647,1647,1639,1624,1624,1624,1624,0,0,0,0,0,0,0,0,0,811,807,805,805,805,803,803,802,802,798,796,794,794,790,789,785,785,783,781,780,778,776,773,771,767,766,764,762,761,761,759,759,755,752,749,747,746,744,744,742,741,741,739,738,738,734,733,698,698,698,698,697,694,694,693,691,691,690,687,686,684,683,682,682,680,678,676,675,675,674,672,672,671,671,670,670,670,668,668,670,670,672,674,679,676,676,686,684,684,684,680,680,682,680,679,679,679,678,678,676,676,676,676,676,676,678,679,679,679,679,680,680,680,680,682,682,678,678,682,675,675,675,675,676,680,682,684,684,684,686,686,686,687,687,688,690,691,693,694,694,697,698,700,701,703,704,704,706,708,711,714,714,716,716,716,720,722,747,747,750,754,755,757,759,762,764,767,769,771,771,773,774,776,780,781,783,785,789,789,790,792,798,800,803,805,807,809,811,813,815,819,823,825,825,829,831,833,835,835,837,839,843,849,851,854,854,856,858,860,862,864,867,867,869,871,875,878,880,880,880,882,0,0,0,0,0,0,978,975,973,973,970,967,967,962,959,959,959,959,956,956,956,956,956,956,959,962,964,967,970,970,973,975,978,0,0,0,0,1543,1543,1543,1543,1543,1543,1543,1543,1543,1543,1536,1536,1536,1536,1529,1523,1523,1523,1516,1516,1509,1509,1509,1509,1503,1503,1503,1496,1496,1496,1489,1489,1489,1483,1483,1483,1477,1477,1470,1470,1470,1470,1464,1464,1464,1464,1464,1458,1458,1458,1452,1452,1445,1445,1445,1445,1439,1439,1439,1439,1433,1427,1427,1421,1421,1421,1415,1415,1415,1415,1415,1415,1410,1410,1404,1398,1398,1398,1398,1392,1392,1392,1392,1387,1387,1387,1381,1381,1376,1376,1370,1370,1370,1370,1370,1365,1359,1359,1354,1354,1354,1354,1349,1349,1349,1349,1343,1343,1343,1338,1338,1333,1333,1333,1328,1328,1328,1328,1322,1322,1322,1312,1312,1312,1312,1307,1307,1307,1307,1307,1302,1297,1297,1297,1292,1292,1292,1292,1288,1288,1288,1283,1283,1278,1278,1273,1273,1273,1273,1268,1268,1268,1268,1264,1259,1259,1255,1255,1255,1255,1255,1250,1250,1250,1250,1245,1241,1241,1241,1241,1236,1232,1232,1232,1232,1232,1232,1232,1227,1227,1227,1223,1223,1219,1219,1219,1219,1214,1214,1214,1210,1210,1206,1206,1202,1202,1202,1202,1202,1197,1197,1197,1197,1197,0,0,0,0,0,0,0,0,0,0,0,0,0,0,0,0,0,0,0,0,0,0,0,0,0,0,0,0,0,0,0
0,0,0,0,0,0,0,0,0,0,0,1601,1601,1601,1594,1594,1594,1594,1594,1594,1594,1594,1594,1594,1594,1601,1601,1601,1601,1601,1601,1601,1601,1594,1594,1594,1594,1601,1601,1601,1601,1609,1609,1609,1616,1609,1609,1609,1609,1609,1609,1609,1609,1609,1609,1609,1624,1624,1624,1616,1616,1616,1616,1609,1609,1609,1609,1616,1616,1616,1616,1616,1624,1624,1624,1624,1624,1624,1624,1624,1624,1624,1624,1624,1624,1624,0,0,0,0,0,0,920,920,920,920,918,915,915,915,913,910,908,906,906,906,908,910,910,913,913,915,915,915,918,920,920,920,920,923,925,925,0,0,0,0,0,0,1647,1639,1639,1647,1639,1632,1624,1624,1624,1609,1609,1624,0,0,0,0,0,0,0,0,807,805,805,805,803,803,802,802,800,798,796,794,790,789,785,785,783,781,780,780,778,774,771,769,767,764,762,761,761,759,759,755,754,750,749,747,746,744,744,742,741,739,738,736,734,733,731,731,698,698,697,697,694,693,691,691,690,687,686,684,683,682,682,680,679,676,675,675,672,672,671,670,670,668,668,667,666,666,666,666,664,662,662,662,676,676,676,680,680,680,671,671,679,674,672,672,674,672,672,674,674,674,672,672,674,674,675,675,675,679,679,679,679,678,678,675,674,674,674,674,674,675,675,676,676,679,683,683,686,686,686,687,687,688,690,691,693,694,694,697,698,698,700,703,704,704,706,710,711,714,714,716,716,716,746,747,747,747,749,752,755,757,759,762,764,767,767,769,771,773,774,776,780,781,783,787,789,789,790,792,798,800,803,805,809,811,813,813,815,819,823,825,827,829,831,833,835,835,837,839,843,849,851,851,854,856,858,860,862,864,867,867,869,871,875,878,880,882,1663,1663,1663,0,0,0,0,0,978,975,973,973,970,970,967,962,962,959,959,959,956,956,956,956,956,959,959,962,964,967,970,973,973,975,978,0,0,0,0,1543,1543,1543,1543,1543,1543,1543,1543,1543,1543,1536,1536,1536,1536,1523,1523,1523,1523,1516,1516,1509,1509,1509,1509,1503,1503,1503,1496,1496,1496,1489,1489,1489,1489,1483,1483,1483,1477,1477,1470,1470,1470,1470,1464,1464,1464,1464,1464,1458,1458,1452,1452,1445,1445,1445,1445,1439,1439,1439,1439,1433,1427,1427,1421,1421,1421,1415,1415,1415,1415,1415,1415,1410,1410,1410,1404,1398,1398,1398,1392,1392,1392,1392,1387,1387,1387,1381,1381,1376,1376,1370,1370,1370,1370,1365,1365,1359,1359,1354,1354,1354,1354,1349,1349,1349,1349,1343,1343,1343,1338,1338,1333,1333,1333,1328,1328,1328,1328,1322,1322,1322,1312,1312,1312,1312,1307,1307,1307,1307,1307,1302,1297,1297,1297,1292,1292,1292,1292,1288,1288,1288,1283,1283,1283,1278,1273,1273,1273,1273,1273,1273,1268,1268,1264,1259,1259,1255,1255,1255,1255,1255,1250,1250,1250,1250,1245,1245,1241,1241,1241,1236,1232,1232,1232,1232,1232,1232,1232,1227,1227,1227,1223,1223,1219,1219,1219,1219,1219,1214,1214,1210,1210,1210,1206,1206,1206,1202,1202,1202,1202,1197,1197,1193,1193,0,0,0,0,0,0,0,0,0,0,0,0,0,0,0,0,0,0,0,0,0,0,0,0,0,0,0,0,0,0,0
0,0,0,0,0,0,0,0,0,0,0,1586,1586,1594,1594,1586,1586,1586,1586,1586,1594,1594,1594,1586,1586,1594,1594,1594,1594,1594,1594,1594,1594,1594,1594,1594,1594,1594,1594,1594,1594,1594,1594,1609,1616,1609,1609,1609,1609,1609,1601,1601,1601,1601,1601,1601,1609,1616,1616,1609,1609,1609,1609,1609,1609,1609,1609,1609,1609,1609,1609,1609,1609,1609,1616,1616,1616,1616,1616,1616,1616,1624,1624,1624,1624,1624,0,0,0,0,0,0,0,923,920,920,920,918,918,915,915,910,910,908,906,906,908,910,910,913,913,915,915,915,918,920,920,920,923,923,925,925,0,0,0,0,1609,1609,1624,1624,1632,1632,1632,1632,1632,1624,1624,1609,1609,1616,1616,0,0,0,0,0,0,0,0,805,805,805,803,803,802,802,800,798,796,794,790,787,785,785,783,781,781,780,778,776,771,769,767,766,764,761,761,761,759,759,754,752,749,747,746,746,746,744,742,741,738,736,734,733,731,730,698,698,697,697,696,693,691,691,688,687,686,684,683,682,682,680,679,678,676,675,672,672,671,670,668,668,667,666,666,666,666,664,663,662,661,659,659,659,655,655,667,667,666,666,666,666,666,666,671,670,670,671,671,671,671,670,670,671,674,674,674,675,676,676,675,672,672,674,671,671,672,672,672,674,675,676,676,678,680,682,684,686,686,687,687,687,690,691,693,694,694,696,697,698,700,701,704,704,706,710,711,714,714,716,716,746,746,747,747,747,749,752,755,757,759,762,764,767,767,769,771,773,774,778,780,783,783,787,789,789,790,792,798,800,805,807,811,811,813,815,817,821,825,825,827,829,831,833,835,835,837,839,843,847,849,851,854,856,860,860,864,864,867,867,869,871,1663,1663,1655,1655,1655,1655,1655,0,0,0,0,0,0,978,975,975,970,970,967,967,962,959,959,959,959,956,956,956,956,959,959,962,964,970,970,973,973,975,975,975,0,0,0,1550,1550,1550,1550,1543,1543,1543,1543,1543,1543,1536,1536,1536,1536,1523,1523,1523,1523,1516,1516,1509,1509,1509,1509,1509,1503,1503,1496,1496,1496,1489,1489,1489,1489,1489,1483,1483,1477,1477,1470,1470,1470,1470,1464,1464,1464,1464,1464,1458,1458,1458,1452,1452,1445,1445,1445,1439,1439,1439,1433,1427,1427,1427,1421,1421,1421,1415,1415,1415,1415,1415,1415,1410,1410,1410,1404,1398,1398,1398,1392,1392,1392,1392,1392,1392,1392,1387,1381,1381,1376,1376,1370,1370,1370,1365,1365,1359,1359,1354,1354,1349,1349,1349,1349,1349,1349,1343,1343,1343,1338,1338,1333,1333,1333,1328,1328,1328,1328,1322,1322,1317,1312,1312,1312,1312,1307,1307,1307,1307,1307,1302,1297,1297,1297,1292,1292,1292,1292,1288,1288,1288,1283,1283,1283,1278,1278,1273,1273,1273,1273,1273,1268,1268,1264,1259,1259,1255,1255,1255,1255,1255,1250,1250,1250,1250,1245,1245,1245,1245,1245,1236,1236,1232,1232,1232,1232,1232,1232,1232,1232,1227,1223,1223,1219,1219,1219,1219,1214,1214,1214,1214,1210,1210,1206,1206,1206,1202,1202,1202,1202,1197,1197,1193,1193,0,0,0,0,0,0,0,0,0,0,0,0,0,0,0,0,0,0,0,0,0,0,0,0,0,0,0,0,0,0,0
0,0,0,0,0,0,0,0,0,0,0,1579,1579,1586,1586,1586,1586,1586,1572,1572,1586,1579,1579,1579,1579,1579,1594,1594,1594,1594,1594,1594,1594,1586,1586,1586,1586,1594,1594,1594,1594,1594,1594,1594,1594,1594,1594,1594,1601,1601,1601,1594,1594,1594,1594,1594,1601,1601,1601,1601,1601,1601,1601,1609,1609,1609,1609,1609,1601,1601,1601,1601,1601,1601,1609,1609,1609,1609,1609,1616,1616,1616,1616,1601,1601,1609,0,0,0,0,0,0,0,923,923,923,920,920,918,915,913,910,910,908,908,908,908,910,910,913,913,915,915,915,918,920,923,923,923,923,923,0,0,0,0,0,1609,1609,1624,1624,1624,1624,1624,1624,1624,1616,1616,1609,1609,1616,1609,1609,1609,1609,0,0,0,0,0,807,807,807,805,803,803,802,802,800,796,794,790,787,785,785,783,783,781,780,778,774,773,773,769,766,764,762,761,761,759,759,755,752,750,747,747,746,746,744,742,741,738,738,736,733,731,730,730,698,698,697,696,693,691,691,688,687,686,683,683,682,682,680,679,678,676,675,672,671,671,670,668,668,666,666,664,664,664,663,662,661,657,655,655,655,655,655,655,657,663,663,663,664,664,664,667,668,668,668,668,670,670,667,667,667,666,666,666,666,666,666,666,666,667,670,670,670,671,671,671,672,674,675,675,676,679,680,683,684,686,686,687,687,690,691,693,694,694,696,697,698,698,701,704,704,707,710,714,714,714,716,716,742,744,746,747,747,749,752,755,757,761,762,764,767,767,769,771,774,776,778,780,783,783,787,789,789,792,794,798,800,807,809,811,813,815,815,819,821,823,825,827,829,831,833,835,835,839,841,843,845,849,851,851,0,1671,1671,1671,1663,1663,1663,1663,1663,1663,1663,1655,1655,1655,1655,1655,0,0,0,0,0,0,981,975,975,970,970,967,967,964,962,959,959,959,959,959,959,959,959,962,962,964,970,970,973,973,975,975,975,0,0,0,0,1550,1550,1550,1543,1543,1543,1543,1543,1543,1536,1536,1536,1529,1523,1523,1523,1523,1516,1516,1516,1516,1516,1516,1509,1503,1503,1496,1496,1496,1489,1489,1489,1489,1489,1483,1483,1477,1477,1470,1470,1470,1470,1464,1464,1464,1464,1464,1458,1458,1452,1452,1445,1445,1445,1445,1439,1439,1439,1433,1427,1427,1427,1421,1421,1421,1415,1415,1415,1415,1415,1415,1410,1410,1404,1404,1398,1398,1398,1392,1392,1392,1392,1392,1392,1392,1387,1381,1381,1376,1376,1370,1370,1370,1365,1365,1359,1359,1354,1354,1349,1349,1349,1349,1349,1349,1343,1343,1343,1338,1338,1333,1333,1333,1328,1328,1328,1328,1322,1317,1317,1312,1312,1312,1312,1307,1307,1307,1307,1307,1302,1297,1297,1297,1292,1292,1292,1292,1288,1288,1288,1283,1283,1283,1278,1278,1273,1273,1273,1273,1273,1268,1268,1264,1259,1259,1255,1255,1255,1255,1255,1250,1250,1250,1250,1250,1250,1245,1245,1245,1236,1236,1236,1232,1232,1232,1232,1232,1232,1232,1227,1223,1223,1219,1219,1219,1219,1214,1214,1214,1210,1210,1210,1206,1206,1206,1202,1202,1202,1202,1197,1197,1193,1193,0,0,0,0,0,0,0,0,0,0,0,0,0,0,0,0,0,0,0,0,0,0,0,0,0,0,0,0,0,0,0
0,0,0,0,0,0,0,0,0,0,0,1572,1572,1579,1579,1572,1572,1572,1572,1572,1579,1564,1564,1564,1572,1572,1572,1572,1579,1586,1586,1586,1586,1586,1579,1579,1579,1586,1586,1586,1586,1586,1586,1594,1586,1586,1586,1586,1586,1586,1586,1586,1594,1594,1586,1586,1594,1594,1594,1594,1601,1601,1601,1601,1601,1601,1601,1601,1601,1601,1601,1601,1601,1601,1601,1601,1601,1601,1601,1601,1601,1601,1601,1601,1601,1601,1601,1601,0,0,0,0,0,0,923,923,923,920,920,918,913,910,910,908,908,908,908,910,910,913,913,915,915,915,918,920,923,923,923,923,923,0,0,0,0,0,1609,1609,1616,1616,1624,1624,1624,1624,1624,1616,1609,1609,1609,1609,1609,1609,1609,1609,1609,0,0,0,0,0,0,807,805,803,803,802,802,800,796,794,792,787,785,785,785,783,781,780,778,774,774,773,771,767,766,762,761,761,761,759,755,754,752,750,749,747,747,746,744,741,739,738,736,734,733,730,728,727,727,725,725,693,691,690,687,687,686,683,682,682,680,680,679,678,676,675,672,671,671,670,668,667,666,666,664,664,663,662,661,659,655,655,655,655,655,655,655,655,655,655,655,655,663,663,664,666,666,666,666,666,666,666,666,663,663,662,662,662,662,662,662,664,666,667,668,668,670,671,671,672,672,674,675,676,679,679,682,684,684,686,687,688,690,691,693,694,694,696,697,697,697,704,704,704,733,733,731,731,738,738,741,742,744,746,747,749,750,754,755,757,761,762,766,767,769,771,773,774,776,778,781,783,785,787,789,790,792,794,798,802,805,809,813,813,815,817,819,821,823,825,825,827,829,831,833,835,839,841,843,845,845,845,1671,1671,1671,1671,1671,1663,1663,1663,1663,1663,1663,1663,1655,1655,1655,1655,1655,0,0,0,0,0,0,981,975,975,970,970,967,967,967,962,962,959,959,959,959,959,959,959,962,962,967,970,970,973,973,975,975,975,0,0,0,0,1550,1550,1550,1543,1543,1543,1543,1543,1543,1536,1536,1536,1529,1523,1523,1523,1523,1516,1516,1516,1516,1516,1516,1509,1503,1503,1496,1496,1496,1489,1489,1489,1489,1489,1483,1483,1477,1477,1470,1470,1470,1470,1464,1464,1464,1464,1464,1458,1458,1452,1452,1445,1445,1445,1445,1439,1439,1433,1433,1427,1427,1427,1421,1421,1421,1415,1415,1415,1415,1415,1410,1410,1404,1404,1404,1398,1398,1398,1392,1392,1392,1392,1392,1392,1392,1387,1381,1381,1376,1376,1370,1370,1370,1365,1365,1359,1359,1354,1354,1349,1349,1349,1349,1349,1349,1343,1343,1343,1338,1338,1338,1333,1333,1328,1328,1328,1328,1322,1317,1317,1312,1312,1312,1312,1307,1307,1307,1307,1307,1302,1302,1297,1297,1297,1292,1292,1292,1292,1288,1288,1283,1283,1283,1283,1278,1273,1273,1273,1273,1268,1268,1268,1264,1264,1259,1255,1255,1255,1255,1255,1255,1250,1250,1250,1250,1250,1245,1245,1245,1241,1236,1236,1236,1236,1232,1232,1232,1232,1232,1227,1223,1223,1219,1219,1219,1219,1214,1214,1214,1210,1210,1210,1206,1206,1206,1206,1202,1202,1202,1197,1197,1193,1193,0,0,0,0,0,0,0,0,0,0,0,0,0,0,0,0,0,0,0,0,0,0,0,0,0,0,0,0,0,0,0
0,0,0,0,0,0,0,0,0,0,1564,1564,1572,1572,1572,1572,1572,1564,1564,1564,1557,1557,1564,1564,1564,1564,1572,1572,1572,1572,1579,1579,1579,1572,1572,1572,1572,1572,1579,1579,1579,1572,1572,1572,1579,1579,1579,1579,1579,1579,1586,1579,1579,1579,1579,1586,1586,1586,1594,1594,1594,1594,1594,1594,1601,1601,1601,1601,1601,1601,1601,1601,1594,1594,1594,1594,1594,1594,1594,1594,1594,1601,1594,1594,1601,1601,1601,1601,0,0,0,0,0,0,0,923,923,920,920,918,913,913,910,910,908,908,908,910,913,913,915,915,915,915,918,920,923,923,923,925,925,928,0,0,0,0,1609,1609,1616,1616,1616,1616,1624,1616,1616,1616,1609,1609,1609,1609,1609,1609,1609,1601,1601,1601,0,0,0,0,0,807,807,805,803,802,802,800,798,796,790,787,785,785,785,783,780,780,778,774,774,774,773,771,767,764,762,761,761,759,755,754,752,750,749,749,747,746,744,742,739,739,738,734,733,730,728,727,725,725,725,723,722,690,687,687,684,683,682,682,680,680,679,679,676,675,672,671,670,668,668,667,666,666,664,663,663,661,661,659,655,655,655,655,655,654,654,655,655,655,655,655,655,657,657,657,663,664,663,663,663,664,663,662,662,661,661,661,661,661,661,662,663,664,666,667,670,670,671,672,672,674,675,676,678,679,682,684,684,686,687,688,690,690,693,693,694,696,696,696,696,730,731,731,733,733,733,734,738,738,741,742,744,746,747,749,750,754,755,757,761,762,766,767,769,771,773,774,776,778,781,783,787,789,790,790,794,796,798,802,805,809,813,815,817,817,819,821,823,825,825,827,829,831,833,837,839,0,0,0,0,0,0,1671,1671,1671,1671,1663,1663,1663,1663,1663,1663,1655,1655,1655,1655,1655,1655,0,0,0,0,0,0,981,978,975,973,970,970,967,967,962,962,959,959,959,959,959,959,959,962,962,967,970,973,973,975,975,975,975,0,0,0,1550,1550,1550,1550,1543,1543,1543,1543,1543,1543,1536,1536,1536,1529,1523,1523,1523,1523,1523,1516,1516,1516,1516,1516,1509,1509,1503,1496,1496,1496,1489,1489,1489,1489,1489,1483,1483,1477,1477,1470,1470,1470,1470,1470,1464,1464,1464,1464,1458,1458,1452,1452,1445,1445,1445,1445,1439,1439,1433,1433,1427,1427,1427,1421,1421,1421,1415,1415,1415,1415,1415,1410,1410,1404,1404,1404,1398,1398,1398,1392,1392,1392,1392,1392,1392,1392,1387,1381,1381,1376,1376,1370,1370,1370,1370,1365,1365,1359,1354,1354,1354,1354,1349,1349,1349,1343,1343,1349,1343,1338,1338,1338,1333,1333,1328,1328,1328,1328,1322,1322,1317,1312,1312,1312,1312,1307,1307,1307,1307,1307,1302,1302,1297,1297,1297,1292,1292,1292,1292,1288,1288,1288,1288,1283,1283,1278,1273,1273,1273,1273,1268,1268,1264,1264,1264,1259,1255,1255,1255,1255,1255,1255,1255,1250,1250,1250,1250,1245,1245,1241,1241,1236,1236,1236,1236,1236,1232,1232,1232,1232,1227,1223,1223,1223,1219,1219,1219,1214,1214,1214,1214,1210,1210,1210,1206,1206,1206,1202,1202,1202,1197,1197,1197,1197,0,0,0,0,0,0,0,0,0,0,0,0,0,0,0,0,0,0,0,0,0,0,0,0,0,0,0,0,0,0,0
0,0,0,0,0,0,0,0,0,0,1564,1564,1564,1564,1564,1564,1564,1557,1557,1557,1550,1550,1557,1557,1557,1557,1564,1572,1572,1572,1572,1572,1572,1564,1564,1564,1564,1564,1564,1572,1572,1572,1572,1572,1572,1572,1572,1572,1572,1572,1572,1579,1572,1572,1572,1579,1579,1579,1579,1586,1586,1586,1586,1586,1586,1594,1594,1594,1594,1594,1594,1594,1594,1586,1586,1594,1594,1594,1594,1594,1594,1594,1594,1594,1594,1594,1601,1609,0,0,0,0,0,0,0,925,923,920,920,918,915,913,913,910,910,910,910,910,913,913,915,915,918,918,920,920,923,923,925,925,923,923,0,0,0,0,0,0,1616,1616,1616,1616,1616,1616,1616,1609,1609,1609,1609,1609,1609,1609,1601,1601,1601,1594,1594,1594,0,0,0,1586,0,0,803,803,802,802,798,794,790,787,785,785,785,783,780,780,776,774,774,774,773,771,767,766,762,762,761,759,755,754,752,750,749,749,747,747,746,742,739,739,738,734,733,730,728,727,725,725,725,723,722,722,720,687,684,683,682,682,680,680,679,679,676,675,672,671,670,668,668,667,666,666,664,663,661,661,659,657,655,654,654,654,654,654,654,654,654,654,654,654,655,655,655,655,658,658,658,658,663,663,661,657,657,657,658,659,659,661,661,661,663,663,664,666,668,668,670,671,672,675,675,676,678,679,682,683,684,686,687,688,690,690,691,693,694,694,696,696,696,727,730,731,733,733,733,734,736,738,741,742,744,747,747,749,752,754,755,757,762,764,766,767,767,769,773,774,776,780,781,785,787,789,790,792,794,796,800,803,807,809,813,815,817,817,819,821,823,825,825,827,829,831,833,837,0,0,0,0,0,1671,1671,1671,1671,1671,1671,1663,1663,1663,1663,1663,1663,1655,1655,1655,1655,1655,1655,0,0,0,0,0,0,981,978,978,973,973,970,967,967,967,962,962,959,959,959,959,959,959,962,964,967,970,973,973,975,975,973,973,0,0,0,1550,1550,1550,1550,1543,1543,1543,1543,1543,1543,1536,1536,1536,1523,1523,1523,1523,1523,1523,1516,1516,1516,1516,1516,1509,1509,1503,1496,1496,1496,1489,1489,1489,1489,1489,1483,1483,1477,1477,1470,1470,1470,1470,1470,1464,1464,1464,1464,1458,1458,1452,1452,1445,1445,1445,1445,1439,1439,1439,1433,1427,1427,1427,1421,1421,1421,1421,1421,1415,1415,1415,1410,1410,1404,1404,1404,1398,1398,1398,1392,1392,1392,1392,1392,1392,1387,1387,1381,1376,1376,1376,1376,1370,1370,1370,1365,1365,1365,1359,1354,1354,1354,1349,1349,1349,1343,1343,1343,1343,1338,1338,1333,1333,1333,1333,1328,1328,1328,1328,1322,1317,1312,1312,1312,1312,1307,1307,1307,1307,1302,1302,1297,1297,1297,1297,1292,1292,1292,1292,1288,1288,1288,1288,1283,1283,1278,1278,1273,1273,1273,1273,1268,1264,1264,1264,1259,1255,1255,1255,1255,1255,1255,1255,1250,1250,1250,1250,1245,1245,1241,1241,1241,1236,1236,1236,1236,1232,1232,1232,1232,1227,1223,1223,1223,1219,1219,1219,1219,1214,1214,1214,1214,1210,1210,1210,1206,1206,1202,1202,1202,1197,1197,1197,1197,0,0,0,0,0,0,0,0,0,0,0,0,0,0,0,0,0,0,0,0,0,0,0,0,0,0,0,0,0,0,0
0,0,0,0,0,0,0,0,0,0,1564,1564,1564,1564,1564,1564,1557,1557,1550,1550,1550,1550,1550,1550,1557,1557,1564,1564,1564,1564,1564,1564,1564,1564,1564,1557,1557,1557,1557,1564,1564,1564,1564,1564,1564,1564,1564,1564,1564,1564,1572,1572,1572,1572,1572,1572,1572,1572,1579,1579,1579,1579,1579,1579,1579,1579,1586,1586,1586,1586,1586,1586,1586,1586,1586,1586,1586,1586,1586,1586,1586,1586,1586,1586,1586,1586,1594,1609,0,0,0,0,0,0,0,925,923,923,923,918,915,915,913,913,910,910,910,910,913,913,915,915,918,920,920,923,923,925,925,925,923,923,0,0,0,0,0,0,1616,1616,1616,1609,1609,1609,1609,1609,1601,1601,1601,1601,1601,1601,1601,1601,1594,1594,1594,1594,1594,1594,1586,0,0,0,1579,0,798,798,798,794,790,787,785,785,785,783,780,780,776,774,774,774,773,771,767,766,762,762,761,761,759,755,752,750,750,749,747,747,746,742,739,739,738,734,733,731,730,727,727,725,725,723,722,722,720,717,716,714,682,680,680,680,679,679,678,676,672,671,670,668,667,667,666,664,663,662,661,661,659,657,655,654,654,654,654,654,653,653,653,653,653,653,653,653,653,654,658,655,654,652,652,653,653,655,655,655,657,657,658,659,659,661,662,663,664,664,668,668,670,671,672,675,675,676,679,679,680,683,684,686,687,687,690,690,691,693,693,694,720,722,723,727,728,731,731,733,733,734,736,738,741,744,746,747,747,749,752,754,755,759,762,764,766,767,767,769,773,774,778,780,783,785,787,789,790,792,794,796,800,803,805,809,811,815,815,817,819,821,823,825,825,827,829,831,835,837,0,0,0,1671,0,0,1671,1663,1663,1671,1671,1663,1663,1663,1663,1663,1663,1655,1655,1655,1655,1663,1663,1663,0,0,0,0,984,981,981,978,973,973,970,970,967,967,962,962,959,959,959,959,959,959,962,964,970,970,973,975,975,975,973,973,0,0,0,0,1550,1550,1550,1543,1543,1543,1543,1543,1543,1536,1536,1536,1523,1523,1523,1523,1523,1523,1516,1516,1516,1516,1516,1509,1509,1503,1496,1496,1496,1489,1489,1489,1489,1489,1483,1483,1477,1477,1470,1470,1470,1470,1470,1464,1464,1464,1464,1458,1458,1452,1452,1445,1445,1445,1445,1439,1439,1439,1433,1433,1427,1427,1427,1427,1421,1421,1421,1415,1415,1415,1415,1410,1404,1404,1404,1398,1398,1398,1392,1392,1392,1392,1392,1392,1387,1381,1381,1376,1376,1376,1376,1370,1370,1370,1365,1365,1365,1359,1354,1354,1354,1349,1349,1349,1343,1343,1343,1343,1338,1338,1333,1333,1333,1333,1328,1328,1328,1322,1317,1317,1312,1312,1312,1312,1312,1307,1307,1307,1302,1302,1297,1297,1297,1297,1292,1292,1292,1292,1288,1288,1288,1288,1283,1283,1283,1283,1278,1273,1273,1273,1268,1268,1264,1264,1259,1259,1255,1255,1255,1255,1255,1255,1255,1250,1250,1250,1250,1245,1241,1241,1241,1236,1236,1236,1236,1232,1232,1232,1232,1227,1227,1227,1223,1223,1219,1219,1219,1214,1214,1214,1214,1210,1210,1210,1206,1206,1202,1202,1202,1202,1197,1197,1197,0,0,0,0,0,0,0,0,0,0,0,0,0,0,0,0,0,0,0,0,0,0,0,0,0,0,0,0,0,0,0
0,0,0,0,0,0,0,0,0,0,1550,1550,1550,1557,1557,1557,1557,1550,1543,1543,1550,1543,1543,1550,1550,1557,1557,1564,1564,1564,1557,1557,1557,1557,1550,1550,1550,1550,1550,1550,1550,1557,1557,1557,1557,1557,1564,1564,1564,1564,1564,1564,1564,1564,1564,1564,1564,1572,1572,1572,1572,1572,1572,1572,1572,1572,1572,1579,1579,1579,1579,1579,1579,1579,1579,1579,1579,1579,1579,1579,1579,1579,1579,1579,1579,1579,1594,1609,0,0,0,0,0,0,0,925,923,923,923,918,915,915,913,913,910,910,910,910,913,913,915,915,918,920,920,923,923,925,925,925,925,925,0,0,0,0,0,1609,1609,1609,1609,1609,1601,1601,1601,1601,1601,1601,1601,1601,1601,1601,1601,1601,1594,1594,1594,1594,1586,1586,1586,1586,0,0,0,0,0,1579,0,789,789,787,787,785,785,783,780,780,776,774,774,773,773,771,767,766,764,762,761,761,759,755,754,752,750,749,747,747,746,742,739,739,738,734,733,733,730,728,727,727,725,723,722,720,720,717,716,714,711,680,680,679,678,678,676,676,674,671,670,668,667,667,666,664,663,662,661,659,658,657,655,654,654,653,653,653,653,652,652,652,652,652,650,650,650,648,648,648,650,650,650,650,652,652,653,654,654,657,657,658,659,659,661,662,663,664,667,668,670,671,672,675,675,676,679,679,680,683,683,686,687,687,690,690,691,693,693,719,720,722,723,725,728,730,731,733,733,734,736,738,741,742,746,747,747,749,752,755,757,761,764,764,766,767,769,771,773,776,778,781,785,785,787,789,792,794,796,798,802,803,805,809,811,813,815,817,819,821,823,823,825,829,829,833,833,0,1663,0,0,0,1671,1671,1671,1663,1663,1663,1663,1663,1663,1663,1663,1663,1663,1663,1663,1663,1663,1663,1663,1663,0,0,0,0,984,981,981,978,978,975,973,970,970,967,964,962,962,959,959,959,959,962,962,964,970,970,973,975,975,975,975,975,0,0,0,0,1557,1550,1550,1543,1543,1543,1543,1543,1543,1536,1536,1536,1529,1523,1523,1523,1523,1523,1516,1516,1516,1516,1516,1509,1509,1503,1503,1496,1496,1489,1489,1489,1489,1489,1483,1483,1477,1477,1470,1470,1470,1470,1470,1464,1464,1464,1464,1458,1458,1452,1452,1445,1445,1445,1445,1439,1439,1439,1433,1427,1427,1427,1427,1427,1421,1421,1421,1415,1415,1415,1410,1410,1404,1404,1404,1398,1398,1398,1398,1392,1392,1392,1392,1387,1387,1381,1381,1376,1376,1376,1376,1370,1370,1370,1370,1365,1365,1359,1354,1354,1354,1349,1349,1349,1349,1343,1343,1343,1338,1338,1338,1333,1333,1333,1328,1328,1328,1322,1317,1317,1312,1312,1312,1312,1312,1307,1307,1307,1307,1302,1297,1297,1297,1297,1292,1292,1292,1292,1288,1288,1288,1288,1283,1283,1283,1283,1278,1273,1273,1273,1268,1268,1268,1264,1264,1259,1255,1255,1255,1255,1255,1255,1255,1250,1250,1250,1250,1250,1241,1241,1241,1236,1236,1236,1236,1232,1232,1232,1232,1227,1227,1227,1223,1223,1219,1219,1219,1214,1214,1214,1214,1210,1210,1210,1206,1206,1202,1202,1202,1202,1197,1197,1197,0,0,0,0,0,0,0,0,0,0,0,0,0,0,0,0,0,0,0,0,0,0,0,0,0,0,0,0,0,0,0
0,0,0,0,0,0,0,0,0,0,1550,1550,1550,1557,1557,1557,1543,1543,1543,1543,1543,1543,1543,1543,1550,1550,1557,1557,1557,1557,1550,1550,1550,1550,1550,1550,1543,1543,1543,1543,1543,1550,1550,1550,1550,1550,1557,1557,1557,1557,1557,1557,1557,1557,1557,1564,1564,1564,1564,1564,1564,1572,1572,1572,1572,1572,1572,1572,1564,1564,1572,1572,1572,1572,1572,1572,1572,1572,1572,1572,1572,1572,1572,1572,1572,1572,1572,0,0,0,0,0,0,0,0,0,925,923,923,923,918,915,913,913,913,910,910,910,913,913,915,918,920,920,920,923,923,925,925,925,925,925,925,0,0,0,0,1609,1609,1609,1601,1601,1601,1601,1601,1601,1594,1594,1594,1594,1594,1594,1594,1594,1594,1594,1594,1594,1586,1586,1586,1579,1579,1579,1579,1579,1579,0,0,0,789,787,787,787,785,781,780,778,776,774,774,773,773,771,767,766,766,764,762,761,761,757,754,752,752,750,749,747,746,742,739,739,738,734,733,733,731,728,727,727,725,723,722,720,719,717,716,714,711,711,710,679,678,676,676,675,674,671,670,670,668,667,666,664,663,662,661,659,658,657,655,654,654,653,653,652,652,650,649,649,648,647,647,647,647,646,646,646,647,649,649,649,650,650,652,653,653,655,655,657,658,659,661,661,662,663,666,668,670,671,672,675,675,676,679,679,680,683,683,686,687,687,690,690,691,693,717,719,720,722,723,725,728,730,731,731,733,734,736,739,741,742,746,747,747,750,752,755,757,761,764,766,767,769,769,771,773,776,780,783,785,787,789,790,792,794,798,800,803,805,805,807,809,813,815,817,819,821,823,823,825,829,0,829,0,0,0,0,0,1671,1671,1671,1663,1663,1663,1663,1663,1663,1663,1663,1663,1663,1663,1663,1663,1663,1663,1663,1663,1671,0,0,0,0,981,981,981,978,978,975,973,970,970,967,964,964,962,962,962,962,962,962,964,967,970,973,973,975,978,978,975,975,0,0,0,1564,1557,1550,1550,1550,1543,1543,1543,1543,1543,1536,1536,1536,1529,1523,1523,1523,1523,1523,1516,1516,1516,1516,1516,1509,1509,1503,1503,1496,1496,1489,1489,1489,1489,1489,1483,1483,1477,1477,1470,1470,1470,1470,1470,1464,1464,1464,1458,1458,1458,1452,1452,1445,1445,1445,1445,1445,1439,1439,1433,1427,1427,1427,1427,1427,1421,1421,1421,1415,1415,1415,1410,1410,1410,1404,1404,1398,1398,1398,1398,1392,1392,1392,1392,1387,1387,1381,1381,1376,1376,1376,1376,1370,1370,1370,1370,1370,1365,1359,1359,1354,1354,1354,1349,1349,1349,1349,1349,1343,1343,1338,1338,1333,1333,1328,1328,1328,1328,1322,1317,1317,1312,1312,1312,1312,1312,1312,1307,1307,1307,1302,1297,1297,1297,1297,1292,1292,1292,1292,1288,1288,1288,1288,1283,1283,1283,1283,1278,1273,1273,1273,1268,1268,1268,1268,1264,1259,1259,1259,1259,1255,1255,1255,1255,1250,1250,1250,1250,1250,1245,1241,1241,1241,1241,1236,1236,1236,1232,1232,1232,1232,1227,1227,1223,1223,1219,1214,1214,1214,1214,1214,1214,1214,1210,1210,1206,1206,1202,1202,1202,1202,1197,1197,1197,0,0,0,0,0,0,0,0,0,0,0,0,0,0,0,0,0,0,0,0,0,0,0,0,0,0,0,0,0,0,0
0,0,0,0,0,0,0,0,0,0,1543,1543,1543,1543,1536,1536,1543,1543,1543,1543,1543,1543,1543,1543,1543,1550,1550,1550,1557,1550,1543,1543,1543,1543,1543,1543,1543,1543,1543,1543,1543,1543,1543,1543,1543,1550,1550,1550,1550,1550,1557,1557,1550,1550,1550,1557,1557,1557,1557,1557,1557,1564,1564,1564,1564,1564,1564,1564,1564,1564,1564,1564,1564,1564,1564,1564,1564,1564,1564,1564,1564,1564,1564,1564,1564,1564,1572,0,0,0,0,0,0,0,0,0,925,925,923,923,918,915,913,913,913,910,910,910,913,913,915,918,920,920,920,923,923,925,925,925,925,925,925,0,0,0,0,0,1601,1601,1594,1594,1594,1594,1594,1594,1594,1594,1594,1594,1594,1594,1594,1594,1594,1594,1594,1594,1586,1586,1579,1579,1579,1579,1579,1579,1579,1572,0,1572,0,0,787,787,783,781,778,776,776,774,774,773,773,771,767,767,766,766,764,762,761,757,755,754,752,750,749,747,746,742,741,739,739,736,734,733,731,728,727,727,725,723,722,722,719,717,716,714,711,711,710,708,707,676,675,675,671,671,670,668,667,667,666,664,663,662,661,659,659,657,655,654,654,653,652,652,650,649,648,647,647,646,646,646,646,644,644,644,646,647,648,648,649,650,650,652,652,654,655,655,658,658,659,661,662,663,666,668,670,671,672,675,675,676,679,679,680,683,683,684,687,687,690,713,714,716,717,719,720,722,723,725,727,728,730,731,733,734,736,739,742,744,746,747,749,750,752,755,757,761,764,766,767,769,769,771,774,776,778,787,789,789,790,792,794,796,798,800,803,805,805,807,807,811,815,817,819,821,823,823,825,0,0,0,1655,0,0,1663,1663,1671,1663,1663,1663,1663,1663,1663,1663,1663,1663,1663,1663,1663,1655,1655,1655,1663,1663,1663,1671,1671,0,0,0,0,981,981,981,978,978,975,973,973,970,967,967,964,962,962,962,962,962,962,964,967,970,973,973,975,978,978,978,0,0,0,0,1564,1557,1550,1550,1550,1543,1543,1543,1543,1543,1543,1536,1536,1536,1529,1529,1523,1523,1523,1516,1516,1516,1516,1516,1509,1503,1503,1503,1496,1496,1489,1489,1489,1489,1489,1483,1483,1477,1477,1470,1470,1470,1470,1470,1464,1464,1464,1458,1458,1452,1452,1452,1445,1445,1445,1445,1445,1439,1439,1433,1433,1433,1427,1427,1427,1421,1421,1421,1415,1415,1415,1415,1410,1410,1404,1404,1404,1398,1398,1398,1398,1392,1392,1392,1392,1387,1381,1381,1376,1376,1376,1376,1376,1370,1370,1370,1370,1365,1365,1359,1354,1354,1354,1349,1349,1349,1349,1349,1343,1343,1338,1338,1333,1333,1328,1328,1328,1328,1322,1322,1317,1317,1317,1317,1312,1312,1312,1312,1307,1307,1302,1297,1297,1297,1292,1292,1292,1292,1292,1288,1288,1288,1288,1283,1283,1283,1283,1278,1278,1273,1273,1268,1268,1268,1268,1264,1264,1259,1259,1259,1259,1255,1255,1255,1250,1250,1250,1250,1250,1245,1245,1245,1241,1241,1236,1236,1236,1232,1232,1232,1232,1227,1227,1223,1223,1219,1214,1214,1214,1214,1214,1214,1214,1214,1210,1206,1206,1202,1202,1202,1202,1202,1197,1197,0,0,0,0,0,0,0,0,0,0,0,0,0,0,0,0,0,0,0,0,0,0,0,0,0,0,0,0,0,0,0
0,0,0,0,0,0,0,0,0,0,1536,1536,1536,1543,1536,1536,1536,1536,1543,1543,1543,1543,1543,1543,1543,1543,1543,1543,1550,1543,1543,1543,1543,1543,1543,1543,1543,1543,1543,1543,1543,1543,1543,1543,1543,1543,1550,1550,1543,1543,1550,1550,1550,1550,1550,1550,1550,1550,1550,1550,1557,1557,1564,1564,1564,1564,1564,1557,1557,1557,1557,1557,1557,1557,1557,1557,1557,1557,1557,1564,1564,1564,1564,1564,1564,1564,0,0,0,0,0,0,0,0,0,0,928,925,925,925,923,918,915,915,913,913,913,913,913,915,915,918,918,920,923,923,925,925,925,925,925,925,925,0,0,0,0,0,1594,1594,1594,1586,1586,1586,1586,1594,1586,1586,1594,1594,1594,1594,1586,1586,1586,1586,1586,1586,1586,1579,1579,1579,1572,1572,1572,1572,1572,1572,1572,0,1564,0,783,0,783,780,776,776,776,774,774,773,773,771,767,767,766,766,766,764,761,759,755,754,752,750,749,747,746,742,741,741,739,738,736,734,733,728,727,727,725,723,722,722,719,717,716,714,711,711,710,708,706,704,675,675,671,671,670,668,667,666,666,664,664,662,661,661,659,657,655,654,654,653,652,650,650,649,647,647,646,646,646,644,644,644,644,644,644,646,647,647,648,649,649,650,652,653,654,655,657,658,659,661,662,663,666,667,668,671,672,675,675,676,679,679,680,683,683,684,687,687,711,713,713,714,716,719,720,722,723,725,727,728,730,731,733,734,738,741,742,746,746,747,749,750,752,755,757,761,764,767,769,771,771,773,774,776,778,787,789,789,790,790,794,796,798,802,803,805,805,805,807,807,813,817,819,821,823,0,0,1647,1647,0,1655,1655,1655,1655,1655,1663,1663,1663,1663,1663,1655,1655,1655,1655,1655,1655,1655,1655,1655,1655,1655,1655,1655,1663,1663,0,0,0,0,0,981,981,981,978,978,978,975,975,973,970,967,967,964,964,964,964,964,964,964,967,970,973,975,978,978,978,978,0,0,0,0,1564,1557,1557,1550,1550,1543,1543,1543,1543,1543,1543,1543,1536,1536,1529,1529,1523,1523,1523,1516,1516,1516,1516,1516,1509,1503,1503,1503,1496,1496,1489,1489,1489,1489,1489,1489,1483,1483,1477,1477,1470,1470,1470,1470,1464,1464,1464,1458,1458,1452,1452,1452,1445,1445,1445,1445,1445,1439,1439,1439,1433,1433,1433,1427,1427,1427,1421,1421,1421,1415,1415,1415,1410,1410,1404,1404,1404,1398,1398,1398,1398,1392,1392,1392,1392,1387,1381,1381,1376,1376,1376,1376,1370,1370,1370,1370,1365,1365,1365,1359,1359,1354,1354,1349,1349,1349,1349,1349,1343,1343,1338,1333,1333,1333,1333,1328,1328,1328,1322,1322,1317,1317,1317,1312,1312,1312,1312,1312,1312,1307,1307,1302,1297,1292,1292,1292,1292,1292,1292,1288,1288,1288,1288,1283,1283,1283,1283,1283,1273,1273,1268,1268,1273,1268,1268,1268,1264,1264,1264,1259,1259,1255,1255,1255,1250,1250,1250,1250,1250,1245,1241,1241,1241,1241,1236,1236,1236,1236,1232,1232,1232,1227,1227,1223,1223,1223,1223,1219,1214,1214,1214,1214,1214,1214,1210,1210,1206,1206,1206,1202,1202,1202,1197,1197,0,0,0,0,0,0,0,0,0,0,0,0,0,0,0,0,0,0,0,0,0,0,0,0,0,0,0,0,0,0,0
0,0,0,0,0,0,0,0,0,0,1536,1536,1529,1529,1529,1536,1536,1536,1536,1536,1536,1536,1536,1536,1536,1543,1543,1543,1543,1543,1543,1536,1536,1536,1536,1536,1543,1536,1536,1543,1543,1543,1543,1536,1536,1543,1543,1543,1543,1543,1543,1543,1543,1543,1543,1543,1543,1550,1550,1550,1550,1557,1557,1557,1557,1557,1557,1557,1557,1557,1557,1557,1557,1550,1550,1550,1550,1550,1550,1550,1550,1550,1550,1557,1557,1557,0,0,0,0,0,0,0,0,0,925,925,925,925,923,920,918,915,915,915,915,913,913,915,915,915,918,918,920,923,923,925,925,925,925,925,925,925,0,0,0,0,0,1586,1586,1579,1579,1579,1579,1579,1579,1579,1579,1586,1586,1586,1586,1586,1586,1586,1586,1586,1579,1579,1579,1579,1572,1572,1572,1572,1572,1572,1564,1564,1564,0,0,0,780,780,780,776,776,776,774,774,773,771,769,767,767,766,766,766,764,762,761,759,755,754,750,749,747,746,744,742,741,741,738,736,734,733,731,728,728,725,723,722,722,719,717,716,714,711,711,710,708,706,704,704,703,703,701,670,668,666,666,664,664,663,662,661,661,659,657,655,654,654,653,652,650,649,647,647,646,646,646,644,644,643,643,643,643,644,644,646,646,647,648,649,650,650,652,654,655,657,658,659,661,662,663,666,667,668,670,671,674,676,676,679,679,680,683,683,684,708,710,711,711,711,714,716,719,720,722,723,725,727,728,731,733,734,736,739,741,742,746,747,749,750,752,754,755,757,761,764,767,769,773,773,774,776,778,781,787,789,789,790,790,794,796,798,802,803,805,805,805,807,807,811,819,819,0,819,1639,1639,1647,1647,1639,1639,1632,1632,1647,1647,1655,1655,1655,1655,1655,1647,1647,1647,1647,1647,1647,1647,1647,1647,1647,1647,1647,1647,1655,1663,0,0,0,0,0,981,981,981,978,978,978,975,975,973,970,970,967,967,967,967,967,967,967,967,970,973,973,975,978,978,981,981,0,0,0,0,1564,1557,1557,1550,1550,1543,1543,1543,1543,1543,1543,1543,1543,1536,1529,1523,1523,1523,1523,1516,1516,1516,1516,1516,1509,1509,1503,1503,1496,1496,1489,1489,1489,1489,1489,1483,1483,1477,1477,1470,1470,1470,1470,1470,1464,1464,1464,1458,1458,1458,1452,1452,1452,1452,1445,1445,1445,1439,1439,1439,1439,1433,1433,1433,1427,1427,1421,1421,1421,1415,1415,1415,1410,1410,1404,1404,1404,1398,1398,1398,1398,1392,1392,1392,1392,1387,1387,1381,1381,1376,1376,1376,1370,1370,1370,1370,1365,1365,1365,1359,1359,1354,1354,1349,1349,1349,1349,1349,1343,1343,1338,1333,1333,1333,1333,1333,1328,1328,1322,1322,1322,1317,1317,1312,1312,1312,1312,1312,1312,1307,1302,1302,1297,1292,1292,1292,1292,1292,1292,1288,1288,1288,1288,1283,1283,1283,1283,1283,1273,1273,1268,1268,1273,1268,1268,1264,1264,1264,1264,1259,1259,1255,1255,1255,1250,1250,1250,1250,1250,1245,1241,1241,1241,1241,1236,1236,1236,1236,1232,1232,1232,1227,1227,1227,1223,1223,1223,1219,1219,1214,1214,1214,1214,1214,1210,1210,1206,1206,1206,1202,1202,1202,1197,1197,0,0,0,0,0,0,0,0,0,0,0,0,0,0,0,0,0,0,0,0,0,0,0,0,0,0,0,0,0,0,0
0,0,0,0,0,0,0,0,0,0,1523,1523,1523,1523,1529,1529,1529,1529,1529,1529,1536,1529,1529,1529,1536,1536,1536,1536,1536,1536,1536,1536,1536,1536,1536,1536,1536,1536,1536,1536,1536,1536,1536,1536,1536,1536,1536,1536,1536,1536,1536,1536,1536,1536,1536,1536,1543,1543,1543,1543,1543,1550,1550,1550,1557,1550,1550,1550,1550,1550,1550,1550,1550,1543,1543,1543,1543,1550,1550,1550,1550,1550,1543,1543,1543,1543,1557,0,0,0,0,0,0,0,0,925,925,925,925,923,918,915,915,915,915,915,915,915,915,915,915,918,918,920,923,923,925,925,925,925,925,925,925,0,0,0,0,0,1572,1572,1572,1572,1564,1564,1564,1572,1572,1572,1572,1579,1579,1579,1579,1579,1579,1572,1572,1572,1572,1572,1572,1572,1572,1572,1564,1564,1564,1564,1564,1564,1564,0,1557,0,776,776,776,776,776,774,774,773,771,769,767,767,766,766,766,764,762,761,759,757,754,752,749,747,746,744,742,741,741,738,736,734,733,731,731,728,727,725,723,722,720,717,716,714,714,713,710,708,706,704,704,703,703,701,700,698,666,662,661,661,661,662,661,661,659,657,655,654,654,653,652,650,649,647,646,646,646,644,644,644,643,643,643,643,644,644,644,646,646,648,648,649,650,652,654,655,657,658,659,662,663,663,666,667,668,668,671,674,675,676,678,680,680,682,682,707,708,710,711,711,711,713,716,719,720,722,725,725,727,728,731,734,734,738,739,741,742,746,747,749,750,752,754,755,757,761,766,769,771,773,773,774,778,780,783,787,789,789,790,792,794,796,798,800,802,803,805,805,807,807,811,0,0,1609,0,1639,0,1639,1639,1639,1639,1632,1632,1639,1639,1639,1647,1647,1647,1647,1647,1647,1647,1647,1647,1647,1647,1647,1647,1647,1647,1639,1639,1647,1663,0,0,0,0,0,981,981,981,978,978,978,975,975,973,970,970,967,967,967,967,967,967,967,967,970,973,973,975,978,978,981,981,0,0,0,0,1564,1557,1557,1550,1550,1550,1550,1550,1543,1543,1543,1543,1543,1536,1529,1523,1523,1523,1523,1516,1516,1516,1516,1516,1509,1509,1503,1503,1496,1496,1489,1489,1489,1489,1489,1483,1483,1477,1477,1470,1470,1470,1470,1470,1464,1464,1464,1464,1458,1458,1458,1452,1452,1452,1445,1445,1445,1439,1439,1439,1439,1439,1439,1433,1433,1427,1421,1421,1421,1415,1415,1415,1410,1410,1404,1404,1404,1404,1398,1398,1398,1392,1392,1392,1392,1387,1387,1381,1381,1376,1376,1376,1376,1370,1370,1370,1365,1365,1365,1359,1359,1354,1354,1354,1349,1349,1349,1349,1343,1343,1338,1338,1333,1333,1333,1333,1328,1328,1322,1322,1322,1317,1317,1312,1312,1312,1312,1312,1307,1307,1302,1302,1302,1297,1292,1292,1292,1292,1292,1288,1288,1288,1288,1283,1283,1283,1283,1283,1278,1273,1268,1268,1268,1268,1268,1264,1264,1264,1264,1264,1259,1255,1255,1255,1255,1250,1250,1250,1250,1245,1241,1241,1241,1241,1236,1236,1236,1236,1232,1232,1232,1232,1227,1227,1223,1223,1223,1219,1219,1219,1214,1214,1214,1214,1210,1210,1206,1202,1202,1202,1202,1202,1197,1197,0,0,0,0,0,0,0,0,0,0,0,0,0,0,0,0,0,0,0,0,0,0,0,0,0,0,0,0,0,0,0
0,0,0,0,0,0,0,0,0,0,1516,1516,1516,1516,1516,1516,1516,1523,1523,1529,1523,1523,1523,1523,1529,1523,1523,1523,1523,1523,1529,1529,1529,1529,1529,1536,1536,1536,1536,1536,1536,1536,1536,1536,1536,1529,1529,1536,1536,1529,1529,1536,1536,1536,1536,1536,1536,1536,1536,1536,1536,1543,1543,1543,1543,1543,1543,1543,1543,1543,1543,1543,1543,1543,1543,1543,1543,1543,1543,1543,1543,1543,1543,1543,1543,1543,1543,1543,0,0,0,0,0,0,0,0,925,925,925,923,918,915,915,915,915,915,915,915,915,915,915,918,918,920,923,923,925,925,925,925,928,928,0,0,0,0,0,0,1564,1564,1564,1564,1564,1564,1564,1564,1564,1564,1572,1572,1572,1572,1572,1572,1572,1572,1572,1572,1572,1572,1572,1572,1564,1564,1564,1564,1564,1564,1557,1557,1557,1557,1557,1550,1550,1550,776,776,776,774,774,773,771,769,769,767,766,766,766,764,761,759,759,755,754,754,750,749,746,744,744,742,741,739,736,734,733,731,731,728,727,725,723,722,720,717,716,714,714,713,710,708,707,706,704,703,703,701,700,698,697,661,661,661,661,662,661,661,659,657,655,654,654,653,652,650,649,647,646,646,646,644,644,643,643,643,643,643,643,643,644,644,646,648,648,649,650,652,654,655,657,658,661,662,663,664,666,666,667,668,674,674,675,676,678,680,680,682,682,707,708,710,710,711,711,713,716,719,720,722,725,725,727,728,731,734,736,738,741,741,744,746,747,749,750,752,754,755,759,762,767,769,773,774,774,776,780,780,783,787,789,790,790,792,794,796,796,800,802,803,803,805,807,0,0,0,0,0,1609,0,1639,1632,1632,1632,1632,1632,1632,1632,1632,1639,1639,1639,1639,1639,1639,1639,1639,1639,1639,1639,1639,1639,1639,1639,1639,1639,1639,1639,0,0,0,0,0,0,0,981,981,981,978,978,978,975,973,970,970,967,967,967,967,967,967,967,970,970,973,973,975,978,978,981,984,0,0,0,0,0,1564,1557,1557,1550,1550,1550,1550,1543,1543,1543,1543,1543,1536,1529,1523,1523,1523,1523,1516,1516,1516,1516,1516,1509,1503,1503,1503,1496,1496,1489,1489,1489,1489,1489,1483,1483,1477,1477,1470,1470,1470,1470,1470,1464,1464,1464,1464,1458,1458,1452,1452,1445,1445,1445,1445,1445,1439,1439,1439,1439,1439,1433,1433,1427,1427,1421,1421,1421,1415,1415,1415,1410,1410,1404,1404,1404,1404,1404,1398,1398,1392,1392,1392,1392,1392,1387,1387,1381,1381,1376,1376,1376,1370,1370,1370,1365,1365,1365,1359,1359,1354,1354,1354,1349,1349,1349,1349,1343,1343,1338,1338,1333,1333,1333,1333,1328,1328,1322,1322,1322,1317,1317,1312,1312,1312,1312,1312,1307,1307,1302,1302,1302,1297,1297,1297,1292,1292,1292,1292,1288,1288,1288,1283,1283,1283,1283,1283,1278,1273,1273,1273,1268,1268,1268,1268,1268,1264,1264,1264,1259,1255,1255,1255,1255,1250,1250,1250,1250,1250,1241,1241,1241,1241,1236,1236,1236,1236,1232,1232,1232,1232,1227,1227,1227,1223,1223,1219,1219,1219,1219,1214,1214,1214,1210,1210,1206,1202,1202,1202,1202,1202,1202,1202,0,0,0,0,0,0,0,0,0,0,0,0,0,0,0,0,0,0,0,0,0,0,0,0,0,0,0,0,0,0,0
0,0,0,0,0,0,0,0,0,0,1516,1509,1509,1509,1516,1516,1509,1509,1509,1516,1516,1523,1516,1516,1523,1516,1516,1516,1516,1516,1523,1523,1523,1523,1523,1529,1529,1529,1529,1529,1529,1529,1529,1529,1529,1523,1523,1523,1529,1529,1529,1529,1529,1529,1529,1529,1529,1529,1536,1536,1536,1536,1536,1536,1536,1536,1536,1536,1536,1536,1536,1536,1536,1536,1536,1536,1536,1536,1543,1543,1543,1543,1543,1543,1543,1543,1543,1543,0,0,0,0,0,0,0,0,0,925,925,923,920,915,915,915,915,915,915,915,915,915,918,918,920,923,923,923,925,925,925,925,928,928,0,0,0,0,0,0,1564,1564,1557,1557,1557,1557,1557,1550,1550,1564,1564,1564,1564,1572,1572,1572,1572,1564,1564,1564,1564,1564,1564,1564,1557,1557,1564,1557,1557,1557,1557,1557,1557,1557,1550,1550,1550,1550,1543,776,776,776,774,773,771,769,769,767,767,767,766,764,759,759,757,755,755,754,752,750,747,746,744,744,741,739,736,734,733,731,731,728,727,725,723,723,722,719,717,716,713,713,710,710,707,706,704,703,703,701,698,697,697,661,661,659,659,661,661,659,658,657,655,655,654,654,653,652,649,647,646,646,646,644,644,643,643,643,643,643,643,643,644,644,646,648,648,650,650,652,653,655,657,658,661,662,663,664,666,666,667,668,691,693,696,697,698,700,701,703,704,707,708,710,710,711,711,713,716,719,720,723,725,725,727,728,731,734,738,739,741,742,744,746,747,750,752,754,754,757,761,762,767,771,773,776,776,778,780,781,783,785,789,790,790,792,796,796,796,800,802,802,803,805,805,0,0,1609,0,0,1609,1609,1609,1609,1616,1624,1624,1632,1632,1632,1632,1632,1632,1632,1632,1632,1632,1632,1632,1632,1639,1639,1632,1632,1632,1632,1632,1632,1632,1632,0,0,0,0,0,0,0,981,981,981,981,978,978,975,973,970,970,967,967,967,967,967,967,970,970,973,973,973,975,978,978,981,984,0,0,0,0,0,1564,1557,1557,1550,1550,1550,1550,1543,1543,1543,1543,1543,1536,1529,1529,1523,1523,1523,1523,1523,1516,1516,1516,1509,1503,1503,1496,1496,1496,1489,1489,1489,1489,1483,1483,1483,1477,1477,1470,1470,1470,1470,1470,1464,1464,1464,1464,1464,1458,1452,1452,1445,1445,1445,1445,1445,1439,1439,1439,1439,1439,1433,1433,1427,1427,1421,1421,1421,1415,1415,1415,1410,1410,1404,1404,1404,1404,1404,1398,1398,1398,1398,1392,1392,1392,1387,1387,1381,1381,1376,1376,1376,1370,1370,1370,1365,1365,1365,1359,1359,1354,1354,1354,1349,1349,1349,1343,1343,1343,1338,1338,1333,1333,1333,1333,1328,1328,1322,1322,1322,1317,1317,1312,1312,1312,1312,1312,1312,1307,1307,1307,1302,1302,1297,1292,1292,1292,1292,1292,1288,1288,1288,1283,1283,1288,1283,1283,1278,1273,1273,1273,1273,1268,1268,1268,1268,1264,1264,1259,1259,1255,1255,1255,1255,1255,1250,1250,1250,1250,1241,1241,1241,1241,1236,1236,1236,1236,1232,1232,1232,1232,1232,1232,1232,1223,1223,1219,1219,1219,1219,1214,1214,1214,1210,1210,1206,1202,1202,1202,1202,1202,1202,1202,0,0,0,0,0,0,0,0,0,0,0,0,0,0,0,0,0,0,0,0,0,0,0,0,0,0,0,0,0,0,0
0,0,0,0,0,0,0,0,0,0,1509,1503,1503,1503,1509,1509,1503,1503,1503,1509,1509,1509,1509,1509,1509,1516,1516,1509,1509,1509,1509,1516,1516,1516,1516,1516,1523,1523,1523,1516,1516,1523,1523,1523,1523,1523,1523,1523,1529,1523,1523,1523,1523,1523,1529,1523,1523,1523,1523,1529,1529,1529,1529,1529,1529,1529,1536,1536,1536,1529,1529,1529,1529,1529,1529,1529,1529,1529,1536,1536,1536,1536,1536,1536,1536,1536,1536,1536,0,0,0,0,0,0,0,0,0,925,925,923,920,918,915,915,915,915,915,915,915,915,918,920,920,923,923,925,925,925,925,925,928,928,0,0,0,0,0,0,1557,1557,1550,1550,1550,1543,1543,1543,1543,1550,1557,1557,1564,1564,1564,1564,1564,1564,1557,1557,1557,1557,1557,1557,1557,1557,1557,1557,1557,1557,1557,1550,1550,1550,1550,1550,1543,1543,1543,1543,1543,1536,1529,1529,769,769,769,767,767,767,766,762,759,759,757,755,755,754,752,750,749,746,746,744,742,741,738,736,733,733,731,728,727,725,723,722,722,719,717,716,713,713,711,710,708,707,706,704,703,701,698,697,697,697,696,659,659,661,661,659,658,657,655,654,654,654,653,652,649,647,646,646,646,644,644,644,643,643,643,643,643,643,644,644,646,648,648,650,650,652,653,655,657,658,661,663,663,664,666,666,666,691,691,693,696,697,698,701,701,703,704,706,707,710,711,711,711,713,716,719,722,723,725,727,727,728,731,734,738,739,741,742,744,747,749,750,752,754,755,759,762,764,767,771,774,776,776,780,781,781,783,785,789,790,790,792,796,796,796,798,802,802,0,0,1609,1609,0,0,1609,1609,1609,1609,1609,1609,1616,1616,1624,1624,1624,1624,1624,1632,1632,1632,1632,1624,1624,1624,1624,1624,1624,1632,1632,1632,1632,1632,1632,1624,1624,1624,0,0,0,0,0,0,0,984,981,981,981,981,978,975,973,973,970,967,967,970,970,970,970,970,970,973,973,973,975,978,981,981,987,0,0,0,0,1564,1564,1557,1557,1550,1550,1550,1543,1543,1543,1543,1543,1536,1536,1529,1529,1523,1523,1523,1523,1523,1516,1516,1516,1509,1503,1503,1496,1496,1496,1489,1489,1489,1489,1483,1483,1483,1477,1477,1470,1470,1470,1470,1470,1464,1464,1464,1464,1464,1458,1458,1452,1452,1452,1445,1445,1445,1439,1439,1439,1439,1439,1433,1433,1427,1427,1421,1421,1421,1421,1415,1415,1415,1410,1404,1404,1404,1404,1404,1398,1398,1398,1398,1392,1392,1392,1392,1387,1381,1381,1376,1376,1376,1370,1370,1370,1365,1365,1365,1359,1359,1354,1354,1354,1349,1349,1349,1343,1343,1343,1338,1338,1333,1333,1333,1333,1328,1328,1322,1322,1322,1317,1317,1312,1312,1312,1312,1312,1312,1307,1307,1307,1302,1302,1297,1292,1292,1292,1292,1292,1288,1288,1288,1283,1283,1283,1283,1278,1278,1273,1273,1273,1273,1268,1268,1268,1268,1264,1264,1259,1259,1255,1255,1255,1255,1255,1250,1250,1250,1250,1245,1245,1241,1241,1241,1236,1236,1236,1232,1232,1232,1232,1232,1227,1227,1227,1227,1223,1223,1219,1219,1214,1214,1214,1210,1210,1206,1202,1202,1202,1202,1202,1202,1202,0,0,0,0,0,0,0,0,0,0,0,0,0,0,0,0,0,0,0,0,0,0,0,0,0,0,0,0,0,0,0
0,0,0,0,0,0,0,0,0,0,1503,1496,1496,1496,1496,1496,1496,1496,1496,1496,1503,1503,1509,1509,1503,1503,1503,1503,1503,1503,1503,1509,1509,1509,1509,1509,1516,1516,1516,1516,1516,1516,1523,1523,1516,1516,1516,1516,1516,1516,1516,1516,1516,1523,1523,1516,1516,1516,1516,1523,1523,1523,1523,1523,1529,1529,1529,1523,1523,1523,1523,1523,1523,1523,1523,1523,1523,1523,1529,1529,1529,1536,1536,1536,1536,1529,1529,1529,0,0,0,0,0,0,0,0,0,925,925,923,920,918,915,915,915,915,915,915,915,915,918,920,920,923,923,925,925,925,928,928,928,928,938,943,943,0,0,0,1557,1550,1543,1543,1543,1543,1543,1543,1543,1543,1550,1550,1557,1557,1557,1557,1564,1557,1557,1557,1557,1550,1550,1550,1550,1550,1550,1550,1550,1550,1550,1550,1550,1550,1543,1543,1543,1543,1543,1536,1536,1536,1529,1529,1529,769,769,767,767,766,762,761,759,759,757,755,754,754,752,750,749,746,746,744,742,741,738,736,734,733,731,731,727,725,723,722,722,719,719,716,714,713,711,710,708,708,706,704,703,701,698,698,697,697,696,694,661,661,659,659,657,657,655,654,654,654,653,650,649,647,647,646,646,644,644,644,643,643,643,643,643,643,644,646,646,648,649,650,650,652,654,655,658,659,662,663,664,664,666,666,666,691,691,693,696,697,700,701,701,703,704,706,707,710,711,711,711,713,716,719,722,725,727,727,727,730,733,736,738,739,741,742,746,747,749,750,754,755,755,761,762,764,767,769,773,776,776,780,781,781,783,785,787,790,792,794,796,796,796,798,0,0,1586,0,0,0,1609,1609,1609,1609,1609,1609,1609,1609,1609,1616,1616,1616,1616,1616,1616,1616,1616,1616,1616,1616,1616,1616,1624,1624,1624,1624,1624,1624,1624,1624,1624,1624,1624,1624,0,0,0,0,0,0,0,984,984,981,981,981,978,978,975,973,970,970,970,970,970,970,970,970,970,975,975,975,978,981,981,987,992,0,0,0,1564,1564,1557,1557,1557,1550,1550,1550,1543,1543,1543,1543,1543,1536,1536,1529,1523,1523,1523,1523,1523,1523,1516,1516,1516,1509,1509,1503,1503,1496,1496,1489,1489,1489,1489,1489,1483,1483,1477,1477,1470,1470,1470,1470,1464,1464,1464,1464,1464,1464,1458,1458,1452,1452,1452,1445,1445,1445,1439,1439,1439,1439,1433,1433,1433,1427,1427,1427,1421,1421,1421,1421,1415,1415,1410,1404,1404,1404,1404,1404,1398,1398,1398,1398,1398,1392,1392,1392,1387,1381,1381,1376,1376,1376,1370,1370,1370,1370,1365,1365,1359,1359,1354,1354,1354,1349,1349,1349,1343,1343,1343,1343,1338,1338,1333,1333,1333,1333,1328,1322,1322,1322,1317,1317,1312,1312,1312,1312,1312,1312,1312,1307,1307,1307,1307,1302,1297,1292,1292,1292,1292,1288,1288,1288,1288,1288,1283,1283,1278,1278,1273,1273,1273,1273,1268,1268,1268,1268,1264,1264,1259,1259,1255,1255,1255,1255,1255,1250,1250,1250,1250,1250,1245,1241,1241,1241,1236,1236,1236,1232,1232,1232,1232,1232,1227,1227,1227,1227,1223,1223,1219,1219,1214,1214,1214,1210,1210,1210,1206,1206,1206,1202,1202,1202,1202,0,0,0,0,0,0,0,0,0,0,0,0,0,0,0,0,0,0,0,0,0,0,0,0,0,0,0,0,0,0,0
0,0,0,0,0,0,0,0,0,0,1496,1496,1496,1496,1489,1489,1496,1496,1496,1496,1496,1496,1503,1503,1503,1496,1496,1496,1489,1489,1489,1489,1496,1496,1503,1503,1509,1509,1509,1509,1509,1509,1509,1509,1516,1516,1516,1516,1516,1516,1516,1509,1509,1516,1516,1516,1516,1516,1516,1516,1516,1516,1516,1516,1523,1523,1523,1516,1516,1516,1516,1516,1523,1516,1516,1516,1516,1523,1523,1523,1529,1529,1529,1529,1529,1523,1516,1516,1516,0,0,0,0,0,0,0,0,925,925,923,923,918,918,918,915,915,915,915,915,915,918,920,923,923,925,925,925,928,928,928,930,935,935,938,940,0,0,0,0,1550,1543,1543,1543,1536,1536,1536,1536,1543,1543,1543,1543,1550,1550,1557,1557,1557,1557,1550,1550,1543,1543,1543,1543,1543,1543,1550,1550,1550,1550,1550,1543,1543,1543,1543,1543,1536,1536,1536,1536,1536,1523,1523,1523,1523,1516,1516,766,766,761,761,759,757,757,755,754,754,752,750,749,747,746,744,742,741,739,736,734,734,733,731,728,725,723,723,722,719,719,716,714,713,713,711,708,708,706,704,703,701,700,698,698,697,696,696,694,693,659,659,657,657,655,654,654,654,652,650,649,648,647,646,646,644,644,644,643,643,643,644,644,644,644,646,646,648,649,650,650,652,654,657,658,661,663,664,664,666,666,666,690,691,691,693,696,697,700,701,701,704,706,707,708,710,711,711,713,714,717,719,722,725,727,727,728,730,733,736,738,739,741,742,746,747,750,752,754,755,757,761,764,766,767,769,771,776,778,780,781,781,783,783,785,790,792,794,794,796,0,0,0,0,0,0,1601,1601,1601,1601,1601,1609,1609,1609,1609,1609,1609,1609,1609,1609,1609,1609,1609,1609,1609,1609,1609,1609,1609,1616,1616,1616,1616,1616,1616,1616,1616,1616,1616,1616,1609,1609,0,0,0,0,0,0,0,984,984,984,981,981,978,978,975,973,970,970,970,970,970,970,970,970,973,975,978,978,981,984,984,989,989,0,0,0,0,1564,1557,1557,1557,1550,1550,1550,1550,1543,1543,1543,1543,1536,1536,1529,1523,1523,1523,1523,1523,1523,1516,1516,1516,1516,1509,1503,1503,1496,1496,1489,1489,1489,1489,1489,1489,1483,1483,1477,1477,1470,1470,1470,1464,1464,1464,1464,1464,1464,1458,1458,1452,1452,1445,1445,1445,1445,1439,1439,1439,1439,1433,1433,1427,1427,1427,1427,1421,1421,1421,1421,1415,1415,1410,1404,1404,1404,1404,1398,1398,1398,1398,1398,1398,1392,1392,1392,1387,1381,1381,1376,1376,1376,1376,1370,1370,1370,1365,1365,1365,1359,1354,1354,1354,1349,1349,1349,1349,1343,1343,1343,1338,1338,1338,1338,1333,1333,1328,1328,1322,1322,1322,1322,1317,1317,1312,1312,1312,1312,1312,1307,1307,1307,1307,1302,1302,1297,1292,1292,1292,1288,1288,1288,1288,1288,1283,1283,1278,1278,1273,1273,1273,1268,1268,1268,1268,1268,1264,1264,1259,1259,1259,1255,1255,1255,1255,1250,1250,1250,1250,1250,1245,1245,1241,1241,1241,1241,1236,1236,1232,1232,1232,1232,1227,1227,1227,1227,1223,1223,1219,1219,1214,1214,1214,1210,1210,1210,1206,1206,1202,1202,1202,1202,1202,0,0,0,0,0,0,0,0,0,0,0,0,0,0,0,0,0,0,0,0,0,0,0,0,0,0,0,0,0,0,0
0,0,0,0,0,0,0,0,0,1489,1489,1489,1496,1489,1489,1489,1489,1489,1489,1489,1489,1496,1496,1496,1496,1496,1496,1489,1489,1489,1489,1489,1489,1489,1489,1489,1489,1496,1496,1496,1503,1503,1503,1503,1503,1503,1503,1503,1503,1503,1509,1503,1503,1509,1509,1509,1509,1509,1509,1509,1509,1509,1509,1509,1516,1516,1516,1516,1516,1516,1516,1516,1516,1516,1516,1516,1516,1516,1516,1516,1516,1523,1523,1523,1523,1516,1516,1516,1516,0,0,0,0,0,0,0,0,925,925,923,923,918,918,918,915,915,915,915,915,918,918,920,923,923,923,925,925,928,928,928,930,933,935,938,940,0,0,0,0,0,1529,1529,1536,1536,1536,1536,1536,1536,1536,1536,1536,1543,1543,1550,1550,1550,1550,1550,1543,1543,1543,1543,1543,1543,1543,1543,1543,1543,1543,1543,1543,1543,1536,1536,1536,1536,1536,1536,1529,1529,1523,1516,1516,1516,1516,1516,1516,761,761,761,759,757,755,754,754,754,752,750,749,747,746,744,742,741,739,736,734,734,733,731,730,727,725,723,722,720,719,716,716,714,713,711,710,708,707,706,703,701,700,698,698,697,696,696,694,693,693,690,686,683,683,654,653,653,652,650,650,648,647,646,646,644,644,644,643,643,643,644,644,644,644,646,646,648,649,650,652,652,657,658,661,663,664,666,666,667,667,667,690,691,693,693,694,697,700,701,701,703,706,707,708,710,711,711,713,716,717,719,722,725,727,727,728,731,734,736,738,741,742,744,746,749,750,752,754,757,757,761,764,766,767,769,771,774,776,780,781,781,783,783,783,790,792,794,794,794,794,0,0,1586,1586,1586,1594,1601,1601,1601,1601,1601,1609,1609,1601,1601,1601,1601,1609,1609,1609,1609,1609,1609,1609,1609,1609,1609,1609,1609,1609,1609,1609,1609,1609,1609,1609,1609,1609,1609,1609,1609,0,0,0,0,0,0,0,987,984,984,981,981,978,978,975,973,970,970,970,970,970,970,970,973,973,978,978,981,981,984,984,989,989,0,0,0,1564,1564,1564,1557,1557,1550,1550,1550,1550,1543,1543,1543,1543,1536,1529,1529,1529,1523,1523,1523,1523,1523,1523,1516,1516,1509,1509,1503,1496,1496,1496,1489,1489,1489,1489,1489,1489,1483,1483,1483,1477,1470,1470,1470,1464,1464,1464,1464,1464,1464,1458,1458,1452,1445,1445,1445,1445,1445,1439,1439,1433,1433,1433,1433,1427,1427,1427,1421,1421,1421,1421,1421,1415,1415,1415,1410,1404,1404,1404,1398,1398,1398,1398,1398,1398,1392,1392,1392,1387,1381,1381,1376,1376,1376,1376,1370,1370,1370,1365,1365,1365,1359,1354,1354,1354,1349,1349,1349,1349,1343,1343,1343,1338,1338,1338,1333,1333,1333,1328,1328,1322,1322,1322,1322,1317,1317,1312,1312,1312,1312,1312,1312,1312,1307,1307,1307,1302,1302,1292,1292,1292,1288,1288,1288,1288,1288,1283,1283,1278,1278,1273,1273,1273,1268,1268,1268,1268,1268,1264,1264,1259,1259,1259,1255,1255,1255,1250,1250,1250,1250,1250,1250,1250,1245,1245,1241,1241,1241,1236,1236,1232,1232,1232,1232,1227,1227,1227,1227,1223,1223,1219,1219,1214,1214,1214,1210,1210,1210,1206,1206,1202,1202,1202,1202,1202,0,0,0,0,0,0,0,0,0,0,0,0,0,0,0,0,0,0,0,0,0,0,0,0,0,0,0,0,0,0,0
