0,0,0,0,0,0,0,0,0,0,0,0,0,1586,1586,1586,1586,1579,1579,1579,1579,1579,1572,1572,1572,1572,1572,1572,1572,1572,1572,1586,1594,1586,1586,1579,1579,1579,1572,1572,1572,1572,1572,1572,1572,1572,1572,1572,1572,1572,1572,1572,1572,1572,1572,1572,1572,1572,1572,1572,1572,1572,1572,1572,1572,1572,1564,1564,1572,1564,1564,1572,1572,1572,1579,1579,1579,1579,1579,1579,1586,1586,1586,1586,1579,1572,1572,1579,1936,1926,1926,1936,1936,1926,1926,1926,1616,1616,1624,1624,1624,1624,1616,1616,1616,1601,1601,1594,1594,1594,1594,1594,1594,1594,1594,1594,1594,1594,1594,1594,1601,1601,1601,1601,1609,1609,1616,1616,1616,1616,1624,1624,1624,1632,1632,1639,1647,1647,1655,1655,1655,1655,1663,1663,1663,1663,1663,1663,1663,1663,1680,1680,1688,1688,1696,1696,1696,1696,1705,1705,1713,1722,1722,1731,1731,1731,1731,1731,1739,1748,1748,1757,1757,1757,1766,1766,1766,1766,1766,1766,1766,1776,1776,1785,1785,1804,1804,1804,1804,1813,1813,1813,1823,1823,1833,1833,1833,1833,1833,1833,1823,1823,0,0,0,0,0,0,0,1084,1084,1080,1077,1077,1073,1073,1073,1070,1070,1070,1070,1070,1070,1073,1073,1073,1077,1077,1080,1084,1087,1087,1090,1090,1090,1090,0,0,0,0,1731,1731,1722,1722,1722,1722,1713,1713,1705,1705,1705,1696,1696,1696,1696,1696,1696,1696,1688,1688,1688,1688,1680,1680,1671,1671,1671,1663,1663,1663,1663,1663,1655,1647,1647,1639,1639,1639,1639,1632,1632,1632,1632,1632,1632,1632,1624,1624,1624,1624,1624,1616,1609,1609,1609,1601,1601,1601,1601,1601,1594,1594,1594,1594,1586,1579,1579,1579,1579,1572,1572,1572,1572,1564,1564,1557,1550,1550,1557,1550,1550,1550,1550,1550,1550,1550,1550,1543,1543,1543,1543,1543,0,0,0,0,0,0,0,910,910,908,908,908,908,906,903,901,898,898,898,896,896,896,896,898,898,901,903,906,908,908,908,910,910,913,913,0,0,0,0,1445,1445,1445,1445,1445,1445,1445,1445,1445,1439,1439,1439,1439,1439,1433,1433,1433,1433,1427,1427,1421,1421,1415,1415,1415,1415,1415,1415,1410,1410,1404,1404,1404,1398,1398,1398,1392,1392,1392,1392,1392,1392,1387,1387,1381,1381,1376,1370,1370,1370,1370,1370,1370,1370,1365,1365,1365,1365,1359,1359,1359,1354,1354,1354,1349,1349,1349,1343,1343,1343,1338,1338,1333,1333,1333,1333,1328,1328,1328,1328,1328,1322,1322,1322,1322,1317,1312,1312,1312,1312,1312,1312,1307,1307,1307,1302,1302,1297,1297,1297,1297,1292,1292,1292,1292,1288,1288,1288,1283,1283,1278,1273,1273,1273,1273,1273,1273,1268,1268,1268,1268,1268,1264,1259,1259,1255,1255,1255,1255,1250,1250,1250,1250,1245,1245,1245,1241,1241,1241,1236,1236,1232,1232,1232,1232,1232,1227,1227,1227,1227,1223,1223,1219,1219,1219,1214,1214,1214,1214,1214,1210,1210,1206,1202,1202,1202,1202,1202,1197,1197,1197,1197,1193,1189,1189,1185,1185,1185,1185,1185,1185,1185,1185,1181,1181,1181,1177,1177,1173,1169,1169,1169,1169,1169,1165,1165,1165,1165,1165,1165,1161,1161,1161,1161,1161,1157,1157,1153,1153,1153,1149,1149,1149,1149,1149,1145,1145,1141,1141,1141,1138,1138,1138,1138,1138,1138,1134,1134,1134,1130,1130,1126,1126,1126,1123,1123,1119,1119,1119,1119,0,0,0,0,0,0,0,0,0,0,0,0,0,0,0,0,0,0,0,0,0,0,0,0,0,0,0,0,0
0,0,0,0,0,0,0,0,0,0,0,0,0,1586,1586,1586,1586,1579,1579,1586,1579,1579,1579,1579,1572,1572,1572,1572,1572,1572,1579,1594,1594,1586,1586,1579,1579,1579,1572,1572,1572,1572,1572,1572,1572,1572,1572,1572,1572,1572,1572,1572,1572,1572,1572,1572,1572,1572,1572,1572,1572,1572,1572,1572,1572,1572,1572,1572,1572,1572,1572,1572,1572,1572,1579,1579,1579,1579,1579,1579,1586,1594,1586,1586,1586,1579,1579,1579,1915,1915,1915,1915,1915,1915,1904,1904,1926,1926,1915,1915,1624,1624,1624,1624,1624,1609,1609,1601,1601,1594,1594,1594,1594,1594,1594,1594,1594,1594,1594,1594,1601,1601,1601,1601,1609,1609,1616,1616,1624,1624,1624,1624,1632,1632,1639,1639,1647,1647,1655,1655,1655,1663,1663,1663,1663,1663,1671,1671,1671,1671,1680,1688,1688,1688,1696,1696,1696,1705,1705,1705,1713,1722,1722,1731,1731,1731,1731,1739,1748,1748,1757,1757,1757,1766,1766,1766,1766,1766,1766,1766,1766,1776,1785,1785,1794,1804,1804,1804,1804,1813,1823,1823,1823,1833,1833,1833,1833,1833,1833,1833,1823,1823,0,0,0,0,0,0,0,1084,1084,1084,1080,1077,1077,1073,1073,1070,1070,1070,1070,1070,1070,1073,1073,1077,1077,1077,1080,1084,1087,1087,1090,1090,1090,1090,0,0,0,0,1731,1731,1722,1722,1722,1722,1722,1713,1713,1705,1705,1696,1696,1696,1696,1696,1696,1696,1688,1688,1688,1688,1680,1680,1671,1671,1671,1663,1663,1663,1663,1663,1663,1655,1655,1647,1647,1639,1639,1639,1632,1632,1632,1632,1632,1632,1632,1624,1624,1624,1624,1616,1616,1609,1609,1609,1601,1601,1601,1601,1601,1594,1594,1594,1586,1586,1579,1579,1572,1572,1572,1572,1572,1564,1564,1564,1557,1557,1557,1550,1550,1550,1550,1550,1550,1550,1550,1543,1543,1543,1543,1550,0,0,0,0,0,0,0,910,910,908,908,908,908,906,903,901,898,898,898,898,898,896,896,898,898,901,903,906,908,908,910,910,910,913,913,0,0,0,0,0,1445,1445,1452,1445,1445,1445,1445,1445,1445,1439,1439,1439,1439,1439,1433,1433,1433,1427,1427,1421,1421,1421,1415,1415,1415,1415,1415,1415,1410,1410,1410,1404,1398,1398,1398,1398,1398,1392,1392,1392,1392,1387,1381,1381,1376,1376,1370,1370,1370,1370,1370,1370,1370,1365,1365,1365,1365,1359,1359,1359,1359,1354,1354,1349,1349,1349,1349,1343,1343,1343,1338,1338,1333,1333,1333,1333,1333,1333,1328,1328,1328,1328,1322,1322,1317,1317,1312,1312,1312,1312,1312,1307,1307,1307,1307,1302,1302,1302,1297,1297,1292,1292,1292,1292,1288,1288,1288,1283,1283,1278,1278,1278,1273,1273,1273,1273,1273,1273,1268,1268,1268,1268,1259,1259,1259,1255,1255,1255,1250,1250,1250,1250,1245,1245,1245,1241,1241,1241,1236,1236,1232,1232,1232,1232,1232,1227,1227,1227,1227,1223,1223,1219,1219,1219,1214,1214,1214,1214,1214,1214,1210,1210,1206,1206,1202,1202,1202,1197,1197,1197,1197,1193,1189,1189,1189,1185,1185,1185,1185,1185,1185,1185,1181,1181,1181,1177,1177,1173,1169,1169,1169,1169,1169,1169,1165,1165,1165,1165,1165,1165,1165,1165,1161,1161,1157,1157,1153,1153,1153,1153,1149,1149,1149,1149,1149,1145,1145,1141,1141,1138,1138,1138,1138,1138,1138,1134,1134,1134,1130,1126,1123,1123,1123,1123,1123,1123,1123,1119,1119,0,0,0,0,0,0,0,0,0,0,0,0,0,0,0,0,0,0,0,0,0,0,0,0,0,0,0,0,0
0,0,0,0,0,0,0,0,0,0,0,0,0,1586,1586,1594,1586,1586,1586,1586,1586,1579,1579,1579,1572,1572,1572,1572,1572,1572,1579,1594,1594,1586,1586,1579,1579,1579,1572,1572,1572,1572,1572,1572,1572,1572,1572,1572,1572,1572,1572,1572,1572,1579,1579,1579,1579,1572,1572,1572,1572,1572,1572,1572,1572,1572,1572,1572,1572,1572,1572,1572,1572,1572,1579,1579,1579,1579,1586,1586,1586,1594,1594,1586,1586,1586,1586,1586,1915,1915,1915,1915,1915,1915,1904,1904,1915,1915,1915,1915,1915,1915,1915,1915,1632,1616,1616,1601,1601,1601,1601,1594,1594,1594,1594,1594,1594,1594,1594,1601,1601,1601,1601,1609,1609,1609,1616,1616,1624,1624,1624,1624,1632,1632,1639,1639,1647,1655,1655,1655,1655,1663,1663,1663,1671,1671,1671,1680,1680,1680,1680,1688,1688,1696,1696,1696,1696,1705,1705,1705,1713,1722,1722,1731,1731,1731,1731,1739,1748,1748,1748,1757,1757,1757,1766,1766,1766,1766,1766,1766,1766,1776,1785,1785,1794,1804,1804,1804,1804,1813,1823,1823,1823,1833,1833,1833,1833,1833,1833,1833,1833,0,0,0,0,0,0,0,0,1084,1084,1084,1080,1077,1077,1077,1073,1073,1073,1070,1070,1070,1073,1073,1073,1077,1077,1080,1080,1084,1087,1090,1090,1090,1090,1090,0,0,0,0,1731,1731,1731,1731,1722,1722,1722,1713,1713,1713,1705,1705,1696,1696,1696,1696,1696,1696,1696,1696,1688,1688,1688,1680,1680,1671,1671,1671,1671,1663,1663,1663,1663,1655,1655,1647,1647,1647,1639,1639,1639,1639,1632,1632,1632,1632,1632,1624,1624,1624,1616,1616,1616,1609,1609,1601,1601,1601,1601,1601,1601,1594,1594,1594,1586,1586,1579,1579,1572,1572,1572,1572,1572,1564,1564,1564,1557,1557,1557,1557,1557,1550,1550,1550,1550,1550,1550,1550,1550,1550,1550,1550,0,0,0,0,0,0,0,910,910,908,908,908,908,906,903,903,901,898,898,898,898,898,898,898,901,903,906,906,908,908,910,910,913,915,915,0,0,0,0,0,1445,1445,1452,1452,1452,1452,1445,1445,1445,1445,1439,1439,1439,1439,1439,1439,1433,1433,1427,1421,1421,1421,1415,1415,1415,1415,1415,1415,1410,1410,1410,1410,1404,1404,1398,1398,1398,1392,1392,1392,1392,1387,1381,1381,1376,1376,1376,1376,1370,1370,1370,1370,1370,1370,1370,1365,1365,1365,1365,1365,1359,1354,1354,1354,1354,1349,1349,1349,1343,1343,1343,1338,1338,1333,1333,1333,1333,1333,1328,1328,1328,1328,1322,1322,1317,1317,1317,1317,1312,1312,1312,1307,1307,1307,1307,1307,1302,1302,1302,1297,1297,1292,1292,1292,1292,1288,1288,1283,1283,1283,1278,1278,1278,1273,1273,1273,1273,1273,1268,1268,1268,1268,1264,1259,1259,1255,1255,1255,1255,1250,1250,1250,1245,1245,1245,1241,1241,1241,1236,1236,1236,1232,1232,1232,1232,1227,1227,1227,1227,1223,1223,1219,1219,1219,1219,1214,1214,1214,1214,1214,1214,1210,1210,1206,1202,1202,1202,1202,1202,1197,1197,1197,1197,1193,1189,1189,1185,1185,1185,1185,1185,1185,1181,1181,1181,1181,1177,1177,1173,1169,1169,1169,1169,1169,1169,1165,1165,1165,1165,1165,1165,1165,1161,1161,1157,1157,1153,1153,1153,1153,1149,1149,1149,1149,1149,1145,1145,1145,1141,1141,1141,1138,1138,1138,1138,1134,1134,1134,1130,1126,1123,1123,1123,1123,1123,1123,1123,1119,1119,0,0,0,0,0,0,0,0,0,0,0,0,0,0,0,0,0,0,0,0,0,0,0,0,0,0,0,0,0
0,0,0,0,0,0,0,0,0,0,0,0,0,1586,1586,1586,1586,1586,1586,1579,1579,1579,1572,1572,1579,1572,1572,1572,1572,1572,1579,1594,1586,1586,1586,1586,1579,1579,1572,1572,1572,1572,1572,1572,1572,1572,1572,1572,1572,1572,1572,1572,1572,1579,1579,1579,1579,1579,1572,1572,1572,1572,1572,1572,1572,1572,1572,1572,1572,1572,1572,1572,1572,1579,1579,1579,1579,1579,1579,1586,1586,1594,1594,1594,1594,1594,1594,1586,1586,1904,1894,1894,1894,1894,1894,1894,1894,1894,1894,1904,1904,1904,1915,1915,1915,1624,1624,1609,1609,1601,1601,1594,1594,1594,1594,1594,1594,1594,1594,1601,1601,1601,1601,1609,1609,1609,1616,1616,1624,1624,1624,1624,1632,1632,1639,1647,1647,1655,1655,1655,1655,1663,1663,1663,1671,1671,1671,1680,1680,1688,1688,1688,1696,1696,1696,1696,1696,1705,1705,1705,1713,1722,1722,1722,1731,1731,1731,1739,1748,1748,1748,1757,1757,1757,1766,1766,1766,1766,1766,1766,1766,1776,1785,1785,1794,1804,1804,1804,1813,1813,1823,1823,1823,1833,1833,1833,1833,1833,1833,1833,1833,0,0,0,0,0,0,0,0,1087,1087,1084,1084,1080,1077,1077,1073,1073,1073,1070,1070,1070,1073,1073,1073,1077,1077,1080,1084,1084,1087,1090,1090,1090,1090,1090,0,0,0,0,1731,1731,1731,1731,1731,1722,1722,1722,1722,1713,1713,1705,1705,1705,1705,1696,1696,1696,1696,1696,1688,1688,1688,1680,1680,1671,1671,1671,1671,1663,1663,1663,1663,1663,1655,1655,1655,1647,1647,1639,1639,1639,1632,1632,1632,1632,1632,1632,1624,1624,1616,1616,1616,1609,1609,1601,1601,1601,1601,1601,1601,1601,1601,1594,1586,1586,1579,1579,1572,1572,1572,1572,1572,1572,1572,1564,1564,1564,1564,1557,1557,1557,1557,1550,1550,1550,1550,1550,1550,1550,1550,1550,0,0,0,0,0,0,0,910,910,908,908,908,908,908,903,903,901,901,898,898,898,898,898,898,901,903,906,908,908,910,910,913,915,915,915,0,0,0,0,0,1452,1452,1452,1452,1452,1452,1445,1445,1445,1445,1445,1439,1439,1439,1439,1439,1439,1433,1427,1421,1421,1421,1415,1415,1415,1415,1415,1415,1415,1410,1410,1404,1404,1404,1398,1398,1398,1392,1392,1392,1392,1392,1387,1387,1381,1376,1376,1376,1370,1370,1370,1370,1370,1370,1370,1365,1365,1365,1365,1365,1359,1354,1354,1354,1354,1349,1349,1349,1343,1343,1343,1343,1338,1338,1333,1333,1333,1333,1328,1328,1328,1328,1322,1322,1322,1317,1317,1317,1317,1312,1312,1312,1307,1307,1307,1307,1307,1302,1302,1302,1297,1297,1297,1292,1292,1292,1288,1283,1283,1283,1278,1278,1278,1273,1273,1273,1273,1273,1268,1268,1268,1268,1264,1259,1259,1255,1255,1255,1255,1250,1250,1250,1245,1245,1245,1241,1241,1241,1236,1236,1236,1236,1232,1232,1232,1227,1227,1227,1227,1223,1223,1223,1219,1219,1219,1219,1219,1219,1214,1214,1214,1210,1210,1210,1206,1202,1202,1202,1202,1202,1197,1197,1197,1193,1193,1189,1189,1189,1189,1185,1185,1185,1185,1181,1181,1181,1177,1177,1173,1169,1169,1169,1169,1169,1169,1165,1165,1165,1165,1165,1165,1165,1161,1161,1161,1157,1157,1153,1153,1153,1149,1149,1149,1149,1149,1145,1145,1145,1141,1141,1141,1141,1138,1138,1138,1134,1134,1134,1130,1130,1126,1126,1126,1123,1123,1123,1123,1119,1119,0,0,0,0,0,0,0,0,0,0,0,0,0,0,0,0,0,0,0,0,0,0,0,0,0,0,0,0,0
0,0,0,0,0,0,0,0,0,0,0,0,0,1586,1586,1586,1586,1586,1586,1579,1579,1579,1572,1572,1579,1572,1572,1572,1572,1572,1586,1594,1586,1586,1586,1586,1586,1579,1572,1572,1572,1572,1572,1572,1572,1572,1572,1572,1572,1572,1572,1579,1579,1579,1579,1579,1579,1579,1572,1572,1579,1579,1579,1572,1572,1572,1572,1572,1579,1579,1579,1579,1579,1579,1579,1579,1579,1579,1579,1586,1586,1594,1594,1594,1601,1594,1594,1586,1586,1883,1873,1873,1873,1873,1873,1873,1883,1883,1894,1894,1894,1904,1904,1915,1671,1671,1904,1609,1609,1601,1601,1601,1601,1594,1594,1594,1594,1594,1601,1601,1601,1601,1601,1609,1609,1609,1616,1616,1624,1624,1624,1624,1632,1632,1639,1647,1647,1655,1655,1655,1655,1663,1663,1663,1671,1671,1680,1680,1680,1688,1688,1688,1696,1696,1696,1696,1696,1705,1705,1705,1713,1722,1722,1722,1731,1731,1739,1739,1748,1748,1757,1757,1757,1757,1766,1766,1766,1766,1766,1766,1776,1785,1785,1794,1794,1804,1804,1804,1813,1813,1823,1823,1833,1833,1833,1833,1833,1833,1833,1833,1843,0,0,0,0,0,0,0,0,1087,1087,1084,1084,1080,1077,1077,1073,1073,1073,1073,1073,1073,1073,1073,1077,1077,1080,1080,1084,1087,1087,1090,1090,1090,1090,1090,0,0,0,1731,1731,1731,1731,1731,1731,1731,1722,1722,1722,1713,1713,1713,1705,1705,1705,1705,1696,1696,1696,1696,1688,1688,1688,1680,1680,1671,1671,1671,1671,1671,1663,1663,1663,1663,1663,1663,1655,1655,1647,1647,1639,1639,1639,1632,1632,1632,1632,1632,1632,1624,1624,1624,1616,1616,1609,1609,1601,1601,1601,1601,1601,1601,1594,1594,1594,1594,1586,1579,1579,1579,1579,1572,1572,1572,1572,1564,1564,1564,1564,1564,1564,1557,1557,1557,1550,1550,1550,1550,1550,1550,1550,1550,0,0,0,0,0,0,910,910,910,910,908,908,908,906,906,903,903,901,898,898,898,898,898,898,901,903,906,908,908,910,910,913,915,915,915,0,0,0,0,0,1458,1458,1458,1452,1452,1452,1452,1445,1445,1445,1445,1439,1439,1439,1439,1439,1439,1439,1433,1427,1421,1421,1421,1415,1415,1415,1415,1415,1415,1410,1410,1404,1404,1404,1398,1398,1398,1398,1392,1392,1392,1392,1387,1387,1387,1381,1376,1376,1376,1376,1376,1370,1370,1370,1370,1370,1370,1365,1365,1365,1359,1359,1354,1354,1354,1349,1349,1349,1349,1343,1343,1343,1338,1338,1338,1333,1333,1328,1328,1328,1328,1328,1328,1322,1322,1317,1317,1317,1317,1312,1312,1312,1307,1307,1307,1307,1307,1307,1302,1302,1302,1297,1297,1292,1292,1292,1288,1288,1288,1283,1283,1278,1278,1273,1273,1273,1273,1273,1268,1268,1268,1268,1264,1264,1264,1259,1255,1255,1255,1250,1250,1250,1250,1245,1245,1245,1241,1241,1241,1236,1236,1236,1232,1232,1232,1232,1227,1227,1227,1227,1223,1223,1223,1223,1219,1219,1219,1219,1214,1214,1214,1210,1210,1210,1206,1202,1202,1202,1202,1202,1202,1197,1197,1193,1193,1189,1189,1189,1189,1185,1185,1185,1185,1185,1181,1181,1181,1177,1177,1173,1173,1169,1169,1169,1169,1165,1165,1165,1165,1165,1165,1165,1165,1161,1161,1157,1153,1153,1153,1153,1153,1149,1149,1149,1149,1149,1149,1145,1145,1141,1141,1141,1138,1138,1134,1134,1134,1134,1130,1130,1126,1126,1126,1123,1123,1123,1123,1119,1119,0,0,0,0,0,0,0,0,0,0,0,0,0,0,0,0,0,0,0,0,0,0,0,0,0,0,0,0,0
0,0,0,0,0,0,0,0,0,0,0,0,0,1594,1594,1594,1594,1594,1594,1594,1586,1579,1572,1572,1586,1572,1572,1572,1572,1572,1586,1594,1586,1586,1586,1586,1586,1579,1572,1572,1572,1572,1572,1572,1572,1572,1579,1579,1579,1579,1579,1579,1579,1579,1579,1579,1579,1579,1572,1572,1579,1579,1579,1579,1579,1579,1579,1579,1579,1579,1579,1579,1579,1579,1579,1579,1579,1579,1579,1579,1586,1594,1594,1601,1601,1601,1601,1594,1594,1863,1863,1863,1863,1863,1873,1873,1873,1873,1883,1883,1883,1894,1731,1713,1671,1671,1680,1624,1609,1609,1601,1601,1601,1594,1594,1594,1594,1601,1601,1601,1601,1601,1609,1609,1609,1616,1616,1624,1624,1624,1624,1624,1632,1632,1639,1647,1647,1655,1655,1655,1655,1663,1663,1671,1671,1671,1680,1680,1688,1688,1688,1688,1696,1696,1696,1696,1696,1705,1705,1713,1713,1722,1731,1731,1731,1731,1739,1739,1748,1748,1757,1757,1757,1766,1766,1766,1766,1766,1766,1776,1776,1785,1794,1794,1804,1804,1804,1804,1813,1813,1823,1823,1833,1833,1833,1833,1833,1833,1833,1843,1843,0,0,0,0,0,0,0,1090,1087,1087,1087,1084,1080,1080,1077,1073,1073,1073,1073,1073,1073,1073,1077,1077,1077,1080,1080,1084,1087,1090,1090,1090,1090,1090,1090,0,0,0,0,1731,1731,1731,1731,1731,1731,1722,1722,1722,1722,1713,1713,1713,1713,1713,1705,1705,1696,1696,1696,1696,1688,1688,1688,1688,1688,1680,1671,1671,1671,1663,1663,1663,1663,1663,1663,1663,1655,1655,1647,1647,1639,1639,1632,1632,1632,1632,1632,1632,1624,1624,1624,1624,1616,1616,1609,1601,1601,1601,1601,1601,1601,1594,1594,1594,1594,1586,1586,1579,1579,1572,1572,1572,1572,1572,1564,1564,1564,1564,1564,1564,1564,1557,1557,1550,1550,1550,1550,1550,1550,1550,1550,0,0,0,0,0,0,910,910,910,910,908,908,908,906,906,903,903,901,898,898,898,898,898,898,901,903,906,908,910,910,913,913,915,915,915,0,0,0,0,0,1464,1464,1464,1458,1452,1452,1452,1445,1445,1445,1445,1445,1445,1439,1439,1439,1439,1439,1433,1427,1421,1421,1421,1415,1415,1415,1415,1415,1415,1415,1410,1410,1404,1404,1398,1398,1398,1398,1392,1392,1392,1392,1392,1387,1387,1381,1381,1376,1376,1376,1376,1376,1370,1370,1370,1370,1370,1365,1365,1365,1359,1359,1354,1354,1354,1349,1349,1349,1349,1349,1343,1343,1338,1338,1338,1333,1333,1328,1328,1328,1328,1328,1328,1328,1322,1317,1317,1317,1317,1312,1312,1312,1312,1312,1307,1307,1307,1307,1307,1302,1302,1302,1297,1292,1292,1292,1288,1288,1288,1288,1283,1283,1278,1278,1278,1273,1273,1273,1268,1268,1268,1268,1264,1264,1264,1259,1255,1255,1255,1255,1250,1250,1250,1250,1245,1245,1241,1241,1241,1236,1236,1236,1232,1232,1232,1232,1232,1227,1227,1227,1223,1223,1223,1223,1219,1219,1219,1219,1214,1214,1214,1210,1210,1210,1206,1202,1202,1202,1202,1202,1202,1202,1197,1197,1193,1193,1189,1189,1189,1189,1185,1185,1185,1185,1181,1181,1181,1181,1177,1173,1173,1173,1169,1169,1169,1165,1165,1165,1165,1165,1165,1165,1161,1161,1161,1157,1153,1153,1153,1153,1153,1153,1149,1149,1149,1149,1149,1145,1145,1145,1141,1141,1138,1138,1134,1134,1134,1134,1130,1130,1126,1126,1126,1126,1123,1123,1123,1123,1123,0,0,0,0,0,0,0,0,0,0,0,0,0,0,0,0,0,0,0,0,0,0,0,0,0,0,0,0,0
0,0,0,0,0,0,0,0,0,0,0,0,0,1594,1594,1594,1594,1594,1594,1594,1594,1579,1572,1572,1586,1579,1579,1579,1579,1586,1594,1594,1594,1586,1586,1594,1586,1579,1579,1579,1579,1579,1572,1572,1579,1579,1579,1579,1579,1579,1579,1579,1579,1579,1579,1579,1586,1579,1579,1586,1579,1579,1586,1579,1579,1579,1579,1579,1579,1579,1579,1579,1579,1579,1579,1579,1579,1572,1572,1579,1579,1586,1594,1601,1601,1601,1601,1594,1594,1853,1843,1843,1843,1853,1843,1843,1863,1863,1873,1873,1873,1873,1731,1713,1688,1680,1680,1722,1609,1609,1601,1601,1601,1601,1594,1594,1594,1601,1601,1601,1601,1601,1609,1609,1616,1616,1616,1624,1624,1624,1624,1632,1632,1639,1639,1647,1647,1655,1655,1655,1663,1663,1663,1671,1671,1671,1680,1688,1688,1688,1688,1688,1696,1696,1696,1696,1705,1705,1713,1713,1722,1731,1731,1731,1731,1739,1739,1748,1748,1748,1757,1757,1757,1766,1766,1766,1766,1766,1766,1776,1776,1785,1794,1794,1804,1804,1804,1804,1813,1823,1823,1833,1833,1833,1833,1833,1833,1833,1833,1843,1853,1863,0,0,0,0,0,0,1087,1087,1087,1087,1084,1084,1080,1077,1077,1077,1077,1073,1073,1073,1073,1077,1077,1077,1080,1080,1084,1087,1090,1090,1090,1090,1090,1094,0,0,0,0,1731,1731,1739,1731,1731,1731,1722,1722,1722,1722,1722,1713,1713,1713,1713,1713,1713,1705,1696,1696,1696,1688,1688,1688,1688,1688,1680,1671,1671,1671,1663,1663,1663,1663,1663,1663,1655,1655,1655,1647,1647,1647,1639,1632,1632,1632,1632,1632,1632,1624,1624,1624,1624,1616,1616,1609,1609,1601,1601,1601,1601,1601,1601,1594,1594,1594,1586,1586,1579,1579,1572,1572,1572,1572,1572,1564,1564,1564,1572,1564,1564,1564,1557,1557,1550,1550,1550,1550,1550,1550,1543,1543,0,0,0,0,0,0,0,910,910,910,910,908,908,908,906,903,903,901,898,898,898,898,898,898,901,903,906,908,910,913,913,913,915,915,918,0,0,0,0,1470,1464,1464,1464,1464,1458,1458,1452,1452,1452,1445,1445,1445,1445,1445,1439,1439,1439,1439,1433,1427,1427,1421,1421,1421,1421,1415,1415,1415,1415,1415,1415,1410,1404,1404,1404,1398,1398,1398,1398,1392,1392,1392,1392,1387,1387,1387,1381,1376,1376,1376,1376,1376,1376,1370,1370,1370,1370,1370,1370,1365,1359,1359,1354,1354,1354,1349,1349,1349,1349,1349,1343,1343,1343,1338,1338,1338,1333,1333,1333,1328,1328,1328,1328,1328,1322,1322,1317,1317,1317,1317,1312,1312,1312,1312,1307,1307,1307,1307,1307,1307,1302,1302,1302,1297,1297,1292,1288,1288,1288,1288,1283,1283,1278,1278,1278,1273,1273,1273,1268,1268,1268,1268,1268,1268,1264,1259,1259,1259,1255,1255,1255,1255,1250,1250,1250,1245,1245,1245,1241,1241,1236,1236,1236,1232,1232,1232,1232,1227,1227,1227,1227,1223,1223,1223,1223,1219,1219,1219,1219,1214,1214,1214,1210,1210,1206,1206,1206,1206,1202,1202,1202,1202,1197,1197,1193,1193,1189,1189,1189,1189,1185,1185,1185,1185,1185,1181,1181,1181,1181,1177,1177,1173,1173,1173,1169,1169,1169,1169,1165,1165,1165,1165,1161,1161,1161,1157,1157,1153,1153,1153,1153,1153,1149,1149,1149,1149,1149,1149,1145,1145,1141,1141,1138,1138,1134,1134,1134,1134,1130,1130,1126,1126,1126,1126,1123,1123,1123,1123,1123,0,0,0,0,0,0,0,0,0,0,0,0,0,0,0,0,0,0,0,0,0,0,0,0,0,0,0,0,0
0,0,0,0,0,0,0,0,0,0,0,0,0,1594,1594,1594,1594,1594,1594,1594,1594,1586,1586,1586,1586,1586,1586,1579,1579,1586,1594,1594,1594,1594,1594,1594,1586,1579,1579,1579,1579,1579,1572,1572,1579,1579,1579,1579,1579,1579,1579,1579,1579,1579,1579,1579,1586,1586,1586,1586,1586,1586,1586,1586,1586,1579,1579,1579,1579,1586,1579,1579,1579,1579,1579,1579,1579,1572,1572,1579,1579,1586,1594,1601,1601,1601,1601,1594,1594,1843,1843,1833,1833,1833,1833,1833,1843,1843,1833,1823,1823,1731,1731,1722,1713,1713,1713,1713,1713,1609,1601,1601,1601,1601,1601,1601,1601,1601,1601,1601,1601,1609,1609,1616,1616,1616,1616,1624,1624,1624,1624,1632,1632,1639,1647,1647,1647,1655,1655,1655,1663,1663,1671,1671,1680,1680,1680,1688,1688,1688,1688,1688,1696,1696,1696,1696,1705,1705,1713,1713,1722,1731,1731,1731,1731,1739,1739,1739,1748,1748,1748,1757,1757,1757,1766,1766,1766,1766,1766,1776,1776,1785,1794,1794,1804,1804,1804,1804,1813,1823,1823,1833,1833,1833,1833,1833,1833,1833,1833,1843,1853,1863,0,0,0,0,0,0,1087,1087,1087,1087,1084,1084,1080,1077,1077,1077,1077,1077,1077,1077,1077,1077,1080,1080,1080,1084,1087,1087,1090,1090,1090,1090,1090,1094,0,0,0,0,1748,1739,1739,1731,1731,1731,1722,1722,1722,1722,1722,1722,1722,1713,1713,1713,1713,1705,1705,1696,1696,1688,1688,1688,1688,1688,1688,1671,1671,1671,1671,1671,1663,1663,1663,1663,1655,1655,1655,1655,1647,1647,1639,1632,1632,1632,1632,1632,1632,1632,1624,1624,1624,1616,1616,1609,1609,1609,1601,1601,1601,1601,1601,1594,1594,1594,1586,1586,1579,1579,1572,1572,1572,1572,1572,1564,1564,1564,1572,1572,1572,1564,1564,1564,1557,1557,1550,1550,1550,1550,1543,1543,0,0,0,0,0,0,913,910,910,910,910,910,908,908,908,906,906,903,901,901,898,898,898,898,903,903,906,908,910,913,913,913,915,915,0,0,0,0,1470,1470,1464,1464,1464,1464,1458,1458,1458,1452,1452,1445,1445,1445,1445,1445,1439,1439,1439,1439,1439,1427,1427,1421,1421,1421,1421,1421,1415,1415,1415,1415,1410,1410,1404,1404,1404,1404,1398,1398,1398,1398,1392,1392,1392,1392,1387,1387,1387,1381,1376,1376,1376,1376,1376,1376,1370,1370,1370,1370,1370,1365,1365,1359,1354,1354,1354,1354,1349,1349,1349,1349,1343,1343,1343,1338,1338,1338,1333,1333,1333,1333,1328,1328,1328,1328,1322,1322,1317,1317,1317,1317,1312,1312,1312,1312,1307,1307,1307,1307,1307,1307,1307,1302,1302,1297,1297,1292,1288,1288,1288,1288,1288,1283,1283,1278,1278,1273,1273,1273,1268,1268,1268,1268,1268,1268,1268,1264,1264,1259,1255,1255,1255,1255,1250,1250,1250,1250,1250,1245,1241,1241,1236,1236,1236,1232,1232,1232,1232,1227,1227,1227,1227,1227,1223,1223,1223,1223,1219,1219,1219,1219,1214,1214,1214,1210,1210,1206,1206,1206,1202,1202,1202,1202,1197,1197,1197,1193,1193,1189,1189,1189,1185,1185,1185,1185,1185,1181,1181,1181,1181,1177,1177,1173,1173,1173,1169,1169,1169,1169,1169,1165,1165,1165,1165,1161,1161,1157,1157,1153,1153,1153,1153,1153,1153,1149,1149,1149,1149,1149,1149,1145,1141,1141,1138,1138,1138,1134,1134,1134,1130,1130,1130,1126,1126,1126,1123,1123,1123,1123,1123,0,0,0,0,0,0,0,0,0,0,0,0,0,0,0,0,0,0,0,0,0,0,0,0,0,0,0,0,0
0,0,0,0,0,0,0,0,0,0,0,0,0,1594,1594,1601,1594,1594,1594,1594,1586,1579,1579,1579,1586,1586,1586,1586,1586,1594,1594,1594,1594,1594,1594,1594,1586,1579,1579,1579,1579,1579,1579,1579,1579,1579,1586,1586,1586,1586,1586,1586,1586,1586,1586,1586,1586,1586,1586,1586,1586,1586,1586,1586,1579,1579,1579,1579,1579,1586,1579,1579,1579,1579,1579,1579,1579,1579,1579,1579,1586,1594,1594,1601,1601,1601,1601,1594,1594,1833,1833,1823,1823,1823,1833,1833,1843,1833,1804,1766,1731,1731,1731,1722,1713,1713,1713,1713,1705,1609,1601,1601,1601,1601,1601,1601,1601,1601,1601,1601,1601,1609,1609,1616,1616,1616,1616,1624,1624,1624,1624,1632,1632,1639,1647,1647,1647,1655,1655,1663,1663,1663,1671,1680,1680,1680,1680,1688,1688,1688,1688,1688,1696,1696,1696,1705,1705,1705,1713,1722,1722,1731,1731,1731,1731,1739,1739,1739,1748,1748,1748,1757,1757,1757,1766,1766,1766,1766,1766,1776,1785,1785,1794,1794,1804,1804,1804,1804,1813,1823,1823,1833,1833,1833,1833,1833,1833,1833,1833,1843,1853,0,0,0,0,0,0,0,1087,1087,1087,1087,1087,1084,1080,1080,1077,1077,1077,1077,1077,1077,1077,1080,1084,1084,1084,1087,1087,1090,1090,1090,1090,1090,1094,1094,0,0,0,1757,1748,1739,1739,1731,1731,1731,1731,1731,1731,1722,1722,1722,1722,1722,1722,1722,1713,1713,1705,1696,1696,1688,1688,1688,1688,1688,1688,1680,1671,1671,1671,1671,1671,1663,1663,1663,1663,1655,1655,1655,1647,1647,1647,1639,1639,1632,1632,1632,1632,1632,1632,1624,1624,1624,1616,1616,1609,1609,1601,1601,1601,1601,1601,1601,1594,1594,1594,1586,1586,1579,1572,1572,1572,1572,1572,1572,1572,1572,1572,1572,1572,1572,1572,1564,1564,1557,1557,1557,1557,1550,1550,0,0,0,0,0,0,0,913,913,913,913,910,910,908,908,908,906,906,903,901,901,898,898,898,898,903,903,906,908,910,913,913,913,915,0,0,0,0,0,1470,1470,1470,1470,1464,1464,1464,1458,1458,1452,1452,1445,1445,1445,1445,1445,1445,1439,1439,1439,1439,1433,1427,1421,1421,1421,1421,1421,1415,1415,1415,1415,1410,1410,1404,1404,1404,1404,1398,1398,1398,1398,1392,1392,1392,1392,1392,1392,1387,1381,1381,1376,1376,1376,1376,1376,1370,1370,1370,1370,1370,1365,1365,1359,1359,1354,1354,1354,1349,1349,1349,1349,1349,1343,1343,1343,1338,1338,1338,1333,1333,1333,1333,1333,1328,1328,1328,1322,1322,1322,1317,1317,1312,1312,1312,1312,1312,1307,1307,1307,1307,1307,1307,1302,1302,1302,1297,1292,1292,1288,1288,1288,1288,1283,1283,1278,1278,1273,1273,1273,1273,1268,1268,1268,1268,1268,1268,1264,1264,1259,1259,1255,1255,1255,1255,1250,1250,1250,1250,1245,1241,1241,1236,1236,1236,1236,1232,1232,1232,1232,1227,1227,1227,1227,1227,1227,1223,1223,1219,1219,1219,1219,1214,1214,1214,1210,1210,1206,1206,1206,1202,1202,1202,1202,1197,1197,1197,1193,1193,1193,1189,1189,1189,1185,1185,1185,1185,1181,1181,1181,1181,1177,1177,1173,1173,1173,1169,1169,1169,1169,1169,1165,1165,1165,1165,1161,1161,1157,1157,1153,1153,1153,1153,1153,1153,1149,1149,1149,1149,1149,1149,1145,1145,1141,1138,1138,1138,1134,1134,1134,1130,1130,1130,1130,1126,1126,1126,1126,1123,1123,1123,0,0,0,0,0,0,0,0,0,0,0,0,0,0,0,0,0,0,0,0,0,0,0,0,0,0,0,0,0
0,0,0,0,0,0,0,0,0,0,0,0,0,1594,1594,1594,1594,1594,1594,1594,1586,1579,1579,1579,1586,1586,1586,1594,1594,1594,1594,1594,1594,1594,1594,1594,1586,1586,1579,1579,1579,1586,1579,1579,1579,1586,1586,1586,1586,1586,1594,1594,1594,1594,1594,1586,1586,1586,1586,1586,1586,1586,1586,1586,1579,1579,1579,1579,1579,1586,1579,1579,1579,1579,1579,1579,1579,1579,1579,1579,1586,1594,1601,1601,1601,1601,1601,1594,1594,1833,1823,1813,1813,1813,1813,1813,1813,1804,1794,1766,1731,1731,1722,1722,1722,1713,1713,1713,1705,1705,1601,1601,1601,1601,1601,1601,1601,1601,1601,1601,1609,1609,1616,1616,1616,1624,1624,1624,1624,1624,1624,1632,1632,1639,1647,1647,1655,1655,1663,1663,1663,1663,1671,1680,1680,1680,1680,1688,1688,1688,1688,1688,1696,1705,1705,1705,1713,1713,1722,1722,1722,1731,1731,1731,1731,1739,1739,1748,1748,1748,1757,1757,1757,1757,1766,1766,1766,1766,1766,1776,1785,1785,1794,1794,1804,1804,1804,1804,1813,1823,1833,1833,1833,1833,1833,1833,1833,1833,1833,1833,1843,0,0,0,0,0,0,0,1087,1087,1087,1087,1087,1084,1080,1080,1077,1077,1077,1077,1077,1077,1077,1077,1084,1084,1084,1087,1090,1090,1090,1090,1090,1094,1094,0,0,0,0,1757,1748,1739,1739,1739,1731,1731,1731,1731,1731,1722,1722,1722,1722,1722,1722,1722,1713,1713,1705,1696,1696,1696,1688,1688,1688,1688,1688,1688,1680,1671,1671,1671,1671,1671,1663,1663,1663,1655,1655,1655,1647,1647,1647,1639,1639,1632,1632,1632,1632,1632,1632,1624,1624,1624,1624,1616,1609,1609,1609,1609,1601,1601,1601,1601,1594,1594,1594,1586,1586,1579,1579,1572,1572,1572,1572,1572,1572,1572,1572,1572,1572,1572,1572,1572,1564,1564,1557,1557,1557,1557,1557,0,0,0,0,0,0,0,915,915,913,913,913,910,910,908,906,906,903,903,901,901,898,898,901,901,903,903,906,910,913,913,913,913,915,0,0,0,0,1483,1477,1477,1470,1470,1464,1464,1464,1458,1458,1452,1452,1445,1445,1445,1445,1445,1445,1445,1439,1439,1439,1433,1433,1427,1421,1421,1421,1421,1421,1415,1415,1415,1415,1410,1410,1404,1404,1404,1404,1398,1398,1398,1398,1392,1392,1392,1392,1392,1392,1381,1381,1381,1376,1376,1376,1376,1370,1370,1370,1370,1370,1365,1365,1365,1359,1359,1354,1354,1354,1349,1349,1349,1349,1343,1343,1343,1338,1338,1338,1333,1333,1333,1333,1333,1333,1333,1328,1322,1322,1322,1317,1317,1312,1312,1312,1312,1312,1307,1307,1307,1307,1307,1307,1307,1302,1302,1297,1292,1292,1292,1288,1288,1288,1288,1283,1278,1278,1278,1273,1273,1273,1268,1268,1268,1268,1268,1268,1268,1264,1264,1259,1259,1255,1255,1255,1255,1250,1250,1250,1250,1245,1241,1241,1236,1236,1236,1236,1236,1236,1232,1232,1232,1232,1232,1232,1227,1227,1223,1223,1219,1219,1219,1214,1214,1214,1210,1210,1210,1206,1206,1206,1206,1202,1202,1197,1197,1197,1197,1193,1193,1189,1189,1189,1185,1185,1185,1185,1181,1181,1181,1181,1181,1177,1177,1177,1173,1173,1173,1169,1169,1169,1169,1165,1165,1165,1161,1161,1161,1157,1157,1153,1153,1153,1153,1153,1149,1149,1149,1149,1149,1149,1145,1145,1145,1138,1138,1138,1138,1134,1134,1134,1134,1134,1134,1130,1130,1126,1126,1123,1123,1123,0,0,0,0,0,0,0,0,0,0,0,0,0,0,0,0,0,0,0,0,0,0,0,0,0,0,0,0,0
0,0,0,0,0,0,0,0,0,0,0,0,0,1594,1594,1594,1594,1594,1594,1594,1586,1579,1579,1579,1586,1586,1586,1594,1594,1594,1594,1594,1594,1594,1594,1594,1586,1586,1586,1586,1586,1586,1586,1579,1579,1586,1586,1594,1594,1594,1594,1594,1586,1586,1586,1586,1586,1586,1586,1594,1594,1594,1594,1586,1586,1586,1586,1586,1586,1586,1586,1586,1586,1579,1579,1579,1579,1579,1579,1586,1586,1594,1601,1601,1601,1601,1601,1594,1594,1823,1813,1813,1813,1813,1813,1813,1804,1794,1785,1766,1739,1731,1722,1722,1713,1713,1713,1713,1713,1722,1601,1601,1601,1601,1601,1601,1601,1601,1601,1601,1609,1609,1616,1616,1624,1624,1624,1624,1624,1624,1624,1632,1632,1639,1647,1647,1655,1655,1663,1663,1663,1671,1680,1680,1680,1680,1680,1688,1688,1688,1688,1696,1696,1705,1705,1713,1713,1713,1722,1722,1731,1731,1731,1731,1731,1739,1739,1748,1748,1748,1757,1757,1757,1766,1766,1766,1776,1776,1776,1776,1785,1794,1794,1804,1804,1804,1804,1813,1823,1823,1833,1833,1833,1833,1833,1833,1833,1833,1833,1833,1833,0,0,0,0,0,0,0,0,1087,1087,1087,1087,1084,1084,1080,1077,1077,1077,1077,1077,1077,1077,1077,1084,1084,1084,1087,1090,1090,1090,1090,1090,1094,1094,0,0,0,0,1757,1748,1739,1739,1739,1731,1731,1731,1731,1731,1722,1722,1722,1722,1722,1722,1722,1713,1713,1705,1696,1696,1696,1688,1688,1688,1696,1688,1688,1680,1680,1680,1671,1671,1671,1663,1663,1663,1655,1655,1655,1655,1647,1647,1647,1647,1632,1632,1632,1632,1632,1632,1632,1624,1624,1624,1624,1616,1609,1609,1609,1609,1601,1601,1601,1594,1594,1594,1594,1586,1586,1579,1579,1579,1572,1572,1572,1572,1572,1572,1572,1572,1572,1572,1572,1564,1564,1564,1564,1564,1564,0,0,0,0,0,0,0,0,915,915,915,913,913,910,910,908,906,906,903,903,901,901,901,901,901,903,903,906,906,910,913,915,915,915,0,0,0,0,0,1483,1477,1477,1470,1470,1470,1464,1464,1464,1458,1458,1452,1452,1445,1445,1445,1445,1445,1445,1439,1439,1439,1439,1433,1427,1427,1421,1421,1421,1421,1421,1415,1415,1415,1410,1410,1410,1404,1404,1404,1404,1398,1398,1398,1392,1392,1392,1392,1387,1387,1381,1381,1381,1376,1376,1376,1376,1376,1370,1370,1370,1370,1370,1370,1365,1359,1359,1354,1354,1354,1349,1349,1349,1349,1349,1343,1343,1343,1338,1338,1338,1338,1333,1333,1333,1333,1333,1328,1328,1322,1322,1317,1317,1312,1312,1312,1312,1312,1312,1307,1307,1307,1307,1307,1307,1302,1302,1297,1292,1292,1292,1288,1288,1288,1288,1283,1283,1278,1278,1278,1273,1273,1273,1273,1268,1268,1268,1268,1268,1264,1264,1264,1259,1259,1255,1255,1255,1255,1250,1250,1250,1245,1245,1241,1241,1236,1236,1236,1236,1236,1236,1232,1232,1232,1232,1232,1227,1223,1223,1219,1219,1219,1219,1214,1214,1214,1214,1210,1210,1210,1206,1206,1206,1206,1202,1202,1197,1197,1197,1193,1193,1193,1193,1189,1189,1185,1185,1185,1181,1181,1181,1181,1181,1177,1177,1177,1177,1173,1173,1173,1169,1169,1169,1165,1165,1165,1165,1161,1161,1161,1157,1157,1153,1153,1153,1153,1149,1149,1149,1149,1149,1149,1145,1145,1141,1141,1138,1138,1138,1138,1134,1134,1134,1134,1134,1130,1130,1130,1130,1130,1130,1130,0,0,0,0,0,0,0,0,0,0,0,0,0,0,0,0,0,0,0,0,0,0,0,0,0,0,0,0,0
0,0,0,0,0,0,0,0,0,0,0,0,0,1594,1594,1594,1594,1594,1594,1594,1586,1586,1586,1586,1586,1586,1586,1594,1594,1594,1594,1594,1594,1594,1594,1594,1586,1586,1586,1586,1586,1586,1586,1579,1579,1586,1586,1594,1594,1594,1594,1594,1586,1586,1586,1586,1586,1586,1586,1594,1594,1594,1594,1586,1586,1586,1586,1586,1586,1586,1586,1586,1586,1579,1579,1579,1579,1579,1579,1586,1594,1594,1601,1601,1601,1601,1601,1594,1594,1813,1813,1804,1804,1804,1804,1804,1804,1785,1776,1757,1739,1731,1722,1722,1713,1713,1713,1722,1722,1722,1601,1601,1601,1601,1601,1601,1601,1601,1601,1609,1609,1609,1616,1616,1624,1624,1624,1624,1624,1624,1624,1632,1632,1639,1647,1647,1655,1655,1663,1663,1671,1671,1680,1680,1680,1680,1680,1688,1688,1688,1688,1696,1696,1705,1705,1713,1713,1713,1722,1722,1731,1731,1731,1731,1739,1739,1739,1748,1748,1748,1757,1757,1757,1757,1766,1766,1776,1776,1776,1776,1785,1794,1804,1804,1804,1804,1804,1813,1823,1833,1833,1833,1833,1833,1833,1833,1833,1833,1833,1833,1833,0,0,0,0,0,0,0,0,1087,1087,1087,1087,1084,1084,1080,1080,1080,1077,1077,1077,1077,1077,1077,1084,1084,1084,1087,1090,1090,1090,1090,1094,1094,1097,0,0,0,0,1757,1748,1748,1739,1739,1731,1731,1731,1731,1731,1722,1722,1722,1722,1722,1722,1722,1722,1722,1713,1696,1696,1696,1696,1696,1696,1696,1696,1688,1688,1688,1680,1671,1671,1671,1663,1663,1663,1655,1655,1655,1655,1647,1647,1655,1647,1647,1632,1632,1632,1632,1632,1632,1632,1632,1624,1624,1624,1609,1609,1609,1609,1601,1601,1601,1601,1594,1594,1594,1594,1586,1579,1579,1579,1572,1572,1572,1572,1572,1572,1572,1572,1572,1572,1572,1564,1564,1564,1564,1564,1564,0,0,0,0,0,0,0,0,915,915,915,913,913,910,910,908,906,906,906,903,901,901,901,901,901,903,903,906,908,910,913,915,915,915,0,0,0,0,0,1483,1477,1477,1470,1470,1464,1464,1464,1464,1458,1458,1452,1452,1452,1445,1445,1445,1445,1445,1439,1439,1439,1439,1433,1433,1427,1427,1421,1421,1421,1421,1421,1415,1415,1415,1410,1410,1410,1410,1404,1404,1398,1398,1398,1398,1392,1392,1392,1387,1387,1387,1381,1381,1381,1376,1376,1376,1376,1376,1370,1370,1370,1370,1370,1365,1359,1359,1354,1354,1354,1354,1349,1349,1349,1349,1349,1343,1343,1338,1338,1338,1338,1333,1333,1333,1333,1333,1328,1328,1322,1322,1322,1317,1312,1312,1312,1312,1312,1312,1307,1307,1307,1307,1307,1307,1302,1302,1297,1292,1292,1292,1292,1292,1288,1288,1288,1283,1283,1278,1278,1273,1273,1273,1273,1268,1268,1268,1268,1268,1268,1264,1264,1264,1259,1259,1255,1255,1255,1250,1250,1250,1245,1245,1241,1241,1241,1236,1236,1236,1236,1236,1236,1232,1232,1232,1232,1227,1223,1223,1219,1219,1219,1219,1214,1214,1214,1214,1210,1210,1210,1206,1206,1206,1202,1202,1202,1197,1197,1197,1193,1193,1193,1193,1189,1189,1185,1185,1185,1185,1181,1181,1181,1181,1181,1181,1181,1177,1173,1173,1173,1169,1169,1169,1165,1165,1165,1165,1161,1161,1161,1157,1157,1157,1157,1153,1153,1153,1149,1149,1149,1149,1149,1149,1145,1141,1141,1138,1138,1138,1138,1138,1134,1134,1134,1134,1134,1134,1134,1130,1130,1130,1130,0,0,0,0,0,0,0,0,0,0,0,0,0,0,0,0,0,0,0,0,0,0,0,0,0,0,0,0,0
0,0,0,0,0,0,0,0,0,0,0,0,0,1594,1594,1594,1594,1594,1594,1594,1586,1586,1586,1594,1594,1594,1594,1594,1594,1594,1594,1594,1594,1594,1594,1594,1594,1594,1586,1586,1586,1586,1586,1586,1586,1586,1594,1594,1594,1594,1594,1594,1594,1586,1586,1594,1586,1586,1594,1594,1594,1594,1594,1586,1586,1586,1586,1586,1586,1586,1586,1579,1579,1579,1579,1579,1579,1579,1579,1586,1594,1594,1601,1601,1601,1601,1601,1594,1594,1804,1794,1794,1794,1794,1794,1794,1785,1776,1766,1748,1739,1731,1722,1722,1722,1722,1722,1722,1722,1722,1609,1609,1609,1609,1601,1601,1601,1601,1601,1609,1609,1609,1616,1624,1624,1624,1624,1632,1632,1632,1632,1632,1632,1639,1647,1647,1655,1655,1663,1663,1671,1671,1680,1680,1688,1688,1688,1688,1688,1688,1688,1696,1696,1705,1713,1713,1713,1722,1722,1731,1731,1731,1731,1731,1731,1739,1739,1739,1739,1748,1757,1757,1757,1757,1766,1766,1776,1776,1776,1776,1785,1794,1804,1804,1813,1813,1813,1823,1823,1833,1833,1833,1833,1833,1833,1833,1833,1833,1833,1833,1833,1833,0,0,0,0,0,0,0,1087,1087,1087,1087,1084,1084,1084,1080,1080,1077,1077,1077,1077,1077,1080,1084,1084,1087,1087,1090,1090,1090,1090,1094,1094,1097,1097,0,0,0,1757,1748,1748,1748,1739,1731,1731,1731,1731,1731,1722,1722,1722,1722,1722,1722,1722,1722,1722,1713,1713,1705,1696,1696,1696,1696,1696,1696,1696,1688,1688,1688,1671,1671,1671,1663,1663,1663,1663,1655,1655,1655,1655,1655,1655,1647,1647,1647,1639,1639,1639,1632,1632,1632,1632,1632,1624,1624,1616,1609,1609,1609,1601,1601,1601,1601,1601,1594,1594,1594,1586,1586,1579,1579,1572,1572,1572,1572,1572,1572,1572,1572,1572,1572,1572,1564,1564,1564,1572,1572,1572,0,0,0,0,0,0,0,0,918,915,915,913,913,910,910,908,906,906,906,903,903,901,901,903,903,906,906,908,908,913,915,915,918,918,0,0,0,0,0,1483,1477,1477,1477,1470,1464,1464,1464,1464,1464,1458,1458,1458,1452,1452,1445,1445,1445,1445,1439,1439,1439,1439,1433,1433,1427,1427,1427,1421,1421,1421,1421,1415,1415,1415,1410,1410,1410,1410,1404,1404,1404,1398,1398,1398,1392,1392,1392,1392,1392,1387,1387,1381,1381,1376,1376,1376,1376,1376,1376,1376,1376,1370,1370,1370,1365,1365,1359,1354,1354,1354,1349,1349,1349,1349,1349,1343,1343,1338,1338,1338,1338,1338,1338,1333,1333,1333,1328,1328,1328,1322,1322,1317,1317,1312,1312,1312,1312,1312,1312,1307,1307,1307,1307,1307,1307,1302,1297,1297,1292,1292,1292,1292,1288,1288,1288,1283,1283,1278,1278,1273,1273,1273,1273,1268,1268,1268,1268,1268,1268,1264,1264,1264,1259,1259,1255,1255,1255,1250,1250,1250,1250,1245,1245,1241,1241,1236,1236,1236,1236,1236,1236,1232,1232,1232,1232,1227,1223,1223,1223,1219,1219,1219,1219,1219,1214,1214,1214,1210,1210,1206,1206,1206,1202,1202,1202,1202,1197,1197,1197,1193,1193,1193,1193,1189,1189,1185,1185,1185,1185,1181,1181,1181,1181,1181,1181,1177,1173,1173,1173,1169,1169,1169,1165,1165,1165,1165,1165,1161,1161,1161,1157,1157,1157,1153,1153,1153,1153,1149,1149,1149,1149,1149,1149,1145,1145,1141,1141,1141,1138,1138,1138,1134,1134,1134,1134,1134,1134,1134,1130,1130,1130,0,0,0,0,0,0,0,0,0,0,0,0,0,0,0,0,0,0,0,0,0,0,0,0,0,0,0,0,0
0,0,0,0,0,0,0,0,0,0,0,0,0,1594,1594,1594,1594,1594,1601,1601,1594,1594,1594,1594,1594,1594,1594,1594,1594,1594,1594,1594,1594,1594,1594,1594,1594,1594,1594,1594,1594,1594,1594,1594,1594,1594,1594,1594,1594,1594,1594,1594,1594,1586,1586,1594,1594,1594,1594,1594,1594,1594,1594,1594,1594,1594,1594,1594,1586,1586,1586,1579,1579,1579,1579,1579,1579,1579,1586,1586,1594,1594,1601,1601,1601,1601,1601,1601,1601,1794,1794,1794,1794,1794,1785,1785,1776,1766,1757,1748,1739,1731,1722,1722,1722,1722,1722,1722,1722,1722,1722,1609,1601,1601,1601,1601,1601,1601,1609,1609,1609,1609,1616,1616,1624,1624,1632,1632,1632,1632,1632,1632,1632,1647,1647,1647,1655,1655,1663,1663,1671,1671,1680,1688,1688,1688,1688,1688,1688,1688,1688,1696,1696,1705,1713,1713,1713,1722,1722,1731,1731,1731,1731,1731,1731,1739,1739,1739,1739,1748,1757,1757,1766,1766,1766,1766,1776,1785,1785,1785,1794,1794,1804,1804,1804,1813,1823,1823,1823,1833,1833,1833,1833,1833,1843,1833,1833,1833,1833,1823,1823,1833,0,0,0,0,0,0,0,1087,1087,1087,1087,1087,1084,1084,1080,1080,1077,1077,1077,1077,1080,1080,1084,1087,1087,1087,1090,1090,1090,1090,1094,1094,1097,1097,0,0,0,1757,1757,1757,1757,1739,1731,1731,1731,1731,1731,1722,1722,1722,1722,1722,1722,1722,1722,1722,1713,1713,1705,1705,1696,1696,1696,1696,1696,1696,1688,1688,1688,1680,1671,1671,1663,1663,1663,1663,1663,1655,1655,1655,1655,1655,1647,1647,1647,1639,1639,1639,1639,1639,1632,1632,1632,1624,1624,1624,1616,1616,1609,1609,1601,1601,1601,1601,1594,1594,1594,1586,1586,1586,1586,1579,1579,1572,1572,1572,1572,1579,1579,1572,1572,1572,1572,1572,1572,1572,1572,1572,0,0,0,0,0,0,0,0,918,918,915,915,915,913,910,908,908,908,906,906,903,901,901,903,903,906,906,908,910,913,915,918,918,918,0,0,0,0,0,1483,1477,1477,1477,1470,1464,1464,1464,1464,1464,1458,1458,1458,1458,1452,1445,1445,1445,1445,1439,1439,1439,1439,1433,1433,1433,1427,1427,1421,1421,1421,1421,1415,1415,1415,1415,1410,1410,1410,1410,1404,1404,1398,1398,1398,1398,1392,1392,1392,1392,1387,1387,1381,1381,1376,1376,1376,1376,1376,1376,1376,1376,1376,1370,1370,1365,1365,1359,1354,1354,1354,1354,1349,1349,1349,1349,1343,1343,1338,1338,1338,1338,1338,1338,1333,1333,1333,1333,1328,1328,1328,1322,1317,1317,1317,1317,1312,1312,1312,1312,1312,1307,1307,1307,1307,1307,1302,1297,1297,1292,1292,1292,1292,1288,1288,1288,1288,1283,1278,1278,1278,1273,1273,1273,1273,1273,1268,1268,1268,1268,1264,1264,1264,1259,1259,1255,1255,1255,1255,1250,1250,1250,1245,1245,1241,1241,1241,1236,1236,1236,1236,1236,1236,1232,1232,1232,1227,1227,1223,1223,1223,1223,1219,1219,1219,1219,1214,1214,1210,1210,1206,1206,1202,1202,1202,1202,1197,1197,1197,1197,1193,1193,1193,1193,1189,1189,1185,1185,1185,1185,1185,1185,1181,1181,1181,1181,1177,1177,1177,1173,1173,1169,1169,1169,1165,1165,1165,1165,1165,1161,1161,1161,1157,1157,1157,1153,1153,1153,1149,1149,1149,1149,1149,1145,1145,1145,1141,1141,1141,1141,1138,1138,1138,1134,1134,1134,1134,1134,1134,1134,1130,1130,0,0,0,0,0,0,0,0,0,0,0,0,0,0,0,0,0,0,0,0,0,0,0,0,0,0,0,0,0
0,0,0,0,0,0,0,0,0,0,0,0,0,1601,1594,1594,1594,1594,1594,1594,1594,1594,1594,1594,1594,1594,1594,1594,1594,1594,1594,1594,1594,1594,1594,1594,1594,1594,1594,1594,1594,1594,1594,1594,1594,1594,1594,1594,1594,1594,1594,1594,1594,1594,1594,1594,1594,1594,1594,1594,1594,1594,1594,1594,1594,1594,1594,1594,1594,1594,1586,1586,1586,1579,1579,1579,1586,1586,1586,1586,1594,1594,1601,1601,1601,1601,1601,1601,1601,1794,1785,1785,1785,1785,1776,1776,1766,1766,1757,1748,1739,1731,1722,1722,1722,1722,1722,1722,1722,1722,1722,1609,1601,1601,1601,1601,1601,1609,1609,1609,1609,1609,1616,1616,1624,1624,1624,1632,1632,1632,1632,1632,1639,1639,1647,1647,1655,1655,1663,1663,1671,1671,1680,1688,1688,1688,1688,1688,1688,1688,1688,1696,1696,1705,1713,1713,1713,1722,1722,1731,1731,1731,1731,1731,1739,1739,1739,1748,1748,1757,1757,1766,1766,1766,1766,1766,1776,1785,1785,1785,1794,1794,1804,1804,1804,1813,1823,1823,1823,1833,1833,1833,1833,1833,1843,1843,1833,1833,1823,1813,1813,0,0,0,0,0,0,0,0,1087,1087,1087,1087,1087,1084,1084,1080,1080,1077,1077,1077,1077,1080,1084,1084,1087,1087,1090,1090,1090,1094,1094,1094,1097,1101,0,0,0,0,1757,1757,1739,1739,1739,1731,1731,1731,1731,1731,1722,1722,1722,1722,1722,1722,1722,1722,1722,1722,1713,1713,1713,1705,1705,1696,1696,1696,1688,1688,1688,1688,1680,1671,1671,1663,1663,1663,1663,1663,1655,1655,1655,1655,1655,1647,1647,1647,1639,1639,1639,1639,1639,1632,1632,1632,1624,1624,1616,1616,1616,1609,1609,1601,1601,1601,1601,1594,1594,1594,1594,1594,1586,1586,1586,1586,1579,1579,1572,1572,1579,1579,1572,1572,1572,1572,1572,1572,1572,1572,1572,0,0,0,0,0,0,0,0,918,918,915,915,915,913,913,908,908,908,906,906,903,903,903,903,903,906,906,908,910,913,915,918,920,920,0,0,0,0,0,1483,1477,1477,1477,1470,1464,1464,1464,1464,1464,1464,1458,1458,1458,1452,1452,1445,1445,1445,1445,1445,1439,1439,1439,1433,1433,1427,1427,1421,1421,1421,1421,1421,1421,1415,1415,1415,1415,1410,1410,1404,1404,1398,1398,1398,1398,1398,1392,1392,1392,1387,1387,1381,1381,1381,1376,1376,1376,1376,1376,1376,1376,1376,1370,1370,1370,1365,1359,1354,1354,1354,1354,1349,1349,1349,1349,1349,1343,1343,1338,1338,1338,1333,1333,1333,1333,1333,1333,1328,1328,1328,1322,1322,1317,1317,1317,1317,1312,1312,1312,1312,1312,1312,1307,1307,1307,1302,1297,1297,1292,1292,1292,1292,1288,1288,1288,1288,1283,1283,1278,1278,1278,1273,1273,1273,1273,1268,1268,1268,1268,1268,1268,1264,1264,1264,1255,1255,1255,1255,1250,1250,1250,1250,1245,1245,1241,1241,1236,1236,1236,1236,1236,1236,1232,1232,1232,1227,1227,1223,1223,1223,1223,1223,1219,1219,1219,1219,1214,1214,1210,1206,1206,1202,1202,1202,1202,1197,1197,1197,1197,1197,1197,1193,1193,1189,1189,1189,1185,1185,1185,1185,1185,1181,1181,1181,1181,1181,1177,1177,1173,1173,1169,1169,1169,1165,1165,1165,1165,1165,1165,1165,1161,1157,1157,1157,1153,1153,1153,1153,1153,1149,1149,1149,1145,1145,1145,1141,1141,1141,1141,1138,1138,1138,1138,1138,1134,1134,1134,1134,1134,1134,1134,0,0,0,0,0,0,0,0,0,0,0,0,0,0,0,0,0,0,0,0,0,0,0,0,0,0,0,0,0
0,0,0,0,0,0,0,0,0,0,0,0,0,1601,1601,1601,1601,1594,1594,1594,1594,1594,1594,1594,1594,1594,1594,1594,1594,1594,1594,1594,1594,1594,1594,1594,1594,1594,1601,1601,1594,1594,1594,1594,1594,1594,1594,1601,1594,1594,1594,1594,1594,1594,1594,1594,1594,1594,1594,1594,1594,1594,1594,1594,1594,1594,1594,1594,1594,1594,1594,1594,1594,1586,1586,1586,1586,1586,1594,1594,1594,1594,1601,1601,1601,1609,1609,1609,1609,1776,1766,1766,1776,1776,1776,1766,1766,1766,1757,1748,1739,1739,1722,1722,1722,1722,1722,1722,1722,1722,1722,1609,1609,1609,1609,1609,1609,1609,1609,1609,1609,1609,1616,1616,1624,1624,1624,1632,1632,1632,1632,1632,1639,1639,1647,1647,1655,1663,1663,1663,1671,1671,1680,1688,1688,1688,1688,1688,1688,1696,1696,1696,1705,1713,1713,1713,1713,1722,1722,1731,1731,1731,1731,1731,1739,1739,1739,1748,1748,1757,1757,1766,1766,1766,1766,1766,1776,1785,1785,1785,1794,1794,1804,1804,1804,1813,1813,1823,1823,1833,1833,1833,1833,1833,1843,1843,1833,1833,1823,1813,1813,1813,0,0,0,0,0,0,0,1087,1087,1087,1087,1087,1087,1084,1080,1080,1080,1077,1077,1080,1080,1084,1084,1087,1087,1090,1090,1090,1097,1097,1097,1101,1101,0,0,0,1757,1757,1757,1739,1739,1739,1731,1731,1731,1731,1731,1722,1722,1731,1722,1722,1722,1722,1722,1722,1722,1713,1713,1713,1705,1705,1705,1696,1696,1688,1688,1688,1688,1688,1671,1671,1671,1663,1663,1663,1663,1663,1655,1655,1655,1655,1655,1647,1647,1639,1639,1639,1639,1639,1632,1632,1632,1632,1624,1616,1616,1616,1616,1609,1601,1601,1601,1601,1594,1594,1594,1594,1594,1594,1594,1586,1586,1579,1579,1572,1572,1579,1579,1572,1572,1572,1572,1572,1572,1564,1564,1572,0,0,0,0,0,0,0,0,918,918,918,915,915,913,913,908,908,908,906,906,903,903,903,903,903,906,906,910,910,915,918,920,920,920,925,0,0,0,0,1483,1477,1477,1477,1470,1470,1464,1464,1464,1464,1464,1458,1458,1458,1458,1452,1452,1445,1445,1445,1445,1439,1439,1439,1433,1433,1427,1427,1427,1421,1421,1421,1421,1421,1415,1415,1415,1415,1410,1410,1410,1404,1398,1398,1398,1398,1398,1392,1392,1392,1392,1387,1387,1381,1381,1381,1376,1376,1376,1376,1376,1376,1376,1370,1370,1370,1365,1359,1359,1354,1354,1354,1354,1354,1349,1349,1349,1343,1343,1338,1338,1338,1333,1333,1333,1333,1333,1333,1328,1328,1328,1322,1322,1322,1322,1317,1317,1317,1312,1312,1312,1312,1312,1307,1307,1307,1302,1297,1297,1292,1292,1292,1292,1292,1288,1288,1288,1288,1283,1283,1278,1278,1278,1273,1273,1273,1273,1268,1268,1268,1268,1268,1268,1264,1264,1259,1255,1255,1255,1255,1250,1250,1250,1250,1245,1245,1241,1241,1236,1236,1236,1236,1236,1236,1232,1232,1227,1227,1223,1223,1223,1223,1223,1219,1219,1219,1219,1219,1214,1214,1210,1206,1202,1202,1197,1197,1197,1197,1197,1197,1197,1197,1197,1193,1193,1189,1189,1189,1185,1185,1185,1185,1181,1181,1181,1181,1181,1177,1177,1173,1173,1173,1169,1169,1169,1165,1165,1165,1165,1165,1165,1161,1161,1157,1157,1153,1153,1153,1153,1153,1153,1149,1149,1149,1145,1145,1145,1141,1141,1141,1138,1138,1138,1138,1138,1138,1138,1134,1134,1134,1134,1134,0,0,0,0,0,0,0,0,0,0,0,0,0,0,0,0,0,0,0,0,0,0,0,0,0,0,0,0,0
0,0,0,0,0,0,0,0,0,0,0,0,0,1601,1601,1601,1601,1609,1609,1601,1601,1594,1594,1594,1594,1594,1594,1594,1594,1594,1594,1586,1586,1594,1594,1594,1601,1601,1601,1601,1601,1601,1601,1594,1594,1594,1594,1601,1594,1594,1594,1594,1594,1594,1594,1594,1594,1594,1594,1594,1594,1594,1594,1594,1594,1594,1594,1594,1594,1594,1594,1594,1594,1594,1594,1594,1594,1594,1594,1594,1601,1601,1601,1601,1609,1609,1609,1609,1609,1766,1766,1766,1766,1766,1766,1766,1757,1757,1757,1748,1748,1739,1731,1722,1722,1722,1722,1722,1722,1722,1722,1609,1609,1609,1609,1609,1609,1609,1609,1609,1609,1609,1616,1616,1624,1624,1624,1632,1632,1632,1632,1632,1639,1647,1647,1647,1655,1663,1663,1663,1671,1671,1680,1688,1688,1688,1688,1688,1696,1696,1696,1696,1705,1713,1713,1713,1713,1722,1722,1731,1731,1731,1731,1739,1739,1739,1748,1748,1757,1757,1757,1766,1766,1766,1766,1776,1776,1785,1785,1794,1794,1794,1804,1804,1804,1813,1813,1823,1823,1833,1833,1833,1833,1833,1843,1843,1833,1833,1823,1813,1813,1813,0,0,0,0,0,0,0,1090,1090,1087,1087,1087,1087,1084,1080,1077,1077,1077,1077,1077,1080,1080,1084,1084,1087,1087,1090,1094,1097,1097,1101,1101,1101,0,0,0,0,1766,1757,1748,1748,1739,1731,1731,1731,1731,1731,1731,1731,1731,1731,1731,1722,1722,1722,1722,1722,1713,1713,1713,1705,1705,1705,1696,1696,1688,1688,1688,1688,1688,1671,1671,1671,1671,1663,1663,1663,1663,1663,1663,1655,1655,1655,1655,1647,1647,1639,1639,1639,1639,1639,1632,1632,1632,1624,1624,1616,1616,1616,1609,1601,1601,1601,1601,1594,1594,1594,1594,1594,1594,1594,1586,1586,1579,1572,1572,1572,1579,1579,1572,1572,1572,1572,1572,1572,1564,1564,0,0,0,0,0,0,0,0,0,918,918,918,915,915,915,913,910,908,908,906,906,903,903,903,903,903,906,908,913,913,915,918,920,920,923,925,0,0,0,0,0,1477,1477,1477,1470,1470,1470,1464,1464,1464,1464,1464,1464,1458,1458,1452,1452,1445,1445,1445,1445,1439,1439,1439,1433,1433,1433,1427,1427,1427,1421,1421,1421,1421,1421,1415,1415,1415,1410,1410,1410,1404,1398,1398,1398,1398,1398,1392,1392,1392,1392,1392,1387,1387,1381,1381,1381,1376,1376,1376,1376,1376,1376,1370,1370,1370,1370,1365,1359,1359,1354,1354,1354,1354,1349,1349,1349,1343,1343,1343,1338,1338,1338,1338,1333,1333,1333,1333,1328,1328,1328,1328,1322,1322,1322,1322,1317,1317,1317,1317,1312,1312,1312,1307,1307,1307,1302,1302,1302,1297,1292,1292,1292,1292,1288,1288,1288,1288,1288,1283,1283,1283,1278,1278,1273,1273,1273,1273,1268,1268,1268,1268,1268,1264,1264,1259,1255,1255,1255,1255,1250,1250,1250,1250,1250,1245,1241,1241,1241,1236,1236,1236,1236,1236,1232,1232,1232,1227,1227,1223,1223,1223,1223,1219,1219,1219,1219,1219,1214,1214,1210,1206,1202,1202,1197,1197,1197,1197,1197,1197,1197,1197,1197,1193,1193,1189,1189,1189,1185,1185,1185,1185,1185,1181,1181,1181,1181,1177,1177,1173,1173,1173,1169,1169,1169,1165,1165,1165,1165,1165,1165,1161,1161,1161,1157,1157,1153,1153,1153,1153,1153,1149,1149,1149,1145,1145,1145,1141,1141,1141,1141,1138,1138,1138,1138,1138,1138,1134,1134,1134,1134,1134,0,0,0,0,0,0,0,0,0,0,0,0,0,0,0,0,0,0,0,0,0,0,0,0,0,0,0,0,0
0,0,0,0,0,0,0,0,0,0,0,0,0,1601,1601,1609,1609,1609,1609,1609,1609,1609,1609,1601,1594,1594,1601,1594,1594,1594,1594,1586,1586,1594,1594,1594,1601,1601,1601,1601,1601,1601,1601,1594,1594,1594,1601,1601,1601,1594,1594,1594,1594,1594,1594,1594,1594,1594,1594,1594,1594,1594,1594,1594,1594,1594,1594,1594,1601,1594,1594,1594,1594,1594,1594,1594,1594,1594,1594,1594,1601,1601,1601,1601,1609,1616,1616,1616,1616,1766,1766,1766,1757,1757,1757,1757,1757,1748,1748,1748,1739,1739,1731,1731,1731,1722,1722,1722,1722,1722,1713,1616,1616,1609,1609,1609,1609,1609,1609,1609,1609,1616,1616,1616,1624,1624,1624,1632,1632,1632,1639,1639,1639,1647,1647,1647,1655,1663,1663,1663,1671,1671,1680,1688,1688,1688,1688,1688,1696,1696,1696,1696,1705,1713,1713,1713,1713,1722,1722,1731,1731,1731,1731,1739,1739,1739,1748,1748,1757,1757,1757,1766,1766,1766,1766,1776,1776,1785,1785,1794,1794,1804,1804,1804,1804,1813,1823,1823,1823,1833,1833,1833,1833,1843,1843,1843,1843,1833,1823,1813,1813,1813,0,0,0,1080,0,0,1087,1087,1087,1087,1087,1087,1084,1084,1080,1077,1077,1077,1077,1077,1080,1080,1084,1084,1087,1087,1090,1094,1097,1101,1101,1101,1101,1101,0,0,0,1776,1757,1748,1739,1739,1739,1739,1731,1731,1739,1731,1731,1731,1731,1731,1722,1722,1722,1722,1722,1722,1713,1713,1705,1705,1705,1696,1696,1688,1688,1688,1688,1688,1680,1671,1671,1671,1671,1671,1663,1663,1663,1663,1655,1655,1655,1655,1647,1647,1639,1639,1639,1639,1639,1632,1632,1632,1624,1624,1624,1624,1616,1609,1601,1601,1601,1601,1594,1594,1594,1594,1594,1594,1594,1594,1586,1579,1572,1572,1579,1579,1579,1572,1572,1572,1572,1572,1572,1564,1564,0,0,0,0,0,0,0,0,0,918,918,918,918,915,915,910,910,908,908,906,906,906,903,903,906,906,908,910,913,915,915,918,920,923,923,925,928,0,0,0,0,1477,1477,1477,1470,1470,1470,1464,1464,1464,1464,1464,1464,1458,1458,1452,1452,1445,1445,1445,1445,1439,1439,1439,1433,1433,1433,1433,1433,1427,1427,1427,1427,1421,1421,1415,1415,1415,1410,1410,1410,1404,1404,1398,1398,1398,1398,1398,1392,1392,1392,1392,1387,1387,1381,1381,1381,1381,1376,1376,1376,1376,1376,1376,1370,1370,1370,1365,1365,1359,1359,1359,1354,1354,1354,1349,1349,1343,1343,1343,1343,1338,1338,1338,1338,1333,1333,1333,1333,1328,1328,1328,1328,1328,1328,1322,1322,1322,1317,1317,1317,1312,1312,1312,1312,1307,1307,1302,1302,1297,1292,1292,1292,1292,1288,1288,1288,1288,1288,1283,1283,1283,1278,1278,1278,1273,1273,1273,1273,1268,1268,1268,1268,1264,1264,1259,1255,1255,1255,1255,1250,1250,1250,1250,1250,1245,1241,1241,1241,1236,1236,1236,1236,1236,1236,1232,1232,1232,1227,1227,1223,1223,1223,1219,1219,1219,1219,1219,1214,1214,1210,1206,1202,1202,1202,1197,1197,1197,1197,1197,1197,1197,1197,1193,1193,1189,1189,1189,1185,1185,1185,1185,1185,1181,1181,1181,1181,1177,1177,1173,1173,1173,1169,1169,1169,1165,1165,1165,1165,1165,1165,1165,1165,1161,1161,1157,1157,1153,1153,1153,1153,1149,1149,1149,1145,1145,1145,1145,1141,1141,1141,1141,1138,1138,1138,1138,1138,1134,1134,1134,1134,1134,0,0,0,0,0,0,0,0,0,0,0,0,0,0,0,0,0,0,0,0,0,0,0,0,0,0,0,0,0
0,0,0,0,0,0,0,0,0,0,0,0,0,1609,1609,1609,1609,1609,1601,1601,1601,1601,1601,1601,1601,1601,1601,1601,1594,1594,1594,1594,1594,1594,1594,1594,1601,1601,1601,1601,1601,1601,1601,1601,1594,1594,1601,1601,1601,1601,1594,1594,1601,1601,1601,1601,1601,1601,1601,1594,1594,1594,1594,1594,1594,1594,1594,1601,1601,1594,1594,1594,1594,1594,1594,1594,1594,1594,1594,1594,1601,1601,1601,1601,1609,1616,1616,1616,1624,1624,1757,1757,1757,1757,1757,1757,1748,1748,1748,1748,1739,1739,1731,1731,1731,1722,1722,1722,1722,1722,1713,1632,1624,1616,1616,1616,1616,1616,1609,1609,1609,1616,1616,1616,1624,1624,1624,1632,1632,1632,1639,1639,1639,1647,1647,1647,1655,1663,1663,1671,1671,1671,1680,1688,1688,1688,1688,1688,1696,1696,1696,1696,1705,1713,1713,1713,1713,1722,1722,1731,1731,1731,1731,1739,1739,1739,1748,1757,1757,1757,1757,1766,1766,1766,1766,1776,1785,1785,1794,1794,1804,1804,1804,1804,1804,1813,1823,1823,1823,1833,1833,1833,1833,1843,1843,1843,1843,1833,1823,1804,1804,1804,0,0,1080,1080,1080,1084,1084,1087,1087,1087,1087,1087,1084,1084,1077,1077,1077,1077,1077,1077,1080,1080,1084,1084,1087,1090,1090,1090,1097,1101,1101,1101,1097,1097,0,0,0,0,1757,1748,1739,1739,1739,1739,1731,1731,1739,1731,1731,1731,1731,1731,1731,1722,1722,1722,1722,1722,1713,1713,1713,1705,1705,1696,1696,1696,1688,1688,1688,1688,1680,1680,1680,1680,1671,1671,1663,1663,1663,1663,1655,1655,1655,1655,1647,1647,1639,1639,1639,1632,1632,1632,1624,1624,1624,1624,1624,1624,1616,1609,1609,1601,1601,1601,1601,1601,1594,1594,1594,1594,1594,1594,1586,1586,1579,1579,1579,1579,1579,1572,1572,1572,1572,1572,1572,1564,1564,0,0,0,0,0,0,0,0,925,918,918,918,918,915,915,910,910,908,908,906,906,906,906,906,906,906,908,910,913,915,918,918,920,923,925,925,928,0,0,0,0,0,1483,1477,1470,1470,1470,1470,1464,1464,1464,1464,1458,1458,1458,1452,1452,1445,1445,1445,1445,1445,1439,1439,1439,1433,1433,1433,1433,1427,1427,1427,1427,1421,1421,1415,1415,1415,1415,1410,1410,1404,1404,1404,1404,1398,1398,1398,1398,1392,1392,1392,1392,1387,1387,1381,1381,1381,1376,1376,1376,1376,1376,1376,1376,1370,1370,1370,1365,1359,1359,1359,1354,1354,1354,1349,1349,1349,1349,1349,1343,1343,1338,1338,1338,1333,1333,1333,1333,1333,1333,1328,1328,1328,1328,1328,1322,1322,1322,1317,1317,1312,1312,1312,1312,1307,1307,1307,1307,1302,1297,1292,1292,1292,1292,1288,1288,1288,1288,1288,1283,1283,1283,1283,1278,1273,1273,1273,1273,1268,1268,1268,1268,1264,1264,1259,1255,1255,1255,1255,1255,1255,1250,1250,1250,1245,1241,1241,1241,1236,1236,1236,1236,1236,1236,1232,1232,1232,1227,1227,1227,1223,1223,1223,1219,1219,1219,1219,1214,1214,1210,1206,1202,1202,1202,1202,1202,1202,1197,1197,1197,1197,1197,1193,1193,1193,1193,1189,1189,1189,1185,1185,1185,1181,1181,1181,1181,1177,1177,1173,1173,1173,1169,1169,1169,1169,1169,1165,1165,1165,1165,1165,1165,1161,1161,1161,1157,1157,1153,1153,1153,1153,1153,1149,1145,1145,1145,1145,1145,1141,1141,1141,1141,1138,1138,1138,1138,1138,1138,1134,1134,1134,0,0,0,0,0,0,0,0,0,0,0,0,0,0,0,0,0,0,0,0,0,0,0,0,0,0,0,0,0
0,0,0,0,0,0,0,0,0,0,0,0,0,1609,1609,1609,1609,1609,1601,1601,1601,1601,1601,1601,1601,1601,1601,1601,1601,1594,1594,1594,1594,1594,1594,1594,1601,1601,1601,1601,1601,1601,1601,1601,1601,1601,1601,1601,1601,1601,1601,1601,1601,1601,1601,1601,1601,1601,1601,1601,1594,1594,1601,1601,1601,1601,1601,1601,1601,1594,1594,1594,1594,1594,1594,1594,1594,1594,1594,1594,1601,1601,1601,1601,1609,1616,1616,1624,1624,1624,1624,1748,1748,1748,1748,1757,1748,1748,1748,1748,1739,1739,1731,1731,1731,1731,1722,1722,1722,1722,1722,1632,1624,1616,1616,1616,1616,1616,1616,1616,1616,1616,1616,1616,1624,1624,1624,1632,1632,1632,1639,1639,1639,1647,1647,1655,1655,1663,1663,1671,1671,1680,1680,1688,1688,1688,1688,1688,1696,1696,1696,1696,1705,1713,1713,1713,1713,1722,1731,1731,1731,1731,1731,1739,1739,1739,1748,1757,1757,1757,1757,1766,1766,1766,1766,1776,1785,1794,1794,1794,1804,1804,1804,1804,1813,1813,1823,1823,1823,1833,1833,1833,1833,1833,1833,1833,1833,1823,1070,1070,1070,1070,1070,1070,1073,1073,1077,1077,1080,1084,1087,1087,1087,1087,1084,1084,1077,1077,1077,1077,1077,1077,1080,1084,1084,1087,1087,1087,1090,1090,1097,1097,1097,1097,1097,1094,1094,1094,0,1766,1766,1748,1739,1739,1739,1739,1739,1739,1739,1739,1739,1731,1731,1731,1731,1731,1722,1722,1722,1722,1713,1713,1713,1713,1713,1705,1705,1696,1696,1696,1688,1688,1688,1688,1688,1680,1680,1680,1671,1671,1663,1663,1663,1663,1655,1655,1647,1647,1647,1647,1639,1632,1632,1632,1624,1624,1624,1624,1624,1624,1616,1616,1609,1609,1601,1601,1601,1601,1601,1601,1601,1594,1594,1594,1594,1586,1579,1579,1579,1579,1579,1572,1572,1572,1572,1572,1572,1564,1564,0,0,0,0,0,0,0,0,923,920,918,918,918,915,915,910,910,908,908,906,906,906,906,906,906,906,908,910,913,915,918,918,923,923,925,928,928,0,0,0,0,0,1483,1477,1477,1470,1470,1470,1470,1470,1464,1464,1458,1458,1452,1452,1452,1445,1445,1445,1445,1445,1439,1439,1439,1433,1433,1433,1433,1433,1427,1427,1427,1421,1421,1421,1415,1415,1415,1410,1410,1404,1404,1404,1404,1398,1398,1398,1398,1398,1392,1392,1392,1387,1387,1381,1381,1381,1381,1376,1376,1376,1376,1376,1376,1370,1370,1370,1365,1365,1365,1359,1359,1354,1354,1354,1349,1349,1349,1349,1343,1343,1338,1338,1338,1338,1333,1333,1333,1333,1333,1333,1328,1328,1328,1328,1322,1322,1322,1317,1317,1312,1312,1312,1312,1307,1307,1307,1307,1302,1302,1297,1292,1292,1292,1288,1288,1288,1288,1288,1288,1288,1283,1283,1278,1273,1273,1273,1273,1268,1268,1268,1268,1264,1264,1259,1255,1255,1255,1255,1255,1255,1250,1250,1250,1245,1245,1241,1241,1241,1236,1236,1236,1236,1236,1232,1232,1232,1232,1227,1227,1223,1223,1223,1219,1219,1219,1219,1219,1214,1210,1210,1206,1202,1202,1202,1202,1202,1197,1197,1197,1197,1197,1193,1193,1193,1193,1189,1189,1189,1189,1185,1185,1185,1181,1181,1181,1177,1177,1177,1177,1173,1173,1173,1169,1169,1169,1165,1165,1165,1165,1165,1165,1161,1161,1161,1157,1157,1157,1153,1153,1153,1153,1153,1145,1145,1145,1145,1145,1141,1141,1141,1141,1138,1138,1138,1138,1138,1138,1134,1134,1134,0,0,0,0,0,0,0,0,0,0,0,0,0,0,0,0,0,0,0,0,0,0,0,0,0,0,0,0,0
0,0,0,0,0,0,0,0,0,0,0,0,0,1609,1609,1609,1609,1616,1601,1601,1601,1601,1601,1601,1601,1601,1601,1601,1601,1601,1601,1601,1594,1594,1601,1601,1609,1609,1609,1609,1601,1601,1601,1601,1601,1601,1601,1601,1601,1601,1601,1601,1601,1601,1601,1601,1601,1601,1601,1601,1601,1601,1601,1601,1601,1601,1601,1601,1601,1601,1601,1601,1601,1601,1594,1594,1594,1594,1594,1594,1601,1601,1601,1601,1609,1616,1616,1624,1624,1624,1624,1748,1748,1748,1748,1748,1748,1748,1748,1748,1748,1739,1731,1731,1731,1731,1722,1722,1722,1722,1722,1632,1624,1616,1616,1616,1616,1616,1616,1616,1616,1616,1616,1616,1624,1624,1624,1632,1632,1632,1639,1639,1639,1647,1647,1655,1663,1663,1663,1671,1671,1680,1680,1680,1688,1688,1688,1696,1696,1696,1696,1696,1705,1713,1713,1713,1713,1722,1731,1731,1731,1731,1731,1739,1739,1748,1757,1757,1757,1757,1766,1766,1766,1766,1776,1776,1785,1785,1794,1804,1804,1804,1804,1804,1813,1813,1813,1823,1823,1833,1833,1833,1833,1833,1833,1833,1833,1073,1070,1067,1067,1067,1070,1070,1070,1070,1073,1073,1077,1080,1084,1084,1080,1080,1084,1080,1077,1077,1077,1077,1077,1080,1080,1080,1084,1084,1084,1087,1087,1090,1094,1097,1097,1094,1090,1087,1087,0,0,1748,1748,1748,1739,1739,1739,1739,1739,1739,1739,1739,1739,1739,1731,1731,1731,1731,1722,1722,1722,1722,1713,1713,1713,1713,1713,1705,1705,1705,1705,1696,1696,1696,1688,1688,1688,1680,1680,1680,1671,1671,1663,1663,1663,1663,1655,1655,1655,1647,1647,1647,1639,1639,1632,1632,1632,1624,1624,1624,1624,1624,1616,1616,1609,1609,1609,1601,1601,1601,1601,1601,1601,1601,1594,1594,1594,1586,1579,1579,1579,1579,1579,1579,1572,1572,1572,1572,1572,1564,1564,0,0,0,0,0,0,0,0,923,920,918,918,918,915,913,910,910,908,908,906,906,906,906,906,906,908,908,910,913,915,918,920,923,925,925,928,928,0,0,0,0,0,1483,1477,1477,1470,1470,1470,1470,1470,1464,1464,1458,1458,1452,1452,1452,1445,1445,1445,1445,1445,1439,1439,1439,1433,1433,1433,1433,1433,1433,1427,1427,1427,1421,1421,1415,1415,1415,1415,1415,1410,1410,1404,1404,1398,1398,1398,1398,1398,1392,1392,1392,1392,1387,1387,1381,1381,1381,1376,1376,1376,1376,1376,1376,1376,1370,1370,1370,1365,1365,1365,1359,1359,1354,1354,1354,1349,1349,1349,1349,1343,1343,1343,1338,1338,1338,1338,1333,1333,1333,1333,1328,1328,1328,1328,1328,1322,1322,1322,1317,1317,1317,1312,1312,1312,1307,1307,1307,1307,1302,1297,1297,1297,1292,1292,1292,1288,1288,1288,1288,1288,1288,1283,1278,1273,1273,1273,1273,1273,1268,1268,1268,1264,1264,1259,1255,1255,1255,1255,1255,1255,1255,1255,1250,1250,1245,1245,1241,1241,1236,1236,1236,1236,1236,1236,1232,1232,1232,1227,1227,1227,1227,1223,1223,1219,1219,1219,1219,1219,1214,1210,1206,1202,1202,1202,1202,1202,1197,1197,1197,1197,1197,1197,1197,1193,1193,1189,1189,1189,1189,1189,1185,1185,1185,1185,1181,1181,1181,1177,1177,1177,1173,1173,1169,1169,1169,1169,1165,1165,1165,1165,1165,1165,1161,1161,1161,1157,1157,1153,1153,1153,1153,1153,1149,1149,1149,1145,1145,1145,1141,1141,1141,1141,1138,1138,1138,1138,1138,1134,1134,1134,0,0,0,0,0,0,0,0,0,0,0,0,0,0,0,0,0,0,0,0,0,0,0,0,0,0,0,0,0
0,0,0,0,0,0,0,0,0,0,0,0,0,1609,1609,1609,1609,1616,1609,1601,1601,1601,1601,1601,1601,1601,1601,1601,1601,1601,1601,1601,1601,1601,1601,1601,1609,1609,1609,1601,1601,1601,1601,1601,1601,1601,1601,1601,1601,1601,1601,1601,1601,1601,1601,1601,1601,1601,1601,1601,1601,1601,1601,1601,1601,1601,1601,1601,1601,1601,1601,1601,1601,1601,1601,1594,1594,1594,1601,1601,1601,1601,1601,1601,1609,1616,1616,1624,1624,1624,1632,1739,1748,1748,1748,1748,1757,1748,1748,1748,1748,1739,1739,1731,1731,1731,1731,1731,1722,1722,1722,1632,1624,1624,1624,1624,1616,1616,1616,1616,1616,1624,1616,1616,1624,1624,1624,1632,1632,1639,1639,1647,1647,1655,1655,1655,1663,1663,1663,1671,1671,1671,1680,1680,1688,1688,1688,1696,1696,1696,1705,1705,1705,1713,1713,1713,1713,1722,1731,1731,1731,1731,1731,1739,1739,1748,1757,1757,1757,1757,1766,1766,1766,1766,1766,1776,1785,1785,1794,1804,1804,1804,1804,1804,1813,1813,1813,1833,1833,1833,1833,1833,1063,1060,1060,1063,1063,1063,1063,1063,1063,1067,1067,1067,1067,1067,1067,1067,1070,1073,1084,1080,1080,1077,1077,1077,1077,1077,1077,1077,1077,1077,1080,1080,1080,1084,1080,1080,1080,1080,1080,1090,1080,1080,1084,1080,1080,1080,0,0,1748,1748,1739,1739,1739,1739,1739,1739,1739,1739,1739,1739,1739,1731,1731,1731,1731,1722,1722,1722,1713,1713,1713,1713,1713,1705,1705,1705,1705,1696,1696,1696,1696,1688,1688,1688,1688,1680,1671,1671,1663,1663,1663,1663,1663,1655,1655,1655,1647,1647,1639,1639,1632,1632,1632,1624,1624,1624,1624,1624,1616,1616,1609,1609,1609,1609,1601,1601,1601,1601,1601,1601,1594,1594,1594,1586,1586,1586,1586,1579,1579,1579,1579,1572,1572,1572,1572,1572,1572,0,0,0,0,0,0,0,925,923,920,920,918,918,915,913,910,910,908,908,906,906,906,906,906,906,908,908,910,913,915,918,920,923,925,925,928,928,0,0,0,0,0,1483,1477,1477,1470,1470,1470,1470,1470,1464,1464,1458,1458,1458,1458,1452,1452,1452,1445,1445,1445,1439,1439,1439,1433,1433,1433,1433,1433,1433,1427,1427,1427,1421,1421,1421,1421,1415,1415,1415,1415,1410,1410,1410,1404,1404,1398,1398,1398,1392,1392,1392,1392,1387,1387,1381,1381,1381,1376,1376,1376,1376,1376,1376,1376,1370,1370,1370,1365,1365,1365,1359,1359,1354,1354,1354,1349,1349,1349,1349,1343,1343,1343,1343,1338,1338,1338,1338,1333,1333,1333,1333,1333,1328,1328,1328,1328,1328,1322,1322,1317,1317,1312,1312,1312,1307,1307,1307,1307,1307,1302,1297,1297,1292,1292,1292,1292,1288,1288,1288,1288,1288,1283,1278,1278,1273,1273,1273,1273,1268,1268,1268,1268,1264,1264,1259,1259,1259,1255,1255,1255,1255,1255,1250,1250,1245,1245,1241,1241,1241,1236,1236,1236,1236,1236,1232,1232,1232,1232,1227,1227,1227,1223,1223,1219,1219,1219,1219,1214,1214,1214,1210,1206,1202,1202,1202,1202,1197,1197,1197,1197,1197,1197,1197,1197,1197,1193,1189,1189,1189,1189,1185,1185,1185,1185,1181,1181,1181,1181,1181,1177,1177,1173,1169,1169,1169,1169,1165,1165,1165,1165,1165,1165,1161,1161,1161,1157,1157,1153,1153,1153,1153,1153,1149,1149,1149,1149,1145,1145,1145,1145,1141,1141,1141,1138,1138,1138,1138,1138,1134,1134,0,0,0,0,0,0,0,0,0,0,0,0,0,0,0,0,0,0,0,0,0,0,0,0,0,0,0,0,0
0,0,0,0,0,0,0,0,0,0,0,0,0,1616,1616,1616,1616,1616,1609,1601,1601,1601,1601,1601,1601,1601,1609,1601,1601,1601,1601,1609,1609,1609,1601,1601,1609,1609,1609,1601,1601,1601,1601,1601,1601,1601,1601,1601,1601,1601,1601,1601,1601,1601,1601,1601,1601,1601,1601,1601,1601,1601,1601,1601,1601,1601,1601,1601,1601,1601,1601,1601,1601,1601,1601,1594,1594,1594,1601,1601,1601,1601,1601,1609,1616,1616,1624,1624,1624,1632,1632,1731,1748,1748,1748,1748,1748,1757,1748,1748,1748,1748,1739,1731,1731,1731,1731,1731,1722,1722,1722,1632,1624,1624,1624,1624,1624,1616,1616,1624,1624,1624,1624,1624,1624,1632,1632,1632,1632,1639,1647,1647,1647,1655,1655,1655,1663,1663,1663,1671,1671,1671,1680,1680,1688,1688,1696,1696,1696,1696,1696,1705,1705,1713,1713,1713,1722,1722,1731,1731,1731,1731,1731,1739,1739,1748,1757,1757,1757,1757,1766,1766,1766,1766,1766,1776,1785,1785,1794,1804,1804,1804,1804,1813,1813,1813,1823,1833,1833,1063,1060,1060,1060,1060,1060,1060,1063,1063,1063,1063,1063,1067,1067,1067,1063,1063,1063,1063,1063,1063,1063,1073,1077,1077,1077,1073,1073,1073,1073,1073,1073,1073,1077,1077,1077,1077,1077,1077,1077,1073,1073,1073,1073,1077,1077,1077,1077,1077,1063,1063,1060,1739,1739,1739,1063,1063,1060,1060,1739,1739,1060,1060,1060,1060,1731,1731,1731,1731,1731,1722,1713,1713,1713,1713,1713,1705,1705,1705,1705,1696,1696,1696,1696,1688,1688,1688,1688,1688,1680,1680,1671,1671,1663,1663,1663,1655,1655,1655,1655,1647,1647,1639,1632,1632,1632,1632,1624,1624,1624,1624,1616,1616,1616,1609,1609,1609,1609,1609,1601,1601,1601,1601,1594,1594,1594,1586,1586,1586,1586,1586,1579,1579,1579,1579,1572,1572,1572,1572,1572,1572,0,0,0,0,0,0,925,923,920,920,918,918,915,913,910,910,908,908,906,906,906,906,906,906,908,908,910,915,918,918,920,923,925,925,928,930,0,0,0,0,0,1477,1477,1477,1470,1470,1470,1470,1470,1470,1464,1464,1464,1458,1458,1452,1452,1452,1452,1445,1445,1439,1439,1439,1439,1439,1433,1433,1433,1433,1433,1427,1427,1427,1421,1421,1421,1421,1415,1415,1415,1410,1410,1410,1410,1404,1398,1398,1398,1392,1392,1392,1392,1387,1387,1387,1381,1381,1381,1381,1376,1376,1376,1376,1376,1370,1370,1370,1370,1370,1365,1365,1359,1354,1354,1354,1349,1349,1349,1349,1349,1343,1343,1343,1343,1343,1338,1338,1338,1333,1333,1333,1333,1328,1328,1328,1328,1328,1322,1322,1317,1317,1312,1312,1312,1312,1312,1307,1307,1307,1302,1297,1297,1292,1292,1292,1292,1292,1292,1288,1288,1288,1288,1283,1278,1278,1273,1273,1273,1268,1268,1268,1268,1264,1264,1259,1259,1259,1255,1255,1255,1255,1255,1250,1250,1250,1245,1245,1245,1241,1241,1241,1236,1236,1236,1232,1232,1232,1232,1227,1227,1227,1223,1223,1219,1219,1219,1219,1214,1214,1214,1214,1210,1206,1202,1202,1202,1202,1202,1202,1202,1202,1197,1197,1197,1197,1193,1189,1189,1189,1189,1185,1185,1185,1185,1185,1181,1181,1181,1181,1181,1177,1173,1173,1169,1169,1169,1169,1169,1165,1165,1165,1165,1165,1161,1161,1161,1157,1157,1157,1153,1153,1153,1149,1149,1149,1149,1149,1145,1145,1145,1141,1141,1141,1141,1138,1138,1138,1138,1138,1138,0,0,0,0,0,0,0,0,0,0,0,0,0,0,0,0,0,0,0,0,0,0,0,0,0,0,0,0,0
0,0,0,0,0,0,0,0,0,0,0,0,0,1609,1609,1609,1609,1609,1609,1601,1601,1601,1601,1601,1601,1601,1609,1601,1601,1601,1601,1609,1609,1609,1609,1609,1609,1609,1609,1609,1601,1601,1601,1601,1601,1601,1601,1601,1601,1601,1601,1601,1601,1601,1601,1609,1609,1609,1601,1601,1601,1601,1601,1601,1601,1601,1601,1601,1601,1601,1601,1601,1601,1601,1601,1601,1594,1594,1601,1601,1601,1601,1601,1609,1616,1624,1624,1624,1632,1632,1632,1731,1748,1748,1748,1748,1748,1757,1757,1748,1748,1748,1739,1731,1731,1731,1731,1731,1722,1722,1722,1647,1632,1624,1624,1624,1616,1616,1624,1624,1624,1624,1624,1624,1632,1632,1632,1632,1639,1647,1647,1647,1647,1655,1655,1655,1663,1663,1663,1671,1671,1680,1680,1688,1688,1688,1696,1696,1696,1696,1696,1705,1705,1713,1713,1713,1722,1731,1731,1731,1731,1739,1739,1739,1748,1748,1757,1757,1757,1757,1766,1766,1766,1766,1776,1785,1794,1794,1794,1804,1804,1804,1804,1813,1813,1813,1823,1833,1833,1057,1057,1057,1057,1060,1060,1060,1063,1063,1063,1060,1060,1063,1063,1063,1060,1060,1060,1060,1060,1050,1050,1057,1073,1073,1070,1070,1067,1067,1063,1063,1063,1063,1067,1060,1060,1077,1070,1070,1077,1063,1063,1070,1070,1073,1060,1060,1073,1073,1063,1063,1060,1057,1057,1057,1057,1060,1060,1060,1057,1057,1060,1060,1060,1057,1057,1057,1731,1731,1722,1722,1722,1722,1713,1713,1713,1713,1705,1705,1705,1705,1696,1696,1696,1688,1688,1688,1688,1688,1680,1680,1671,1671,1663,1663,1663,1663,1655,1655,1655,1655,1647,1647,1639,1639,1632,1632,1632,1624,1624,1624,1624,1624,1616,1616,1616,1616,1609,1609,1601,1601,1601,1601,1594,1594,1594,1586,1586,1594,1594,1594,1586,1579,1579,1579,1572,1572,1572,1572,1572,1572,0,0,0,0,0,0,923,923,923,920,920,918,915,913,913,910,910,908,908,906,906,906,908,908,908,908,913,915,918,918,920,923,925,928,928,930,0,0,0,0,0,1477,1477,1477,1470,1470,1470,1470,1470,1470,1464,1464,1464,1458,1458,1452,1452,1452,1452,1445,1445,1445,1439,1439,1439,1439,1433,1433,1433,1433,1433,1427,1427,1427,1421,1421,1421,1421,1415,1415,1415,1415,1415,1410,1410,1404,1398,1398,1398,1392,1392,1392,1392,1392,1387,1387,1381,1381,1381,1376,1376,1376,1376,1376,1376,1376,1370,1370,1370,1370,1365,1359,1359,1354,1354,1354,1354,1349,1349,1349,1349,1349,1343,1343,1343,1343,1338,1338,1338,1333,1333,1333,1333,1328,1328,1328,1328,1328,1328,1322,1322,1317,1312,1312,1312,1312,1312,1307,1307,1307,1302,1297,1297,1292,1292,1292,1292,1292,1292,1292,1288,1288,1288,1283,1283,1278,1278,1273,1273,1268,1268,1268,1268,1268,1264,1264,1259,1259,1259,1255,1255,1255,1255,1255,1250,1250,1245,1245,1245,1241,1241,1241,1236,1236,1236,1232,1232,1232,1232,1227,1227,1227,1223,1223,1219,1219,1219,1219,1214,1214,1214,1214,1210,1206,1206,1206,1202,1202,1202,1202,1202,1202,1197,1197,1197,1197,1197,1193,1193,1189,1189,1185,1185,1185,1185,1185,1181,1181,1181,1181,1181,1177,1177,1177,1173,1169,1169,1169,1169,1169,1165,1165,1165,1165,1165,1161,1161,1157,1157,1157,1153,1153,1153,1149,1149,1149,1149,1149,1145,1145,1145,1145,1141,1141,1141,1141,1138,1138,1138,1138,1138,0,0,0,0,0,0,0,0,0,0,0,0,0,0,0,0,0,0,0,0,0,0,0,0,0,0,0,0,0
0,0,0,0,0,0,0,0,0,0,0,0,0,1609,1609,1609,1609,1609,1609,1601,1601,1601,1601,1601,1601,1601,1609,1601,1601,1601,1601,1616,1609,1609,1609,1609,1609,1609,1609,1609,1609,1609,1609,1601,1601,1601,1601,1601,1601,1609,1609,1601,1601,1601,1609,1609,1609,1609,1609,1609,1609,1609,1601,1601,1601,1601,1601,1601,1601,1601,1601,1601,1601,1601,1601,1601,1601,1601,1601,1601,1601,1601,1601,1609,1616,1624,1624,1624,1624,1632,1632,1731,1748,1748,1748,1748,1757,1757,1757,1757,1748,1748,1748,1731,1731,1731,1731,1731,1731,1731,1722,1722,1632,1624,1624,1624,1616,1616,1624,1624,1624,1624,1624,1624,1632,1632,1632,1632,1639,1647,1655,1655,1655,1655,1655,1655,1663,1663,1663,1671,1671,1680,1688,1688,1688,1688,1696,1696,1696,1696,1696,1705,1705,1713,1713,1722,1731,1731,1731,1731,1731,1739,1739,1739,1748,1748,1757,1757,1757,1757,1766,1766,1766,1776,1776,1794,1794,1794,1034,1034,1038,1034,1034,1034,1034,1038,1041,1843,1843,1057,1057,1050,1050,1054,1054,1057,1060,1060,1060,1057,1057,1057,1057,1060,1057,1057,1057,1057,1054,1050,1050,1050,1054,1057,1060,1057,1057,1057,1047,1047,1047,1047,1050,1050,1050,1050,1050,1054,1054,1054,1054,1054,1054,1054,1054,1054,1054,1054,1057,1057,1054,1054,1054,1054,1054,1057,1057,1057,1057,1057,1057,1057,1057,1057,1050,1050,1047,1047,1047,1050,1050,1722,1713,1713,1713,1713,1713,1705,1705,1696,1696,1696,1696,1696,1688,1688,1688,1688,1688,1680,1680,1671,1671,1663,1663,1663,1663,1655,1655,1655,1655,1647,1647,1639,1639,1632,1632,1632,1624,1624,1624,1624,1624,1624,1616,1616,1616,1609,1609,1601,1601,1601,1594,1594,1594,1594,1594,1594,1594,1594,1586,1586,1586,1579,1579,1579,1572,1572,1572,1579,1579,0,0,0,0,0,923,923,920,920,920,918,915,915,913,910,910,908,908,906,906,906,908,908,908,908,913,915,918,918,920,923,925,928,928,930,0,0,0,0,0,1477,1477,1477,1477,1477,1470,1470,1470,1470,1464,1464,1464,1464,1464,1458,1458,1452,1452,1445,1445,1445,1445,1439,1439,1439,1439,1439,1439,1433,1433,1433,1427,1427,1427,1421,1421,1421,1415,1415,1415,1415,1415,1415,1410,1404,1404,1398,1398,1398,1398,1392,1392,1392,1387,1387,1381,1381,1381,1376,1376,1376,1376,1376,1376,1376,1370,1370,1370,1370,1365,1359,1359,1354,1354,1354,1354,1354,1349,1349,1349,1349,1343,1343,1343,1343,1338,1338,1338,1333,1333,1333,1333,1328,1328,1328,1328,1328,1328,1322,1322,1317,1317,1312,1312,1312,1312,1307,1307,1307,1307,1302,1302,1297,1292,1292,1292,1292,1292,1292,1288,1288,1288,1288,1288,1283,1278,1273,1273,1273,1268,1268,1268,1268,1264,1264,1264,1259,1259,1255,1255,1255,1255,1255,1255,1250,1250,1245,1245,1245,1245,1241,1236,1236,1236,1232,1232,1232,1232,1232,1227,1227,1227,1227,1223,1219,1219,1219,1214,1214,1214,1214,1214,1210,1206,1206,1206,1206,1206,1202,1202,1202,1202,1202,1197,1197,1197,1197,1193,1193,1189,1189,1185,1185,1185,1185,1185,1185,1181,1181,1181,1181,1177,1177,1173,1169,1169,1169,1169,1169,1169,1165,1165,1165,1165,1161,1161,1161,1157,1157,1157,1153,1153,1153,1149,1149,1149,1149,1149,1145,1145,1145,1145,1145,1141,1141,1141,1141,1138,1138,1138,0,0,0,0,0,0,0,0,0,0,0,0,0,0,0,0,0,0,0,0,0,0,0,0,0,0,0,0,0
0,0,0,0,0,0,0,0,0,0,0,0,0,1609,1609,1609,1616,1616,1616,1616,1616,1616,1616,1616,1601,1601,1609,1609,1616,1616,1616,1616,1616,1609,1609,1609,1609,1609,1609,1609,1609,1609,1609,1609,1609,1609,1609,1609,1609,1609,1609,1601,1601,1601,1609,1609,1609,1609,1609,1609,1609,1609,1601,1601,1601,1601,1601,1601,1601,1601,1601,1601,1601,1601,1601,1601,1601,1601,1601,1601,1601,1601,1609,1616,1616,1624,1624,1624,1624,1632,1632,1731,1748,1748,1748,1757,1757,1757,1757,1757,1757,1757,1748,1748,1739,1731,1731,1731,1731,1731,1731,1731,1632,1632,1624,1624,1624,1624,1624,1624,1624,1624,1624,1624,1632,1632,1632,1632,1639,1647,1655,1655,1655,1655,1655,1663,1663,1663,1663,1671,1671,1680,1688,1688,1688,1688,1696,1696,1696,1696,1705,1705,1713,1713,1713,1722,1731,1731,1731,1731,1731,1739,1739,1739,1748,1748,1022,1022,1757,1757,1766,1034,1031,1031,1022,1022,1031,1031,1031,1031,1031,1034,1034,1034,1034,1038,1038,1041,1041,1041,1044,1044,1047,1047,1047,1050,1054,1054,1054,1047,1047,1050,1050,1054,1050,1050,1050,1047,1047,1047,1047,1047,1044,1044,1047,1047,1044,1041,1041,1041,1041,1044,1047,1047,1047,1047,1047,1047,1047,1044,1044,1047,1047,1044,1044,1050,1050,1050,1050,1054,1050,1050,1050,1050,1054,1054,1054,1054,1054,1054,1054,1054,1050,1050,1050,1050,1047,1047,1047,1047,1044,1044,1044,1038,1713,1713,1713,1696,1696,1696,1696,1696,1696,1696,1688,1688,1688,1688,1688,1680,1680,1671,1671,1663,1663,1663,1663,1655,1655,1655,1655,1655,1647,1647,1639,1632,1632,1632,1632,1624,1624,1624,1624,1624,1624,1616,1616,1616,1609,1609,1601,1601,1601,1594,1594,1594,1594,1594,1601,1594,1594,1594,1594,1586,1579,1579,1579,1579,1579,1579,1579,0,0,0,0,0,923,920,920,920,918,918,918,915,915,913,913,908,908,906,906,906,908,908,908,908,913,915,918,918,920,925,925,928,928,930,0,0,0,0,1483,1477,1477,1477,1477,1477,1470,1470,1470,1470,1464,1464,1464,1464,1464,1464,1458,1458,1452,1445,1445,1445,1445,1439,1439,1439,1439,1439,1439,1433,1433,1433,1427,1427,1427,1421,1421,1421,1421,1421,1415,1415,1415,1415,1410,1404,1404,1404,1398,1398,1398,1398,1392,1392,1392,1387,1387,1387,1381,1381,1376,1376,1376,1376,1376,1376,1376,1370,1370,1370,1365,1365,1365,1359,1359,1354,1354,1354,1354,1349,1349,1349,1349,1343,1343,1343,1338,1338,1338,1338,1333,1333,1333,1333,1328,1328,1328,1328,1328,1322,1322,1322,1317,1312,1312,1312,1312,1312,1307,1307,1307,1302,1302,1297,1292,1292,1292,1292,1292,1292,1288,1288,1288,1288,1288,1283,1283,1278,1273,1273,1273,1268,1268,1268,1268,1264,1264,1259,1259,1259,1255,1255,1255,1255,1255,1250,1250,1250,1245,1245,1245,1241,1236,1236,1236,1232,1232,1232,1232,1232,1227,1227,1227,1227,1223,1219,1219,1219,1219,1219,1214,1214,1214,1214,1210,1210,1206,1206,1206,1202,1202,1202,1202,1202,1202,1197,1197,1197,1197,1193,1189,1189,1185,1185,1185,1185,1185,1185,1181,1181,1181,1181,1177,1177,1173,1169,1169,1169,1169,1169,1169,1165,1165,1165,1165,1161,1161,1161,1157,1157,1157,1157,1153,1153,1153,1153,1149,1149,1149,1149,1149,1145,1145,1145,1141,1141,1141,1141,1138,1138,1138,0,0,0,0,0,0,0,0,0,0,0,0,0,0,0,0,0,0,0,0,0,0,0,0,0,0,0,0,0
0,0,0,0,0,0,0,0,0,0,0,0,0,1609,1609,1616,1616,1616,1616,1616,1616,1616,1616,1616,1601,1601,1609,1609,1616,1616,1616,1616,1616,1616,1609,1609,1609,1609,1609,1616,1609,1609,1609,1609,1609,1609,1609,1609,1609,1609,1609,1609,1609,1609,1609,1609,1609,1616,1609,1609,1609,1609,1601,1601,1601,1601,1601,1601,1601,1601,1601,1601,1601,1601,1601,1601,1601,1601,1601,1601,1601,1601,1609,1616,1616,1624,1624,1624,1632,1632,1632,1731,1748,1748,1748,1757,1757,1757,1757,1757,1757,1757,1757,1748,1739,1739,1731,1731,1731,1731,1722,1722,1632,1632,1624,1624,1624,1624,1624,1624,1624,1624,1624,1624,1632,1632,1632,1632,1647,1647,1655,1655,1655,1663,1663,1663,1663,1663,1663,1671,1680,1680,1688,1688,1688,1696,1696,1696,1696,1696,1705,1705,1705,1713,1713,1722,1731,1731,1731,1731,1731,1739,1739,1739,1748,1748,1016,1016,1022,1025,1022,1022,1025,1025,1022,1022,1025,1031,1031,1031,1031,1034,1034,1034,1034,1034,1038,1038,1038,1038,1041,1041,1044,1044,1044,1044,1041,1041,1041,1041,1041,1041,1041,1041,1041,1044,1044,1041,1041,1044,1044,1041,1038,1034,1034,1034,1038,1038,1038,1038,1038,1038,1041,1041,1047,1047,1047,1047,1044,1044,1041,1041,1038,1038,1038,1044,1044,1044,1041,1041,1041,1044,1044,1047,1047,1050,1050,1050,1050,1050,1050,1050,1050,1050,1047,1047,1047,1047,1047,1044,1041,1038,1038,1038,1034,1696,1696,1696,1696,1696,1696,1696,1696,1696,1688,1688,1688,1688,1688,1688,1680,1680,1671,1663,1663,1663,1663,1663,1655,1655,1655,1655,1647,1647,1647,1639,1632,1632,1632,1632,1624,1624,1624,1624,1624,1616,1616,1616,1609,1609,1601,1601,1601,1601,1594,1594,1594,1594,1601,1601,1594,1594,1594,1586,1579,1579,1579,1579,1579,1579,1579,0,0,0,0,0,0,920,920,920,918,918,918,915,915,913,913,910,910,908,908,908,908,908,910,910,913,918,920,923,923,925,925,928,930,0,0,0,0,1477,1477,1477,1477,1477,1477,1477,1470,1470,1470,1470,1470,1470,1464,1464,1464,1464,1458,1458,1452,1452,1445,1445,1445,1445,1439,1439,1439,1439,1439,1433,1433,1433,1433,1427,1427,1427,1421,1421,1421,1421,1421,1415,1415,1415,1415,1410,1404,1404,1398,1398,1398,1398,1392,1392,1392,1392,1387,1387,1387,1381,1381,1381,1381,1376,1376,1376,1376,1370,1370,1370,1365,1365,1365,1365,1359,1354,1354,1354,1354,1349,1349,1349,1349,1343,1343,1343,1343,1338,1338,1338,1333,1333,1333,1333,1328,1328,1328,1328,1328,1328,1322,1322,1317,1317,1317,1312,1312,1312,1307,1307,1307,1307,1302,1297,1297,1292,1292,1292,1292,1292,1288,1288,1288,1288,1288,1283,1283,1278,1278,1273,1273,1273,1268,1268,1268,1268,1264,1264,1259,1259,1255,1255,1255,1255,1255,1255,1250,1250,1250,1245,1245,1241,1236,1236,1236,1236,1232,1232,1232,1232,1227,1227,1227,1227,1223,1219,1219,1219,1219,1219,1219,1214,1214,1214,1210,1210,1206,1206,1206,1206,1202,1202,1202,1202,1202,1197,1197,1197,1197,1193,1193,1189,1185,1185,1185,1185,1185,1185,1185,1185,1181,1181,1177,1177,1173,1169,1169,1169,1169,1169,1169,1169,1165,1165,1165,1161,1161,1161,1157,1157,1157,1157,1157,1153,1153,1153,1149,1149,1149,1149,1149,1145,1145,1145,1141,1141,1141,1141,1138,1138,1138,0,0,0,0,0,0,0,0,0,0,0,0,0,0,0,0,0,0,0,0,0,0,0,0,0,0,0,0,0
0,0,0,0,0,0,0,0,0,0,0,0,0,1616,1616,1616,1624,1616,1616,1616,1616,1616,1616,1616,1616,1616,1616,1616,1616,1616,1616,1616,1616,1616,1609,1609,1609,1609,1609,1616,1616,1616,1616,1609,1609,1609,1609,1609,1609,1609,1609,1609,1609,1609,1609,1609,1609,1616,1616,1616,1609,1609,1601,1601,1601,1601,1601,1601,1601,1601,1601,1601,1609,1609,1601,1601,1601,1601,1601,1601,1601,1609,1609,1616,1616,1624,1624,1624,1632,1632,1632,1731,1748,1748,1748,1757,1757,1757,1757,1757,1757,1757,1757,1757,1739,1739,1731,1731,1731,1731,1722,1722,1639,1632,1632,1624,1624,1624,1624,1624,1624,1624,1624,1624,1632,1632,1632,1632,1647,1655,1655,1655,1655,1663,1663,1663,1663,1663,1671,1671,1680,1680,1688,1688,1688,1696,1696,1696,1696,1696,1705,1705,1705,1705,1713,1722,1731,1731,1731,1731,1731,1739,1739,1739,1748,1010,1010,1013,1013,1016,1016,1016,1013,1013,1013,1016,1022,1022,1022,1025,1025,1034,1034,1031,1031,1034,1031,1031,1031,1031,1034,1038,1034,1034,1038,1038,1038,1034,1034,1034,1034,1034,1034,1034,1034,1038,1044,1041,1041,1041,1041,1038,1034,1031,1031,1028,1028,1034,1034,1034,1034,1034,1038,1038,1044,1044,1044,1044,1041,1041,1038,1038,1034,1034,1034,1038,1038,1038,1038,1038,1038,1038,1038,1044,1044,1044,1044,1044,1047,1047,1047,1047,1047,1047,1047,1047,1047,1044,1044,1041,1038,1034,1034,1034,1034,1019,1019,1696,1696,1688,1688,1696,1696,1696,1688,1688,1688,1688,1688,1688,1688,1680,1680,1671,1671,1663,1663,1663,1655,1655,1655,1655,1647,1647,1647,1639,1639,1639,1632,1632,1632,1624,1624,1624,1624,1624,1616,1616,1609,1609,1601,1601,1601,1601,1594,1594,1594,1594,1601,1601,1601,1601,1594,1586,1579,1579,1579,1579,1579,1579,1579,0,0,0,0,0,923,920,920,920,918,918,918,915,915,913,913,913,910,908,908,908,908,908,910,913,915,918,923,923,925,925,928,930,930,0,0,0,0,1477,1477,1483,1483,1483,1477,1477,1477,1477,1477,1477,1470,1470,1470,1464,1464,1464,1458,1458,1452,1452,1445,1445,1445,1445,1445,1439,1439,1439,1439,1439,1439,1433,1433,1433,1427,1427,1421,1421,1421,1421,1421,1415,1415,1415,1415,1410,1404,1404,1398,1398,1398,1398,1392,1392,1392,1392,1392,1392,1387,1387,1381,1381,1381,1381,1376,1376,1376,1370,1370,1370,1365,1365,1365,1365,1359,1359,1354,1354,1354,1354,1349,1349,1349,1343,1343,1343,1343,1338,1338,1338,1333,1333,1333,1333,1333,1328,1328,1328,1328,1328,1328,1322,1322,1317,1317,1312,1312,1312,1307,1307,1307,1307,1302,1302,1297,1292,1292,1292,1292,1292,1288,1288,1288,1288,1288,1283,1283,1278,1278,1273,1273,1273,1273,1273,1268,1268,1264,1264,1259,1259,1259,1255,1255,1255,1255,1255,1250,1250,1250,1250,1245,1241,1236,1236,1236,1236,1236,1232,1232,1232,1227,1227,1227,1227,1223,1223,1219,1219,1219,1219,1219,1219,1214,1214,1214,1210,1210,1210,1210,1206,1202,1202,1202,1202,1202,1202,1197,1197,1197,1193,1193,1189,1189,1185,1185,1185,1185,1185,1185,1185,1181,1181,1181,1177,1177,1173,1169,1169,1169,1169,1169,1169,1165,1165,1165,1161,1161,1161,1157,1157,1157,1157,1157,1153,1153,1153,1153,1149,1149,1149,1149,1145,1145,1145,1145,1141,1141,1141,1138,1138,1138,0,0,0,0,0,0,0,0,0,0,0,0,0,0,0,0,0,0,0,0,0,0,0,0,0,0,0,0,0
0,0,0,0,0,0,0,0,0,0,0,0,0,1616,1616,1616,1624,1624,1624,1616,1616,1616,1616,1616,1616,1616,1616,1616,1616,1616,1616,1616,1616,1616,1616,1609,1609,1609,1609,1616,1616,1616,1616,1616,1616,1609,1609,1609,1609,1609,1609,1609,1609,1609,1609,1616,1616,1616,1616,1616,1609,1609,1601,1601,1601,1601,1601,1601,1601,1601,1601,1601,1609,1609,1609,1601,1601,1601,1601,1601,1601,1609,1609,1616,1616,1616,1624,1624,1624,1624,1632,1748,1748,1748,1748,1757,1757,1757,1757,1757,1757,1757,1757,1757,1748,1739,1731,1731,1739,1731,1731,1722,1655,1632,1632,1632,1624,1624,1624,1624,1624,1624,1632,1632,1632,1632,1632,1632,1647,1647,1655,1655,1655,1663,1663,1663,1663,1663,1671,1671,1680,1680,1688,1688,1696,1696,1696,1696,1696,1696,998,995,995,998,998,1722,1722,1731,1731,1739,1007,1007,1004,1004,1007,1007,1010,1007,1007,1013,1013,1013,1010,1010,1013,1016,1019,1016,1016,1022,1022,1034,1028,1028,1031,1028,1028,1028,1028,1028,1028,1031,1028,1028,1031,1028,1028,1025,1025,1025,1031,1028,1028,1028,1028,1031,1025,1025,1025,1025,1034,1025,1025,1025,1025,1022,1022,1028,1031,1031,1031,1031,1034,1034,1038,1041,1034,1034,1034,1034,1034,1031,1028,1028,1031,1031,1031,1034,1034,1031,1031,1031,1031,1028,1028,1028,1034,1034,1044,1041,1041,1041,1044,1047,1047,1047,1044,1044,1041,1034,1031,1031,1031,1028,1028,1019,1019,1016,1016,1016,1016,1696,1696,1696,1019,1019,1696,1696,1696,1688,1688,1688,1688,1680,1680,1671,1663,1655,1655,1655,1655,1655,1655,1647,1647,1647,1639,1639,1632,1632,1632,1632,1632,1632,1624,1624,1616,1616,1609,1609,1601,1601,1601,1601,1601,1594,1594,1594,1601,1601,1601,1601,1594,1586,1586,1579,1579,1572,1572,1572,0,0,0,0,0,0,923,920,920,920,920,918,918,915,915,915,915,913,913,908,908,908,910,910,913,913,915,918,923,923,925,928,928,933,0,0,0,0,0,1483,1483,1483,1483,1483,1477,1477,1477,1477,1477,1470,1470,1470,1470,1464,1464,1464,1464,1464,1452,1452,1452,1452,1445,1445,1445,1445,1445,1439,1439,1439,1439,1433,1433,1433,1427,1427,1421,1421,1421,1421,1421,1415,1415,1415,1410,1410,1410,1404,1404,1398,1398,1398,1398,1392,1392,1392,1392,1392,1392,1387,1387,1381,1381,1381,1381,1376,1376,1376,1370,1370,1370,1370,1370,1365,1365,1365,1359,1354,1354,1354,1354,1349,1349,1349,1343,1343,1343,1338,1338,1338,1338,1333,1333,1333,1333,1328,1328,1328,1328,1328,1328,1322,1322,1317,1317,1312,1312,1312,1307,1307,1307,1307,1307,1302,1297,1297,1292,1292,1292,1292,1292,1288,1288,1288,1288,1288,1283,1283,1278,1278,1278,1273,1273,1273,1268,1268,1264,1264,1259,1259,1259,1255,1255,1255,1255,1255,1255,1250,1250,1250,1245,1241,1236,1236,1236,1236,1236,1232,1232,1232,1232,1227,1227,1227,1223,1223,1219,1219,1219,1219,1219,1219,1214,1214,1214,1214,1210,1210,1206,1206,1206,1202,1202,1202,1202,1202,1197,1197,1197,1193,1193,1193,1189,1185,1185,1185,1185,1185,1185,1185,1181,1181,1181,1177,1177,1173,1173,1169,1169,1169,1169,1169,1165,1165,1165,1161,1161,1161,1161,1161,1157,1157,1157,1153,1153,1153,1153,1153,1149,1149,1149,1149,1149,1145,1145,1141,1141,1141,1141,1138,1138,0,0,0,0,0,0,0,0,0,0,0,0,0,0,0,0,0,0,0,0,0,0,0,0,0,0,0,0,0
0,0,0,0,0,0,0,0,0,0,0,0,0,1616,1616,1616,1624,1624,1624,1616,1616,1616,1616,1616,1616,1616,1616,1616,1616,1616,1616,1616,1616,1616,1616,1609,1609,1609,1616,1616,1616,1616,1616,1616,1616,1609,1609,1616,1609,1609,1609,1609,1609,1609,1609,1616,1616,1616,1616,1616,1616,1609,1609,1609,1601,1601,1601,1601,1601,1601,1601,1601,1609,1609,1609,1601,1601,1601,1601,1609,1609,1609,1609,1609,1616,1616,1624,1624,1624,1624,1632,1748,1748,1748,1748,1757,1757,1757,1757,1757,1757,1757,1757,1757,1748,1748,1739,1739,1739,1731,1731,1722,1663,1639,1639,1632,1632,1632,1624,1624,1624,1624,1632,1632,1632,1632,1632,1639,1647,1647,1655,1655,1655,1663,1663,1663,1663,1663,1671,1671,1680,1680,1688,1688,1688,1696,1696,992,989,989,992,992,992,995,998,998,1722,1722,998,1004,1004,1004,1004,1004,1004,1004,1004,1004,1004,1007,1013,1010,1007,1007,1007,1010,1010,1007,1007,1013,1013,1025,1025,1022,1022,1025,1025,1025,1025,1025,1025,1028,1022,1022,1019,1019,1019,1019,1016,1016,1019,1022,1016,1016,1013,1013,1016,1016,1016,1013,1013,1013,1016,1019,1019,1016,1016,1019,1019,1022,1031,1013,1013,1025,1013,1013,1013,1013,1013,1022,1025,1025,1025,1022,1022,1025,1025,1028,1028,1028,1028,1025,1022,1022,1022,1022,1022,1022,1022,1025,1025,1025,1025,1028,1044,1044,1038,1031,1031,1031,1028,1025,1025,1025,1025,1019,1019,1013,1013,1013,1016,1013,1013,1010,1010,1013,1013,1013,1013,1007,1688,1688,1688,1680,1680,1680,1671,1655,1655,1655,1655,1655,1647,1647,1647,1647,1639,1639,1639,1632,1632,1632,1624,1624,1624,1624,1616,1616,1616,1616,1609,1609,1601,1601,1601,1601,1601,1601,1601,1601,1601,1594,1594,1586,1579,1579,1572,1572,1572,1572,0,0,0,0,0,0,920,920,920,920,918,918,918,915,915,915,915,913,913,910,910,910,910,910,913,913,915,918,923,923,925,930,930,933,0,0,0,0,0,1483,1483,1489,1489,1489,1483,1483,1483,1477,1477,1470,1470,1470,1470,1464,1464,1464,1464,1458,1452,1452,1452,1452,1445,1445,1445,1445,1445,1445,1439,1439,1439,1439,1433,1433,1427,1427,1421,1421,1421,1421,1421,1415,1415,1415,1410,1410,1410,1404,1404,1398,1398,1398,1398,1398,1398,1392,1392,1392,1392,1392,1387,1381,1381,1381,1381,1376,1376,1376,1370,1370,1370,1370,1370,1365,1365,1365,1359,1359,1354,1354,1354,1354,1349,1349,1349,1349,1343,1338,1338,1338,1338,1333,1333,1333,1333,1328,1328,1328,1328,1328,1328,1322,1322,1317,1317,1312,1312,1312,1312,1307,1307,1307,1307,1302,1302,1297,1292,1292,1292,1292,1288,1288,1288,1288,1288,1288,1283,1283,1283,1278,1278,1273,1273,1273,1268,1268,1268,1264,1259,1259,1259,1255,1255,1255,1255,1255,1255,1250,1250,1250,1250,1241,1236,1236,1236,1236,1236,1236,1232,1232,1232,1227,1227,1227,1223,1223,1219,1219,1219,1219,1219,1219,1219,1214,1214,1214,1210,1210,1206,1206,1206,1202,1202,1202,1202,1202,1197,1197,1197,1193,1193,1193,1189,1185,1185,1185,1185,1185,1185,1185,1181,1181,1181,1177,1177,1173,1173,1169,1169,1169,1169,1169,1169,1165,1165,1165,1165,1161,1161,1161,1161,1161,1157,1153,1153,1153,1153,1153,1149,1149,1149,1149,1149,1145,1145,1145,1145,1145,1141,1138,1138,0,0,0,0,0,0,0,0,0,0,0,0,0,0,0,0,0,0,0,0,0,0,0,0,0,0,0,0,0
0,0,0,0,0,0,0,0,0,0,0,0,0,1624,1624,1624,1624,1624,1624,1624,1624,1616,1616,1616,1616,1616,1616,1616,1616,1616,1616,1616,1616,1616,1616,1616,1616,1616,1616,1616,1616,1616,1616,1616,1616,1609,1609,1616,1609,1609,1609,1609,1609,1609,1609,1616,1616,1616,1616,1616,1616,1616,1609,1609,1601,1601,1601,1601,1601,1609,1609,1609,1609,1609,1609,1609,1609,1609,1609,1609,1609,1609,1609,1609,1616,1616,1624,1624,1624,1624,1632,1748,1748,1748,1748,1757,1757,1757,1757,1757,1757,1757,1766,1757,1757,1748,1748,1748,1739,1731,1731,1722,1722,1639,1639,1632,1632,1632,1624,1624,1624,1624,1632,1632,1632,1632,1632,1639,1639,1639,1647,1655,1655,1655,1663,1663,1663,1663,1671,1671,1680,1680,1688,1688,1688,995,995,992,989,989,989,989,992,992,995,995,998,998,998,998,998,1001,1001,1001,1001,1001,1004,1001,1001,1004,1007,1007,1004,1004,1004,1004,1004,1001,1001,1001,995,995,1001,1004,1004,1004,1019,1019,1019,1019,1019,1022,1016,1013,1010,1010,1010,1010,1010,1010,1016,1016,1013,1013,1013,1013,1013,1013,1013,1013,1013,1010,1010,1013,1013,1013,1013,1013,1010,1010,1010,1010,1010,1010,1010,1010,1010,1013,1013,1013,1016,1016,1016,1016,1013,1013,1013,1013,1028,1016,1016,1019,1019,1019,1016,1016,1019,1019,1019,1019,1019,1019,1019,1019,1022,1022,1025,1025,1025,1025,1025,1025,1025,1022,1022,1013,1013,1013,1013,1013,1016,1013,1010,1010,1010,1013,1013,1013,1007,1007,1007,1010,1010,1007,1004,1004,1671,1663,1663,1655,1655,1655,1647,1647,1647,1647,1639,1639,1639,1632,1632,1624,1624,1624,1624,1616,1616,1616,1616,1616,1616,1609,1609,1601,1601,1601,1601,1601,1601,1601,1601,1594,1594,1586,1579,1579,1572,1572,1572,1572,0,0,0,0,0,0,920,920,920,918,918,918,918,915,915,915,915,913,913,910,910,910,910,910,913,915,918,920,923,925,928,930,930,933,0,0,0,0,1489,1489,1489,1489,1489,1489,1483,1483,1483,1477,1477,1470,1470,1470,1470,1464,1464,1464,1464,1458,1452,1452,1452,1452,1445,1445,1445,1445,1445,1445,1445,1439,1439,1439,1433,1433,1427,1427,1421,1421,1421,1421,1421,1421,1421,1415,1415,1410,1410,1404,1404,1398,1398,1398,1398,1398,1398,1398,1392,1392,1392,1392,1387,1381,1381,1381,1381,1376,1376,1376,1376,1370,1370,1370,1370,1370,1365,1365,1359,1359,1354,1354,1354,1354,1349,1349,1349,1349,1343,1338,1338,1338,1338,1333,1333,1333,1333,1333,1328,1328,1328,1328,1328,1322,1322,1317,1317,1312,1312,1312,1312,1307,1307,1307,1307,1307,1302,1297,1292,1292,1292,1292,1288,1288,1288,1288,1288,1288,1283,1283,1283,1278,1278,1273,1273,1273,1268,1268,1268,1264,1259,1259,1259,1255,1255,1255,1255,1255,1255,1250,1250,1250,1250,1245,1241,1241,1236,1236,1236,1236,1232,1232,1232,1227,1227,1232,1227,1227,1219,1219,1219,1219,1219,1219,1219,1214,1214,1214,1210,1210,1206,1206,1202,1202,1202,1202,1202,1202,1197,1197,1197,1197,1193,1193,1189,1189,1185,1185,1185,1185,1185,1185,1181,1181,1181,1181,1177,1177,1173,1173,1173,1173,1169,1169,1169,1165,1165,1165,1165,1165,1161,1161,1161,1161,1157,1157,1157,1153,1153,1153,1149,1149,1149,1149,1149,1149,1149,1145,1145,1145,1145,1138,1138,0,0,0,0,0,0,0,0,0,0,0,0,0,0,0,0,0,0,0,0,0,0,0,0,0,0,0,0,0
