0,0,0,0,0,0,0,1322,1322,1317,1317,1317,1317,1312,1312,1312,1312,1312,1307,1307,1312,1307,1307,1307,1307,1307,1307,1307,1307,1307,1307,1302,1302,1302,1302,1302,1302,1302,1302,1302,1307,1307,1307,1307,1307,1307,1307,1307,1307,1307,1307,1307,1307,1307,1307,1307,1307,1312,1307,1307,1312,1312,1312,1312,1312,1312,1312,1312,1307,1307,1307,1312,1312,1312,1312,1312,1312,1317,1317,1317,1317,1317,1322,1317,1317,1317,1317,1317,1317,1312,1307,1307,1307,1307,0,0,0,0,0,0,0,935,933,933,930,928,928,928,928,928,928,928,930,933,933,933,935,935,938,938,940,943,943,0,0,0,0,1307,1307,1312,1322,1322,1328,1328,1328,1328,1328,1328,1333,1333,1333,1333,1333,1328,1328,1328,1328,1333,1333,1333,1333,1333,1333,1338,1338,1338,1338,1338,1338,1338,1338,1338,1338,1338,1338,1338,1338,1338,1338,1338,1338,1338,1338,1343,1343,1343,1343,1343,1343,1343,1343,1343,1343,1343,1343,1343,1343,1349,1349,1349,1349,1080,1080,1084,1084,1087,1087,1087,1087,1087,1087,1090,1090,1094,1094,1097,1097,1094,1094,1094,1094,1094,1094,1097,1097,1101,1101,1101,1101,1101,1101,1101,0,0,0,0,0,0,0,0,0,0,0,678,676,676,675,674,672,671,670,668,667,666,663,662,661,661,659,659,661,661,661,663,664,666,667,668,670,671,674,675,676,676,678,679,680,682,0,0,0,0,0,0,0,0,1232,1232,1232,1232,1232,1232,1232,1232,1232,1236,1381,1370,1370,1370,1370,1370,1365,1365,1365,1365,1365,1365,1365,1365,1365,1365,1365,1365,1365,1365,1365,1365,1365,1365,1370,1370,1370,1365,1365,1376,1376,1376,1376,1376,1376,1376,1376,1376,1376,1376,1376,1376,1376,1376,1376,1376,1376,1376,1376,1376,1376,1376,1376,1376,1376,1376,1381,1387,1381,1381,1381,1381,1381,1381,1387,1387,1387,1387,1387,1387,1387,1381,1381,1381,1381,1381,1381,1381,1381,1381,1387,1387,1387,1387,1387,1387,0,0,0,0,1007,1007,1004,1004,1004,1001,1001,998,995,992,992,989,989,989,989,989,989,992,998,1001,1001,1001,1004,1004,1004,1004,1004,0,1410,1392,1392,1392,1392,1392,1392,1392,1392,1392,1392,1392,1392,1392,1392,1398,1398,1398,1398,1392,1392,1392,1392,1392,1392,1392,1398,1398,1398,1398,1398,1398,1392,1392,1392,1392,1387,1387,1398,1398,1398,1398,1398,1398,1398,1398,1392,1392,1392,1392,1392,1392,1392,1392,1392,1392,1392,1392,1392,1392,1392,1392,1392,1398,1398,1398,1398,1398,1398,1398,1398,1398,1398,1398,1398,1398,1398,1398,1392,1392,1392,1387,1387,1387,1381,1381,1381,1381,1381,1381,1381,1381,1381,1381,1376,1376,1376,1370,1370,1365,1365,1365,1359,1359,1354,1354,1349,1349,1349,1349,1349,1349,1343,1343,1343,1343,1338,1333,1333,1333,1333,1328,1328,1328,1328,1322,1322,1317,1317,1317,1312,1312,1312,1307,1307,1307,1302,1302,1302,1302,1302,1302,1297,1292,1292,1292,1288,1288,1288,1288,1288,1283,1283,1283,1278,1278,1278,1273,1273,1273,1273,1268,1268,1268,1268,1264,1264,1259,1255,1255,1255,1255,1255,1255,1250,1250,1245,1245,1241,1241,1241,1241,1236,1236,1236,1236,1236,1232,1232,1232,1219,1219,1219,1219,1219,1214,1214,1214,1214,1210,1210,1206,1206,1206,0,0,0,0,0,0,0,0,0,0,0,0,0,0,0,0,0,0,0,0,0,0,0,0,0,0,0,0,0,0,0,0
0,0,0,0,0,0,0,1317,1317,1317,1312,1312,1312,1312,1307,1307,1307,1307,1307,1307,1307,1307,1307,1307,1307,1302,1302,1307,1302,1302,1302,1302,1302,1302,1302,1302,1297,1297,1297,1297,1297,1302,1302,1302,1302,1307,1307,1307,1307,1307,1307,1307,1307,1302,1302,1302,1307,1307,1307,1307,1307,1307,1312,1312,1312,1312,1312,1312,1307,1307,1307,1307,1307,1307,1307,1312,1312,1312,1312,1312,1312,1312,1317,1312,1312,1312,1312,1312,1312,1307,1302,1302,1302,1302,0,0,0,0,0,0,940,938,935,933,930,928,928,930,928,928,928,928,930,933,933,933,935,935,938,938,940,943,943,946,0,0,0,1307,1307,1312,1317,1322,1322,1322,1322,1322,1322,1328,1328,1328,1328,1328,1328,1328,1328,1328,1322,1322,1322,1322,1322,1328,1328,1333,1333,1333,1333,1333,1333,1333,1333,1333,1333,1333,1333,1333,1333,1333,1333,1333,1333,1333,1333,1338,1338,1338,1338,1338,1338,1338,1338,1338,1338,1338,1338,1343,1343,1343,1343,1077,1077,1080,1080,1080,1084,1084,1084,1087,1087,1087,1087,1087,1090,1090,1090,1090,1090,1090,1090,1090,1090,1090,1090,1090,1094,1094,1097,1097,1101,1101,1101,1101,0,0,0,0,0,0,0,0,0,0,0,678,678,676,675,674,672,671,670,668,668,667,663,662,661,661,661,661,661,661,662,663,664,666,667,668,670,672,675,676,676,676,678,679,680,0,0,0,0,0,0,0,0,0,1232,1232,1232,1232,1232,1232,1232,1232,1232,1232,1370,1370,1365,1365,1365,1365,1365,1359,1359,1359,1359,1359,1354,1354,1354,1359,1359,1359,1359,1359,1365,1365,1365,1365,1365,1365,1365,1365,1365,1370,1370,1370,1370,1370,1370,1370,1376,1376,1376,1376,1376,1376,1370,1370,1370,1376,1376,1370,1370,1370,1370,1370,1376,1376,1376,1376,1376,1376,1376,1376,1376,1381,1376,1376,1381,1381,1381,1381,1381,1381,1381,1381,1376,1376,1376,1376,1376,1376,1376,1376,1381,1381,1381,1381,1381,1381,0,0,0,0,1010,1010,1007,1004,1004,1001,1001,998,995,992,992,989,989,989,989,989,992,992,998,1001,1001,1001,1004,1004,1004,1004,1004,0,1387,1387,1387,1387,1387,1387,1387,1387,1387,1387,1387,1387,1387,1387,1387,1392,1392,1392,1392,1387,1387,1392,1392,1392,1392,1392,1392,1392,1392,1392,1392,1392,1392,1387,1387,1387,1381,1381,1392,1392,1392,1392,1392,1392,1392,1392,1392,1392,1392,1387,1387,1387,1387,1387,1392,1392,1392,1387,1387,1392,1392,1392,1392,1392,1392,1392,1392,1392,1392,1392,1398,1398,1392,1392,1398,1392,1392,1392,1392,1387,1387,1387,1387,1387,1381,1381,1381,1381,1381,1381,1381,1381,1376,1376,1376,1376,1376,1370,1370,1370,1365,1365,1359,1359,1354,1354,1349,1349,1349,1349,1349,1349,1343,1343,1343,1343,1338,1338,1333,1333,1333,1328,1328,1328,1328,1328,1322,1312,1312,1317,1312,1312,1312,1307,1307,1307,1302,1302,1302,1302,1302,1302,1297,1292,1292,1292,1292,1292,1292,1288,1288,1288,1283,1283,1283,1278,1278,1273,1273,1273,1273,1268,1268,1268,1268,1264,1264,1259,1255,1255,1255,1255,1255,1255,1250,1250,1245,1245,1241,1241,1241,1241,1236,1236,1236,1236,1236,1232,1232,1232,1227,1219,1219,1219,1219,1214,1214,1214,1214,1210,1210,1210,1206,1206,0,0,0,0,0,0,0,0,0,0,0,0,0,0,0,0,0,0,0,0,0,0,0,0,0,0,0,0,0,0,0,0
0,0,0,0,0,0,0,1312,1312,1312,1312,1312,1307,1307,1307,1307,1302,1302,1302,1307,1307,1307,1307,1307,1302,1302,1302,1302,1302,1302,1302,1297,1297,1297,1297,1297,1292,1292,1292,1292,1292,1292,1292,1292,1292,1302,1302,1302,1302,1302,1302,1302,1302,1302,1302,1302,1302,1302,1302,1302,1307,1307,1307,1307,1307,1307,1307,1307,1302,1302,1302,1302,1302,1302,1302,1302,1307,1307,1307,1307,1307,1307,1307,1307,1307,1307,1307,1307,1307,1302,1302,1302,1302,1302,0,0,0,0,0,940,938,938,935,933,933,930,930,930,930,928,928,928,930,933,933,933,935,935,938,940,943,943,946,946,0,946,0,1312,1312,1312,1317,1317,1322,1322,1322,1322,1322,1322,1322,1322,1322,1322,1322,1322,1322,1322,1322,1322,1322,1322,1322,1322,1322,1322,1328,1328,1328,1328,1328,1328,1328,1328,1328,1333,1328,1328,1328,1328,1328,1328,1328,1328,1328,1333,1333,1333,1333,1333,1333,1333,1333,1333,1333,1338,1338,1343,1343,1073,1073,1077,1077,1080,1080,1080,1080,1084,1084,1084,1084,1084,1084,1084,1087,1087,1087,1087,1087,1090,1090,1090,1087,1087,1090,1090,1090,1090,1090,1094,1094,1097,1101,1101,1101,0,0,0,0,0,0,0,0,0,680,678,678,678,676,675,672,671,670,668,668,667,666,663,662,661,661,661,661,662,663,664,664,666,667,668,671,674,675,676,676,678,679,680,682,0,0,0,0,0,0,0,0,0,1232,1232,1232,1232,1232,1232,1232,1232,1232,1232,1359,1359,1359,1359,1359,1359,1354,1354,1354,1349,1349,1354,1349,1349,1349,1354,1354,1354,1354,1354,1359,1354,1354,1354,1359,1359,1365,1365,1365,1370,1370,1370,1370,1370,1370,1370,1370,1370,1370,1370,1370,1370,1370,1370,1370,1370,1370,1370,1370,1370,1370,1370,1370,1370,1370,1370,1370,1370,1370,1370,1370,1370,1376,1376,1376,1376,1381,1381,1381,1376,1376,1376,1376,1376,1376,1376,1376,1376,1376,1376,1376,1381,1376,1376,1376,1376,0,0,0,0,1010,1010,1007,1004,1004,1001,1001,998,995,992,992,989,989,989,989,992,992,995,998,1001,1001,1004,1004,1004,1004,1004,1004,0,1370,1370,1381,1381,1381,1381,1381,1381,1381,1381,1381,1381,1381,1381,1381,1381,1381,1381,1381,1381,1381,1387,1387,1387,1392,1387,1387,1387,1387,1387,1387,1387,1381,1381,1381,1381,1381,1381,1381,1387,1381,1381,1381,1381,1392,1392,1387,1381,1381,1381,1381,1381,1381,1381,1381,1381,1387,1387,1381,1381,1387,1387,1381,1381,1387,1387,1387,1387,1387,1392,1392,1392,1392,1392,1392,1392,1392,1387,1387,1376,1376,1381,1381,1381,1381,1381,1376,1376,1381,1381,1376,1376,1376,1376,1376,1376,1376,1376,1370,1370,1370,1365,1359,1359,1354,1354,1354,1349,1349,1349,1349,1349,1343,1343,1343,1343,1338,1338,1333,1333,1333,1328,1328,1328,1328,1328,1328,1312,1312,1317,1317,1312,1312,1307,1307,1307,1307,1302,1302,1302,1302,1302,1297,1297,1292,1292,1292,1288,1288,1288,1288,1288,1283,1283,1278,1278,1278,1278,1273,1273,1273,1268,1268,1268,1268,1264,1264,1259,1259,1255,1255,1255,1255,1255,1250,1250,1245,1245,1241,1241,1241,1241,1236,1236,1236,1236,1236,1232,1232,1232,1227,1223,1219,1219,1219,1214,1214,1214,1214,1214,1210,1210,1210,1210,0,0,0,0,0,0,0,0,0,0,0,0,0,0,0,0,0,0,0,0,0,0,0,0,0,0,0,0,0,0,0,0
0,0,0,0,0,0,0,1307,1307,1312,1307,1307,1307,1307,1307,1302,1302,1297,1297,1302,1302,1302,1302,1302,1297,1297,1297,1297,1297,1297,1297,1297,1297,1297,1292,1292,1292,1288,1288,1288,1288,1288,1288,1288,1292,1292,1297,1297,1297,1297,1297,1297,1292,1292,1292,1292,1292,1297,1297,1297,1297,1297,1302,1302,1302,1302,1302,1302,1302,1302,1302,1302,1302,1302,1302,1302,1302,1302,1302,1302,1302,1302,1307,1307,1307,1307,1307,1307,1302,1302,1297,1292,1292,1302,0,0,0,0,0,940,938,938,935,933,933,930,930,930,930,930,930,930,930,933,933,933,935,935,938,940,943,943,946,946,946,946,0,0,1312,1312,1317,1317,1317,1317,1317,1317,1317,1317,1317,1317,1317,1317,1317,1322,1317,1317,1317,1317,1317,1317,1317,1317,1317,1317,1317,1322,1322,1322,1328,1328,1328,1328,1328,1328,1328,1328,1328,1328,1328,1328,1328,1328,1328,1328,1328,1328,1328,1328,1328,1328,1328,1333,1333,1333,1333,1067,1067,1073,1073,1077,1077,1077,1077,1077,1077,1080,1080,1080,1080,1080,1080,1084,1084,1084,1087,1087,1087,1087,1087,1087,1087,1087,1087,1087,1087,1087,1087,1087,1090,1090,1097,1101,1101,0,0,0,0,0,0,0,0,0,680,679,678,678,676,675,672,671,671,670,668,668,667,666,662,661,661,661,662,662,663,664,664,667,668,670,671,674,675,676,678,679,680,682,683,0,0,0,0,0,0,0,0,0,1232,1232,1232,1232,1232,1232,1232,1232,1232,1232,1359,1354,1349,1349,1349,1354,1349,1349,1349,1349,1349,1349,1349,1349,1349,1349,1349,1349,1349,1349,1354,1354,1354,1354,1354,1359,1359,1359,1359,1365,1365,1365,1365,1365,1365,1365,1365,1365,1365,1365,1365,1365,1365,1359,1359,1365,1365,1365,1365,1365,1365,1365,1365,1365,1365,1365,1365,1370,1370,1365,1365,1365,1365,1365,1365,1365,1376,1376,1376,1376,1376,1376,1370,1370,1370,1370,1370,1370,1376,1376,1376,1376,1376,1376,1370,1370,0,0,0,0,1010,1010,1004,1004,1004,1004,1001,998,998,995,992,992,989,989,992,992,992,995,998,1001,1004,1004,1004,1004,1004,1004,1370,0,1370,1370,1370,1370,1376,1376,1376,1376,1376,1376,1376,1381,1381,1381,1381,1381,1381,1376,1376,1381,1381,1381,1381,1381,1381,1387,1381,1381,1381,1381,1381,1381,1381,1381,1381,1381,1381,1376,1376,1376,1376,1376,1376,1376,1376,1376,1376,1376,1376,1376,1376,1376,1376,1376,1376,1376,1376,1376,1381,1381,1381,1381,1381,1381,1381,1381,1381,1387,1387,1387,1387,1387,1387,1387,1387,1387,1387,1381,1381,1376,1376,1376,1376,1376,1376,1376,1376,1376,1376,1376,1376,1376,1376,1376,1376,1376,1370,1370,1370,1370,1370,1365,1359,1359,1359,1354,1354,1349,1349,1349,1349,1349,1343,1343,1343,1343,1338,1338,1333,1333,1333,1328,1328,1328,1328,1328,1322,1312,1312,1317,1317,1312,1312,1312,1307,1307,1307,1302,1302,1302,1302,1302,1297,1297,1292,1292,1292,1288,1288,1288,1288,1288,1283,1283,1278,1278,1278,1278,1273,1273,1273,1268,1268,1268,1268,1264,1264,1259,1259,1259,1255,1255,1255,1255,1250,1250,1245,1245,1245,1245,1241,1241,1236,1236,1236,1236,1232,1232,1232,1227,1227,1223,1223,1219,1219,1214,1214,1214,1214,1214,1214,1210,1210,1210,0,0,0,0,0,0,0,0,0,0,0,0,0,0,0,0,0,0,0,0,0,0,0,0,0,0,0,0,0,0,0,0
0,0,0,0,0,0,0,1307,1307,1307,1307,1307,1307,1302,1302,1297,1292,1292,1292,1292,1292,1292,1297,1297,1297,1297,1292,1292,1297,1297,1297,1292,1292,1292,1292,1288,1288,1288,1288,1288,1288,1288,1288,1288,1288,1288,1292,1292,1292,1292,1292,1292,1292,1288,1288,1288,1288,1292,1288,1288,1292,1292,1292,1292,1297,1297,1297,1297,1297,1297,1297,1297,1297,1297,1297,1292,1292,1297,1297,1297,1297,1292,1292,1297,1297,1297,1302,1302,1297,1297,1297,1288,1288,0,0,0,0,0,943,943,940,940,935,935,933,933,930,930,930,930,930,930,930,933,933,935,935,935,938,940,943,946,946,946,946,946,0,1317,0,1317,1317,1317,1317,1317,1317,1317,1312,1312,1312,1312,1312,1312,1312,1312,1317,1317,1317,1317,1317,1317,1317,1317,1312,1312,1317,1317,1317,1317,1317,1322,1322,1328,1328,1328,1328,1328,1322,1322,1322,1322,1322,1322,1322,1322,1328,1328,1328,1328,1328,1328,1328,1054,1054,1060,1063,1063,1067,1067,1073,1073,1073,1077,1077,1077,1077,1077,1077,1077,1077,1077,1077,1080,1080,1084,1084,1084,1084,1087,1087,1087,1087,1087,1087,1084,1084,1084,1084,1084,1080,1077,1077,1101,1101,0,0,0,0,0,0,0,0,0,680,679,679,678,676,675,674,672,671,670,670,670,667,666,663,662,662,662,663,663,664,664,666,667,668,670,671,674,675,676,676,678,682,682,683,686,0,0,0,0,0,0,0,0,1232,1232,1232,1232,1232,1232,1232,1232,1232,1232,1354,1354,1349,1349,1343,1343,1343,1343,1343,1343,1343,1343,1343,1349,1349,1349,1349,1349,1349,1349,1349,1349,1349,1349,1349,1349,1349,1349,1349,1354,1359,1359,1359,1359,1359,1359,1359,1359,1359,1359,1359,1359,1359,1354,1354,1359,1359,1359,1359,1359,1359,1359,1359,1359,1359,1359,1359,1365,1365,1359,1359,1359,1359,1359,1359,1359,1359,1365,1365,1370,1370,1370,1370,1370,1370,1370,1370,1370,1370,1370,1370,1370,1370,1370,1365,1365,0,0,0,0,0,1013,1004,1004,1004,1004,1001,1001,998,995,992,992,992,992,992,992,995,998,1001,1001,1004,1004,1004,1007,1007,1007,0,1365,1365,1365,1370,1370,1365,1365,1370,1370,1376,1376,1376,1376,1376,1376,1376,1376,1376,1376,1376,1376,1376,1370,1370,1376,1376,1376,1376,1376,1376,1376,1376,1376,1376,1376,1376,1376,1376,1376,1376,1376,1376,1376,1370,1370,1370,1370,1376,1370,1370,1376,1376,1376,1370,1370,1376,1376,1376,1370,1370,1370,1370,1376,1376,1376,1376,1376,1376,1381,1376,1376,1376,1381,1381,1381,1381,1381,1381,1381,1381,1376,1376,1376,1376,1376,1376,1376,1370,1370,1376,1376,1376,1376,1370,1370,1376,1370,1370,1370,1370,1370,1370,1365,1359,1359,1354,1354,1354,1354,1349,1349,1349,1349,1349,1349,1343,1343,1338,1338,1333,1333,1333,1333,1328,1328,1328,1328,1322,1312,1312,1317,1317,1312,1312,1312,1307,1307,1307,1307,1302,1302,1302,1302,1297,1297,1292,1292,1292,1288,1288,1288,1288,1283,1283,1283,1283,1283,1283,1278,1273,1273,1273,1268,1268,1268,1268,1264,1264,1259,1259,1259,1255,1255,1255,1255,1250,1250,1245,1245,1245,1245,1241,1241,1236,1236,1232,1232,1232,1227,1227,1227,1227,1223,1219,1219,1219,1219,1219,1214,1214,1214,1214,1214,1210,1210,0,0,0,0,0,0,0,0,0,0,0,0,0,0,0,0,0,0,0,0,0,0,0,0,0,0,0,0,0,0,0,0
0,0,0,0,0,0,0,1302,1302,1307,1302,1302,1302,1297,1292,1292,1292,1288,1288,1288,1288,1288,1288,1292,1292,1292,1288,1288,1288,1292,1288,1288,1288,1292,1288,1288,1288,1288,1288,1288,1288,1288,1288,1288,1288,1288,1288,1288,1288,1288,1288,1288,1288,1288,1288,1288,1288,1288,1283,1283,1288,1288,1288,1288,1288,1292,1292,1292,1292,1292,1292,1292,1292,1292,1292,1292,1292,1292,1292,1292,1292,1292,1292,1292,1292,1292,1297,1292,1292,1292,1288,1288,1288,0,0,0,0,0,943,943,940,940,938,935,933,933,933,933,930,930,930,930,933,933,933,935,935,938,938,943,943,946,946,946,946,948,0,0,0,1312,1312,1312,1312,1312,1317,1312,1312,1312,1312,1312,1307,1307,1307,1312,1312,1312,1312,1312,1312,1317,1317,1312,1312,1312,1312,1312,1312,1312,1317,1317,1317,1317,1317,1317,1317,1322,1322,1322,1322,1322,1322,1322,1322,1322,1322,1328,1328,1328,1328,1054,1054,1054,1054,1060,1063,1063,1063,1067,1070,1073,1073,1073,1073,1073,1073,1077,1077,1077,1077,1077,1077,1077,1080,1080,1080,1080,1080,1084,1084,1084,1084,1084,1084,1084,1084,1084,1080,1080,1080,1077,1077,1080,0,0,0,0,0,0,0,0,0,0,680,679,679,678,676,675,674,672,671,670,670,670,668,666,666,664,663,663,664,664,664,666,666,667,668,670,671,674,675,676,676,678,680,682,683,684,0,0,0,0,0,0,0,0,0,1232,1232,1232,1232,1232,1232,1232,1232,1232,1354,1354,1349,1343,1343,1343,1343,1343,1338,1338,1338,1338,1343,1343,1343,1343,1343,1343,1343,1343,1343,1343,1343,1343,1349,1343,1343,1343,1343,1349,1354,1354,1354,1354,1354,1354,1354,1354,1354,1354,1354,1354,1354,1354,1349,1349,1354,1354,1354,1354,1354,1354,1354,1359,1359,1354,1354,1359,1359,1354,1354,1354,1354,1354,1354,1354,1354,1354,1359,1359,1359,1359,1365,1365,1365,1365,1365,1365,1365,1359,1359,1359,1359,1359,1354,1354,1354,0,0,0,0,1013,1004,1004,1004,1004,1001,1001,998,995,992,992,992,992,992,992,995,998,1001,1004,1004,1004,1004,1007,1007,1007,0,1365,1365,1365,1365,1365,1365,1365,1365,1365,1370,1370,1370,1370,1376,1376,1376,1376,1376,1370,1370,1370,1370,1370,1370,1370,1365,1365,1365,1365,1370,1370,1370,1376,1376,1370,1370,1370,1370,1370,1365,1365,1365,1370,1370,1370,1370,1370,1370,1370,1370,1376,1370,1370,1365,1365,1370,1370,1370,1370,1370,1370,1370,1370,1370,1370,1370,1370,1376,1376,1370,1370,1370,1376,1376,1376,1376,1376,1376,1376,1376,1376,1376,1370,1370,1370,1370,1370,1370,1370,1376,1370,1370,1376,1370,1370,1370,1370,1370,1370,1370,1370,1365,1365,1359,1359,1354,1354,1354,1354,1349,1349,1349,1349,1349,1343,1343,1343,1343,1338,1338,1333,1333,1333,1328,1328,1328,1328,1328,1322,1322,1317,1317,1312,1312,1312,1307,1307,1307,1307,1302,1302,1302,1297,1297,1297,1292,1292,1292,1288,1288,1288,1288,1283,1283,1283,1283,1283,1283,1278,1278,1273,1273,1273,1268,1268,1268,1264,1264,1259,1259,1259,1255,1255,1255,1255,1250,1250,1245,1245,1245,1245,1245,1241,1241,1236,1232,1232,1232,1227,1227,1227,1227,1227,1219,1219,1223,1219,1219,1214,1214,1214,1214,1214,1214,1214,0,0,0,0,0,0,0,0,0,0,0,0,0,0,0,0,0,0,0,0,0,0,0,0,0,0,0,0,0,0,0,0
0,0,0,0,0,0,0,1297,1297,1297,1292,1292,1288,1288,1288,1288,1288,1288,1288,1288,1288,1288,1288,1288,1288,1288,1288,1283,1283,1288,1288,1283,1283,1283,1283,1283,1283,1283,1283,1283,1283,1283,1283,1283,1283,1283,1283,1283,1283,1283,1283,1283,1288,1288,1288,1283,1283,1283,1283,1283,1283,1283,1283,1283,1288,1288,1288,1288,1288,1288,1288,1288,1288,1288,1288,1288,1288,1288,1288,1288,1288,1288,1288,1292,1292,1292,1292,1292,1288,1288,1288,1283,1283,0,0,0,0,0,943,943,943,940,938,935,933,933,933,930,930,930,933,933,933,933,933,935,935,938,940,943,943,946,946,948,948,948,0,0,0,1307,1307,1307,1307,1307,1312,1307,1307,1307,1307,1307,1307,1307,1307,1307,1307,1307,1307,1307,1307,1312,1312,1312,1312,1312,1312,1312,1312,1312,1312,1312,1312,1312,1312,1312,1317,1317,1312,1312,1312,1317,1317,1317,1322,1322,1322,1328,1328,1328,1054,1054,1054,1057,1057,1060,1063,1063,1063,1067,1067,1070,1070,1070,1073,1073,1073,1073,1077,1077,1077,1077,1077,1077,1080,1080,1080,1080,1080,1084,1084,1084,1084,1084,1084,1080,1080,1080,1080,1080,1077,1077,1080,1080,0,0,0,0,0,0,0,0,0,0,682,680,679,678,676,675,674,672,671,671,670,670,668,667,666,664,664,664,664,664,664,666,666,667,668,671,671,674,675,676,676,678,680,682,683,684,0,0,0,0,0,0,0,0,0,1236,1232,1232,1232,1232,1236,1236,1232,1232,1354,1354,1349,1343,1343,1338,1338,1338,1333,1333,1333,1338,1338,1338,1338,1343,1343,1343,1343,1343,1338,1338,1343,1343,1343,1343,1343,1343,1343,1349,1349,1349,1349,1349,1354,1354,1354,1349,1349,1349,1349,1349,1349,1349,1343,1343,1349,1349,1349,1349,1349,1354,1354,1354,1359,1354,1354,1359,1359,1354,1354,1354,1349,1349,1354,1354,1354,1354,1354,1354,1354,1354,1354,1354,1359,1359,1354,1354,1359,1359,1359,1354,1354,1354,1349,1343,1343,0,0,0,0,1013,1004,1004,1004,1004,1004,1001,1001,998,995,992,992,992,992,995,998,1001,1001,1004,1004,1004,1004,1007,1007,1007,0,1365,1365,1365,1365,1365,1365,1365,1365,1365,1370,1365,1365,1365,1370,1370,1370,1370,1370,1370,1365,1365,1365,1365,1365,1365,1359,1359,1359,1359,1359,1359,1370,1370,1370,1370,1370,1370,1370,1370,1365,1365,1365,1365,1365,1365,1365,1365,1370,1365,1365,1370,1370,1365,1365,1365,1365,1365,1365,1365,1365,1370,1370,1370,1370,1365,1365,1365,1370,1370,1365,1365,1365,1370,1370,1370,1370,1370,1376,1376,1376,1370,1370,1370,1370,1370,1370,1370,1370,1370,1370,1370,1370,1370,1370,1370,1370,1370,1365,1365,1365,1365,1365,1359,1359,1354,1354,1354,1354,1354,1349,1349,1349,1349,1349,1343,1343,1343,1343,1338,1338,1333,1333,1333,1333,1328,1328,1328,1328,1322,1322,1317,1317,1317,1312,1312,1307,1307,1307,1307,1302,1302,1302,1297,1297,1297,1292,1292,1288,1288,1288,1288,1288,1288,1283,1283,1283,1283,1283,1278,1273,1273,1273,1273,1268,1268,1268,1268,1264,1259,1259,1259,1259,1255,1255,1255,1250,1250,1250,1245,1245,1245,1245,1241,1236,1236,1236,1232,1232,1227,1227,1227,1227,1227,1223,1223,1223,1219,1219,1214,1214,1214,1214,1214,1214,1219,0,0,0,0,0,0,0,0,0,0,0,0,0,0,0,0,0,0,0,0,0,0,0,0,0,0,0,0,0,0,0,0
0,0,0,0,0,0,0,1297,1292,1292,1283,1283,1283,1283,1288,1288,1288,1283,1283,1288,1288,1283,1283,1283,1278,1278,1283,1278,1278,1278,1278,1283,1283,1283,1283,1283,1283,1283,1283,1283,1283,1283,1283,1283,1283,1283,1283,1283,1283,1283,1283,1283,1283,1283,1283,1283,1283,1278,1273,1273,1273,1273,1278,1278,1283,1283,1283,1283,1283,1283,1283,1283,1283,1283,1283,1283,1283,1283,1283,1283,1283,1288,1288,1288,1288,1288,1288,1288,1288,1288,1288,1283,1283,1283,0,0,0,0,943,943,943,940,938,935,933,933,933,930,930,930,930,930,933,933,933,935,935,938,940,943,946,946,946,948,948,948,951,0,1307,1307,1307,1307,1302,1302,1302,1302,1302,1302,1302,1302,1302,1302,1302,1302,1302,1302,1302,1307,1307,1307,1307,1307,1307,1307,1307,1307,1307,1307,1307,1307,1307,1312,1312,1312,1312,1312,1312,1312,1307,1307,1312,1312,1322,1322,1322,1328,1054,1054,1054,1054,1057,1054,1054,1057,1060,1060,1060,1063,1063,1067,1070,1070,1070,1070,1070,1073,1073,1073,1073,1073,1077,1077,1077,1080,1080,1080,1080,1084,1084,1080,1080,1080,1080,1077,1077,1077,1077,1077,1077,1077,1077,1077,0,0,0,0,0,0,0,0,0,0,682,680,679,679,676,675,674,674,672,671,670,670,668,667,666,664,664,664,664,664,664,666,666,667,668,671,672,674,676,676,676,678,680,682,683,683,0,0,0,0,0,0,0,0,0,1236,1236,1236,1236,1236,1236,1241,1236,1236,1241,1354,1343,1338,1333,1333,1333,1333,1333,1333,1333,1333,1333,1333,1333,1333,1333,1338,1338,1338,1338,1338,1338,1338,1338,1338,1338,1338,1338,1349,1349,1349,1349,1349,1349,1349,1349,1349,1343,1343,1343,1343,1343,1343,1343,1343,1343,1349,1349,1349,1349,1349,1349,1354,1354,1354,1354,1354,1354,1349,1349,1349,1349,1349,1349,1349,1349,1349,1349,1349,1349,1349,1349,1349,1343,1343,1343,1354,1354,1354,1354,1354,1349,1349,1343,1338,1338,1338,0,1016,1016,1016,1013,1010,1007,1004,1004,1001,1001,998,995,995,992,992,995,995,998,1001,1004,1004,1004,1007,1007,1007,1010,0,0,0,1365,1359,1359,1359,1359,1359,1359,1359,1365,1359,1359,1359,1359,1359,1359,1365,1365,1365,1365,1365,1365,1359,1359,1359,1359,1359,1359,1359,1359,1359,1359,1359,1365,1365,1365,1365,1365,1365,1359,1359,1359,1359,1359,1359,1359,1359,1365,1365,1365,1365,1365,1359,1359,1359,1354,1354,1354,1354,1359,1359,1359,1359,1359,1359,1359,1359,1359,1359,1359,1359,1359,1365,1365,1370,1365,1365,1370,1370,1370,1370,1365,1354,1354,1365,1365,1365,1365,1365,1365,1370,1370,1370,1370,1370,1370,1370,1365,1365,1365,1365,1365,1359,1359,1354,1354,1354,1354,1354,1349,1349,1349,1349,1349,1349,1343,1343,1343,1338,1338,1333,1333,1333,1333,1328,1328,1328,1322,1322,1322,1317,1317,1317,1317,1312,1312,1307,1307,1307,1302,1302,1302,1297,1297,1297,1292,1292,1288,1288,1288,1288,1288,1288,1283,1283,1283,1283,1283,1278,1273,1273,1273,1273,1268,1268,1268,1268,1264,1264,1259,1259,1259,1259,1255,1255,1255,1250,1250,1245,1245,1245,1245,1241,1236,1236,1236,1232,1232,1227,1227,1227,1227,1227,1223,1223,1223,1219,1219,1214,1214,1219,1219,1219,1219,1223,0,0,0,0,0,0,0,0,0,0,0,0,0,0,0,0,0,0,0,0,0,0,0,0,0,0,0,0,0,0,0,0
0,0,0,0,0,0,0,1288,1283,1283,1278,1278,1278,1278,1283,1283,1283,1278,1278,1283,1278,1278,1273,1273,1273,1273,1278,1278,1278,1273,1273,1278,1278,1273,1273,1278,1278,1278,1278,1278,1278,1278,1278,1278,1283,1283,1283,1283,1283,1278,1278,1283,1283,1283,1283,1278,1278,1273,1273,1273,1273,1273,1278,1278,1278,1283,1283,1283,1283,1283,1283,1283,1283,1283,1283,1283,1283,1283,1283,1283,1283,1283,1283,1283,1283,1283,1283,1283,1283,1283,1283,1283,1283,1283,0,0,0,0,943,943,943,940,938,935,933,933,933,930,930,930,930,930,933,933,933,935,935,938,940,943,946,948,948,948,951,951,951,0,1307,1307,1302,1302,1297,1297,1297,1297,1297,1297,1292,1292,1297,1297,1297,1297,1302,1302,1302,1302,1302,1302,1302,1302,1302,1302,1302,1307,1307,1307,1307,1307,1307,1307,1307,1307,1307,1307,1047,1047,1047,1047,1047,1050,1054,1054,1054,1054,1054,1054,1054,1057,1057,1054,1054,1057,1057,1057,1060,1060,1060,1063,1067,1067,1070,1070,1070,1070,1073,1073,1073,1073,1073,1077,1077,1080,1080,1080,1080,1084,1084,1080,1077,1077,1077,1077,1077,1073,1073,1073,1073,1073,1073,1073,0,0,0,0,0,0,0,0,0,0,682,680,679,679,678,676,674,674,672,671,670,670,668,667,666,664,664,664,664,664,666,666,667,667,670,671,672,675,676,678,678,679,682,682,683,683,0,0,0,0,0,0,0,0,0,1236,1236,1236,1236,1236,1241,1241,1241,1241,1241,1241,1333,1328,1328,1328,1328,1328,1328,1328,1328,1328,1328,1328,1328,1328,1328,1328,1328,1328,1333,1333,1333,1338,1338,1338,1338,1338,1338,1343,1343,1343,1343,1343,1343,1343,1343,1343,1338,1338,1338,1338,1338,1338,1338,1338,1338,1343,1343,1343,1343,1343,1343,1349,1349,1349,1343,1343,1349,1349,1343,1343,1343,1343,1343,1349,1349,1349,1349,1343,1343,1343,1343,1343,1338,1338,1343,1343,1343,1343,1349,1349,1349,1349,1338,1338,1338,1338,0,1013,1013,1013,1013,1010,1010,1007,1004,1001,1001,1001,998,995,995,995,995,995,998,1001,1004,1004,1007,1007,1007,1010,1010,0,0,0,1359,1359,1354,1354,1354,1354,1359,1359,1359,1354,1354,1354,1354,1354,1354,1354,1354,1359,1359,1359,1359,1354,1354,1354,1354,1354,1354,1359,1359,1354,1354,1359,1359,1359,1354,1354,1354,1359,1359,1359,1359,1359,1359,1359,1359,1359,1359,1359,1359,1359,1354,1354,1354,1354,1354,1354,1354,1354,1354,1354,1354,1354,1354,1354,1354,1354,1354,1354,1354,1354,1354,1359,1365,1365,1365,1365,1365,1365,1365,1365,1354,1354,1354,1354,1354,1359,1359,1359,1359,1365,1365,1365,1365,1365,1365,1365,1365,1365,1365,1365,1365,1359,1354,1354,1354,1354,1354,1354,1349,1349,1349,1349,1349,1349,1343,1343,1343,1338,1338,1338,1333,1333,1333,1328,1328,1328,1322,1322,1322,1317,1317,1317,1317,1312,1312,1307,1307,1307,1302,1302,1302,1297,1297,1292,1292,1292,1292,1288,1288,1288,1288,1288,1283,1283,1283,1283,1283,1278,1278,1273,1273,1273,1273,1268,1268,1264,1264,1264,1259,1259,1259,1259,1255,1255,1255,1255,1250,1245,1245,1245,1245,1241,1241,1236,1236,1236,1232,1227,1227,1227,1227,1223,1223,1223,1223,1223,1219,1219,1219,1219,1219,1084,1084,1227,0,0,0,0,0,0,0,0,0,0,0,0,0,0,0,0,0,0,0,0,0,0,0,0,0,0,0,0,0,0,0,0
0,0,0,0,0,0,0,1278,1278,1278,1278,1273,1273,1278,1278,1278,1278,1278,1278,1278,1278,1278,1273,1273,1273,1273,1273,1273,1273,1273,1273,1273,1273,1273,1273,1273,1273,1273,1273,1273,1278,1278,1278,1278,1278,1278,1278,1278,1278,1278,1278,1278,1278,1278,1278,1278,1278,1268,1268,1268,1268,1268,1273,1273,1273,1278,1278,1278,1278,1278,1278,1278,1278,1278,1278,1278,1278,1278,1278,1278,1278,1278,1273,1273,1278,1278,1278,1278,1278,1278,1283,1283,1283,1283,0,0,0,0,946,943,943,940,938,935,933,933,933,930,930,930,930,930,933,933,933,935,935,938,940,943,946,948,948,948,951,951,951,0,1292,1297,1297,1292,1292,1288,1288,1292,1292,1292,1292,1292,1292,1292,1292,1292,1297,1297,1297,1297,1297,1297,1297,1297,1297,1302,1302,1302,1302,1302,1302,1302,1307,1307,1307,1307,1307,1044,1044,1044,1047,1047,1047,1047,1047,1050,1050,1050,1050,1054,1054,1054,1054,1054,1054,1054,1054,1057,1057,1057,1060,1063,1063,1067,1067,1067,1067,1070,1073,1073,1073,1073,1073,1077,1077,1080,1080,1080,1080,1084,1080,1077,1077,1077,1077,1073,1073,1073,1073,1070,1070,1070,1070,1070,0,0,0,0,0,0,0,0,0,0,682,680,680,679,678,676,675,674,672,671,670,670,668,667,666,666,664,664,664,666,666,666,667,668,670,671,672,675,676,678,679,680,682,682,683,684,0,0,0,0,0,0,0,0,1241,1236,1236,1236,1236,1241,1241,1241,1241,1241,1241,1241,1328,1328,1328,1328,1328,1328,1328,1328,1328,1328,1322,1322,1328,1328,1328,1328,1328,1328,1328,1328,1328,1328,1333,1333,1333,1333,1333,1338,1338,1338,1338,1338,1338,1338,1338,1338,1333,1333,1333,1333,1333,1333,1333,1333,1333,1338,1338,1338,1338,1338,1343,1343,1343,1343,1343,1343,1343,1343,1338,1338,1343,1338,1338,1343,1343,1343,1338,1338,1338,1338,1338,1338,1338,1338,1338,1338,1338,1338,1338,1338,1343,1343,1338,1338,1338,1338,0,1013,1013,1013,1013,1010,1010,1007,1004,1001,1001,1001,998,998,998,995,995,995,998,1001,1004,1004,1007,1007,1007,1010,1010,0,0,0,1354,1354,1354,1349,1349,1354,1354,1354,1354,1354,1354,1354,1349,1349,1349,1354,1354,1354,1354,1354,1354,1354,1349,1349,1349,1354,1354,1354,1354,1354,1354,1354,1354,1354,1354,1354,1354,1354,1354,1354,1354,1354,1354,1354,1354,1354,1354,1354,1354,1354,1354,1354,1354,1354,1354,1354,1354,1349,1349,1349,1349,1349,1349,1354,1354,1354,1354,1354,1354,1354,1354,1354,1354,1359,1354,1354,1359,1359,1354,1354,1354,1354,1354,1354,1354,1354,1354,1354,1359,1359,1365,1359,1359,1359,1359,1359,1359,1359,1359,1359,1359,1359,1354,1354,1354,1354,1349,1349,1349,1349,1349,1349,1349,1349,1349,1343,1343,1343,1338,1338,1333,1333,1333,1328,1328,1328,1328,1322,1322,1317,1317,1317,1317,1312,1312,1307,1307,1307,1302,1302,1297,1292,1292,1292,1292,1292,1288,1288,1288,1288,1288,1288,1283,1283,1283,1283,1283,1278,1278,1273,1273,1273,1273,1268,1264,1259,1259,1259,1259,1259,1255,1255,1255,1255,1255,1255,1250,1245,1245,1245,1245,1241,1241,1236,1236,1236,1232,1232,1232,1227,1227,1223,1223,1223,1223,1219,1219,1214,1214,1214,1214,1084,1084,0,0,0,0,0,0,0,0,0,0,0,0,0,0,0,0,0,0,0,0,0,0,0,0,0,0,0,0,0,0,0,0,0
0,0,0,0,0,0,0,1273,1273,1273,1273,1273,1273,1273,1278,1278,1273,1273,1273,1278,1273,1273,1268,1268,1268,1268,1273,1268,1268,1268,1273,1273,1268,1268,1268,1268,1273,1273,1273,1273,1273,1273,1273,1273,1268,1268,1273,1273,1273,1273,1273,1278,1278,1273,1273,1273,1273,1268,1264,1264,1264,1264,1268,1268,1273,1273,1273,1273,1273,1273,1273,1273,1273,1273,1273,1273,1273,1273,1273,1273,1273,1273,1273,1273,1273,1273,1273,1273,1278,1278,1283,1283,1283,1283,0,0,0,0,946,946,943,943,938,938,935,933,933,933,930,930,930,933,933,933,933,935,935,938,943,946,948,948,948,948,951,951,951,1288,1292,1292,1292,1288,1288,1288,1288,1288,1288,1288,1288,1288,1288,1288,1292,1292,1292,1292,1292,1292,1292,1292,1292,1292,1292,1292,1297,1297,1302,1302,1302,1302,1302,1302,1307,1307,1038,1038,1041,1044,1044,1044,1044,1047,1047,1047,1047,1047,1047,1050,1050,1050,1050,1050,1050,1050,1054,1057,1057,1057,1060,1063,1063,1067,1067,1067,1067,1070,1073,1073,1073,1073,1073,1077,1080,1080,1080,1084,1084,1084,1080,1077,1073,1073,1073,1073,1073,1070,1067,1067,1067,1067,1067,1067,0,0,0,0,0,0,0,0,0,0,682,680,680,680,679,678,675,674,672,671,670,670,668,667,666,666,664,664,664,666,666,667,668,670,671,672,672,675,676,678,679,680,682,682,682,683,0,0,0,0,0,0,0,0,1241,1236,1236,1236,1236,1241,1245,1245,1245,1245,1245,1245,1328,1328,1322,1322,1322,1322,1322,1322,1322,1322,1322,1322,1322,1322,1322,1322,1322,1322,1322,1322,1322,1322,1322,1322,1328,1328,1328,1333,1333,1333,1333,1333,1333,1333,1333,1333,1333,1333,1333,1333,1333,1333,1333,1333,1333,1333,1333,1333,1333,1333,1338,1338,1338,1338,1338,1338,1333,1333,1333,1333,1338,1333,1333,1338,1338,1338,1338,1333,1333,1333,1338,1333,1333,1333,1333,1333,1338,1338,1338,1338,1338,1333,1333,1333,1333,1328,1013,1013,1013,1013,1013,1010,1010,1007,1004,1001,1001,1001,1001,998,998,998,995,995,998,1001,1004,1004,1007,1007,1010,1010,1010,1010,0,1354,1354,1349,1349,1349,1349,1349,1349,1349,1349,1349,1349,1349,1349,1349,1349,1349,1349,1349,1349,1343,1343,1349,1343,1343,1349,1349,1349,1349,1349,1349,1349,1349,1349,1354,1349,1349,1354,1354,1349,1349,1349,1349,1349,1349,1349,1354,1354,1349,1349,1349,1349,1349,1349,1349,1349,1354,1349,1349,1349,1349,1349,1349,1349,1349,1349,1349,1349,1349,1349,1349,1349,1349,1349,1349,1349,1349,1354,1354,1354,1349,1349,1349,1349,1349,1349,1354,1354,1354,1354,1359,1359,1359,1359,1354,1354,1359,1354,1354,1354,1354,1354,1354,1354,1354,1349,1349,1349,1349,1349,1343,1343,1343,1343,1343,1343,1343,1343,1343,1338,1338,1333,1333,1333,1328,1328,1328,1328,1322,1322,1317,1317,1317,1317,1312,1312,1307,1307,1307,1302,1302,1297,1292,1292,1292,1292,1292,1288,1288,1288,1288,1288,1288,1283,1283,1283,1283,1283,1278,1278,1273,1273,1273,1273,1268,1264,1259,1259,1259,1259,1259,1255,1255,1255,1250,1250,1250,1250,1245,1241,1241,1245,1241,1241,1236,1236,1236,1232,1232,1232,1227,1227,1223,1223,1223,1223,1219,1219,1214,1214,1090,1087,1084,1084,0,0,0,0,0,0,0,0,0,0,0,0,0,0,0,0,0,0,0,0,0,0,0,0,0,0,0,0,0,0,0,0,0
0,0,0,0,0,0,0,1273,1273,1273,1273,1273,1273,1273,1273,1273,1273,1268,1268,1273,1273,1268,1268,1268,1268,1268,1268,1268,1264,1264,1268,1268,1268,1268,1268,1268,1268,1268,1268,1268,1268,1268,1268,1268,1259,1259,1264,1264,1268,1268,1273,1268,1268,1268,1268,1268,1268,1268,1264,1264,1259,1259,1264,1264,1264,1268,1268,1268,1268,1268,1268,1268,1268,1268,1268,1268,1268,1268,1268,1268,1268,1268,1268,1268,1268,1268,1268,1268,1268,1273,1273,1273,1273,1278,0,0,0,0,0,946,946,943,940,938,935,935,933,933,933,933,933,933,933,935,935,935,938,940,943,946,948,948,948,948,951,951,951,1288,1288,1288,1288,1283,1283,1283,1283,1288,1288,1288,1288,1288,1288,1288,1288,1288,1288,1288,1288,1288,1288,1288,1288,1288,1288,1292,1292,1292,1297,1297,1038,1038,1302,1034,1034,1038,1038,1038,1038,1041,1041,1044,1044,1044,1044,1047,1047,1047,1047,1047,1047,1050,1047,1047,1050,1050,1054,1054,1057,1057,1060,1063,1063,1067,1067,1067,1070,1070,1073,1073,1073,1073,1077,1077,1080,1084,1084,1084,1084,1084,1080,1077,1073,1073,1073,1070,1070,1067,1063,1063,1063,1063,1063,1063,0,0,0,0,0,0,0,0,0,0,682,680,680,680,679,678,676,675,672,671,670,670,668,667,666,664,664,664,664,666,666,667,667,670,671,672,674,676,678,678,680,680,682,682,682,683,0,0,0,0,0,0,0,0,1241,1236,1236,1236,1241,1241,1245,1245,1245,1245,1245,1245,1322,1322,1322,1322,1322,1317,1317,1322,1322,1322,1322,1322,1322,1322,1322,1322,1322,1322,1322,1322,1322,1317,1317,1322,1322,1322,1328,1328,1328,1328,1328,1328,1328,1328,1328,1328,1328,1328,1328,1328,1328,1328,1328,1328,1328,1328,1328,1328,1328,1333,1333,1333,1333,1333,1333,1333,1333,1333,1333,1333,1333,1333,1333,1333,1333,1333,1333,1333,1333,1333,1333,1333,1333,1333,1333,1333,1333,1333,1333,1333,1333,1333,1333,1328,1328,1328,1013,1013,1013,1013,1013,1013,1010,1007,1004,1004,1004,1001,1001,998,998,998,995,995,998,998,1004,1007,1007,1010,1010,1010,1010,1010,0,1349,1349,1349,1343,1343,1343,1343,1343,1343,1343,1343,1343,1343,1338,1338,1338,1338,1338,1333,1333,1338,1338,1338,1338,1338,1343,1349,1349,1349,1349,1349,1349,1349,1349,1343,1343,1349,1343,1343,1343,1343,1349,1349,1343,1343,1349,1349,1349,1349,1343,1343,1349,1349,1349,1349,1349,1349,1349,1349,1349,1349,1349,1349,1349,1349,1349,1349,1349,1349,1349,1349,1349,1343,1343,1338,1338,1343,1343,1343,1349,1349,1349,1349,1343,1343,1349,1349,1349,1349,1349,1354,1354,1354,1354,1349,1349,1349,1354,1354,1349,1349,1354,1354,1354,1349,1349,1349,1349,1349,1343,1343,1343,1343,1343,1343,1343,1343,1343,1343,1338,1338,1333,1333,1333,1328,1328,1322,1322,1322,1322,1317,1317,1317,1317,1312,1312,1307,1307,1307,1307,1302,1297,1297,1292,1292,1292,1292,1288,1288,1288,1288,1288,1288,1288,1288,1283,1283,1283,1278,1278,1273,1273,1268,1268,1268,1264,1264,1264,1264,1259,1259,1259,1255,1255,1250,1250,1250,1250,1245,1241,1241,1241,1241,1236,1236,1236,1236,1232,1232,1232,1227,1227,1223,1223,1223,1223,1223,1219,1219,1219,1090,1087,1087,1087,0,0,0,0,0,0,0,0,0,0,0,0,0,0,0,0,0,0,0,0,0,0,0,0,0,0,0,0,0,0,0,0,0
0,0,0,0,0,0,1268,1268,1268,1268,1268,1268,1268,1268,1268,1268,1268,1264,1264,1268,1268,1268,1264,1264,1268,1264,1264,1264,1264,1264,1264,1264,1264,1264,1264,1264,1268,1268,1268,1268,1264,1264,1264,1255,1255,1255,1259,1259,1264,1264,1264,1264,1264,1264,1264,1264,1264,1264,1259,1259,1255,1255,1259,1259,1259,1264,1264,1264,1264,1264,1264,1268,1268,1264,1264,1268,1268,1268,1268,1268,1268,1268,1264,1264,1264,1264,1264,1268,1268,1268,1268,1268,1268,1278,1278,0,0,0,0,0,946,946,940,938,935,935,933,933,933,933,933,933,933,935,935,935,938,943,943,946,946,948,948,948,951,951,0,1283,1283,1283,1283,1283,1283,1283,1283,1283,1283,1283,1283,1283,1283,1283,1283,1283,1283,1283,1283,1283,1283,1283,1283,1283,1288,1288,1288,1288,1288,1292,1034,1034,1034,1034,1034,1034,1034,1034,1038,1038,1041,1041,1044,1044,1044,1044,1044,1044,1044,1047,1047,1047,1047,1047,1047,1050,1050,1050,1054,1057,1057,1063,1063,1067,1067,1070,1070,1070,1073,1073,1073,1073,1077,1077,1080,1084,1084,1084,1084,1084,1080,1077,1073,1073,1073,1070,1070,1067,1063,1063,1063,1060,1060,1063,0,0,0,0,0,0,0,0,0,0,682,680,680,682,679,678,676,675,674,671,671,670,668,666,666,664,664,664,664,666,666,667,667,670,671,674,675,676,678,679,680,680,682,682,682,0,0,0,0,0,0,0,0,0,1241,1241,1241,1241,1241,1245,1245,1245,1245,1245,1245,1245,1322,1322,1317,1317,1317,1317,1317,1317,1317,1317,1317,1317,1317,1317,1317,1317,1317,1317,1317,1317,1317,1317,1317,1317,1317,1317,1322,1322,1322,1322,1322,1322,1322,1322,1322,1322,1322,1322,1322,1322,1322,1328,1328,1328,1328,1328,1328,1328,1328,1328,1328,1328,1328,1328,1328,1328,1328,1328,1328,1328,1328,1328,1328,1328,1333,1333,1333,1333,1328,1328,1333,1328,1328,1328,1328,1328,1328,1322,1322,1328,1328,1328,1328,1322,1322,1322,1013,1013,1013,1013,1013,1013,1010,1010,1007,1004,1004,1004,1001,998,998,998,995,995,998,998,1004,1007,1010,1013,1013,1013,1013,1013,0,1338,1338,1338,1338,1338,1338,1343,1338,1338,1338,1338,1338,1338,1338,1333,1333,1333,1333,1333,1333,1333,1333,1333,1333,1333,1343,1343,1343,1343,1343,1349,1349,1349,1343,1343,1343,1343,1343,1343,1343,1343,1343,1338,1338,1338,1343,1343,1343,1343,1338,1338,1343,1343,1343,1343,1343,1343,1343,1343,1343,1343,1343,1343,1343,1343,1343,1343,1343,1343,1338,1338,1338,1338,1338,1338,1338,1338,1338,1338,1338,1338,1338,1343,1343,1343,1343,1343,1343,1343,1343,1349,1349,1349,1349,1349,1343,1343,1343,1349,1349,1349,1349,1349,1349,1349,1349,1349,1343,1343,1343,1343,1343,1343,1343,1343,1343,1343,1343,1343,1338,1338,1333,1333,1328,1328,1328,1322,1322,1322,1317,1317,1317,1317,1317,1312,1312,1307,1307,1307,1307,1302,1302,1297,1297,1292,1292,1292,1292,1288,1288,1292,1288,1288,1288,1288,1283,1283,1283,1278,1278,1273,1273,1268,1268,1268,1268,1268,1264,1264,1264,1259,1259,1255,1255,1255,1250,1250,1250,1245,1241,1241,1241,1241,1236,1236,1236,1236,1232,1232,1232,1227,1227,1223,1223,1223,1223,1223,1223,1223,1090,1090,1087,1087,1087,0,0,0,0,0,0,0,0,0,0,0,0,0,0,0,0,0,0,0,0,0,0,0,0,0,0,0,0,0,0,0,0,0
0,0,0,0,0,0,1268,1268,1268,1268,1268,1268,1268,1268,1268,1268,1264,1264,1264,1264,1264,1264,1264,1264,1264,1264,1264,1264,1259,1259,1259,1259,1259,1259,1259,1255,1255,1259,1264,1264,1264,1264,1259,1250,1245,1245,1250,1250,1255,1255,1255,1259,1264,1264,1259,1259,1259,1259,1259,1255,1255,1255,1255,1255,1255,1259,1264,1264,1264,1264,1264,1264,1264,1264,1264,1264,1264,1264,1264,1264,1264,1264,1264,1264,1264,1264,1264,1264,1264,1264,1264,1264,1264,1264,1278,0,0,0,0,0,946,946,943,940,938,935,935,933,933,933,933,933,935,935,935,938,938,943,943,946,946,948,948,951,951,951,0,1278,1278,1278,1283,1283,1283,1283,1283,1283,1283,1283,1283,1283,1283,1283,1283,1283,1283,1283,1283,1283,1283,1283,1283,1283,1283,1283,1283,1283,1025,1025,1031,1031,1031,1031,1034,1034,1034,1034,1038,1038,1038,1041,1041,1041,1041,1041,1041,1041,1041,1044,1044,1047,1047,1047,1047,1050,1050,1050,1054,1054,1057,1063,1063,1067,1067,1070,1070,1070,1073,1073,1077,1077,1080,1084,1084,1084,1084,1087,1087,1084,1080,1077,1073,1073,1073,1070,1067,1063,1063,1063,1060,1060,1060,1060,1060,0,0,0,0,0,0,0,0,0,682,680,680,680,679,678,676,675,674,672,671,670,668,666,666,664,664,664,664,666,666,667,668,670,672,674,675,676,678,679,680,682,682,682,682,0,0,0,0,0,0,0,0,0,1241,1241,1241,1241,1241,1245,1245,1245,1245,1245,1245,1245,1317,1317,1312,1312,1312,1307,1307,1312,1312,1312,1312,1312,1312,1312,1312,1312,1307,1307,1307,1307,1307,1307,1307,1312,1312,1312,1317,1317,1317,1317,1312,1312,1312,1317,1317,1317,1317,1317,1317,1322,1322,1322,1322,1322,1322,1322,1322,1322,1322,1322,1322,1322,1322,1322,1322,1322,1322,1322,1322,1322,1322,1328,1328,1328,1328,1328,1328,1328,1328,1328,1328,1322,1322,1322,1322,1317,1317,1317,1317,1322,1322,1322,1322,1317,1317,1317,1013,1013,1013,1013,1013,1013,1013,1010,1007,1004,1004,1004,1001,1001,998,998,995,995,998,1001,1004,1007,1010,1013,1016,1016,1016,1016,1328,1333,1333,1333,1333,1333,1338,1338,1338,1338,1338,1333,1333,1333,1333,1333,1333,1333,1333,1328,1328,1328,1328,1328,1328,1328,1338,1338,1333,1333,1333,1333,1343,1338,1338,1338,1338,1338,1338,1338,1333,1333,1333,1333,1333,1333,1333,1333,1338,1338,1338,1338,1338,1338,1338,1338,1338,1338,1343,1343,1343,1338,1338,1338,1338,1338,1338,1338,1338,1338,1338,1338,1338,1338,1333,1333,1333,1333,1333,1333,1333,1333,1333,1338,1338,1338,1338,1343,1343,1343,1343,1343,1349,1349,1343,1343,1343,1343,1343,1343,1343,1343,1343,1343,1349,1343,1343,1343,1343,1343,1338,1338,1338,1338,1338,1338,1343,1343,1343,1343,1338,1333,1333,1328,1328,1328,1328,1328,1322,1322,1317,1317,1317,1317,1317,1312,1312,1312,1312,1307,1307,1307,1302,1302,1297,1292,1292,1292,1292,1292,1292,1292,1288,1288,1288,1288,1283,1283,1283,1278,1278,1273,1273,1273,1268,1268,1268,1264,1264,1264,1264,1259,1259,1255,1250,1250,1250,1250,1250,1245,1245,1245,1245,1241,1236,1236,1236,1236,1232,1232,1232,1232,1232,1227,1227,1223,1223,1223,1223,1227,1090,1090,1084,1084,1087,0,0,0,0,0,0,0,0,0,0,0,0,0,0,0,0,0,0,0,0,0,0,0,0,0,0,0,0,0,0,0,0,0
0,0,0,0,0,0,1268,1268,1268,1268,1264,1264,1264,1264,1264,1264,1259,1259,1259,1259,1259,1259,1259,1259,1259,1259,1259,1259,1255,1255,1255,1250,1250,1255,1255,1250,1250,1255,1255,1255,1255,1255,1255,1245,1245,1245,1245,1250,1250,1250,1250,1255,1259,1259,1259,1259,1259,1259,1255,1255,1255,1255,1255,1255,1255,1255,1259,1259,1259,1259,1259,1259,1259,1259,1259,1259,1259,1259,1259,1259,1259,1259,1259,1259,1259,1259,1264,1264,1259,1255,1255,1255,1255,1255,1255,0,0,0,0,0,946,946,943,943,938,938,935,933,933,933,935,935,935,935,935,938,940,943,946,946,946,948,948,951,951,951,1264,1268,1268,1268,1278,1278,1278,1278,1278,1278,1283,1278,1278,1278,1278,1278,1283,1278,1278,1278,1278,1278,1278,1278,1019,1019,1022,1022,1025,1025,1025,1025,1025,1028,1028,1031,1031,1031,1034,1034,1038,1038,1038,1038,1038,1038,1038,1038,1038,1038,1038,1041,1044,1044,1044,1047,1047,1050,1050,1050,1054,1054,1060,1063,1067,1067,1070,1070,1070,1070,1073,1073,1077,1077,1080,1084,1084,1087,1087,1087,1087,1084,1080,1077,1073,1073,1073,1070,1067,1063,1063,1063,1060,1060,1060,1060,1060,0,0,0,0,0,0,0,0,0,0,680,680,680,679,678,676,675,674,672,671,670,670,666,666,664,664,664,664,666,666,667,668,671,672,675,676,678,679,680,682,682,683,683,683,0,0,0,0,0,0,0,0,0,1241,1241,1241,1241,1241,1245,1245,1245,1245,1245,1245,1245,1317,1312,1312,1307,1307,1307,1307,1307,1307,1307,1307,1307,1307,1307,1307,1307,1302,1302,1302,1302,1302,1302,1302,1307,1307,1307,1312,1312,1312,1312,1312,1312,1312,1312,1312,1312,1317,1312,1312,1317,1317,1317,1317,1317,1317,1317,1317,1317,1317,1317,1322,1322,1322,1322,1322,1322,1322,1317,1317,1317,1322,1322,1322,1322,1322,1322,1322,1322,1328,1328,1328,1322,1322,1317,1317,1317,1317,1312,1312,1317,1317,1317,1317,1312,1312,1312,1016,1016,1013,1013,1016,1016,1013,1010,1007,1004,1004,1004,1001,1001,1001,1001,998,998,998,1001,1004,1007,1010,1013,1016,1016,1016,1328,1328,1328,1328,1328,1333,1333,1333,1333,1333,1333,1333,1333,1333,1333,1333,1328,1328,1328,1328,1328,1328,1328,1328,1328,1328,1328,1328,1333,1333,1328,1328,1333,1333,1333,1333,1333,1333,1333,1333,1333,1333,1333,1333,1333,1333,1328,1328,1333,1333,1333,1333,1333,1333,1333,1333,1338,1333,1333,1338,1338,1338,1338,1338,1338,1338,1338,1333,1333,1333,1333,1333,1333,1333,1333,1333,1333,1333,1333,1333,1333,1333,1333,1333,1328,1328,1333,1333,1338,1338,1338,1338,1338,1343,1343,1338,1338,1338,1338,1338,1338,1338,1338,1338,1338,1343,1343,1343,1338,1338,1333,1333,1333,1333,1333,1333,1333,1338,1338,1338,1338,1333,1333,1333,1328,1328,1322,1322,1322,1322,1322,1317,1317,1317,1317,1317,1317,1312,1312,1312,1307,1307,1307,1302,1302,1297,1292,1292,1292,1292,1292,1292,1292,1288,1288,1288,1288,1283,1283,1283,1278,1278,1273,1273,1273,1268,1268,1268,1264,1264,1264,1264,1259,1255,1255,1250,1250,1250,1250,1250,1245,1245,1245,1241,1241,1236,1236,1236,1236,1232,1232,1232,1232,1232,1227,1227,1223,1223,1223,1101,1094,1090,1087,1080,1080,0,0,0,0,0,0,0,0,0,0,0,0,0,0,0,0,0,0,0,0,0,0,0,0,0,0,0,0,0,0,0,0,0,0
0,0,0,0,0,0,1264,1264,1264,1264,1264,1264,1264,1264,1264,1259,1255,1255,1255,1255,1255,1255,1255,1255,1259,1259,1255,1255,1255,1255,1250,1250,1250,1250,1250,1245,1245,1250,1250,1250,1250,1250,1250,1245,1245,1245,1245,1245,1245,1245,1245,1250,1255,1259,1255,1255,1255,1255,1255,1250,1250,1250,1255,1255,1255,1255,1255,1255,1255,1255,1255,1259,1259,1255,1255,1255,1255,1255,1255,1255,1255,1255,1255,1259,1259,1259,1259,1259,1259,1255,1255,1255,1250,1250,1250,0,0,0,0,0,948,946,946,943,940,940,935,935,935,935,935,935,935,935,938,940,940,943,946,946,946,948,948,951,951,951,1264,1264,1264,1268,1268,1273,1273,1273,1273,1273,1278,1278,1273,1273,1273,1273,1278,1273,1273,1273,1273,1278,1273,1019,1019,1019,1022,1022,1022,1022,1025,1025,1025,1025,1028,1028,1031,1031,1031,1034,1034,1034,1034,1034,1038,1038,1038,1038,1038,1038,1038,1041,1044,1044,1044,1047,1047,1050,1050,1050,1054,1057,1060,1067,1067,1067,1070,1070,1070,1073,1073,1073,1077,1077,1080,1084,1084,1084,1087,1087,1087,1084,1080,1077,1073,1073,1073,1070,1067,1067,1063,1063,1060,1060,1060,1060,1057,1057,0,0,0,0,0,0,0,0,683,680,680,680,679,678,676,675,675,674,672,671,668,667,666,666,666,666,666,666,667,668,668,671,672,675,676,678,679,680,682,683,683,683,683,683,0,0,0,0,0,0,0,0,1241,1241,1241,1241,1241,1245,1245,1245,1245,1245,1245,1245,1302,1302,1302,1297,1297,1297,1297,1297,1302,1302,1302,1302,1302,1302,1302,1302,1302,1297,1297,1297,1297,1302,1302,1302,1302,1302,1307,1307,1307,1307,1307,1307,1307,1307,1307,1307,1307,1307,1307,1312,1312,1312,1317,1317,1317,1317,1317,1317,1317,1317,1317,1322,1322,1317,1317,1317,1317,1317,1317,1317,1317,1317,1317,1317,1317,1317,1317,1317,1322,1322,1322,1317,1317,1317,1317,1312,1312,1312,1312,1312,1312,1312,1312,1312,1312,1312,1312,1013,1013,1013,1016,1016,1013,1010,1010,1007,1004,1004,1001,1001,1001,1001,998,998,1001,1001,1004,1004,1010,1010,1013,1016,1016,1322,1328,1328,1328,1328,1328,1328,1328,1333,1333,1333,1333,1328,1328,1328,1328,1328,1328,1322,1322,1322,1322,1322,1328,1322,1322,1328,1328,1328,1328,1328,1328,1328,1328,1328,1328,1328,1328,1328,1328,1328,1328,1328,1328,1328,1328,1328,1328,1333,1333,1333,1328,1328,1333,1333,1333,1333,1333,1333,1333,1333,1333,1333,1333,1333,1333,1333,1333,1333,1333,1333,1328,1328,1328,1328,1328,1328,1328,1328,1328,1328,1328,1328,1328,1328,1328,1328,1328,1328,1328,1328,1333,1333,1338,1338,1338,1333,1333,1333,1333,1333,1333,1333,1333,1333,1333,1338,1338,1333,1333,1333,1333,1333,1333,1333,1333,1333,1333,1333,1333,1333,1333,1328,1328,1328,1322,1322,1322,1322,1322,1322,1317,1317,1317,1322,1317,1317,1312,1312,1312,1307,1307,1307,1302,1302,1297,1297,1292,1292,1292,1292,1292,1292,1292,1288,1288,1288,1288,1288,1283,1278,1278,1273,1273,1273,1268,1268,1268,1264,1264,1264,1264,1259,1255,1255,1255,1255,1250,1250,1250,1250,1245,1245,1241,1241,1236,1236,1236,1236,1232,1232,1232,1232,1232,1227,1227,1108,1105,1101,1101,1094,1090,1087,1080,1080,0,0,0,0,0,0,0,0,0,0,0,0,0,0,0,0,0,0,0,0,0,0,0,0,0,0,0,0,0,0,0,0,0,0
0,0,0,0,0,0,1259,1259,1264,1259,1259,1259,1259,1259,1259,1255,1250,1250,1250,1245,1245,1250,1250,1250,1250,1250,1250,1255,1250,1250,1245,1245,1245,1245,1245,1241,1241,1245,1245,1245,1245,1245,1245,1245,1245,1245,1245,1245,1245,1245,1245,1245,1250,1250,1250,1250,1250,1250,1250,1250,1250,1250,1250,1250,1250,1250,1255,1250,1250,1250,1255,1255,1255,1250,1250,1250,1255,1255,1255,1250,1250,1250,1250,1255,1255,1259,1259,1255,1255,1255,1255,1250,1250,1250,1250,0,1245,0,946,946,946,946,946,943,940,940,935,935,935,935,935,935,935,935,938,940,940,946,946,946,946,948,948,951,951,0,1264,1264,1264,1264,1264,1268,1268,1268,1268,1268,1268,1268,1268,1268,1268,1273,1268,1268,1273,1273,1273,1013,1013,1016,1016,1019,1022,1022,1022,1022,1022,1022,1022,1022,1025,1025,1028,1028,1031,1031,1031,1031,1031,1034,1034,1034,1034,1034,1034,1034,1038,1041,1044,1044,1044,1047,1047,1050,1050,1054,1057,1057,1060,1067,1067,1067,1070,1073,1073,1073,1073,1073,1077,1077,1080,1084,1084,1084,1087,1087,1084,1084,1080,1077,1073,1073,1073,1070,1070,1067,1063,1063,1063,1060,1060,1060,1057,1057,0,0,0,0,0,0,0,0,683,682,682,680,678,678,676,675,675,674,672,671,668,667,666,666,666,666,666,667,667,668,670,671,674,675,676,678,679,680,682,683,684,683,683,683,0,0,0,0,0,0,0,0,0,1241,1241,1241,1245,1245,1245,1245,1245,1250,1250,1250,1283,1292,1292,1292,1292,1292,1292,1292,1292,1292,1292,1292,1297,1297,1297,1292,1292,1292,1292,1292,1297,1297,1297,1297,1297,1297,1302,1302,1302,1302,1302,1307,1307,1307,1307,1307,1307,1307,1302,1302,1302,1307,1312,1312,1312,1312,1317,1317,1312,1312,1317,1317,1317,1312,1312,1312,1312,1312,1312,1312,1312,1312,1312,1312,1312,1312,1312,1312,1312,1312,1317,1312,1312,1312,1312,1312,1312,1307,1307,1312,1312,1307,1307,1307,1307,1307,1307,1016,1016,1016,1016,1016,1013,1013,1010,1007,1004,1004,1004,1001,1001,1001,1001,1001,1001,1001,1004,1004,1010,1010,1013,1016,1016,1322,1322,1322,1322,1322,1322,1322,1322,1322,1328,1328,1328,1328,1328,1328,1328,1328,1322,1322,1322,1322,1322,1322,1322,1322,1322,1328,1328,1328,1328,1322,1322,1322,1322,1322,1322,1322,1322,1322,1322,1322,1322,1322,1322,1322,1322,1322,1328,1328,1328,1328,1328,1328,1328,1328,1328,1328,1328,1328,1328,1328,1328,1328,1328,1328,1328,1328,1328,1328,1328,1328,1328,1328,1328,1328,1328,1328,1328,1328,1328,1328,1322,1322,1322,1322,1322,1322,1322,1317,1317,1317,1317,1317,1328,1328,1333,1333,1333,1333,1333,1333,1333,1333,1333,1333,1333,1333,1333,1333,1328,1328,1328,1328,1328,1328,1333,1333,1328,1328,1328,1328,1322,1322,1322,1322,1322,1322,1322,1322,1322,1322,1322,1317,1317,1317,1322,1317,1312,1312,1312,1312,1312,1307,1307,1302,1302,1297,1297,1292,1292,1292,1292,1292,1292,1288,1288,1288,1288,1283,1283,1278,1278,1278,1273,1273,1268,1268,1268,1268,1268,1264,1259,1259,1255,1255,1255,1255,1250,1250,1250,1250,1245,1245,1241,1241,1236,1236,1236,1236,1236,1232,1232,1232,1232,1232,1227,1105,1101,1101,1101,1097,1094,1080,1080,1080,0,0,0,0,0,0,0,0,0,0,0,0,0,0,0,0,0,0,0,0,0,0,0,0,0,0,0,0,0,0,0,0,0,0
0,0,0,0,0,0,1259,1259,1259,1259,1259,1255,1255,1255,1255,1250,1250,1250,1245,1245,1245,1245,1245,1245,1245,1245,1245,1245,1245,1245,1245,1241,1241,1241,1241,1241,1241,1241,1241,1241,1241,1245,1245,1241,1241,1241,1241,1241,1241,1241,1241,1241,1245,1245,1245,1250,1250,1250,1250,1245,1245,1245,1245,1245,1250,1250,1250,1250,1250,1250,1250,1250,1250,1250,1250,1250,1250,1250,1250,1250,1250,1245,1245,1250,1250,1255,1255,1250,1250,1250,1250,1250,1245,1245,1245,1245,1245,0,0,946,946,946,946,943,943,940,935,935,935,935,935,935,935,935,938,940,940,943,946,946,948,948,954,954,954,0,1264,1264,1264,1259,1259,1259,1259,1264,1264,1264,1264,1264,1264,1264,1268,1268,1268,1268,1268,1268,1013,1013,1013,1016,1016,1019,1019,1019,1019,1019,1022,1022,1022,1022,1022,1025,1025,1025,1028,1028,1028,1028,1028,1031,1031,1034,1034,1034,1034,1034,1038,1041,1044,1047,1047,1047,1050,1050,1050,1054,1057,1057,1060,1067,1067,1070,1070,1073,1073,1073,1073,1073,1077,1077,1080,1080,1084,1087,1087,1087,1084,1084,1080,1077,1077,1077,1073,1073,1070,1067,1063,1063,1063,1060,1060,1057,1057,0,0,0,0,0,0,0,0,0,684,683,683,680,678,678,676,675,675,674,674,671,668,667,666,666,666,666,666,667,668,668,670,671,674,675,676,679,680,680,682,683,684,683,683,684,0,0,0,0,0,0,0,0,1236,1236,1241,1241,1245,1245,1245,1245,1245,1250,1250,1250,1283,1288,1288,1288,1288,1288,1288,1288,1288,1288,1292,1292,1292,1292,1292,1292,1292,1292,1292,1292,1292,1292,1297,1297,1292,1292,1297,1297,1297,1297,1297,1297,1302,1302,1302,1307,1307,1302,1302,1297,1297,1297,1297,1302,1302,1307,1312,1312,1312,1312,1312,1312,1312,1307,1307,1307,1307,1312,1312,1307,1307,1307,1307,1307,1307,1307,1307,1307,1312,1312,1312,1312,1307,1307,1307,1307,1307,1307,1307,1307,1307,1307,1307,1307,1307,1307,1307,1022,1019,1019,1016,1016,1013,1013,1010,1007,1004,1004,1004,1001,1001,1001,1001,1001,1001,1001,1004,1004,1010,1013,1013,1016,1016,1317,1317,1317,1317,1317,1317,1317,1317,1317,1317,1317,1317,1322,1322,1322,1322,1322,1322,1322,1322,1322,1317,1317,1322,1322,1322,1322,1317,1312,1312,1312,1312,1312,1312,1312,1312,1317,1317,1317,1317,1317,1317,1317,1322,1317,1317,1317,1322,1322,1322,1322,1322,1322,1322,1322,1322,1322,1322,1312,1312,1312,1322,1322,1322,1322,1328,1328,1328,1328,1322,1322,1322,1322,1322,1322,1322,1322,1322,1322,1322,1322,1322,1317,1317,1317,1317,1322,1317,1317,1317,1317,1317,1317,1317,1317,1328,1328,1328,1328,1328,1328,1328,1328,1328,1328,1328,1328,1328,1328,1328,1328,1328,1328,1328,1328,1328,1328,1328,1328,1322,1322,1322,1322,1317,1317,1322,1322,1322,1322,1322,1322,1322,1317,1317,1317,1317,1317,1317,1312,1312,1312,1312,1307,1307,1307,1302,1302,1297,1297,1292,1292,1292,1292,1292,1288,1288,1288,1288,1283,1283,1278,1278,1273,1273,1273,1273,1268,1268,1268,1268,1264,1259,1259,1255,1255,1255,1255,1255,1255,1250,1250,1250,1250,1241,1241,1236,1236,1236,1236,1236,1232,1232,1232,1232,1232,1105,1101,1101,1101,1101,1097,1094,1080,1077,1077,0,0,0,0,0,0,0,0,0,0,0,0,0,0,0,0,0,0,0,0,0,0,0,0,0,0,0,0,0,0,0,0,0,0
0,0,0,0,0,0,1255,1255,1255,1250,1250,1250,1250,1250,1250,1245,1245,1245,1245,1245,1245,1245,1245,1245,1241,1241,1241,1241,1241,1241,1236,1236,1236,1236,1236,1236,1236,1236,1241,1241,1241,1241,1241,1236,1236,1236,1236,1236,1236,1236,1236,1236,1241,1241,1241,1241,1241,1241,1245,1241,1241,1245,1245,1245,1245,1245,1245,1245,1245,1245,1245,1245,1245,1245,1245,1245,1245,1245,1245,1245,1245,1245,1245,1245,1245,1250,1250,1250,1250,1250,1250,1250,1245,1245,1245,1245,1245,0,0,946,946,946,946,943,943,940,938,935,935,935,935,935,935,938,938,940,940,943,946,946,948,951,954,954,954,0,1259,1259,1259,1259,1259,1259,1259,1259,1259,1255,1255,1259,1264,1264,1264,1268,1268,1268,1013,1013,1013,1013,1013,1016,1016,1019,1019,1019,1019,1019,1019,1019,1019,1022,1022,1022,1022,1025,1025,1025,1025,1028,1028,1028,1031,1031,1034,1034,1034,1034,1038,1041,1044,1044,1044,1047,1050,1050,1050,1054,1057,1057,1060,1063,1067,1070,1070,1073,1073,1073,1073,1073,1077,1077,1080,1080,1084,1087,1087,1087,1087,1084,1084,1080,1077,1077,1073,1073,1070,1067,1067,1063,1063,1060,1060,1057,1057,0,0,0,0,0,0,0,0,0,684,684,683,680,679,678,676,676,675,675,674,672,670,668,667,666,666,666,667,668,670,670,670,671,674,676,678,679,680,680,682,683,684,684,684,0,0,0,0,0,0,0,0,0,1236,1236,1241,1245,1245,1245,1245,1250,1250,1250,1255,1255,1278,1283,1288,1288,1288,1288,1288,1288,1288,1288,1288,1288,1288,1288,1288,1292,1288,1288,1288,1288,1288,1288,1288,1292,1292,1292,1292,1292,1292,1292,1292,1297,1297,1297,1297,1302,1302,1297,1297,1297,1297,1297,1297,1297,1297,1297,1297,1297,1307,1307,1302,1302,1302,1302,1302,1302,1302,1307,1307,1307,1307,1307,1307,1302,1302,1302,1302,1302,1307,1307,1307,1307,1307,1307,1307,1307,1307,1307,1307,1307,1307,1302,1302,1302,1302,1302,1302,1022,1019,1019,1016,1016,1016,1013,1013,1010,1007,1004,1004,1001,1001,1001,1001,1001,1001,1004,1007,1007,1010,1013,1013,1016,1312,1312,1307,1307,1312,1312,1312,1312,1312,1312,1312,1312,1312,1317,1317,1317,1317,1317,1317,1317,1317,1317,1317,1317,1317,1317,1312,1312,1312,1312,1312,1312,1312,1307,1307,1312,1312,1312,1312,1312,1312,1312,1312,1312,1312,1312,1312,1312,1317,1317,1317,1317,1322,1322,1322,1322,1322,1317,1312,1312,1312,1312,1312,1317,1317,1317,1322,1322,1322,1322,1317,1317,1322,1317,1317,1322,1322,1312,1312,1317,1317,1317,1317,1317,1317,1312,1312,1317,1312,1312,1312,1312,1312,1312,1317,1317,1317,1322,1322,1328,1328,1328,1328,1322,1322,1322,1322,1322,1322,1322,1322,1322,1322,1322,1322,1322,1328,1328,1322,1322,1322,1317,1317,1317,1317,1317,1322,1317,1317,1317,1317,1317,1317,1317,1317,1317,1317,1317,1312,1312,1312,1312,1312,1307,1307,1307,1307,1302,1302,1297,1297,1292,1292,1292,1292,1288,1288,1288,1288,1288,1283,1283,1278,1273,1273,1273,1273,1273,1273,1268,1268,1268,1264,1259,1255,1255,1255,1255,1255,1255,1250,1250,1250,1250,1241,1241,1236,1236,1236,1236,1236,1232,1232,1232,1232,1236,1101,1101,1097,1097,1097,1094,1090,1084,1077,1077,0,0,0,0,0,0,0,0,0,0,0,0,0,0,0,0,0,0,0,0,0,0,0,0,0,0,0,0,0,0,0,0,0,0
0,0,0,0,0,0,1250,1250,1250,1250,1250,1250,1245,1245,1245,1245,1245,1241,1241,1241,1241,1241,1241,1241,1236,1236,1236,1236,1236,1236,1236,1232,1232,1232,1232,1232,1236,1236,1236,1236,1236,1236,1236,1236,1236,1236,1236,1236,1236,1236,1236,1236,1236,1236,1236,1236,1236,1241,1236,1236,1236,1236,1241,1241,1241,1241,1241,1245,1241,1241,1241,1241,1245,1245,1241,1241,1241,1241,1241,1241,1241,1241,1241,1241,1241,1245,1245,1245,1245,1250,1250,1250,1245,1245,1245,1245,1245,0,0,946,946,946,946,943,943,943,938,935,935,935,935,935,935,938,940,940,943,943,946,946,948,954,954,956,956,956,0,1259,1259,1255,1255,1255,1255,1259,1259,1250,1250,1250,1259,1255,1255,1264,1264,1013,1010,1010,1013,1013,1013,1016,1016,1019,1016,1016,1019,1019,1019,1019,1019,1019,1022,1022,1022,1022,1025,1025,1025,1025,1028,1028,1031,1031,1034,1034,1034,1034,1038,1041,1044,1044,1044,1047,1050,1050,1054,1054,1057,1057,1060,1063,1067,1067,1067,1073,1073,1070,1070,1070,1077,1080,1255,1259,1264,1087,1087,1087,1087,1087,1084,1084,1077,1077,1073,1073,1073,1070,1067,1063,1063,1060,1060,1057,1057,0,0,0,0,0,0,0,0,0,683,683,683,680,679,678,678,676,675,675,674,671,670,668,668,667,667,667,667,670,670,671,671,672,674,676,678,679,680,680,682,684,686,684,684,0,0,0,0,0,0,0,0,0,1236,1236,1241,1245,1245,1245,1245,1250,1250,1255,1255,1268,1273,1278,1283,1283,1283,1283,1283,1283,1283,1283,1283,1283,1283,1283,1283,1288,1288,1288,1288,1288,1288,1288,1288,1288,1288,1288,1292,1292,1292,1292,1292,1292,1292,1292,1292,1297,1297,1292,1292,1292,1292,1292,1292,1292,1292,1292,1297,1297,1297,1297,1297,1297,1297,1297,1297,1297,1297,1302,1302,1307,1302,1302,1302,1302,1302,1302,1302,1302,1302,1297,1297,1297,1302,1302,1302,1302,1302,1307,1307,1307,1302,1302,1302,1302,1302,1302,1302,1019,1019,1016,1016,1016,1016,1013,1013,1010,1007,1004,1004,1001,1001,1001,1001,1001,1004,1004,1007,1007,1010,1013,1016,1016,1307,1307,1307,1307,1312,1307,1307,1307,1307,1312,1312,1307,1307,1312,1312,1312,1312,1312,1312,1312,1312,1312,1312,1312,1312,1312,1312,1312,1312,1312,1312,1307,1307,1307,1307,1312,1312,1312,1312,1312,1312,1312,1312,1312,1312,1307,1307,1307,1307,1312,1312,1312,1312,1317,1317,1317,1312,1312,1307,1307,1307,1307,1312,1312,1312,1312,1317,1317,1317,1317,1312,1312,1317,1312,1312,1317,1317,1312,1312,1312,1317,1312,1312,1312,1312,1312,1312,1312,1312,1312,1312,1312,1312,1312,1312,1312,1312,1317,1317,1317,1317,1317,1317,1317,1317,1317,1317,1317,1317,1317,1317,1317,1317,1322,1322,1322,1322,1322,1317,1317,1317,1317,1317,1317,1317,1317,1317,1312,1312,1317,1317,1317,1317,1312,1312,1312,1312,1312,1312,1312,1312,1307,1307,1307,1307,1307,1307,1302,1302,1297,1297,1292,1292,1292,1292,1288,1288,1288,1288,1288,1283,1283,1278,1273,1273,1273,1273,1273,1273,1268,1268,1268,1264,1259,1255,1255,1255,1255,1255,1255,1250,1250,1250,1250,1245,1241,1236,1236,1236,1236,1236,1236,1232,1232,1232,1105,1097,1097,1097,1097,1094,1094,1087,1080,1077,1077,0,0,0,0,0,0,0,0,0,0,0,0,0,0,0,0,0,0,0,0,0,0,0,0,0,0,0,0,0,0,0,0,0,0
0,0,0,0,0,0,1250,1250,1250,1245,1245,1245,1245,1241,1241,1241,1241,1241,1236,1236,1236,1236,1236,1236,1232,1232,1232,1232,1232,1232,1232,1232,1232,1232,1232,1232,1232,1232,1232,1232,1232,1232,1232,1232,1232,1232,1232,1232,1232,1232,1232,1232,1232,1232,1232,1232,1232,1236,1236,1236,1236,1236,1236,1236,1236,1232,1232,1241,1236,1236,1236,1241,1241,1241,1241,1241,1241,1236,1236,1236,1236,1236,1236,1236,1236,1241,1241,1241,1241,1245,1245,1245,1245,1245,1245,1245,1245,0,0,943,943,946,946,943,943,943,938,938,938,938,938,938,938,938,940,940,943,946,946,948,948,954,954,956,956,956,0,1259,1259,1255,1255,1255,1255,1255,1259,1001,1001,1001,998,998,1001,1001,1007,1007,1010,1010,1013,1013,1013,1013,1016,1016,1016,1016,1016,1016,1019,1019,1019,1019,1019,1022,1022,1022,1022,1022,1025,1025,1028,1028,1031,1031,1034,1034,1034,1034,1038,1041,1044,1047,1047,1050,1050,1050,1054,1057,1060,1060,1060,1063,1067,1067,1067,1070,1073,1070,1070,1070,1255,1255,1255,1259,1264,1264,1264,1264,1264,1087,1087,1087,1087,1077,1073,1073,1073,1070,1067,1063,1063,1060,1060,1057,1057,0,0,0,0,0,0,0,0,0,683,683,682,679,679,678,678,676,676,675,674,671,670,670,668,667,667,667,667,670,670,671,671,672,675,676,678,680,680,682,683,684,686,684,684,0,0,0,0,0,0,0,0,0,1232,1232,1241,1245,1245,1245,1245,1250,1250,1255,1259,1268,1273,1273,1278,1278,1278,1278,1278,1278,1278,1278,1278,1278,1283,1283,1283,1283,1283,1283,1288,1288,1288,1283,1283,1283,1288,1288,1288,1288,1288,1288,1288,1288,1288,1292,1292,1292,1292,1292,1292,1292,1292,1292,1292,1292,1292,1292,1292,1292,1292,1292,1292,1292,1292,1297,1297,1297,1297,1297,1302,1302,1302,1302,1302,1302,1302,1297,1297,1297,1297,1297,1297,1297,1297,1302,1297,1297,1297,1302,1302,1302,1302,1297,1297,1302,1025,1025,1025,1022,1019,1016,1016,1016,1016,1013,1013,1010,1007,1004,1004,1004,1001,1001,1004,1004,1004,1004,1007,1007,1010,1013,1016,1307,1307,1307,1307,1307,1307,1307,1307,1307,1307,1307,1307,1307,1307,1307,1307,1307,1307,1307,1307,1307,1307,1307,1307,1307,1307,1307,1307,1307,1307,1307,1307,1307,1307,1307,1307,1307,1307,1312,1307,1307,1307,1307,1307,1307,1307,1307,1307,1307,1307,1307,1307,1307,1307,1307,1312,1312,1307,1307,1307,1307,1302,1302,1302,1302,1307,1307,1307,1312,1312,1312,1312,1312,1312,1312,1312,1312,1312,1307,1307,1312,1312,1312,1312,1312,1312,1307,1307,1307,1307,1307,1307,1307,1307,1307,1307,1307,1312,1312,1312,1312,1312,1312,1312,1317,1312,1312,1312,1312,1317,1317,1317,1317,1317,1317,1322,1322,1322,1317,1317,1317,1312,1312,1312,1312,1312,1317,1317,1312,1312,1317,1317,1317,1317,1312,1312,1312,1312,1312,1307,1307,1307,1307,1307,1307,1307,1302,1302,1302,1302,1297,1297,1292,1292,1292,1292,1288,1288,1288,1288,1288,1283,1283,1278,1278,1273,1273,1273,1273,1273,1268,1268,1264,1259,1259,1255,1255,1255,1255,1255,1255,1250,1250,1250,1250,1245,1245,1241,1236,1236,1236,1236,1236,1232,1105,1105,1105,1097,1097,1097,1094,1094,1090,1080,1080,1077,1077,0,0,0,0,0,0,0,0,0,0,0,0,0,0,0,0,0,0,0,0,0,0,0,0,0,0,0,0,0,0,0,0,0,0
0,0,0,0,0,0,1245,1245,1245,1245,1245,1241,1241,1241,1236,1236,1236,1236,1236,1232,1232,1232,1232,1232,1232,1232,1232,1227,1227,1227,1227,1227,1227,1227,1227,1227,1232,1227,1227,1232,1227,1227,1227,1227,1227,1227,1232,1232,1232,1232,1232,1232,1227,1227,1227,1227,1227,1232,1232,1232,1232,1232,1232,1232,1232,1232,1232,1232,1232,1232,1232,1236,1236,1236,1236,1236,1236,1236,1232,1232,1236,1236,1232,1232,1232,1236,1236,1236,1236,1241,1241,1245,1245,1241,1241,1245,1245,943,0,943,943,946,946,943,943,943,940,938,938,938,938,938,938,940,940,943,943,946,948,948,948,954,954,956,956,956,0,1259,1259,1255,1255,1255,1255,1001,1001,1001,1001,1001,998,998,998,1001,1001,1001,1001,1004,1010,1010,1010,1013,1013,1013,1013,1013,1013,1016,1016,1016,1019,1019,1019,1022,1022,1022,1022,1022,1025,1025,1028,1028,1031,1031,1034,1034,1034,1038,1038,1041,1044,1047,1047,1050,1050,1050,1054,1057,1060,1060,1060,1060,1063,1067,1067,1070,1073,1070,1070,1255,1255,1255,1255,1259,1259,1259,1259,1259,1259,1259,1259,1259,1259,1255,1255,1255,1073,1070,1067,1063,1063,1060,1060,1060,1060,0,0,0,0,0,0,0,0,0,683,683,682,679,679,678,678,676,676,675,674,671,671,670,670,668,668,668,668,670,670,671,671,672,675,676,678,680,680,682,683,684,686,686,686,0,0,0,0,0,0,0,0,1236,1232,1232,1241,1245,1245,1245,1245,1250,1255,1255,1264,1264,1268,1273,1273,1273,1273,1273,1273,1273,1273,1273,1278,1278,1278,1278,1278,1278,1283,1283,1283,1283,1283,1283,1283,1283,1283,1283,1288,1288,1288,1288,1288,1288,1288,1288,1288,1288,1288,1292,1288,1288,1288,1288,1288,1288,1288,1288,1288,1288,1292,1292,1288,1288,1288,1288,1288,1288,1292,1297,1297,1297,1297,1297,1297,1297,1297,1297,1297,1297,1297,1292,1292,1297,1297,1297,1297,1297,1297,1297,1297,1297,1292,1292,1292,1297,1025,1025,1025,1022,1019,1019,1016,1016,1016,1013,1013,1013,1010,1007,1004,1004,1004,1004,1004,1004,1004,1004,1007,1007,1010,1013,1013,1307,1307,1302,1302,1302,1302,1302,1302,1302,1302,1302,1302,1302,1302,1302,1302,1302,1302,1302,1302,1307,1307,1307,1307,1307,1302,1302,1302,1302,1302,1302,1302,1302,1302,1307,1307,1307,1307,1307,1307,1307,1302,1302,1302,1302,1302,1302,1302,1302,1302,1307,1307,1307,1302,1302,1302,1302,1302,1302,1302,1302,1302,1302,1302,1302,1302,1302,1302,1307,1307,1307,1307,1307,1312,1312,1312,1312,1312,1307,1307,1307,1307,1307,1307,1307,1307,1307,1307,1307,1307,1307,1307,1307,1307,1307,1307,1307,1307,1307,1307,1307,1307,1307,1312,1307,1307,1312,1312,1312,1312,1312,1312,1312,1317,1317,1317,1317,1317,1317,1312,1312,1312,1312,1312,1312,1312,1312,1312,1312,1312,1312,1312,1312,1312,1307,1307,1307,1307,1307,1307,1307,1307,1307,1307,1307,1307,1302,1302,1302,1302,1297,1297,1292,1292,1292,1292,1288,1288,1288,1288,1288,1288,1283,1283,1283,1278,1278,1273,1273,1273,1268,1268,1264,1259,1259,1255,1255,1255,1255,1255,1255,1250,1250,1250,1250,1250,1241,1241,1236,1236,1236,1236,1236,1236,1105,1105,1105,1097,1097,1097,1094,1094,1090,1080,1080,1077,1077,0,0,0,0,0,0,0,0,0,0,0,0,0,0,0,0,0,0,0,0,0,0,0,0,0,0,0,0,0,0,0,0,0,0
0,0,0,0,0,0,1245,1245,1245,1241,1241,1241,1241,1236,1232,1232,1232,1232,1232,1232,1232,1232,1232,1232,1232,1227,1227,1227,1227,1227,1227,1227,1227,1227,1227,1227,1227,1227,1227,1227,1223,1223,1223,1223,1223,1223,1227,1227,1227,1227,1227,1227,1227,1227,1227,1227,1227,1227,1227,1227,1227,1227,1227,1227,1227,1227,1227,1227,1227,1227,1227,1227,1227,1227,1227,1232,1232,1232,1232,1232,1232,1232,1232,1232,1232,1232,1232,1232,1232,1241,1241,1241,1241,1241,1241,1245,0,0,0,946,946,946,946,943,943,943,938,938,938,938,938,938,938,940,940,943,943,946,948,948,951,954,954,956,956,956,984,1259,1259,1255,1255,995,995,995,998,1001,998,998,998,998,998,1001,1001,1001,1001,1001,1001,1004,1004,1004,1010,1010,1013,1013,1013,1013,1013,1016,1016,1019,1019,1022,1022,1022,1025,1025,1025,1025,1028,1028,1031,1034,1034,1034,1038,1038,1038,1041,1044,1047,1047,1050,1050,1050,1054,1057,1060,1060,1060,1060,1063,1250,1250,1250,1250,1250,1250,1250,1255,1255,1255,1255,1255,1255,1259,1259,1259,1259,1255,1255,1255,1250,1250,1250,1250,1073,1070,1067,1063,1063,1063,1060,1060,0,0,0,0,0,0,0,0,0,684,684,682,680,680,680,679,678,676,675,675,674,671,670,670,668,668,668,668,670,670,671,672,672,675,676,679,680,680,682,683,684,686,686,686,0,0,0,0,0,0,0,0,1236,1236,1241,1241,1245,1245,1245,1250,1250,1255,1259,1264,1264,1268,1268,1268,1268,1268,1268,1268,1273,1273,1273,1273,1273,1273,1273,1278,1278,1278,1278,1278,1283,1283,1283,1278,1278,1283,1283,1283,1283,1283,1283,1283,1283,1283,1283,1283,1283,1288,1288,1288,1288,1288,1288,1288,1288,1288,1288,1288,1288,1288,1288,1288,1288,1288,1288,1288,1288,1288,1288,1288,1292,1292,1292,1292,1292,1292,1292,1292,1292,1292,1292,1292,1292,1292,1292,1292,1292,1292,1292,1292,1292,1292,1292,1292,1288,1288,1283,1025,1025,1019,1019,1016,1016,1016,1016,1013,1013,1010,1007,1004,1004,1004,1004,1004,1004,1004,1007,1007,1007,1013,1016,1016,1307,1307,1292,1292,1297,1297,1292,1292,1297,1302,1302,1302,1297,1297,1302,1302,1302,1302,1302,1302,1302,1302,1302,1302,1302,1297,1297,1297,1297,1297,1297,1297,1297,1302,1297,1297,1302,1302,1302,1297,1297,1297,1297,1297,1297,1297,1297,1297,1297,1297,1302,1302,1302,1297,1297,1297,1297,1297,1302,1297,1297,1297,1297,1297,1297,1297,1297,1297,1297,1292,1292,1302,1302,1302,1307,1307,1307,1307,1302,1302,1307,1307,1302,1302,1307,1307,1307,1307,1307,1307,1307,1307,1307,1307,1307,1302,1302,1307,1307,1302,1302,1302,1302,1307,1307,1302,1302,1307,1307,1312,1312,1312,1312,1312,1312,1312,1312,1312,1312,1312,1312,1312,1312,1307,1307,1312,1312,1312,1312,1307,1307,1307,1307,1307,1307,1307,1307,1307,1307,1307,1307,1307,1307,1307,1302,1302,1302,1302,1297,1297,1292,1292,1292,1292,1292,1292,1288,1288,1288,1288,1288,1288,1283,1283,1283,1278,1278,1273,1273,1273,1268,1268,1264,1264,1264,1255,1255,1255,1255,1255,1255,1250,1250,1250,1250,1250,1241,1241,1236,1236,1236,1236,1236,1236,1236,1105,1105,1101,1097,1094,1094,1087,1087,1084,1080,1077,1077,0,0,0,0,0,0,0,0,0,0,0,0,0,0,0,0,0,0,0,0,0,0,0,0,0,0,0,0,0,0,0,0,0,0
0,0,0,0,0,0,1245,1245,1245,1241,1241,1236,1236,1232,1232,1232,1232,1232,1232,1232,1232,1232,1232,1232,1227,1227,1227,1227,1227,1227,1227,1227,1223,1223,1223,1223,1223,1223,1223,1223,1219,1219,1219,1219,1219,1219,1219,1219,1219,1223,1227,1227,1223,1223,1223,1223,1223,1223,1223,1223,1223,1223,1227,1227,1227,1227,1223,1223,1223,1223,1223,1223,1219,1219,1223,1227,1227,1227,1227,1227,1227,1227,1227,1227,1227,1227,1227,1227,1227,1232,1232,1232,1232,1232,1232,1232,0,0,0,0,948,946,946,943,943,940,938,938,938,938,940,940,940,940,940,943,946,946,948,948,951,954,954,956,956,964,984,984,984,989,992,995,995,995,998,998,998,998,998,998,998,998,998,998,998,998,1001,1001,1001,1001,1001,1004,1007,1010,1013,1013,1013,1013,1016,1019,1019,1022,1022,1022,1025,1025,1025,1025,1028,1031,1034,1034,1034,1038,1038,1038,1041,1041,1044,1047,1047,1050,1050,1050,1054,1057,1060,1060,1060,1060,1250,1250,1250,1250,1250,1250,1250,1250,1250,1250,1250,1250,1250,1250,1255,1255,1255,1255,1255,1255,1255,1250,1250,1250,1250,1250,1070,1067,1063,1063,1063,1060,1060,0,0,0,0,0,0,0,0,0,0,684,682,682,680,680,679,678,676,675,675,674,671,670,670,668,668,668,668,670,670,671,672,672,675,676,679,680,680,682,683,684,686,686,686,0,0,0,0,0,0,0,0,1241,1241,1241,1245,1245,1245,1245,1250,1250,1255,1259,1259,1264,1264,1264,1268,1268,1268,1268,1268,1268,1268,1268,1268,1268,1268,1273,1273,1273,1273,1273,1278,1278,1278,1278,1273,1273,1278,1278,1283,1283,1283,1283,1283,1283,1278,1278,1278,1278,1278,1283,1278,1278,1283,1283,1283,1288,1288,1288,1283,1283,1283,1283,1283,1283,1283,1283,1283,1283,1283,1283,1283,1283,1283,1283,1288,1288,1288,1288,1288,1288,1288,1288,1288,1288,1288,1288,1288,1288,1288,1288,1288,1288,1288,1288,1288,1288,1288,1283,1025,1025,1019,1019,1019,1016,1016,1016,1013,1013,1013,1010,1004,1004,1004,1004,1004,1004,1004,1007,1010,1010,1016,1016,1025,1025,1292,1292,1292,1292,1292,1292,1292,1292,1297,1297,1297,1292,1292,1292,1292,1292,1297,1297,1297,1297,1297,1297,1297,1297,1292,1292,1292,1292,1292,1292,1292,1292,1292,1292,1292,1297,1297,1297,1292,1292,1292,1292,1292,1292,1292,1297,1297,1297,1297,1292,1292,1292,1292,1292,1297,1297,1292,1292,1292,1297,1297,1297,1297,1297,1297,1297,1297,1297,1292,1292,1292,1292,1292,1292,1302,1302,1302,1297,1297,1297,1302,1297,1297,1302,1302,1302,1302,1302,1302,1302,1302,1302,1302,1302,1302,1292,1292,1292,1297,1292,1292,1292,1297,1302,1302,1302,1302,1302,1302,1302,1307,1307,1307,1312,1312,1307,1307,1307,1307,1307,1307,1307,1307,1307,1307,1307,1307,1307,1302,1302,1302,1302,1302,1302,1302,1302,1302,1302,1302,1302,1302,1302,1302,1302,1302,1297,1297,1297,1297,1292,1292,1292,1292,1292,1292,1288,1288,1288,1288,1288,1288,1283,1283,1283,1278,1278,1273,1273,1273,1268,1268,1264,1264,1264,1259,1259,1255,1255,1255,1255,1250,1250,1250,1245,1245,1241,1241,1236,1236,1236,1236,1236,1236,1236,1105,1101,1097,1097,1094,1090,1087,1084,1080,1080,1077,1077,0,0,0,0,0,0,0,0,0,0,0,0,0,0,0,0,0,0,0,0,0,0,0,0,0,0,0,0,0,0,0,0,0,0
0,0,0,0,0,0,1241,1241,1236,1236,1236,1232,1232,1227,1227,1227,1227,1227,1227,1227,1227,1227,1227,1227,1227,1227,1227,1223,1223,1223,1223,1223,1223,1223,1219,1219,1219,1219,1214,1214,1214,1214,1214,1214,1214,1214,1214,1214,1214,1219,1219,1223,1223,1219,1219,1223,1219,1219,1219,1219,1219,1219,1219,1223,1223,1223,1219,1219,1219,1219,1219,1219,1219,1219,1219,1227,1227,1223,1223,1223,1223,1223,1223,1223,1223,1223,1227,1227,1227,1227,1227,1227,1227,1227,1227,0,0,0,0,946,0,946,946,943,943,940,938,938,938,938,940,940,940,940,940,943,946,946,946,948,951,954,954,956,956,964,984,984,984,989,992,992,992,995,995,998,998,998,998,998,998,998,998,998,998,998,1001,1001,1001,1001,1001,1001,1007,1010,1010,1013,1013,1013,1016,1019,1019,1022,1022,1022,1025,1025,1025,1028,1028,1031,1034,1034,1038,1038,1038,1041,1041,1041,1044,1047,1047,1050,1050,1050,1054,1057,1060,1060,1250,1250,1245,1245,1245,1245,1245,1245,1245,1245,1245,1245,1250,1250,1250,1250,1250,1250,1250,1250,1250,1250,1250,1250,1250,1250,1250,1250,1250,1067,1063,1063,1063,1060,1060,0,0,0,0,0,0,0,0,0,0,686,682,682,682,680,680,679,678,676,675,674,671,671,670,670,670,670,670,670,671,671,672,674,675,676,679,680,682,683,684,686,687,686,686,0,0,0,0,0,0,0,0,1241,1241,1245,1245,1245,1245,1250,1250,1250,1255,1259,1259,1259,1264,1264,1264,1264,1264,1264,1268,1268,1264,1264,1264,1268,1268,1268,1268,1268,1268,1268,1273,1273,1273,1273,1268,1268,1273,1273,1273,1273,1278,1278,1278,1278,1273,1273,1273,1273,1273,1273,1273,1273,1278,1278,1283,1283,1283,1283,1283,1283,1283,1278,1278,1278,1278,1283,1283,1283,1283,1278,1278,1278,1283,1278,1278,1278,1283,1283,1288,1288,1283,1283,1283,1283,1283,1283,1283,1283,1283,1283,1283,1283,1283,1283,1283,1283,1283,1283,1025,1025,1022,1019,1019,1019,1016,1016,1016,1013,1013,1010,1007,1004,1004,1004,1004,1004,1004,1007,1013,1013,1019,1022,1025,1025,1292,1292,1292,1292,1288,1288,1288,1288,1292,1292,1292,1292,1292,1292,1292,1292,1292,1288,1288,1288,1288,1292,1292,1292,1292,1288,1288,1288,1288,1288,1288,1288,1292,1292,1292,1292,1292,1292,1292,1292,1292,1292,1292,1292,1292,1292,1292,1292,1292,1292,1292,1292,1292,1292,1292,1292,1292,1292,1288,1288,1292,1292,1292,1292,1292,1292,1292,1292,1292,1292,1292,1292,1292,1292,1297,1297,1292,1292,1292,1297,1292,1292,1292,1297,1297,1297,1297,1297,1297,1297,1297,1292,1292,1292,1292,1288,1288,1288,1292,1292,1292,1292,1292,1297,1297,1297,1297,1297,1297,1297,1292,1292,1302,1302,1302,1302,1302,1302,1302,1307,1307,1307,1302,1302,1307,1307,1302,1302,1302,1302,1302,1302,1297,1297,1297,1297,1297,1297,1297,1297,1297,1297,1297,1302,1297,1297,1297,1292,1292,1292,1292,1292,1292,1292,1288,1288,1288,1288,1288,1288,1288,1283,1283,1283,1278,1278,1273,1273,1273,1268,1268,1268,1264,1264,1264,1264,1259,1255,1255,1255,1250,1250,1250,1245,1245,1245,1241,1241,1236,1236,1236,1236,1236,1236,1105,1101,1097,1097,1094,1087,1084,1080,1077,1077,1073,1073,0,0,0,0,0,0,0,0,0,0,0,0,0,0,0,0,0,0,0,0,0,0,0,0,0,0,0,0,0,0,0,0,0,0
0,0,0,0,0,0,1232,1232,1232,1232,1227,1227,1227,1227,1227,1227,1227,1227,1227,1227,1227,1227,1227,1227,1223,1223,1223,1219,1219,1219,1219,1219,1219,1219,1214,1214,1219,1214,1214,1214,1214,1214,1214,1214,1214,1214,1214,1210,1210,1214,1214,1214,1214,1214,1219,1219,1214,1214,1214,1214,1214,1214,1214,1219,1219,1219,1219,1219,1214,1214,1214,1219,1214,1214,1219,1223,1223,1219,1219,1219,1219,1214,1214,1214,1214,1214,1219,1219,1223,1223,1219,1219,1223,1227,1223,1223,0,1219,0,0,0,951,946,946,943,940,938,938,938,938,940,940,940,940,943,943,946,946,946,948,951,954,954,956,956,967,984,984,987,989,989,989,989,992,992,995,995,995,995,995,995,995,995,998,998,998,998,1001,1001,1001,1001,1001,1007,1010,1010,1013,1013,1013,1016,1019,1022,1022,1022,1022,1025,1025,1025,1028,1031,1034,1034,1038,1038,1038,1038,1041,1041,1041,1044,1047,1047,1047,1050,1050,1054,1060,1063,1245,1245,1245,1245,1245,1245,1245,1241,1241,1245,1245,1245,1245,1245,1245,1245,1245,1245,1245,1245,1245,1245,1245,1245,1245,1245,1245,1245,1245,1245,1067,1063,1063,1063,1063,1063,0,0,0,0,0,0,0,0,0,0,684,683,682,682,680,680,679,678,676,675,674,671,671,670,670,670,670,670,670,671,671,674,674,676,676,679,680,682,684,686,686,687,687,687,0,0,0,0,0,0,0,0,0,1245,1245,1245,1245,1245,1250,1250,1250,1255,1255,1259,1259,1259,1259,1264,1259,1259,1259,1264,1264,1264,1264,1264,1264,1264,1264,1264,1264,1264,1264,1268,1268,1268,1268,1268,1264,1264,1268,1273,1273,1273,1273,1273,1278,1273,1273,1273,1273,1273,1273,1273,1273,1273,1273,1278,1278,1278,1278,1278,1278,1278,1273,1273,1273,1273,1273,1278,1273,1273,1273,1273,1273,1278,1278,1278,1278,1273,1273,1278,1278,1278,1278,1283,1283,1283,1283,1283,1283,1283,1278,1278,1278,1278,1278,1278,1278,1278,1278,1283,1025,1025,1022,1022,1019,1016,1016,1016,1013,1013,1010,1007,1007,1004,1004,1007,1007,1007,1010,1013,1016,1019,1019,1025,1025,1288,1288,1288,1288,1288,1288,1283,1283,1283,1283,1283,1288,1288,1288,1288,1288,1288,1288,1288,1288,1288,1292,1292,1288,1288,1288,1288,1288,1288,1288,1288,1288,1288,1288,1288,1288,1288,1288,1288,1288,1288,1288,1288,1288,1288,1288,1288,1288,1288,1292,1292,1292,1292,1288,1288,1288,1288,1288,1288,1288,1288,1288,1288,1288,1292,1292,1292,1292,1292,1292,1292,1292,1292,1292,1292,1292,1292,1292,1292,1292,1292,1292,1292,1292,1292,1292,1292,1292,1292,1288,1288,1288,1288,1288,1288,1288,1288,1288,1288,1288,1288,1288,1288,1292,1292,1292,1292,1292,1292,1292,1292,1292,1292,1292,1292,1297,1297,1297,1302,1302,1302,1302,1297,1297,1302,1302,1292,1292,1292,1297,1297,1297,1297,1292,1292,1292,1292,1292,1292,1292,1292,1292,1292,1297,1297,1292,1292,1292,1292,1292,1292,1292,1292,1292,1288,1288,1288,1288,1288,1288,1288,1283,1283,1283,1278,1278,1273,1273,1273,1268,1268,1268,1268,1264,1264,1264,1259,1259,1255,1255,1255,1250,1250,1250,1250,1245,1245,1241,1241,1236,1236,1236,1236,1236,1241,1097,1094,1094,1094,1087,1084,1077,1077,1067,1063,1063,0,0,0,0,0,0,0,0,0,0,0,0,0,0,0,0,0,0,0,0,0,0,0,0,0,0,0,0,0,0,0,0,0,0
0,0,0,0,0,0,1227,1227,1227,1227,1227,1227,1223,1223,1223,1223,1227,1227,1227,1227,1227,1227,1227,1223,1223,1219,1219,1214,1214,1214,1214,1214,1214,1214,1214,1214,1214,1214,1210,1210,1210,1210,1210,1210,1210,1210,1210,1210,1210,1210,1210,1210,1210,1214,1214,1214,1214,1210,1210,1210,1210,1210,1210,1210,1214,1214,1214,1214,1214,1214,1214,1214,1214,1214,1219,1219,1219,1219,1214,1214,1214,1214,1214,1214,1214,1214,1214,1214,1214,1214,1214,1219,1219,1219,1219,1219,1219,1219,0,0,0,954,948,946,943,943,940,940,940,940,940,940,940,943,943,943,946,946,948,948,951,954,956,959,970,978,984,984,984,987,987,987,987,987,989,989,989,989,992,992,992,992,995,995,995,998,998,1001,1001,1001,1001,1004,1007,1010,1010,1013,1013,1013,1016,1019,1022,1022,1022,1022,1025,1025,1028,1028,1031,1034,1038,1038,1038,1041,1041,1041,1041,1041,1044,1047,1047,1047,1050,1050,1054,1241,1241,1241,1241,1241,1241,1241,1241,1241,1241,1241,1241,1241,1245,1245,1245,1245,1245,1245,1245,1245,1245,1245,1245,1245,1245,1245,1241,1241,1241,1241,1241,1241,1063,1063,1063,1063,0,0,0,0,0,0,0,0,0,0,0,684,684,683,682,682,680,679,679,676,675,674,671,671,670,670,670,670,670,670,671,671,674,675,676,676,679,680,683,684,686,687,687,687,688,0,0,0,0,0,0,0,0,0,1245,1245,1245,1245,1245,1245,1250,1250,1250,1255,1255,1255,1255,1255,1259,1259,1259,1259,1259,1259,1259,1259,1259,1264,1259,1259,1264,1264,1264,1264,1264,1264,1264,1264,1264,1259,1259,1259,1268,1268,1268,1268,1273,1268,1268,1268,1268,1268,1268,1268,1268,1268,1268,1268,1268,1268,1273,1273,1273,1273,1273,1273,1273,1273,1273,1273,1273,1273,1273,1273,1268,1268,1273,1273,1273,1273,1273,1273,1273,1273,1273,1273,1273,1278,1278,1278,1278,1278,1278,1273,1273,1273,1273,1273,1273,1273,1273,1273,1273,1025,1025,1022,1022,1019,1019,1016,1016,1013,1013,1010,1007,1007,1007,1007,1007,1007,1007,1010,1013,1016,1016,1016,1016,1273,1283,1283,1283,1283,1283,1278,1278,1278,1278,1278,1278,1278,1278,1278,1283,1283,1283,1288,1288,1278,1278,1278,1278,1288,1278,1278,1283,1283,1288,1288,1288,1288,1288,1288,1283,1283,1283,1283,1283,1283,1283,1283,1283,1283,1283,1283,1283,1283,1283,1288,1288,1288,1288,1288,1288,1283,1283,1283,1283,1283,1283,1283,1283,1283,1288,1288,1288,1288,1288,1288,1288,1288,1288,1288,1288,1288,1288,1288,1288,1288,1288,1288,1288,1288,1288,1288,1288,1288,1283,1283,1278,1278,1283,1283,1288,1283,1283,1288,1288,1288,1288,1288,1288,1288,1288,1288,1288,1288,1292,1288,1288,1288,1288,1288,1288,1288,1292,1292,1292,1297,1297,1297,1292,1292,1297,1297,1292,1292,1292,1297,1297,1292,1292,1292,1292,1292,1292,1292,1292,1292,1292,1292,1292,1292,1297,1292,1292,1292,1292,1292,1292,1292,1292,1292,1288,1288,1288,1288,1288,1288,1283,1283,1283,1283,1278,1278,1273,1273,1273,1268,1268,1268,1268,1268,1268,1264,1264,1259,1255,1255,1255,1250,1250,1250,1245,1245,1245,1241,1241,1236,1236,1236,1236,1236,1236,1094,1094,1094,1094,1087,1080,1070,1067,1063,1063,1063,0,0,0,0,0,0,0,0,0,0,0,0,0,0,0,0,0,0,0,0,0,0,0,0,0,0,0,0,0,0,0,0,0,0
0,0,0,0,0,0,1223,1223,1223,1223,1223,1223,1219,1219,1219,1219,1219,1223,1223,1223,1223,1223,1223,1223,1219,1219,1214,1214,1214,1214,1214,1210,1210,1210,1210,1210,1210,1210,1210,1210,1210,1210,1210,1210,1210,1210,1210,1210,1206,1206,1206,1206,1206,1206,1210,1210,1210,1210,1210,1210,1206,1206,1210,1210,1210,1214,1214,1214,1210,1210,1210,1210,1210,1210,1210,1214,1214,1214,1214,1214,1214,1214,1214,1210,1210,1210,1210,1210,1214,1214,1214,1214,1214,1214,1214,1214,1214,1214,1210,0,0,954,951,946,946,943,940,940,938,938,940,940,943,943,946,946,946,948,948,951,954,954,956,959,975,978,981,981,981,984,984,984,984,984,987,987,989,989,989,989,992,992,995,995,995,998,998,1001,1001,1001,1001,1004,1007,1010,1010,1013,1013,1016,1016,1019,1022,1022,1022,1022,1025,1025,1028,1031,1034,1038,1038,1038,1041,1041,1044,1044,1044,1044,1044,1047,1047,1047,1227,1232,1232,1236,1241,1236,1236,1241,1236,1236,1236,1236,1236,1236,1236,1236,1241,1241,1241,1241,1241,1241,1241,1241,1241,1241,1241,1236,1236,1241,1236,1236,1236,1236,1236,1236,1070,1070,1070,0,0,0,0,0,0,0,0,0,0,0,0,686,684,684,683,682,682,680,679,678,675,674,671,671,670,670,670,670,670,670,671,672,674,675,676,678,679,680,683,684,686,687,687,688,690,0,0,0,0,0,0,0,0,0,1245,1245,1245,1245,1245,1245,1245,1245,1250,1250,1255,1255,1255,1255,1255,1255,1255,1255,1255,1255,1255,1255,1255,1255,1255,1255,1255,1255,1259,1255,1255,1255,1255,1259,1259,1255,1255,1255,1264,1264,1268,1268,1268,1268,1268,1268,1268,1268,1268,1268,1268,1268,1264,1264,1268,1268,1268,1268,1268,1268,1268,1268,1268,1268,1268,1268,1268,1268,1268,1268,1268,1268,1268,1268,1273,1268,1268,1268,1268,1268,1264,1264,1264,1264,1273,1273,1273,1268,1268,1268,1268,1268,1268,1268,1268,1268,1268,1273,1273,1028,1028,1025,1025,1022,1019,1019,1016,1016,1013,1010,1010,1007,1007,1007,1007,1010,1010,1013,1013,1016,1016,1016,1016,1273,1273,1273,1278,1278,1273,1273,1273,1273,1273,1273,1273,1273,1273,1273,1278,1278,1278,1278,1273,1273,1273,1273,1273,1273,1278,1278,1278,1278,1278,1278,1278,1278,1278,1278,1278,1278,1278,1278,1278,1278,1278,1278,1278,1278,1278,1278,1278,1278,1278,1283,1278,1278,1283,1283,1283,1283,1283,1283,1278,1273,1273,1273,1273,1273,1273,1273,1283,1283,1283,1283,1283,1278,1278,1278,1278,1283,1283,1283,1288,1288,1288,1288,1288,1288,1283,1278,1278,1278,1278,1273,1273,1273,1273,1278,1278,1283,1283,1283,1288,1283,1283,1283,1283,1283,1283,1283,1283,1283,1283,1288,1288,1283,1283,1283,1283,1283,1283,1283,1288,1292,1292,1292,1292,1292,1292,1292,1292,1292,1292,1292,1292,1292,1288,1288,1288,1288,1288,1288,1292,1292,1292,1292,1292,1292,1292,1292,1292,1292,1292,1292,1292,1292,1292,1292,1288,1288,1288,1288,1288,1283,1283,1283,1283,1278,1278,1278,1273,1273,1268,1268,1268,1268,1268,1268,1268,1264,1264,1264,1259,1255,1255,1255,1250,1250,1245,1245,1245,1241,1241,1236,1236,1236,1236,1236,1090,1090,1090,1090,1084,1080,1080,1070,1067,1063,1063,1063,0,0,0,0,0,0,0,0,0,0,0,0,0,0,0,0,0,0,0,0,0,0,0,0,0,0,0,0,0,0,0,0,0,0
0,0,0,0,0,0,1219,1219,1219,1214,1214,1214,1214,1214,1214,1214,1214,1214,1219,1219,1223,1223,1223,1223,1219,1219,1210,1210,1210,1210,1210,1206,1206,1206,1206,1206,1206,1206,1206,1206,1206,1206,1206,1206,1210,1206,1206,1206,1206,1206,1202,1202,1202,1206,1206,1206,1206,1210,1210,1210,1206,1206,1206,1206,1206,1210,1210,1210,1210,1210,1210,1206,1206,1206,1206,1210,1210,1210,1210,1210,1210,1210,1210,1210,1210,1210,1210,1210,1210,1210,1210,1214,1214,1210,1210,1210,1210,1210,0,0,0,954,951,948,946,943,940,940,938,938,940,940,943,943,946,946,948,948,951,951,954,954,956,962,973,975,978,978,981,984,984,981,981,984,984,987,987,987,989,989,989,992,992,995,995,998,998,998,1001,1001,1001,1004,1007,1010,1010,1013,1013,1016,1016,1019,1022,1022,1022,1022,1025,1025,1028,1031,1034,1038,1038,1038,1041,1044,1044,1044,1044,1047,1047,1227,1227,1227,1227,1232,1232,1232,1232,1236,1236,1236,1236,1236,1232,1232,1232,1232,1232,1232,1232,1232,1232,1236,1236,1236,1236,1236,1236,1236,1236,1236,1236,1236,1236,1232,1232,1232,1232,1232,1070,1070,0,0,0,0,0,0,0,0,0,0,0,0,0,686,684,684,683,683,682,680,680,678,676,674,671,671,671,670,670,670,670,670,671,672,675,675,676,679,680,682,683,684,687,687,688,688,690,0,0,0,0,0,0,0,0,1241,1241,1241,1241,1241,1241,1245,1245,1245,1245,1245,1250,1250,1250,1250,1250,1250,1245,1245,1250,1245,1245,1250,1250,1250,1250,1250,1250,1250,1255,1250,1250,1250,1250,1255,1255,1250,1250,1255,1259,1259,1264,1264,1264,1264,1264,1264,1264,1264,1264,1264,1264,1264,1264,1259,1259,1259,1264,1264,1264,1264,1264,1264,1268,1268,1268,1264,1264,1268,1268,1264,1264,1264,1268,1268,1268,1268,1268,1264,1264,1264,1259,1259,1259,1259,1264,1264,1264,1268,1268,1268,1268,1268,1268,1268,1268,1268,1264,1264,1264,1028,1028,1025,1025,1025,1022,1022,1019,1016,1016,1013,1010,1007,1007,1007,1007,1010,1010,1013,1013,1016,1016,1016,1016,1268,1268,1268,1273,1273,1273,1273,1273,1273,1273,1273,1273,1268,1268,1268,1273,1273,1273,1273,1273,1268,1268,1268,1268,1268,1273,1273,1278,1278,1278,1278,1278,1278,1278,1278,1278,1278,1273,1273,1273,1273,1273,1273,1273,1278,1278,1273,1273,1273,1273,1278,1273,1273,1273,1278,1278,1278,1278,1278,1273,1273,1273,1273,1273,1273,1273,1273,1273,1278,1278,1273,1273,1278,1278,1278,1278,1278,1278,1283,1283,1283,1283,1283,1283,1283,1278,1273,1273,1273,1273,1273,1273,1273,1273,1273,1278,1278,1278,1278,1283,1283,1273,1273,1278,1278,1283,1278,1278,1278,1283,1283,1283,1283,1278,1278,1278,1278,1278,1278,1278,1278,1283,1283,1288,1288,1288,1288,1288,1288,1292,1292,1292,1288,1288,1288,1288,1283,1283,1283,1288,1292,1292,1292,1288,1288,1288,1288,1292,1288,1288,1288,1288,1288,1292,1292,1288,1288,1288,1288,1288,1283,1283,1278,1278,1278,1278,1273,1273,1273,1268,1268,1268,1268,1268,1268,1268,1268,1264,1259,1259,1255,1255,1255,1250,1250,1245,1245,1245,1241,1241,1236,1236,1236,1236,1084,1084,1084,1084,1080,1080,1080,1073,1070,1067,1063,1063,1063,0,0,0,0,0,0,0,0,0,0,0,0,0,0,0,0,0,0,0,0,0,0,0,0,0,0,0,0,0,0,0,0,0,0
0,0,0,0,0,1214,1214,1219,1219,1214,1214,1214,1214,1214,1214,1214,1214,1214,1214,1219,1219,1223,1223,1219,1214,1214,1206,1206,1206,1206,1206,1202,1202,1202,1202,1202,1202,1202,1202,1202,1202,1202,1202,1206,1206,1206,1206,1206,1202,1202,1202,1202,1202,1202,1202,1202,1202,1202,1206,1206,1202,1202,1202,1202,1202,1206,1206,1206,1206,1206,1206,1206,1202,1202,1202,1202,1206,1206,1206,1206,1210,1206,1206,1206,1206,1206,1206,1206,1206,1210,1210,1210,1210,1210,1210,1206,1206,1210,0,954,954,954,951,948,948,946,943,940,940,940,940,940,943,943,946,946,948,948,951,951,954,956,956,962,970,973,975,978,978,981,981,981,981,981,984,987,987,987,987,989,989,989,992,995,995,998,998,998,1001,1001,1001,1004,1007,1010,1010,1013,1013,1016,1016,1019,1022,1022,1022,1022,1022,1025,1025,1031,1034,1038,1041,1041,1041,1044,1047,1219,1219,1223,1223,1227,1227,1227,1227,1227,1227,1227,1232,1232,1232,1232,1232,1232,1232,1232,1232,1227,1227,1227,1227,1227,1227,1227,1232,1232,1232,1232,1232,1232,1232,1232,1232,1232,1232,1227,1227,1227,1227,1227,1227,0,0,0,0,0,0,0,0,0,0,0,0,0,0,686,686,684,683,683,682,682,680,679,676,674,671,671,671,670,670,671,670,670,671,674,675,676,678,679,680,682,684,686,687,687,688,690,690,0,0,0,0,0,0,0,0,1241,1241,1241,1241,1241,1241,1241,1241,1241,1241,1241,1245,1245,1241,1241,1241,1241,1241,1245,1245,1245,1245,1245,1245,1245,1245,1245,1245,1245,1245,1245,1245,1250,1250,1250,1250,1250,1250,1250,1255,1255,1259,1259,1259,1259,1259,1259,1259,1259,1259,1259,1259,1259,1255,1255,1255,1255,1255,1255,1259,1259,1259,1259,1264,1264,1264,1264,1264,1264,1264,1264,1259,1259,1264,1264,1264,1264,1259,1259,1259,1259,1255,1255,1255,1255,1255,1255,1259,1259,1259,1259,1264,1264,1264,1264,1264,1264,1264,1264,1264,1028,1028,1025,1025,1025,1022,1022,1019,1016,1016,1013,1013,1010,1010,1010,1010,1013,1013,1016,1016,1016,1016,1016,1016,1264,1264,1264,1264,1264,1268,1268,1268,1268,1268,1268,1268,1268,1268,1268,1268,1268,1268,1268,1268,1268,1268,1268,1268,1268,1268,1268,1273,1273,1273,1273,1273,1273,1273,1273,1273,1273,1273,1273,1273,1273,1268,1268,1273,1273,1273,1273,1273,1273,1273,1268,1268,1268,1273,1273,1273,1273,1273,1273,1273,1268,1268,1268,1268,1268,1268,1268,1268,1268,1273,1273,1273,1273,1273,1273,1273,1273,1273,1278,1278,1278,1278,1273,1273,1273,1273,1268,1268,1268,1268,1268,1268,1268,1268,1273,1273,1273,1273,1273,1278,1278,1273,1273,1278,1278,1278,1273,1273,1273,1278,1278,1273,1273,1273,1273,1273,1273,1273,1273,1273,1273,1278,1278,1278,1283,1283,1283,1288,1288,1288,1288,1288,1288,1283,1283,1283,1283,1278,1278,1283,1288,1288,1288,1288,1288,1288,1288,1288,1288,1288,1288,1288,1288,1288,1288,1283,1283,1283,1288,1283,1278,1278,1278,1278,1273,1273,1273,1273,1273,1273,1268,1268,1268,1268,1268,1268,1268,1264,1259,1259,1259,1255,1255,1250,1250,1245,1245,1245,1241,1241,1236,1236,1236,1236,1090,1084,1084,1084,1080,1080,1080,1073,1070,1067,1063,1063,1063,0,0,0,0,0,0,0,0,0,0,0,0,0,0,0,0,0,0,0,0,0,0,0,0,0,0,0,0,0,0,0,0,0,0
0,0,0,0,0,1214,1214,1214,1214,1214,1214,1210,1210,1210,1210,1210,1206,1206,1206,1210,1210,1214,1214,1214,1214,1210,1206,1202,1202,1202,1202,1202,1202,1202,1202,1202,1202,1197,1197,1202,1202,1202,1202,1202,1202,1202,1202,1202,1202,1202,1197,1197,1197,1197,1197,1197,1197,1202,1202,1202,1202,1202,1197,1197,1197,1197,1202,1202,1202,1202,1202,1202,1197,1197,1197,1197,1202,1202,1202,1206,1206,1206,1206,1202,1202,1202,1202,1202,1202,1202,1206,1206,1206,1206,1206,1206,1206,1210,1210,954,954,954,951,951,948,946,943,940,940,940,940,940,943,943,946,946,948,948,951,954,956,956,956,962,967,973,973,975,975,978,978,981,981,981,981,984,984,984,987,987,989,989,992,992,995,998,998,1001,1001,1001,1001,1004,1007,1010,1010,1013,1013,1016,1019,1022,1022,1022,1022,1022,1022,1025,1025,1210,1210,1210,1210,1210,1214,1214,1214,1219,1219,1219,1219,1223,1227,1227,1227,1227,1227,1227,1227,1227,1227,1227,1227,1227,1227,1227,1227,1227,1223,1223,1223,1223,1223,1223,1223,1227,1227,1227,1227,1227,1227,1227,1227,1227,1227,1227,1227,1223,1223,1219,1219,0,0,0,0,0,0,0,0,0,0,0,0,0,0,686,686,684,684,683,682,682,680,679,676,675,674,672,671,671,671,671,671,671,672,675,675,676,678,679,680,682,684,686,687,688,690,690,691,693,0,0,0,0,0,0,0,1241,1236,1236,1236,1236,1236,1236,1236,1236,1236,1236,1236,1236,1236,1236,1236,1236,1236,1236,1241,1241,1241,1241,1241,1241,1245,1245,1245,1245,1245,1245,1245,1245,1245,1245,1245,1245,1245,1250,1255,1255,1255,1255,1255,1259,1259,1259,1255,1255,1255,1255,1255,1255,1250,1250,1255,1255,1255,1255,1255,1255,1255,1255,1259,1259,1259,1259,1259,1259,1259,1259,1259,1259,1259,1259,1259,1259,1259,1259,1255,1255,1255,1255,1255,1250,1250,1255,1255,1255,1255,1255,1255,1255,1255,1259,1259,1259,1264,1264,1259,1028,1028,1028,1028,1025,1025,1022,1019,1016,1016,1013,1013,1013,1013,1013,1013,1013,1013,1016,1016,1016,1016,1016,1016,1264,1264,1259,1259,1264,1264,1264,1264,1264,1264,1264,1264,1264,1264,1264,1264,1259,1259,1264,1264,1264,1264,1264,1268,1268,1268,1268,1273,1268,1268,1268,1268,1268,1268,1268,1268,1268,1268,1268,1268,1268,1268,1268,1268,1268,1268,1268,1268,1268,1268,1268,1268,1268,1268,1268,1268,1268,1268,1268,1273,1268,1268,1268,1268,1268,1268,1264,1264,1264,1268,1268,1273,1273,1273,1273,1273,1273,1273,1273,1273,1273,1268,1268,1268,1268,1268,1268,1268,1264,1264,1268,1268,1268,1268,1268,1268,1273,1273,1273,1273,1273,1273,1273,1273,1273,1273,1273,1273,1273,1273,1273,1273,1273,1273,1273,1273,1273,1273,1273,1273,1273,1273,1273,1273,1273,1278,1278,1283,1283,1283,1288,1283,1283,1283,1278,1278,1278,1278,1278,1278,1283,1283,1283,1283,1283,1283,1283,1283,1283,1283,1283,1283,1288,1288,1288,1283,1283,1283,1283,1278,1278,1278,1278,1278,1273,1273,1273,1273,1273,1268,1268,1268,1268,1268,1268,1268,1268,1264,1259,1259,1259,1255,1255,1250,1250,1250,1245,1245,1241,1241,1236,1236,1236,1236,1090,1087,1084,1080,1080,1080,1077,1073,1070,1067,1063,1063,1063,0,0,0,0,0,0,0,0,0,0,0,0,0,0,0,0,0,0,0,0,0,0,0,0,0,0,0,0,0,0,0,0,0,0
0,0,0,0,0,1214,1214,1214,1214,1214,1210,1210,1210,1210,1210,1206,1206,1202,1202,1202,1202,1202,1202,1202,1210,1206,1202,1202,1202,1202,1202,1197,1197,1197,1197,1197,1197,1197,1197,1197,1197,1197,1197,1197,1197,1197,1197,1197,1197,1197,1197,1197,1197,1197,1197,1197,1197,1197,1197,1197,1197,1197,1197,1197,1197,1197,1197,1197,1197,1197,1197,1197,1197,1197,1197,1197,1197,1202,1202,1202,1206,1202,1202,1202,1197,1197,1197,1197,1197,1197,1202,1202,1202,1206,1206,1206,1206,1206,1206,954,954,954,954,951,948,946,946,943,943,943,943,943,943,943,946,946,948,951,954,954,956,956,956,962,967,973,973,975,975,978,978,978,981,981,981,984,984,984,987,987,989,989,992,992,995,998,998,1001,1001,1001,1004,1007,1007,1007,1010,1013,1013,1016,1019,1022,1022,1022,1022,1022,1022,1025,1025,1210,1210,1210,1210,1210,1210,1214,1214,1214,1214,1219,1219,1219,1219,1219,1223,1223,1223,1223,1219,1219,1223,1223,1227,1227,1227,1227,1223,1223,1223,1219,1219,1219,1219,1219,1219,1223,1223,1223,1227,1227,1227,1223,1223,1223,1223,1223,1223,1219,1214,1214,1219,0,0,0,0,0,0,0,0,0,0,0,0,0,0,686,686,686,684,684,683,682,680,679,676,675,674,672,672,671,671,671,671,671,674,675,676,678,678,679,680,682,684,686,688,688,690,690,691,693,0,0,0,0,0,0,0,1232,1232,1232,1232,1232,1232,1232,1232,1232,1232,1236,1236,1236,1232,1232,1232,1232,1232,1236,1236,1236,1236,1236,1236,1236,1241,1241,1241,1241,1241,1241,1241,1241,1241,1241,1241,1241,1245,1245,1250,1250,1255,1255,1255,1255,1255,1255,1255,1255,1250,1250,1250,1250,1250,1250,1250,1250,1250,1250,1250,1250,1250,1250,1255,1255,1255,1255,1255,1255,1255,1255,1255,1255,1255,1255,1255,1255,1255,1255,1255,1255,1250,1250,1250,1250,1250,1250,1250,1250,1250,1250,1255,1255,1255,1255,1255,1255,1259,1259,1259,1250,1025,1025,1025,1025,1025,1025,1019,1019,1016,1013,1013,1013,1013,1013,1013,1013,1016,1016,1016,1019,1019,1016,1016,1255,1255,1255,1255,1259,1259,1264,1264,1264,1264,1264,1264,1264,1259,1259,1259,1259,1259,1259,1259,1259,1259,1259,1259,1259,1259,1259,1268,1268,1268,1264,1264,1264,1264,1268,1268,1268,1264,1264,1264,1264,1264,1264,1264,1264,1264,1264,1264,1264,1264,1264,1264,1264,1259,1259,1259,1264,1264,1264,1268,1268,1264,1264,1264,1264,1264,1259,1259,1264,1268,1268,1268,1268,1273,1273,1268,1268,1268,1268,1268,1268,1264,1264,1264,1264,1264,1264,1264,1264,1264,1264,1264,1264,1264,1264,1264,1268,1268,1268,1268,1268,1268,1268,1268,1268,1268,1268,1268,1268,1268,1268,1268,1268,1268,1268,1268,1268,1268,1268,1268,1268,1268,1268,1273,1273,1273,1273,1273,1278,1278,1283,1278,1278,1278,1278,1278,1273,1273,1273,1273,1278,1273,1273,1273,1273,1273,1273,1278,1278,1278,1278,1278,1283,1278,1278,1278,1278,1273,1273,1278,1273,1273,1273,1273,1273,1273,1273,1268,1268,1268,1268,1268,1268,1268,1268,1268,1268,1268,1264,1264,1259,1255,1255,1255,1250,1250,1250,1245,1245,1241,1241,1236,1236,1087,1087,1080,1080,1080,1080,1077,1077,1073,1070,1067,1063,1063,1063,0,0,0,0,0,0,0,0,0,0,0,0,0,0,0,0,0,0,0,0,0,0,0,0,0,0,0,0,0,0,0,0,0,0
