0,0,0,0,0,0,0,0,0,0,0,0,1804,1804,1804,1794,1794,1794,1794,1804,1804,1804,1794,1794,1794,1794,1804,1794,1794,1794,1794,1794,1794,1794,1794,1794,1794,1794,1794,1794,1794,1794,1794,1794,1794,1794,1794,1794,1785,1785,1785,1785,1785,1785,1785,1785,1785,1785,0,0,0,0,0,0,0,0,0,0,1016,1016,1019,1016,1016,1016,1019,1019,1019,1019,1019,1019,1019,1019,1019,1022,1025,1025,1025,1025,0,0,0,752,752,747,744,742,741,738,736,734,734,734,734,733,733,731,731,731,731,731,730,728,728,728,728,728,727,727,725,725,725,725,725,723,722,722,722,722,722,722,720,720,720,720,722,722,719,719,719,720,720,720,720,720,720,720,720,720,722,722,722,722,722,722,723,725,725,727,728,728,730,730,731,731,733,734,736,736,738,738,739,741,741,742,744,746,747,747,749,750,752,754,754,755,757,759,762,764,766,767,769,771,773,774,774,778,778,780,780,780,781,783,783,785,789,789,792,792,794,794,794,796,798,798,798,802,802,803,803,805,807,809,809,811,813,815,815,817,817,819,819,819,821,821,823,825,827,827,831,831,833,833,835,835,837,839,841,843,843,843,843,845,845,847,849,849,851,851,851,851,1250,1259,1259,1259,1259,867,867,1264,1264,1655,1655,1655,1655,1663,1663,1663,1663,1663,1663,1663,1663,1663,1663,1663,1663,1671,1663,1663,1663,1663,1663,1663,1663,1663,1663,1663,1663,1663,1663,1663,1655,1655,1655,1655,1655,1647,1647,1639,1639,1639,1639,1639,0,0,0,0,0,0,981,978,978,978,975,973,970,962,962,959,959,959,959,959,959,959,959,962,964,967,970,970,973,973,975,975,978,0,0,0,0,0,1632,1624,1624,1624,1624,1624,1624,1624,1624,1624,1624,1624,1624,1624,1616,1616,1616,1609,1609,1616,1616,1616,1616,1616,1616,1609,1609,1609,1609,1609,1609,1609,1609,1601,1601,1601,1601,1601,1601,1601,1594,1594,1594,1594,1594,1594,1586,1586,1586,1586,1586,1579,1579,1579,1579,1579,1572,1572,1564,1564,1557,1550,1550,1550,1550,1543,1536,1536,1536,1529,1523,1523,1516,1516,1516,1509,1503,1503,1496,1496,1489,1489,1489,1483,1483,1477,1477,1477,1470,1470,1464,1464,1464,1452,1452,1445,1445,1445,1439,1439,1433,1427,1427,1421,1421,1415,1415,1410,1410,1404,1404,1398,1398,1398,1392,1392,1387,1381,1381,1381,1376,1376,1376,1370,1370,1370,1365,1365,1359,1354,1354,1349,1349,1343,1343,1343,1338,1338,1333,1333,1333,1333,1328,1328,1322,1317,1312,1312,1307,1307,1307,1302,1297,1297,1292,1292,1288,1288,1288,1288,1283,1273,1273,1268,1268,1268,1268,1264,1264,1259,1259,1255,1255,1250,1250,1241,1241,1236,1236,1232,1232,1232,1232,1227,1223,1219,1219,1219,1214,1214,1210,1210,1206,1206,1202,1202,1202,1202,1197,1197,1193,1189,1185,1185,1181,1181,1177,1173,1173,1173,1169,1169,1165,1165,1165,1165,1161,1161,1157,1157,1153,1149,1149,1149,1145,1145,1141,1141,1141,1138,1134,1134,1130,1126,1126,1123,1123,1123,1119,1119,1119,1115,1115,1112,1108,1108,1108,1105,1105,1101,1101,1097,1094,1094,1094,1090,1090,1090,0,0,0,0,0,0,0,0,0,0,0,0,0,0,0,0,0,0,0,0,0,0,0,0,0,0,0,0,0,0,0,0
0,0,0,0,0,0,0,0,0,0,0,0,1804,1804,1794,1785,1785,1794,1785,1785,1785,1785,1794,1794,1794,1794,1794,1794,1794,1794,1794,1794,1794,1794,1785,1785,1785,1785,1785,1785,1785,1785,1785,1785,1794,1785,1785,1785,1785,1785,1776,1776,1776,1776,1776,1776,1766,1757,1757,0,0,0,0,0,0,0,0,0,0,1019,1019,1019,1019,1019,1019,1019,1019,1019,1019,1019,1019,1019,1022,1022,1025,1025,1025,1025,1031,0,0,0,0,747,744,742,739,736,736,734,733,733,733,731,731,728,728,728,731,728,727,725,725,727,727,725,725,725,723,723,723,723,723,722,720,720,720,720,720,720,719,719,719,717,717,717,716,716,716,716,716,716,716,717,717,719,719,720,720,722,722,722,722,722,723,725,725,727,728,730,730,731,733,733,734,736,736,736,738,738,739,741,741,742,746,747,749,750,750,752,754,755,757,759,762,764,766,766,767,769,771,773,773,774,776,778,778,780,780,781,781,783,785,785,789,790,790,792,794,794,796,796,798,798,800,802,802,803,805,807,809,809,811,813,813,815,817,817,817,819,819,821,821,823,825,825,827,829,831,831,833,833,835,835,837,839,841,841,843,843,843,845,845,847,849,849,851,851,851,1250,1250,1259,1259,1259,1259,1259,1259,1264,1264,1655,1655,1647,1647,1663,1663,1663,1655,1655,1655,1655,1655,1655,1655,1655,1655,1655,1663,1663,1655,1655,1655,1655,1655,1655,1655,1655,1655,1655,1655,1655,1655,1655,1655,1647,1647,1639,1639,1639,1639,1639,1639,1639,0,0,0,0,0,0,981,978,978,978,975,973,970,964,962,962,959,959,959,959,959,962,962,962,964,967,970,970,973,973,975,975,978,0,0,0,0,0,1632,1624,1616,1616,1616,1624,1624,1624,1624,1624,1624,1616,1616,1616,1609,1609,1609,1609,1609,1609,1609,1609,1609,1609,1609,1609,1609,1609,1601,1601,1601,1601,1601,1601,1601,1601,1594,1594,1594,1594,1594,1594,1586,1586,1594,1586,1586,1586,1579,1579,1579,1579,1579,1572,1572,1572,1572,1572,1564,1564,1557,1557,1550,1550,1550,1543,1543,1536,1536,1529,1529,1523,1523,1516,1516,1509,1503,1503,1496,1496,1496,1489,1489,1489,1483,1483,1477,1477,1470,1470,1470,1464,1464,1452,1452,1445,1445,1445,1439,1439,1439,1433,1427,1421,1421,1421,1415,1410,1410,1404,1404,1398,1398,1398,1392,1392,1387,1381,1381,1381,1376,1376,1376,1370,1370,1370,1365,1365,1359,1354,1354,1349,1349,1343,1343,1343,1338,1338,1333,1333,1333,1333,1328,1328,1322,1317,1312,1312,1312,1307,1307,1302,1302,1297,1292,1292,1292,1288,1288,1288,1283,1273,1273,1268,1268,1268,1268,1264,1264,1259,1259,1255,1255,1250,1250,1245,1241,1236,1236,1232,1232,1232,1227,1227,1223,1219,1219,1219,1214,1214,1214,1210,1210,1206,1202,1202,1202,1202,1197,1197,1193,1189,1189,1185,1185,1181,1181,1177,1173,1173,1169,1169,1165,1165,1165,1165,1161,1161,1157,1153,1153,1153,1149,1149,1145,1145,1141,1141,1141,1138,1134,1134,1130,1126,1126,1126,1123,1123,1123,1119,1119,1119,1115,1112,1112,1108,1108,1108,1105,1101,1101,1097,1094,1094,1094,1094,1094,1094,0,0,0,0,0,0,0,0,0,0,0,0,0,0,0,0,0,0,0,0,0,0,0,0,0,0,0,0,0,0,0,0
0,0,0,0,0,0,0,0,0,0,0,0,1794,1794,1785,1785,1785,1785,1776,1776,1766,1766,1776,1776,1776,1776,1776,1776,1776,1776,1785,1785,1785,1785,1785,1776,1776,1776,1776,1776,1776,1776,1776,1776,1785,1785,1776,1776,1776,1776,1776,1776,1776,1776,1766,1766,1757,1757,1748,1748,0,0,0,0,0,0,0,0,0,1019,1019,1019,1019,1019,1019,1019,1022,1022,1022,1022,1022,1022,1022,1022,1025,1025,1025,1031,1031,1031,1031,0,0,747,744,744,739,736,736,734,733,731,731,731,731,728,728,728,727,727,723,722,720,720,720,720,722,722,722,720,720,720,720,720,719,719,719,719,719,719,719,719,716,716,714,714,714,714,714,714,716,716,716,716,716,717,717,719,720,720,722,722,722,722,723,725,725,727,728,730,730,731,731,733,734,736,736,736,738,739,739,741,742,744,747,749,749,752,754,755,755,759,761,762,764,766,767,767,769,771,771,773,774,774,776,778,778,780,781,781,783,783,785,787,789,790,790,792,794,794,796,798,798,798,800,802,803,803,805,807,809,809,811,813,815,815,817,817,817,819,819,821,823,825,827,827,827,829,831,833,833,833,835,837,837,839,841,841,843,843,845,845,845,847,849,849,851,1250,1250,1250,1250,1255,1259,1259,1259,1259,1259,1264,1264,1655,1655,1647,1647,1655,1655,1655,1655,1655,1655,1655,1647,1647,1647,1647,1647,1647,1647,1647,1647,1655,1655,1655,1655,1655,1655,1655,1655,1655,1655,1655,1647,1647,1647,1647,1639,1639,1632,1632,1632,1632,1632,1632,0,0,0,0,0,0,981,978,978,978,975,975,970,967,964,962,962,959,959,959,962,962,962,962,967,967,970,973,975,975,978,978,978,981,981,0,0,0,0,1609,1609,1609,1609,1609,1609,1616,1616,1609,1609,1609,1609,1609,1609,1601,1601,1601,1601,1601,1601,1601,1609,1609,1601,1601,1601,1601,1601,1601,1601,1601,1601,1601,1594,1594,1586,1586,1586,1586,1586,1586,1586,1586,1586,1586,1579,1579,1579,1579,1579,1579,1572,1572,1572,1572,1572,1564,1564,1557,1557,1550,1550,1550,1550,1543,1543,1536,1536,1529,1529,1523,1523,1516,1516,1509,1509,1503,1496,1496,1496,1489,1489,1489,1483,1483,1477,1477,1470,1470,1470,1464,1464,1458,1452,1445,1445,1445,1439,1439,1439,1433,1427,1427,1421,1421,1415,1415,1410,1404,1404,1398,1398,1398,1398,1392,1392,1392,1387,1381,1376,1376,1376,1370,1370,1370,1370,1365,1359,1359,1354,1349,1349,1343,1343,1343,1338,1338,1338,1333,1333,1333,1328,1328,1322,1317,1312,1312,1312,1307,1307,1307,1302,1297,1292,1292,1292,1288,1288,1288,1278,1273,1273,1268,1268,1268,1268,1264,1264,1259,1259,1255,1255,1250,1250,1250,1241,1241,1236,1232,1232,1232,1227,1227,1223,1219,1219,1219,1219,1214,1214,1210,1210,1206,1202,1202,1202,1202,1197,1197,1193,1193,1189,1185,1185,1185,1181,1181,1177,1173,1173,1169,1169,1165,1165,1165,1161,1161,1157,1153,1153,1153,1149,1149,1149,1145,1141,1141,1141,1138,1134,1134,1130,1130,1126,1126,1123,1123,1123,1119,1119,1119,1115,1115,1112,1112,1108,1108,1105,1101,1101,1097,1097,1094,1094,1094,1094,1094,0,0,0,0,0,0,0,0,0,0,0,0,0,0,0,0,0,0,0,0,0,0,0,0,0,0,0,0,0,0,0,0
0,0,0,0,0,0,0,0,0,0,0,0,1785,1785,1776,1776,1766,1766,1766,1766,1766,1766,1766,1766,1766,1766,1757,1757,1766,1776,1776,1776,1776,1776,1776,1776,1776,1776,1766,1766,1776,1776,1776,1776,1785,1785,1776,1776,1776,1776,1776,1776,1776,1776,1766,1766,1757,1748,1748,1748,0,0,0,0,0,0,0,0,0,1019,1019,1019,1019,1019,1019,1022,1022,1022,1022,1022,1022,1022,1025,1025,1028,1028,1028,1031,1031,1031,0,0,0,0,744,744,739,736,736,734,733,731,731,728,727,722,722,720,720,722,722,720,720,720,719,719,717,717,717,717,717,716,716,717,717,716,716,716,714,714,714,710,710,710,710,713,713,713,714,714,714,714,714,716,716,717,717,719,720,720,722,722,722,722,723,725,727,727,728,728,730,731,731,733,734,736,738,738,738,739,741,742,746,747,750,752,752,755,757,759,759,761,762,764,766,766,767,769,771,771,773,774,774,776,776,778,780,780,781,781,783,783,785,787,789,790,792,792,794,794,796,798,798,800,800,803,803,805,805,807,809,811,811,813,815,817,817,817,819,819,821,823,825,825,827,827,827,829,831,831,833,833,835,835,837,839,841,841,843,843,845,845,845,845,1250,1250,1250,1250,1250,1250,1250,1255,1259,1259,1259,1259,1264,1264,1264,1655,1655,1647,1647,1647,1655,1655,1655,1647,1647,1647,1647,1647,1639,1639,1639,1639,1639,1639,1639,1639,1639,1639,1639,1647,1647,1647,1647,1647,1647,1647,1639,1639,1639,1639,1632,1632,1632,1624,1624,1624,1624,1624,0,0,0,0,0,0,981,978,978,978,978,975,973,970,967,964,962,962,962,962,962,964,964,964,967,970,973,975,975,978,978,978,978,981,981,0,0,0,0,1601,1601,1601,1601,1601,1609,1609,1609,1601,1601,1601,1601,1601,1601,1601,1601,1601,1601,1601,1601,1601,1601,1601,1601,1601,1601,1601,1601,1601,1601,1594,1594,1594,1586,1586,1586,1586,1579,1579,1579,1579,1579,1579,1579,1579,1579,1579,1572,1572,1572,1572,1572,1572,1572,1572,1572,1564,1557,1557,1550,1550,1550,1550,1543,1543,1543,1536,1536,1536,1529,1523,1523,1516,1516,1509,1509,1503,1496,1496,1496,1489,1489,1489,1483,1483,1477,1477,1470,1470,1470,1470,1464,1458,1452,1452,1445,1445,1445,1439,1439,1433,1433,1427,1427,1421,1415,1415,1410,1410,1404,1398,1398,1398,1398,1392,1392,1392,1387,1381,1381,1376,1376,1370,1370,1370,1370,1365,1365,1359,1354,1349,1349,1343,1343,1343,1343,1338,1338,1333,1333,1333,1328,1328,1322,1317,1312,1312,1312,1312,1307,1307,1302,1297,1297,1292,1292,1292,1288,1288,1278,1273,1273,1273,1268,1268,1268,1268,1268,1264,1259,1255,1255,1255,1250,1250,1245,1241,1241,1236,1232,1232,1232,1227,1223,1223,1219,1219,1219,1214,1214,1210,1210,1206,1202,1202,1202,1202,1197,1197,1193,1193,1189,1185,1185,1185,1181,1181,1177,1177,1173,1169,1169,1165,1165,1165,1165,1161,1161,1157,1153,1153,1149,1149,1149,1145,1145,1145,1141,1138,1138,1134,1134,1130,1130,1130,1126,1123,1123,1123,1119,1119,1115,1115,1112,1112,1108,1108,1105,1105,1101,1097,1097,1097,1094,1094,1094,1094,0,0,0,0,0,0,0,0,0,0,0,0,0,0,0,0,0,0,0,0,0,0,0,0,0,0,0,0,0,0,0,0
0,0,0,0,0,0,0,0,0,0,0,0,1766,1766,1766,1766,1766,1766,1766,1766,1757,1757,1757,1766,1766,1766,1757,1757,1766,1757,1757,1757,1757,1766,1766,1766,1766,1766,1766,1766,1766,1766,1766,1766,1776,1776,1776,1776,1776,1776,1776,1766,1766,1766,1766,1757,1757,1748,1739,1739,1739,0,0,0,0,0,0,0,0,1022,1022,1022,1022,1022,1022,1022,1022,1022,1022,1022,1022,1025,1025,1028,1031,1031,1031,1031,1031,1031,0,0,0,0,746,742,739,738,736,734,731,728,725,723,722,717,717,716,716,716,719,719,716,716,716,716,716,716,714,714,714,714,713,713,713,710,710,710,704,704,704,707,708,710,710,710,710,713,713,714,714,714,714,716,716,717,717,719,720,720,722,722,722,723,725,725,727,727,728,728,730,731,733,733,734,738,738,738,739,741,744,746,749,749,754,754,755,757,759,761,761,762,764,766,766,767,767,769,771,773,773,774,774,776,776,778,780,780,781,781,783,785,787,787,789,790,792,792,794,794,798,798,800,802,802,803,803,805,807,809,809,811,811,813,815,817,817,819,819,819,821,823,825,825,827,827,827,829,831,831,833,833,835,835,837,839,841,841,843,843,847,847,847,1250,1250,1250,1250,1250,1250,1250,1250,1255,1255,1259,1259,1259,1259,1259,1264,1655,1655,1647,1647,1647,1647,1647,1647,1639,1639,1639,1639,1632,1632,1632,1632,1632,1632,1632,1632,1632,1632,1632,1632,1632,1632,1632,1639,1639,1639,1632,1632,1632,1632,1632,1632,1624,1624,1624,1616,1616,1609,1609,1616,0,0,0,0,0,0,981,981,981,978,978,973,970,967,967,964,962,962,962,964,964,964,964,967,970,973,975,978,978,978,981,981,981,981,984,0,0,0,1601,1601,1601,1594,1594,1594,1594,1594,1594,1594,1594,1594,1594,1594,1586,1586,1586,1594,1594,1594,1594,1594,1594,1594,1594,1594,1594,1594,1594,1594,1594,1594,1586,1586,1579,1579,1579,1579,1579,1579,1579,1579,1579,1579,1579,1572,1572,1572,1572,1572,1572,1572,1572,1572,1572,1564,1557,1557,1550,1550,1550,1550,1550,1543,1543,1543,1536,1536,1529,1529,1529,1523,1523,1516,1516,1509,1509,1503,1496,1496,1489,1489,1489,1483,1483,1477,1477,1470,1470,1470,1470,1464,1458,1452,1452,1445,1445,1445,1439,1439,1439,1433,1427,1427,1421,1415,1415,1415,1410,1404,1404,1398,1398,1398,1392,1392,1392,1392,1387,1381,1376,1376,1370,1370,1370,1370,1365,1365,1359,1354,1349,1349,1343,1343,1343,1343,1338,1338,1333,1333,1333,1328,1322,1322,1317,1317,1312,1312,1312,1307,1307,1302,1302,1297,1292,1292,1292,1288,1288,1278,1278,1273,1273,1268,1268,1268,1268,1268,1264,1259,1255,1255,1255,1255,1250,1245,1241,1241,1236,1236,1236,1232,1232,1227,1223,1223,1223,1219,1219,1214,1214,1210,1206,1202,1202,1202,1202,1197,1197,1197,1193,1189,1185,1185,1185,1181,1181,1181,1177,1177,1173,1169,1169,1165,1165,1165,1161,1157,1157,1153,1153,1149,1149,1149,1149,1145,1145,1141,1138,1138,1134,1134,1134,1130,1130,1126,1123,1123,1123,1119,1119,1119,1115,1112,1112,1108,1108,1105,1105,1101,1101,1097,1097,1094,1094,1094,1094,0,0,0,0,0,0,0,0,0,0,0,0,0,0,0,0,0,0,0,0,0,0,0,0,0,0,0,0,0,0,0,0
0,0,0,0,0,0,0,0,0,0,0,0,1757,1757,1757,1757,1757,1757,1757,1757,1757,1757,1757,1757,1757,1757,1757,1757,1757,1757,1757,1757,1757,1757,1757,1757,1757,1766,1766,1766,1766,1766,1766,1766,1766,1766,1776,1776,1776,1776,1766,1766,1766,1766,1757,1757,1748,1748,1739,1739,1739,0,0,0,0,0,0,0,0,1025,1022,1022,1022,1022,1022,1022,1022,1022,1022,1022,1025,1025,1028,1028,1031,1031,1031,1031,1031,1031,0,0,0,0,746,742,739,738,736,734,731,727,723,717,716,714,714,714,711,711,713,717,714,714,714,714,714,713,713,713,711,711,710,710,708,707,706,704,704,704,704,706,707,708,708,708,710,710,713,713,714,714,714,716,716,717,717,719,720,720,722,722,722,723,725,727,727,727,728,730,730,731,733,734,738,739,739,739,741,746,747,747,749,750,755,755,757,757,761,761,762,764,764,766,766,767,769,769,771,773,773,774,776,776,778,778,780,780,781,781,785,785,787,789,789,790,792,792,794,796,798,798,800,802,803,803,805,807,809,809,811,811,813,815,815,817,817,819,819,821,821,825,825,825,827,827,829,829,831,833,833,835,835,835,837,839,841,841,843,843,843,1259,1255,1255,1250,1250,1250,1250,1250,1250,1250,1250,1255,1259,1259,1259,1259,1259,1264,1264,1647,1647,1639,1639,1639,1639,1639,1639,1632,1632,1632,1632,1624,1624,1624,1624,1624,1624,1624,1624,1624,1624,1624,1624,1624,1624,1624,1624,1624,1624,1632,1624,1624,1624,1624,1616,1616,1616,1609,1609,1601,1601,1594,1594,0,0,0,0,0,981,981,981,978,978,975,973,970,967,964,964,964,964,964,967,967,967,970,970,975,975,978,978,981,981,981,981,981,984,0,0,0,0,1594,1594,1594,1594,1594,1594,1586,1586,1586,1586,1586,1586,1586,1586,1586,1586,1586,1586,1586,1586,1586,1586,1586,1586,1586,1586,1586,1586,1586,1586,1579,1579,1579,1579,1579,1579,1572,1572,1572,1572,1572,1572,1572,1572,1572,1572,1572,1564,1564,1572,1564,1564,1564,1564,1557,1557,1557,1550,1550,1550,1550,1543,1543,1543,1543,1543,1536,1529,1529,1529,1523,1523,1516,1516,1516,1509,1503,1496,1496,1496,1489,1489,1489,1483,1477,1477,1477,1470,1470,1470,1464,1458,1458,1452,1452,1445,1445,1445,1439,1439,1433,1427,1427,1421,1421,1415,1415,1410,1410,1404,1398,1398,1398,1398,1392,1392,1392,1387,1381,1376,1376,1376,1370,1370,1370,1370,1365,1359,1354,1349,1349,1343,1343,1343,1343,1338,1338,1333,1333,1333,1328,1322,1317,1317,1317,1312,1312,1312,1307,1307,1302,1302,1297,1297,1292,1292,1288,1288,1283,1278,1278,1278,1273,1273,1268,1268,1268,1264,1259,1259,1255,1255,1255,1250,1245,1245,1245,1241,1236,1236,1236,1232,1232,1232,1223,1223,1223,1219,1214,1214,1210,1206,1202,1202,1202,1202,1197,1197,1197,1193,1189,1185,1185,1185,1181,1181,1181,1177,1177,1173,1169,1169,1169,1165,1165,1165,1157,1157,1153,1153,1153,1149,1149,1149,1145,1145,1141,1138,1138,1134,1134,1134,1130,1130,1126,1123,1123,1123,1119,1119,1119,1115,1115,1115,1112,1108,1105,1105,1101,1101,1097,1097,1097,1094,1094,1094,0,0,0,0,0,0,0,0,0,0,0,0,0,0,0,0,0,0,0,0,0,0,0,0,0,0,0,0,0,0,0,0
0,0,0,0,0,0,0,0,0,0,0,0,1757,1757,1757,1757,1757,1757,1757,1757,1748,1748,1757,1757,1757,1748,1748,1757,1757,1748,1748,1757,1748,1748,1748,1748,1748,1748,1748,1748,1757,1766,1766,1766,1766,1766,1766,1766,1766,1766,1766,1757,1757,1757,1757,1757,1748,1739,1739,1731,1731,0,0,0,0,0,0,0,0,1025,1025,1022,1022,1022,1022,1022,1022,1022,1022,1025,1025,1025,1028,1028,1031,1031,1031,1031,1031,1028,1028,0,0,0,0,739,738,738,736,734,731,725,719,716,716,713,711,711,708,708,710,713,711,711,710,710,707,707,707,707,707,704,703,703,703,704,704,704,704,704,704,706,707,708,708,708,710,710,713,713,714,714,714,714,716,717,717,719,720,720,722,722,723,725,727,727,727,728,728,730,731,733,733,736,739,739,741,741,742,747,747,749,752,755,757,757,757,759,761,762,764,764,766,766,767,767,769,771,773,773,773,774,776,778,778,780,780,780,781,783,785,785,787,789,789,790,792,794,794,796,800,800,800,802,803,805,805,807,809,809,811,811,813,815,815,817,817,819,819,821,823,825,825,825,827,827,829,829,831,833,833,835,835,837,837,839,841,841,841,841,1264,1259,1259,1255,1255,1255,1255,1250,1250,1250,1250,1250,1255,1259,1259,1259,1259,1259,1264,1264,1647,1647,1639,1639,1632,1632,1632,1632,1632,1624,1624,1624,1624,1624,1624,1624,1624,1624,1624,1624,1624,1624,1624,1624,1616,1616,1616,1616,1624,1616,1616,1616,1616,1616,1616,1609,1609,1609,1601,1601,1594,1594,1579,1579,0,0,0,0,0,981,981,981,981,978,975,975,970,970,967,964,964,964,967,967,967,967,970,973,975,975,978,978,981,981,981,984,984,984,0,0,0,0,1594,1594,1586,1586,1586,1586,1586,1586,1579,1579,1579,1579,1579,1579,1579,1579,1579,1579,1579,1579,1579,1579,1579,1579,1579,1579,1579,1579,1579,1579,1579,1579,1579,1572,1572,1572,1572,1572,1564,1564,1564,1564,1564,1564,1564,1564,1564,1564,1564,1564,1564,1564,1557,1557,1557,1550,1550,1550,1550,1550,1543,1543,1543,1543,1536,1536,1536,1529,1529,1529,1523,1523,1516,1516,1516,1509,1503,1496,1496,1496,1489,1489,1489,1483,1483,1477,1477,1470,1470,1470,1464,1464,1458,1458,1452,1452,1445,1445,1439,1439,1433,1433,1427,1427,1421,1415,1415,1415,1410,1410,1404,1398,1398,1398,1392,1392,1392,1392,1381,1381,1376,1376,1376,1370,1370,1370,1365,1365,1354,1349,1349,1343,1343,1343,1343,1338,1338,1338,1333,1333,1328,1322,1317,1317,1317,1312,1312,1312,1307,1307,1302,1302,1297,1297,1292,1292,1292,1288,1283,1283,1278,1278,1273,1273,1268,1268,1268,1264,1264,1259,1255,1255,1255,1250,1245,1245,1245,1241,1236,1236,1236,1232,1232,1232,1227,1227,1223,1219,1219,1214,1210,1210,1206,1206,1202,1202,1202,1197,1197,1197,1189,1189,1185,1185,1181,1181,1181,1177,1177,1173,1173,1169,1169,1165,1165,1165,1157,1157,1153,1153,1153,1149,1149,1149,1145,1145,1141,1138,1138,1134,1134,1134,1134,1130,1126,1126,1123,1123,1123,1119,1119,1115,1115,1115,1112,1108,1105,1105,1101,1101,1097,1097,1097,1094,1094,1094,0,0,0,0,0,0,0,0,0,0,0,0,0,0,0,0,0,0,0,0,0,0,0,0,0,0,0,0,0,0,0,0
0,0,0,0,0,0,0,0,0,0,0,0,1757,1757,1757,1748,1748,1748,1748,1748,1748,1748,1748,1748,1748,1739,1739,1748,1748,1731,1731,1731,1739,1739,1731,1731,1731,1739,1739,1739,1748,1757,1748,1748,1757,1757,1757,1757,1757,1757,1757,1757,1757,1748,1748,1748,1739,1739,1731,1731,1731,0,0,0,0,0,0,0,0,0,1025,1025,1022,1022,1022,1022,1025,1025,1025,1025,1025,1025,1028,1028,1031,1031,1031,1031,1034,1028,1028,0,0,0,0,739,738,738,734,733,731,723,717,714,714,711,710,710,708,708,708,708,708,708,707,707,704,703,701,701,701,701,703,703,703,704,704,704,704,704,704,706,707,707,708,708,710,710,713,713,714,714,714,714,716,717,717,719,720,722,722,722,723,725,727,728,728,730,731,731,733,734,734,738,739,741,742,744,747,747,750,750,752,755,757,757,757,759,762,764,764,766,766,767,767,769,771,771,773,773,773,774,776,778,778,780,780,781,781,783,785,787,787,789,789,790,792,794,794,796,798,800,802,803,803,805,807,807,809,809,811,811,813,815,815,817,817,819,819,821,823,825,827,827,827,827,829,831,833,833,833,835,835,837,837,839,841,841,841,1268,1264,1264,1259,1259,1255,1255,1255,1250,1250,1250,1250,1255,1255,1259,1259,1259,1259,1259,1264,1264,1647,1647,1632,1632,1632,1632,1632,1624,1624,1624,1624,1616,1616,1616,1616,1616,1616,1624,1616,1616,1616,1616,1616,1616,1616,1616,1616,1616,1616,1616,1616,1616,1609,1609,1601,1601,1601,1609,1601,1601,1594,1579,1579,1572,1572,1572,0,0,0,0,984,981,981,978,975,975,973,970,967,967,967,967,967,967,967,970,970,973,975,975,978,978,981,981,981,984,987,989,0,0,0,0,1594,1586,1579,1579,1579,1579,1579,1579,1579,1579,1579,1572,1572,1572,1572,1572,1572,1572,1579,1572,1572,1579,1579,1572,1572,1572,1572,1572,1572,1572,1572,1572,1572,1572,1572,1572,1564,1564,1564,1557,1557,1557,1557,1557,1557,1557,1557,1557,1557,1557,1557,1557,1550,1550,1550,1550,1550,1550,1543,1543,1543,1543,1543,1536,1536,1536,1536,1529,1529,1523,1523,1523,1516,1516,1516,1509,1503,1503,1496,1496,1489,1489,1489,1483,1483,1477,1477,1470,1470,1470,1464,1464,1458,1458,1452,1452,1445,1445,1439,1439,1433,1433,1433,1427,1421,1421,1415,1415,1410,1410,1404,1404,1398,1398,1398,1392,1392,1392,1381,1381,1376,1376,1376,1370,1370,1370,1370,1365,1354,1349,1349,1343,1343,1343,1343,1338,1338,1333,1333,1333,1328,1328,1322,1322,1317,1317,1312,1312,1307,1307,1307,1302,1297,1297,1297,1292,1292,1288,1288,1283,1283,1278,1273,1273,1268,1268,1268,1264,1264,1259,1259,1255,1255,1250,1250,1245,1245,1241,1236,1236,1236,1232,1232,1232,1227,1227,1227,1223,1219,1214,1210,1210,1206,1206,1202,1202,1202,1197,1197,1197,1193,1189,1189,1185,1181,1181,1181,1181,1177,1177,1173,1173,1169,1169,1165,1165,1161,1157,1153,1153,1153,1149,1149,1149,1145,1145,1141,1138,1138,1134,1134,1134,1134,1130,1130,1126,1126,1123,1123,1119,1119,1119,1115,1115,1108,1108,1105,1105,1105,1101,1101,1097,1097,1094,1094,1094,0,0,0,0,0,0,0,0,0,0,0,0,0,0,0,0,0,0,0,0,0,0,0,0,0,0,0,0,0,0,0,0
0,0,0,0,0,0,0,0,0,0,0,0,1748,1748,1748,1748,1748,1748,1748,1748,1739,1739,1739,1739,1739,1739,1731,1731,1731,1731,1731,1731,1731,1731,1722,1722,1722,1731,1731,1731,1731,1739,1739,1739,1731,1731,1739,1739,1748,1748,1748,1748,1748,1739,1739,1739,1739,1731,1731,1731,1731,1731,0,0,0,0,0,0,0,0,1025,1025,1022,1022,1022,1025,1025,1025,1025,1025,1025,1028,1028,1031,1031,1031,1031,1031,1034,1028,1028,0,0,0,0,741,741,0,734,733,731,717,716,713,713,710,708,708,707,706,704,704,704,707,706,704,703,701,700,700,700,700,701,701,703,703,703,703,704,704,704,706,707,707,708,708,710,710,713,713,714,714,714,714,716,717,717,719,722,722,722,723,725,727,728,730,730,731,733,733,734,738,738,739,742,744,746,746,747,750,750,752,754,755,757,757,757,761,762,764,764,766,766,767,769,769,771,773,773,773,774,774,778,778,778,780,780,781,781,783,785,787,789,789,790,792,794,794,796,798,798,800,802,803,805,807,807,809,809,809,811,811,813,813,815,817,817,819,821,823,825,825,827,827,827,829,829,831,833,833,833,835,835,837,839,841,841,1601,1268,1268,1268,1264,1259,1259,1255,1255,1255,1250,1250,1250,1250,1255,1255,1259,1259,1259,1259,1264,1268,1268,1647,1647,1632,1632,1632,1632,1624,1624,1624,1616,1616,1616,1616,1616,1609,1609,1616,1616,1609,1609,1609,1609,1609,1609,1609,1609,1609,1616,1609,1609,1609,1609,1601,1601,1601,1601,1601,1601,1594,1594,1594,1579,1579,1572,1572,1572,0,0,0,0,987,984,984,981,978,975,973,970,970,967,967,967,967,967,970,970,970,973,975,978,978,981,981,981,984,987,987,989,0,0,0,0,0,1586,1579,1579,1579,1579,1579,1579,1579,1572,1572,1572,1572,1572,1564,1564,1564,1564,1564,1564,1564,1572,1572,1572,1572,1572,1572,1564,1564,1564,1564,1564,1564,1564,1564,1564,1564,1564,1557,1557,1557,1550,1550,1550,1550,1550,1550,1550,1550,1550,1550,1550,1550,1550,1543,1543,1543,1543,1543,1543,1543,1536,1536,1536,1536,1536,1529,1529,1529,1523,1523,1523,1516,1516,1516,1509,1503,1503,1496,1496,1489,1489,1489,1483,1483,1483,1477,1477,1470,1470,1464,1464,1464,1458,1458,1452,1445,1445,1439,1439,1439,1433,1433,1427,1427,1421,1421,1415,1415,1410,1404,1404,1398,1398,1398,1398,1392,1392,1387,1381,1376,1376,1376,1370,1370,1370,1370,1365,1365,1354,1349,1349,1349,1343,1343,1338,1338,1333,1333,1333,1328,1322,1322,1322,1317,1317,1312,1312,1312,1307,1307,1302,1302,1297,1297,1292,1292,1288,1288,1288,1283,1278,1273,1273,1273,1268,1268,1268,1264,1259,1259,1255,1255,1250,1250,1250,1245,1245,1241,1236,1236,1236,1232,1232,1232,1227,1227,1223,1219,1214,1214,1210,1206,1206,1206,1202,1202,1202,1197,1197,1197,1189,1189,1185,1185,1181,1181,1181,1177,1177,1177,1173,1169,1169,1169,1165,1161,1157,1157,1153,1153,1153,1149,1149,1145,1145,1141,1141,1138,1138,1138,1134,1134,1130,1130,1126,1126,1123,1123,1123,1119,1119,1115,1112,1108,1108,1105,1105,1105,1101,1101,1101,1097,1094,1094,1094,0,0,0,0,0,0,0,0,0,0,0,0,0,0,0,0,0,0,0,0,0,0,0,0,0,0,0,0,0,0,0,0
0,0,0,0,0,0,0,0,0,0,0,0,1748,1748,1748,1748,1748,1739,1739,1739,1739,1739,1739,1739,1731,1731,1731,1731,1731,1731,1731,1731,1731,1722,1722,1722,1722,1722,1722,1722,1722,1731,1731,1731,1731,1731,1731,1731,1731,1731,1722,1722,1739,1731,1731,1731,1731,1731,1722,1722,1722,1731,0,0,0,0,0,0,0,0,1025,1025,1025,1025,1025,1025,1025,1025,1025,1025,1025,1028,1031,1031,1031,1031,1031,1031,1031,1028,1028,0,0,0,0,0,0,0,0,0,0,717,716,713,713,707,706,706,706,704,704,704,704,703,701,700,700,700,698,698,700,700,700,701,703,703,703,703,704,704,704,706,707,708,708,708,710,710,713,713,714,714,714,714,716,717,719,720,722,723,723,725,727,728,728,730,731,733,734,736,738,739,741,744,746,747,747,747,747,750,752,752,754,755,757,757,759,761,762,764,766,766,766,767,769,769,771,773,773,773,774,774,778,778,778,780,780,781,781,785,787,789,789,790,790,792,794,794,796,798,798,800,802,803,805,805,807,809,809,809,811,811,813,813,815,817,817,819,821,823,825,825,827,827,827,827,829,831,833,833,833,835,837,839,841,1601,1601,1601,1268,1268,1268,1264,1264,1259,1259,1255,1255,1255,1250,1250,1255,1255,1255,1259,1259,1259,1264,1264,1268,1268,1268,1632,1632,1624,1624,1624,1624,1616,1616,1616,1616,1609,1609,1609,1609,1609,1609,1609,1609,1609,1609,1609,1609,1601,1601,1601,1609,1609,1609,1609,1601,1601,1601,1601,1601,1601,1601,1594,1594,1594,1586,1579,1579,1572,1572,1572,0,0,0,989,989,987,987,984,978,975,973,970,970,970,970,970,970,970,970,970,973,973,975,978,978,981,981,981,984,987,989,989,0,0,0,0,0,1579,1579,1572,1572,1572,1572,1572,1572,1564,1564,1564,1564,1564,1557,1557,1557,1557,1557,1557,1557,1564,1564,1564,1564,1564,1557,1557,1557,1557,1557,1564,1557,1557,1557,1557,1550,1550,1550,1550,1550,1550,1550,1550,1550,1550,1550,1550,1543,1543,1543,1543,1543,1543,1543,1543,1543,1543,1543,1536,1536,1529,1529,1529,1529,1529,1529,1529,1529,1523,1523,1523,1516,1516,1516,1516,1509,1503,1503,1496,1489,1489,1489,1483,1483,1483,1477,1477,1470,1470,1464,1464,1464,1458,1458,1452,1445,1445,1439,1439,1439,1433,1433,1433,1427,1421,1421,1415,1415,1410,1410,1404,1404,1398,1398,1398,1398,1392,1387,1381,1381,1376,1376,1370,1370,1370,1370,1370,1365,1354,1349,1349,1349,1349,1343,1343,1338,1338,1333,1333,1328,1322,1322,1322,1317,1317,1312,1312,1312,1307,1302,1302,1302,1297,1297,1292,1292,1288,1288,1288,1283,1283,1278,1278,1273,1273,1268,1268,1264,1259,1259,1255,1255,1250,1250,1250,1245,1245,1241,1236,1236,1236,1236,1232,1232,1232,1227,1223,1219,1214,1214,1210,1210,1210,1206,1202,1202,1202,1197,1197,1197,1189,1189,1185,1185,1181,1181,1181,1177,1177,1177,1173,1173,1169,1169,1165,1165,1161,1157,1157,1153,1153,1149,1149,1149,1145,1141,1141,1138,1138,1138,1134,1134,1130,1130,1126,1126,1123,1123,1123,1119,1119,1115,1112,1108,1108,1108,1105,1105,1105,1101,1101,1097,1094,1094,1094,0,0,0,0,0,0,0,0,0,0,0,0,0,0,0,0,0,0,0,0,0,0,0,0,0,0,0,0,0,0,0,0
0,0,0,0,0,0,0,0,0,0,0,0,1748,1739,1739,1739,1739,1739,1739,1731,1731,1731,1731,1731,1731,1722,1722,1722,1722,1722,1722,1722,1722,1722,1722,1713,1713,1713,1713,1722,1722,1731,1731,1731,1722,1722,1722,1722,1722,1722,1713,1713,1722,1713,1713,1722,1731,1731,1722,1722,1722,1722,0,0,0,0,0,0,0,0,0,1025,1025,1025,1025,1025,1025,1025,1025,1025,1025,1028,1031,1031,1031,1031,1031,1031,1031,1031,1031,0,0,0,0,0,0,0,0,0,0,0,716,713,713,704,703,703,703,701,700,700,698,698,698,698,698,698,698,698,698,698,700,700,701,703,703,703,704,704,704,706,707,708,708,708,710,710,713,713,714,714,714,716,716,717,719,722,723,725,725,725,727,728,730,733,733,736,736,738,739,741,744,746,746,747,749,750,750,752,752,754,754,755,757,757,759,761,762,766,766,766,767,767,769,769,771,773,773,773,774,776,778,778,780,780,781,783,783,785,787,789,789,790,792,792,794,794,796,798,798,802,802,803,805,805,807,809,809,809,811,811,813,815,815,817,817,819,821,823,825,825,827,827,827,827,829,831,833,833,833,835,837,839,1601,1601,1601,1601,1601,1268,1268,1268,1264,1264,1259,1259,1255,1255,1255,1255,1255,1255,1255,1259,1259,1259,1264,1264,1268,1268,1268,1624,1624,1624,1624,1616,1616,1616,1609,1609,1609,1609,1609,1609,1601,1601,1609,1609,1609,1601,1601,1601,1601,1601,1601,1601,1601,1601,1601,1601,1601,1594,1594,1594,1594,1594,1594,1594,1594,1586,1579,1572,1572,1579,1572,1572,0,0,0,989,989,989,987,984,984,978,975,973,970,970,970,970,970,970,970,970,973,973,975,978,981,981,981,981,984,987,989,989,989,0,0,0,0,1579,1572,1572,1564,1564,1564,1564,1564,1557,1557,1557,1557,1557,1550,1550,1550,1550,1550,1550,1550,1557,1557,1557,1557,1550,1550,1550,1550,1550,1550,1550,1550,1550,1550,1550,1550,1550,1550,1550,1550,1550,1550,1550,1543,1543,1543,1543,1536,1536,1536,1536,1536,1536,1536,1536,1543,1543,1536,1536,1536,1529,1529,1529,1523,1523,1523,1523,1523,1523,1523,1523,1516,1516,1516,1509,1509,1509,1503,1496,1496,1489,1489,1483,1483,1483,1477,1477,1470,1470,1464,1464,1464,1458,1458,1452,1445,1445,1439,1439,1439,1439,1433,1433,1427,1421,1421,1421,1415,1415,1410,1410,1404,1398,1398,1398,1398,1392,1387,1387,1381,1376,1376,1370,1370,1370,1370,1370,1365,1354,1354,1349,1349,1349,1343,1343,1338,1338,1333,1333,1328,1328,1322,1322,1317,1317,1312,1312,1307,1307,1302,1302,1302,1297,1297,1292,1292,1288,1288,1288,1283,1283,1278,1278,1273,1273,1268,1268,1264,1259,1259,1259,1255,1250,1250,1250,1245,1245,1241,1236,1236,1236,1236,1236,1232,1232,1227,1223,1219,1219,1214,1214,1210,1210,1206,1202,1202,1202,1202,1197,1197,1189,1189,1185,1185,1181,1181,1181,1177,1177,1177,1173,1173,1169,1169,1165,1165,1161,1161,1157,1153,1153,1153,1149,1149,1145,1145,1141,1141,1138,1138,1138,1134,1134,1130,1130,1130,1126,1126,1123,1123,1119,1115,1115,1112,1108,1108,1105,1105,1105,1101,1101,1097,1094,1094,1094,0,0,0,0,0,0,0,0,0,0,0,0,0,0,0,0,0,0,0,0,0,0,0,0,0,0,0,0,0,0,0,0
0,0,0,0,0,0,0,0,0,0,0,0,1739,1731,1731,1731,1731,1731,1731,1731,1731,1731,1722,1722,1722,1722,1722,1722,1713,1713,1722,1722,1722,1713,1713,1713,1713,1705,1705,1713,1713,1722,1722,1722,1722,1722,1713,1713,1713,1713,1713,1713,1713,1713,1713,1713,1713,1713,1713,1713,1713,1705,1705,0,0,0,0,0,0,0,0,1028,1028,1025,1025,1025,1028,1028,1028,1028,1028,1028,1031,1031,1031,1031,1031,1031,1034,1031,1031,0,0,0,0,0,0,0,0,0,0,0,722,722,704,704,703,703,701,701,700,698,696,696,696,697,697,697,697,698,698,698,698,700,701,701,703,703,704,704,704,707,707,708,708,708,710,711,713,714,714,714,714,716,717,717,720,722,725,725,725,727,728,730,731,733,734,736,738,739,741,744,746,746,747,749,749,750,752,752,754,755,755,757,757,757,759,761,762,766,766,766,767,769,769,771,771,773,773,773,774,776,778,778,780,780,781,783,785,787,787,789,790,792,792,792,794,796,798,798,798,802,803,803,805,807,807,809,809,809,811,811,813,815,815,817,817,819,821,823,823,825,825,827,827,827,827,1609,1616,1616,1609,1609,841,841,1601,1594,1594,1601,1594,1273,1273,1268,1264,1264,1264,1259,1259,1255,1255,1255,1255,1255,1259,1259,1259,1259,1264,1264,1268,1268,1268,1616,1616,1609,1609,1609,1609,1609,1601,1601,1601,1601,1601,1601,1601,1601,1601,1601,1601,1601,1601,1601,1601,1594,1594,1594,1594,1594,1594,1594,1594,1586,1586,1586,1586,1594,1594,1586,1586,1586,1572,1572,1572,1579,1572,1572,0,0,0,989,989,989,989,987,984,981,978,973,973,970,970,970,970,970,970,970,973,973,975,978,981,981,981,984,984,987,989,989,989,0,0,0,0,0,1564,1557,1557,1550,1550,1557,1557,1550,1550,1550,1550,1550,1550,1550,1550,1550,1550,1550,1550,1550,1550,1550,1550,1550,1550,1550,1550,1543,1543,1543,1550,1550,1543,1543,1543,1543,1543,1543,1543,1543,1543,1543,1543,1543,1543,1536,1536,1529,1529,1529,1536,1536,1536,1536,1536,1536,1529,1529,1523,1523,1523,1523,1523,1523,1523,1523,1523,1523,1516,1516,1516,1516,1516,1509,1509,1503,1503,1496,1496,1489,1489,1489,1489,1489,1483,1477,1470,1470,1464,1464,1464,1464,1458,1452,1452,1445,1445,1439,1439,1439,1439,1433,1427,1421,1421,1421,1415,1415,1410,1410,1410,1404,1404,1398,1398,1392,1387,1387,1381,1376,1376,1376,1370,1370,1370,1370,1365,1354,1354,1354,1349,1349,1349,1343,1338,1338,1333,1333,1328,1328,1322,1322,1317,1317,1312,1312,1307,1307,1302,1302,1302,1297,1297,1292,1292,1288,1288,1288,1288,1283,1278,1278,1273,1273,1268,1268,1264,1264,1259,1259,1255,1255,1250,1250,1250,1245,1241,1236,1236,1236,1236,1236,1232,1232,1232,1223,1219,1219,1214,1214,1214,1210,1206,1206,1202,1202,1202,1197,1197,1193,1189,1185,1185,1181,1181,1181,1177,1177,1177,1173,1173,1169,1169,1165,1165,1161,1161,1157,1153,1153,1153,1149,1149,1145,1145,1141,1141,1138,1138,1138,1134,1134,1130,1130,1130,1126,1126,1123,1123,1119,1119,1115,1115,1112,1112,1108,1105,1105,1101,1101,1101,1097,1094,1094,0,0,0,0,0,0,0,0,0,0,0,0,0,0,0,0,0,0,0,0,0,0,0,0,0,0,0,0,0,0,0,0
0,0,0,0,0,0,0,0,0,0,0,0,1722,1722,1722,1722,1722,1722,1722,1722,1722,1722,1722,1722,1713,1713,1713,1713,1713,1713,1713,1713,1713,1713,1705,1705,1705,1705,1705,1705,1713,1722,1722,1722,1713,1713,1705,1705,1705,1696,1696,1696,1705,1696,1696,1696,1696,1696,1688,1688,1688,1688,1688,0,0,0,0,0,0,0,1025,1025,1025,1025,1025,1025,1028,1028,1028,1028,1028,1028,1031,1034,1034,1031,1031,1031,1034,1031,1031,0,0,0,0,0,0,0,0,0,0,723,722,720,720,703,703,703,701,700,698,697,696,694,694,694,696,696,697,697,697,697,698,700,700,701,703,704,704,704,706,707,708,708,708,708,710,713,714,714,714,714,716,717,717,719,722,723,727,727,727,728,730,730,733,734,736,738,739,741,742,744,746,746,747,749,750,750,752,752,754,755,755,757,757,757,761,761,762,766,766,767,767,769,769,771,771,773,773,774,774,776,778,780,780,781,781,785,785,787,789,790,790,792,794,794,796,796,798,798,798,802,803,805,805,807,807,809,809,809,811,811,813,815,815,817,817,819,821,823,823,825,825,825,825,1609,1609,1609,1616,1616,1609,1609,1601,1601,1601,1594,1594,1594,1594,1586,1273,1268,1268,1264,1264,1259,1259,1259,1255,1255,1255,1255,1259,1259,1259,1264,1268,1268,1268,1268,1268,1609,1609,1609,1601,1601,1601,1601,1594,1594,1601,1594,1594,1594,1594,1594,1594,1601,1601,1594,1594,1594,1594,1594,1594,1586,1586,1586,1586,1586,1586,1586,1586,1586,1586,1586,1586,1579,1579,1572,1572,1564,1564,1572,1572,1572,0,0,0,992,992,989,989,987,984,981,978,975,973,970,970,970,970,970,970,970,973,975,975,978,981,981,981,984,987,987,989,989,989,0,0,0,0,1564,1557,1550,1550,1550,1550,1550,1550,1550,1550,1550,1550,1543,1543,1543,1543,1543,1543,1543,1543,1543,1543,1543,1543,1543,1543,1543,1543,1543,1536,1536,1536,1536,1536,1536,1536,1536,1536,1536,1536,1536,1536,1536,1536,1536,1536,1529,1529,1523,1523,1523,1529,1529,1529,1529,1529,1529,1523,1523,1523,1523,1523,1523,1523,1523,1523,1523,1523,1523,1516,1516,1516,1516,1516,1509,1509,1503,1503,1496,1496,1489,1489,1489,1489,1489,1483,1483,1470,1470,1470,1464,1464,1458,1458,1452,1452,1445,1445,1445,1439,1439,1439,1433,1427,1427,1421,1421,1415,1415,1415,1410,1410,1404,1404,1398,1398,1392,1387,1387,1381,1376,1376,1376,1370,1370,1370,1370,1365,1365,1354,1354,1354,1354,1349,1349,1343,1338,1338,1333,1328,1328,1322,1322,1317,1317,1312,1312,1312,1307,1307,1302,1302,1297,1297,1292,1292,1288,1288,1288,1288,1283,1278,1278,1273,1273,1268,1268,1264,1264,1259,1259,1255,1255,1250,1250,1250,1245,1241,1236,1236,1236,1236,1236,1232,1232,1232,1223,1219,1219,1214,1214,1214,1214,1210,1206,1202,1202,1202,1197,1197,1197,1193,1189,1185,1185,1181,1181,1177,1177,1177,1173,1173,1169,1169,1165,1165,1165,1161,1161,1157,1153,1153,1149,1149,1145,1145,1141,1141,1138,1138,1138,1134,1134,1134,1130,1130,1130,1126,1123,1123,1119,1119,1115,1115,1112,1112,1108,1108,1105,1105,1105,1101,1097,1094,1094,0,0,0,0,0,0,0,0,0,0,0,0,0,0,0,0,0,0,0,0,0,0,0,0,0,0,0,0,0,0,0,0
0,0,0,0,0,0,0,0,0,0,0,0,1713,1713,1713,1713,1713,1713,1705,1705,1722,1713,1705,1705,1713,1713,1705,1705,1705,1705,1705,1705,1705,1705,1705,1696,1696,1696,1705,1705,1705,1713,1713,1705,1705,1705,1705,1696,1696,1696,1696,1696,1696,1696,1696,1696,1696,1696,1688,1688,1688,1688,1680,1680,0,0,0,0,0,0,1025,1025,1025,1025,1025,1025,1028,1028,1028,1028,1028,1031,1031,1034,1034,1034,1034,1034,1034,1034,1034,1034,0,0,0,0,0,0,0,0,0,723,722,720,720,704,704,703,701,700,698,697,694,694,694,694,696,696,697,697,697,697,698,698,700,701,703,704,704,704,707,707,708,708,708,708,710,713,714,714,714,716,716,717,719,720,723,725,727,727,728,728,731,733,734,736,738,738,739,741,742,744,746,747,747,749,750,750,752,752,754,755,755,757,757,757,761,762,762,766,766,767,767,769,771,771,773,773,774,774,774,776,778,780,781,781,783,785,787,787,789,792,792,794,794,794,796,796,798,798,798,802,803,805,805,807,809,809,809,811,811,811,813,815,815,817,817,817,819,823,823,823,823,1601,0,1601,1609,1609,1601,1601,1601,1601,1601,1601,1601,1594,1594,1594,1594,1586,1278,1273,1273,1268,1264,1264,1264,1259,1259,1259,1259,1259,1259,1259,1264,1264,1268,1268,1268,1268,1268,1601,1601,1594,1594,1594,1594,1594,1594,1594,1594,1586,1586,1594,1594,1594,1594,1594,1594,1594,1594,1594,1586,1586,1579,1579,1579,1579,1579,1579,1579,1579,1579,1579,1579,1579,1579,1572,1572,1564,1564,1564,1564,1572,1572,1572,0,0,0,992,992,992,989,989,987,984,978,975,973,973,970,970,970,970,970,973,973,975,978,978,981,981,981,984,987,987,989,989,989,0,0,0,0,1564,1557,1550,1550,1550,1543,1543,1543,1543,1550,1543,1543,1543,1543,1543,1543,1543,1536,1536,1536,1536,1536,1536,1529,1529,1536,1536,1536,1536,1529,1529,1529,1529,1529,1529,1523,1523,1523,1529,1529,1529,1529,1536,1529,1529,1529,1523,1523,1523,1523,1523,1523,1523,1523,1523,1523,1523,1523,1523,1516,1516,1516,1516,1516,1516,1516,1516,1516,1516,1516,1516,1516,1516,1509,1509,1503,1503,1496,1496,1496,1489,1489,1489,1489,1489,1489,1483,1477,1470,1470,1464,1464,1458,1458,1452,1452,1445,1445,1445,1439,1439,1439,1433,1433,1427,1421,1421,1415,1415,1415,1415,1415,1410,1410,1404,1398,1392,1392,1387,1381,1381,1376,1376,1376,1370,1370,1370,1370,1365,1359,1354,1354,1354,1349,1349,1343,1338,1338,1333,1328,1328,1328,1322,1317,1317,1317,1312,1312,1307,1307,1307,1302,1297,1297,1292,1292,1288,1288,1288,1288,1283,1278,1278,1278,1273,1268,1268,1268,1264,1264,1259,1255,1255,1250,1250,1250,1245,1241,1236,1236,1236,1236,1236,1232,1232,1227,1223,1219,1219,1219,1214,1214,1214,1210,1206,1206,1202,1202,1202,1197,1197,1197,1189,1189,1185,1185,1181,1181,1177,1177,1177,1173,1169,1169,1165,1165,1165,1161,1161,1157,1153,1153,1153,1149,1149,1145,1145,1141,1141,1138,1138,1134,1134,1134,1130,1130,1130,1126,1123,1123,1119,1119,1115,1115,1112,1112,1108,1108,1105,1105,1105,1101,1097,1097,1097,0,0,0,0,0,0,0,0,0,0,0,0,0,0,0,0,0,0,0,0,0,0,0,0,0,0,0,0,0,0,0,0
0,0,0,0,0,0,0,0,0,0,0,0,1705,1705,1705,1705,1713,1705,1705,1705,1705,1705,1705,1705,1705,1705,1705,1705,1705,1705,1705,1705,1696,1696,1696,1696,1688,1688,1696,1696,1696,1696,1705,1696,1696,1696,1696,1696,1696,1696,1696,1696,1696,1696,1696,1696,1696,1696,1688,1688,1688,1688,1680,1680,0,0,0,0,0,0,0,1025,1025,1025,1025,1025,1028,1028,1031,1031,1031,1031,1031,1034,1034,1034,1034,1034,1038,1038,1034,1034,1050,1054,0,0,0,0,0,0,0,723,722,720,720,720,701,701,701,698,697,696,694,694,694,694,696,696,697,697,697,697,698,698,700,703,703,704,704,706,707,708,708,708,710,710,713,713,714,714,716,716,717,719,720,722,725,727,728,728,730,730,731,734,734,736,738,739,739,742,744,746,747,747,747,749,750,752,752,752,754,757,757,757,759,759,761,762,764,766,766,767,767,769,771,771,773,773,774,774,776,778,780,780,781,783,785,787,787,789,789,792,792,794,794,794,796,798,798,798,800,802,803,805,805,807,809,809,809,811,811,811,813,815,815,815,815,815,819,819,819,1601,0,1601,1601,1601,1601,1601,1594,1594,1601,1601,1601,1601,1601,1594,1594,1594,1594,1586,1283,1273,1273,1268,1268,1268,1264,1264,1259,1259,1259,1259,1264,1264,1264,1264,1268,1268,1268,1268,1273,1601,1601,1594,1594,1586,1586,1579,1579,1586,1586,1579,1579,1586,1586,1586,1586,1586,1586,1586,1586,1586,1579,1579,1572,1572,1572,1572,1572,1572,1572,1572,1572,1572,1572,1572,1572,1564,1564,1564,1557,1557,1557,1564,1557,1557,0,1557,0,992,992,992,992,989,989,987,981,975,973,973,973,970,970,970,970,973,973,975,978,978,981,981,984,984,987,989,989,989,989,0,0,0,0,0,1550,1550,1550,1543,1543,1543,1543,1543,1543,1543,1536,1536,1536,1536,1536,1536,1536,1536,1529,1529,1529,1529,1529,1529,1529,1529,1529,1529,1529,1529,1529,1529,1523,1523,1523,1523,1523,1523,1523,1523,1523,1523,1523,1523,1523,1523,1523,1523,1523,1523,1523,1523,1523,1523,1523,1523,1516,1516,1516,1516,1516,1516,1516,1509,1509,1516,1516,1509,1509,1509,1509,1509,1509,1503,1503,1503,1496,1496,1489,1489,1489,1489,1489,1489,1489,1477,1477,1470,1470,1464,1464,1464,1458,1452,1452,1445,1445,1445,1445,1439,1439,1439,1433,1427,1421,1421,1415,1415,1415,1415,1415,1410,1410,1404,1398,1392,1392,1392,1387,1381,1381,1376,1376,1370,1370,1370,1370,1365,1359,1354,1354,1354,1349,1349,1343,1343,1338,1333,1328,1328,1328,1322,1317,1317,1317,1312,1312,1307,1307,1307,1302,1302,1297,1292,1292,1288,1288,1288,1288,1283,1278,1278,1273,1273,1268,1268,1268,1264,1259,1259,1255,1255,1255,1250,1250,1245,1241,1241,1236,1236,1236,1236,1236,1232,1227,1223,1219,1219,1219,1214,1214,1214,1210,1210,1206,1206,1202,1202,1197,1197,1193,1193,1189,1185,1185,1181,1181,1177,1177,1177,1177,1169,1169,1165,1165,1165,1161,1161,1157,1153,1153,1153,1149,1149,1145,1145,1141,1141,1138,1138,1134,1134,1134,1134,1130,1130,1130,1123,1123,1123,1119,1115,1115,1115,1112,1112,1108,1105,1105,1105,1101,1097,1097,1097,0,0,0,0,0,0,0,0,0,0,0,0,0,0,0,0,0,0,0,0,0,0,0,0,0,0,0,0,0,0,0,0
0,0,0,0,0,0,0,0,0,0,0,0,1696,1696,1696,1705,1705,1696,1696,1696,1696,1696,1696,1696,1696,1696,1696,1696,1705,1705,1696,1696,1696,1696,1696,1688,1688,1688,1688,1688,1696,1696,1696,1696,1696,1696,1696,1696,1696,1688,1688,1688,1688,1688,1688,1688,1688,1688,1688,1688,1680,1680,1663,1655,1655,0,0,0,0,0,0,1025,1025,1025,1028,1028,1028,1028,1031,1031,1031,1031,1034,1034,1034,1034,1038,1038,1038,1038,1041,1041,1050,1054,1054,0,0,0,0,0,0,723,722,722,722,722,701,701,701,698,697,696,694,694,694,694,694,696,697,697,697,697,698,698,700,703,703,704,704,706,707,708,708,708,710,711,713,714,716,716,716,717,719,720,722,723,725,727,728,728,730,731,733,736,736,738,738,739,739,742,744,746,747,747,749,750,750,752,752,754,754,757,757,757,759,761,762,764,764,766,766,767,767,769,771,771,773,774,776,776,778,778,780,781,783,785,787,787,787,789,790,792,794,794,796,796,796,798,798,798,800,802,803,805,805,807,807,809,809,811,811,811,813,815,815,815,815,815,815,1601,1601,1601,1594,1601,1601,1601,1594,1594,1594,1594,1601,1601,1601,1601,1601,1594,1594,1594,1594,1586,1586,1273,1273,1268,1268,1268,1264,1264,1264,1264,1264,1264,1264,1264,1264,1264,1268,1273,1273,1268,1268,1268,1601,1601,1586,1579,1579,1572,1572,1572,1572,1572,1572,1572,1579,1579,1579,1579,1579,1579,1579,1579,1572,1572,1572,1572,1572,1572,1572,1572,1564,1564,1564,1564,1564,1564,1564,1564,1564,1557,1557,1550,1550,1557,1557,1557,1557,1557,0,992,0,992,992,989,989,987,981,978,975,973,973,973,973,973,973,973,975,978,978,978,981,981,984,987,987,989,989,989,989,0,0,0,0,0,1550,1543,1543,1543,1543,1543,1543,1543,1543,1536,1536,1536,1536,1529,1529,1536,1529,1529,1529,1523,1523,1523,1523,1523,1523,1523,1523,1523,1523,1523,1523,1523,1523,1523,1523,1516,1516,1516,1516,1516,1516,1516,1516,1516,1523,1523,1516,1516,1516,1516,1516,1516,1523,1516,1516,1516,1516,1516,1516,1516,1509,1509,1509,1509,1509,1509,1509,1503,1503,1503,1503,1509,1509,1503,1503,1496,1496,1496,1489,1489,1489,1489,1489,1489,1489,1477,1477,1470,1470,1464,1464,1464,1458,1458,1452,1452,1445,1445,1445,1439,1439,1439,1433,1427,1421,1421,1415,1415,1415,1415,1415,1410,1410,1404,1398,1398,1392,1392,1387,1387,1381,1376,1376,1376,1370,1370,1370,1365,1359,1354,1354,1354,1349,1349,1349,1343,1338,1333,1328,1328,1328,1322,1317,1317,1317,1312,1312,1307,1307,1307,1302,1302,1297,1292,1292,1288,1288,1288,1288,1283,1278,1278,1273,1273,1268,1268,1264,1264,1259,1259,1255,1255,1255,1250,1250,1250,1245,1241,1236,1236,1236,1236,1236,1232,1232,1223,1223,1219,1219,1214,1214,1214,1214,1210,1210,1206,1202,1202,1202,1197,1193,1193,1189,1185,1185,1181,1181,1181,1177,1177,1177,1169,1169,1165,1165,1165,1161,1161,1157,1153,1153,1153,1149,1149,1149,1145,1141,1141,1141,1138,1134,1134,1134,1134,1130,1130,1126,1123,1123,1123,1119,1119,1115,1115,1112,1112,1108,1105,1105,1105,1101,1101,1097,1097,0,0,0,0,0,0,0,0,0,0,0,0,0,0,0,0,0,0,0,0,0,0,0,0,0,0,0,0,0,0,0,0
0,0,0,0,0,0,0,0,0,0,0,1688,1688,1696,1696,1696,1696,1696,1696,1696,1688,1688,1696,1696,1688,1688,1696,1696,1696,1696,1688,1688,1688,1696,1688,1688,1688,1688,1688,1688,1688,1688,1688,1688,1688,1688,1688,1688,1688,1688,1688,1688,1688,1688,1688,1688,1680,1680,1680,1680,1671,1671,1663,1655,1655,0,0,0,0,0,1019,1019,1025,1028,1028,1028,1028,1028,1031,1031,1031,1034,1034,1034,1034,1034,1038,1038,1038,1038,1041,1041,1047,1050,1050,0,0,0,0,0,0,723,723,723,0,0,713,703,701,698,697,696,694,694,694,694,694,696,697,697,697,698,698,698,701,703,704,704,704,707,707,708,708,710,710,713,713,714,716,716,717,719,720,720,722,723,728,728,730,730,731,731,733,736,738,738,739,739,739,741,744,746,747,747,749,750,750,752,752,754,757,757,757,759,759,761,762,764,766,766,766,767,767,769,771,773,774,776,776,778,778,780,780,781,785,785,787,787,787,789,789,792,794,794,796,796,796,798,798,800,800,802,803,805,805,807,807,809,809,811,811,811,813,815,815,815,815,1586,1586,1601,1601,1601,1594,1594,1594,1594,1594,1594,1594,1594,1594,1594,1594,1594,1594,1594,1586,1586,1586,1586,1283,1273,1273,1268,1268,1268,1268,1264,1264,1264,1264,1264,1264,1264,1264,1268,1268,1273,1273,1268,1268,1268,1268,1572,1572,1572,1572,1572,1572,1572,1572,1564,1564,1564,1572,1572,1572,1572,1572,1572,1572,1564,1564,1564,1564,1564,1564,1564,1564,1564,1564,1564,1564,1564,1564,1557,1557,1557,1557,1550,1550,1543,1543,1550,1550,1550,1543,1543,0,0,0,992,992,992,989,987,984,981,975,975,975,973,973,973,973,973,975,978,978,978,981,981,984,987,987,989,989,989,989,0,0,0,0,0,1543,1543,1543,1536,1536,1536,1536,1536,1536,1536,1529,1529,1529,1529,1529,1529,1523,1523,1523,1523,1523,1523,1523,1523,1523,1523,1523,1523,1523,1523,1523,1523,1523,1516,1516,1516,1516,1516,1516,1516,1516,1516,1516,1516,1516,1516,1516,1516,1516,1516,1516,1516,1516,1516,1516,1516,1516,1509,1509,1509,1509,1509,1509,1503,1503,1503,1503,1503,1503,1503,1503,1503,1503,1496,1496,1496,1496,1489,1489,1489,1489,1489,1489,1489,1483,1477,1477,1470,1470,1470,1464,1464,1458,1458,1452,1452,1445,1445,1445,1439,1439,1439,1433,1427,1421,1421,1415,1415,1415,1415,1415,1410,1410,1398,1398,1392,1392,1392,1387,1387,1381,1376,1376,1376,1370,1370,1370,1365,1365,1359,1354,1354,1354,1354,1349,1343,1338,1333,1333,1328,1328,1328,1322,1317,1317,1317,1312,1307,1307,1307,1307,1302,1297,1292,1292,1292,1288,1288,1288,1283,1278,1278,1273,1273,1268,1268,1264,1264,1259,1259,1255,1255,1255,1255,1250,1250,1245,1241,1236,1236,1236,1236,1232,1232,1232,1227,1223,1219,1219,1219,1214,1214,1214,1210,1210,1206,1202,1202,1202,1197,1197,1193,1189,1185,1185,1185,1185,1181,1181,1181,1177,1173,1169,1165,1165,1165,1165,1161,1157,1157,1153,1153,1149,1149,1149,1145,1145,1141,1138,1138,1134,1134,1134,1134,1130,1130,1126,1123,1123,1123,1119,1119,1115,1115,1115,1112,1108,1105,1105,1105,1105,1101,1097,1097,0,0,0,0,0,0,0,0,0,0,0,0,0,0,0,0,0,0,0,0,0,0,0,0,0,0,0,0,0,0,0,0
0,0,0,0,0,0,0,0,0,0,0,1671,1671,1688,1688,1688,1688,1688,1688,1688,1688,1688,1688,1688,1688,1688,1688,1688,1688,1696,1688,1688,1688,1688,1688,1680,1680,1680,1680,1680,1680,1671,1671,1680,1680,1680,1680,1688,1688,1688,1680,1680,1688,1680,1680,1680,1680,1671,1671,1671,1671,1663,1663,1655,1655,0,0,0,0,0,1019,1019,1025,1028,1028,1028,1031,1031,1031,1031,1031,1034,1034,1034,1034,1038,1038,1038,1041,1041,1041,1041,1044,1050,1050,0,0,0,0,0,0,0,0,0,0,0,713,711,708,698,697,697,696,694,694,694,696,696,697,697,698,698,698,698,701,703,706,706,706,708,708,708,710,710,711,713,713,714,716,716,717,719,720,722,723,725,728,730,730,730,731,731,734,736,738,738,739,739,739,741,744,746,747,747,747,750,752,752,752,754,757,757,757,759,761,762,764,766,766,766,766,767,767,769,773,773,774,776,778,778,778,780,780,781,785,785,787,787,787,789,789,790,792,794,794,796,798,798,798,800,800,803,803,805,805,807,807,809,809,811,811,811,811,811,1586,1586,1586,1586,1586,1594,1594,1594,1594,1594,1594,1594,1594,1594,1594,1594,1594,1594,1594,1594,1594,1586,1579,1579,1586,1579,1283,1278,1273,1268,1268,1268,1268,1268,1264,1264,1264,1264,1264,1264,1268,1268,1273,1273,1273,1273,1268,1268,1268,1572,1572,1572,1572,1564,1564,1564,1564,1564,1564,1564,1564,1572,1572,1564,1564,1564,1564,1564,1564,1564,1564,1564,1564,1564,1564,1557,1557,1557,1557,1557,1557,1550,1550,1550,1550,1550,1543,1543,1543,1543,1543,1543,1543,1543,0,0,0,995,995,992,992,989,987,984,978,978,975,975,975,975,975,975,978,978,978,981,981,984,984,987,987,989,989,989,989,0,0,0,0,0,1543,1536,1536,1529,1529,1529,1529,1529,1529,1529,1523,1523,1523,1523,1523,1523,1523,1523,1523,1523,1523,1523,1516,1516,1516,1516,1516,1516,1516,1516,1516,1516,1516,1516,1516,1516,1509,1509,1509,1516,1516,1516,1516,1516,1509,1509,1509,1509,1509,1509,1509,1509,1509,1509,1509,1509,1509,1509,1509,1503,1503,1503,1503,1503,1496,1496,1496,1496,1496,1496,1496,1496,1496,1496,1496,1496,1489,1489,1489,1489,1489,1489,1483,1483,1483,1477,1477,1470,1470,1470,1464,1464,1458,1458,1452,1452,1445,1445,1445,1439,1439,1439,1439,1433,1421,1421,1415,1415,1415,1415,1415,1415,1410,1398,1398,1392,1392,1392,1387,1387,1381,1376,1376,1376,1376,1370,1370,1365,1365,1359,1354,1354,1354,1354,1349,1349,1338,1338,1333,1328,1328,1328,1322,1322,1322,1317,1312,1312,1312,1307,1307,1302,1297,1292,1292,1292,1288,1288,1288,1283,1283,1278,1278,1273,1268,1268,1264,1264,1259,1259,1255,1255,1255,1255,1250,1250,1245,1245,1241,1236,1236,1236,1232,1232,1232,1227,1223,1223,1219,1219,1214,1214,1214,1214,1210,1206,1202,1202,1202,1202,1197,1193,1193,1185,1185,1185,1185,1181,1181,1181,1181,1177,1169,1169,1169,1165,1165,1161,1161,1157,1153,1153,1149,1149,1149,1149,1145,1141,1138,1138,1138,1134,1134,1134,1134,1130,1126,1123,1123,1123,1119,1119,1119,1115,1115,1112,1108,1105,1105,1105,1105,1101,1101,1101,0,0,0,0,0,0,0,0,0,0,0,0,0,0,0,0,0,0,0,0,0,0,0,0,0,0,0,0,0,0,0,0
0,0,0,0,0,0,0,0,0,0,0,1671,1671,1680,1680,1680,1680,1688,1688,1688,1680,1680,1688,1688,1688,1680,1680,1680,1688,1688,1680,1680,1680,1680,1680,1671,1671,1671,1671,1671,1671,1663,1663,1671,1671,1671,1680,1680,1680,1680,1680,1680,1680,1671,1671,1671,1671,1663,1663,1663,1663,1663,1655,1655,1655,0,0,0,0,0,1019,1019,1025,1028,1031,1031,1031,1031,1031,1031,1034,1034,1034,1038,1038,1038,1038,1038,1041,1041,1041,1041,1044,1050,1050,0,0,0,0,0,0,0,0,0,0,0,0,711,704,701,698,697,696,696,696,696,696,696,697,697,698,698,698,698,701,703,704,707,707,708,710,710,711,711,713,713,714,714,716,717,719,719,722,722,723,727,728,730,730,730,733,733,734,738,738,738,739,739,741,742,744,747,747,747,747,750,752,752,754,754,757,757,757,759,762,764,766,766,766,766,767,767,769,771,773,774,774,776,778,780,780,780,781,783,785,787,787,787,789,789,789,790,792,794,794,796,798,798,798,800,802,803,803,805,805,807,807,809,809,809,809,1572,1572,1586,1586,1586,1586,1586,1586,1586,1594,1594,1586,1586,1594,1594,1594,1586,1586,1586,1586,1586,1586,1586,1586,1579,1579,1579,1579,1572,1278,1273,1273,1268,1268,1268,1268,1268,1264,1264,1264,1264,1264,1264,1268,1273,1273,1273,1273,1273,1268,1268,1268,1572,1572,1572,1564,1564,1564,1564,1564,1557,1557,1557,1564,1564,1564,1564,1564,1564,1564,1557,1557,1557,1557,1557,1557,1557,1557,1557,1550,1550,1550,1550,1550,1550,1550,1550,1550,1543,1543,1543,1543,1543,1543,1543,1543,1543,1543,0,995,995,995,995,992,989,989,984,981,981,978,978,978,975,975,975,978,978,978,981,981,984,984,987,989,989,992,992,992,992,0,0,0,0,1543,1536,1529,1523,1523,1523,1523,1523,1523,1523,1523,1523,1523,1516,1516,1516,1516,1516,1516,1516,1516,1516,1516,1516,1516,1509,1509,1509,1509,1516,1516,1516,1516,1509,1509,1509,1509,1503,1503,1509,1509,1509,1509,1509,1509,1509,1509,1503,1503,1503,1503,1503,1503,1503,1509,1503,1503,1503,1503,1503,1496,1496,1496,1496,1496,1496,1496,1496,1496,1496,1496,1496,1496,1496,1489,1489,1489,1489,1483,1483,1483,1483,1483,1483,1477,1477,1470,1470,1470,1470,1464,1464,1458,1458,1452,1452,1445,1445,1445,1439,1439,1439,1439,1433,1427,1421,1421,1421,1415,1415,1415,1415,1404,1398,1398,1398,1392,1392,1392,1387,1381,1376,1376,1376,1376,1370,1370,1365,1365,1359,1354,1354,1354,1354,1349,1349,1343,1338,1333,1333,1333,1328,1322,1322,1322,1317,1312,1312,1312,1307,1307,1302,1297,1292,1292,1292,1288,1288,1288,1283,1283,1278,1278,1273,1273,1268,1268,1264,1259,1259,1255,1255,1255,1250,1250,1250,1245,1245,1241,1236,1236,1236,1232,1232,1232,1227,1223,1223,1219,1219,1214,1214,1214,1214,1210,1206,1206,1202,1202,1197,1197,1197,1193,1189,1185,1185,1185,1181,1181,1181,1181,1177,1177,1169,1169,1165,1165,1165,1161,1161,1157,1153,1153,1149,1149,1149,1145,1141,1138,1138,1138,1134,1134,1134,1134,1130,1126,1123,1123,1123,1119,1119,1119,1115,1115,1112,1108,1105,1105,1105,1101,1101,1097,1097,0,0,0,0,0,0,0,0,0,0,0,0,0,0,0,0,0,0,0,0,0,0,0,0,0,0,0,0,0,0,0,0
0,0,0,0,0,0,0,0,0,0,0,1663,1663,1671,1671,1680,1680,1680,1671,1671,1671,1671,1680,1680,1680,1680,1680,1680,1680,1688,1680,1680,1680,1680,1671,1671,1671,1671,1663,1663,1663,1663,1663,1663,1671,1671,1671,1671,1671,1671,1671,1671,1671,1663,1663,1663,1663,1663,1663,1663,1663,1663,1655,1655,1655,1663,0,0,0,0,1022,1022,1025,1031,1031,1031,1034,1034,1034,1034,1034,1034,1034,1038,1038,1038,1038,1038,1041,1041,1044,1044,1044,1047,1047,0,0,0,0,0,0,0,0,0,0,0,0,711,704,701,698,697,697,696,696,696,696,696,697,697,697,698,698,700,703,704,704,707,708,710,710,711,711,713,714,714,714,716,717,717,719,720,722,723,725,728,730,731,731,731,733,734,736,738,738,738,739,741,741,742,744,747,747,747,747,750,752,752,754,754,757,757,759,761,764,766,766,766,766,767,767,767,769,771,773,774,774,778,780,780,780,781,781,783,785,787,787,789,789,789,789,790,790,794,794,796,798,798,800,800,802,802,803,803,805,807,807,809,809,809,1572,1572,1572,1586,1586,1586,1579,1579,1579,1586,1586,1586,1586,1586,1586,1586,1586,1579,1579,1579,1586,1579,1579,1579,1579,1579,1572,1572,1572,1564,1273,1273,1273,1268,1268,1268,1268,1268,1264,1264,1264,1264,1264,1264,1268,1273,1273,1273,1273,1273,1273,1273,1572,1572,1572,1564,1564,1557,1557,1550,1550,1550,1550,1550,1550,1557,1557,1557,1557,1550,1550,1550,1550,1550,1550,1550,1550,1550,1550,1550,1543,1543,1543,1543,1543,1543,1543,1543,1543,1543,1543,1536,1536,1543,1536,1536,1529,1529,0,0,0,1001,1001,995,992,989,989,987,984,981,981,978,978,978,978,978,978,981,981,981,981,984,987,989,992,992,992,992,992,992,0,0,0,0,1523,1523,1523,1523,1516,1516,1516,1516,1516,1516,1516,1516,1516,1516,1516,1516,1516,1516,1516,1509,1509,1509,1509,1509,1509,1503,1503,1503,1503,1509,1509,1509,1509,1503,1503,1503,1503,1496,1496,1503,1503,1503,1503,1503,1503,1503,1496,1496,1496,1496,1496,1496,1496,1496,1489,1489,1489,1496,1496,1496,1496,1496,1496,1496,1489,1489,1489,1489,1489,1489,1489,1489,1489,1489,1489,1489,1483,1483,1483,1483,1477,1477,1477,1477,1477,1470,1470,1470,1470,1470,1464,1464,1464,1458,1458,1452,1452,1445,1445,1445,1439,1439,1439,1433,1427,1421,1421,1421,1415,1415,1415,1415,1404,1398,1398,1398,1392,1392,1392,1387,1387,1381,1376,1376,1376,1376,1370,1365,1365,1359,1359,1354,1354,1354,1349,1349,1343,1338,1333,1333,1333,1328,1328,1322,1322,1322,1317,1312,1312,1307,1307,1302,1297,1292,1292,1292,1288,1288,1288,1283,1283,1278,1278,1273,1273,1268,1268,1264,1264,1259,1255,1255,1255,1250,1250,1250,1245,1245,1241,1236,1236,1236,1232,1232,1232,1227,1227,1223,1219,1219,1219,1214,1214,1214,1210,1210,1206,1206,1202,1197,1197,1197,1193,1189,1189,1185,1185,1181,1181,1181,1181,1181,1177,1169,1169,1169,1165,1165,1161,1161,1157,1153,1153,1153,1149,1149,1145,1141,1141,1138,1138,1138,1134,1134,1134,1130,1126,1126,1123,1123,1119,1119,1119,1119,1115,1112,1108,1105,1105,1105,1101,1101,1097,1097,0,0,0,0,0,0,0,0,0,0,0,0,0,0,0,0,0,0,0,0,0,0,0,0,0,0,0,0,0,0,0,0
0,0,0,0,0,0,0,0,0,0,0,1663,1663,1663,1671,1663,1663,1663,1663,1671,1663,1663,1663,1663,1663,1671,1671,1671,1671,1680,1671,1671,1671,1671,1671,1663,1663,1663,1663,1663,1663,1655,1655,1663,1663,1663,1663,1663,1663,1663,1663,1663,1663,1663,1663,1663,1663,1655,1655,1655,1655,1655,1655,1655,1647,1647,0,0,0,0,0,0,1031,1031,1031,1034,1034,1034,1034,1034,1034,1034,1034,1038,1038,1038,1038,1038,1041,1044,1044,1044,1044,1047,1047,0,0,0,0,0,0,0,0,0,0,0,0,0,704,700,700,698,697,697,697,697,697,697,697,697,697,698,698,701,704,704,706,707,708,710,710,713,713,714,716,716,716,717,719,719,720,722,722,723,727,730,731,733,733,733,734,734,736,738,738,739,739,741,741,744,746,747,749,749,750,752,752,754,754,755,757,757,759,761,764,766,766,766,766,767,767,767,769,771,773,774,774,778,780,780,780,781,781,783,785,787,787,789,789,789,789,790,790,794,796,798,798,798,800,802,802,802,803,803,805,807,807,807,1564,1572,1572,1572,1572,1572,1572,1579,1579,1579,1579,1586,1586,1586,1579,1579,1579,1579,1579,1579,1579,1579,1579,1579,1579,1572,1572,1572,1572,1268,1268,1268,1273,1273,1268,1268,1268,1268,1268,1268,1268,1268,1264,1264,1264,1268,1268,1273,1273,1273,1273,1278,1273,1273,1273,1572,1564,1564,1557,1550,1550,1550,1550,1550,1543,1543,1543,1550,1543,1543,1543,1543,1543,1543,1543,1543,1543,1543,1543,1543,1543,1543,1543,1543,1543,1543,1543,1536,1536,1543,1543,1536,1536,1536,1536,1536,1536,1536,1523,1523,1523,1516,0,1001,1001,998,992,992,989,989,984,984,981,981,981,978,978,978,981,981,981,984,984,987,987,989,992,992,992,992,992,992,0,0,0,0,1516,1516,1516,1516,1516,1516,1516,1516,1516,1516,1516,1509,1509,1516,1509,1509,1509,1509,1509,1509,1509,1509,1503,1503,1503,1503,1503,1496,1496,1503,1503,1503,1503,1496,1496,1496,1496,1496,1496,1496,1496,1496,1496,1496,1496,1496,1489,1489,1489,1489,1489,1489,1489,1489,1489,1489,1489,1483,1483,1483,1489,1489,1489,1489,1489,1483,1483,1483,1483,1483,1483,1483,1483,1483,1483,1483,1483,1483,1477,1477,1477,1477,1477,1477,1470,1470,1470,1470,1470,1464,1464,1464,1464,1458,1458,1452,1452,1445,1445,1445,1439,1439,1439,1433,1433,1427,1421,1421,1415,1415,1415,1415,1404,1404,1398,1398,1392,1392,1392,1392,1387,1381,1376,1376,1376,1376,1370,1370,1370,1365,1365,1359,1359,1354,1349,1349,1343,1338,1333,1333,1333,1328,1328,1328,1328,1322,1317,1312,1312,1307,1307,1302,1302,1292,1292,1292,1288,1288,1288,1283,1283,1278,1278,1273,1273,1268,1268,1264,1264,1259,1255,1255,1255,1250,1250,1245,1245,1241,1241,1236,1236,1236,1232,1232,1232,1227,1227,1223,1223,1219,1219,1214,1214,1214,1210,1210,1206,1202,1202,1197,1197,1197,1193,1189,1185,1185,1185,1185,1181,1181,1181,1181,1177,1169,1169,1169,1165,1165,1165,1161,1157,1157,1153,1153,1153,1149,1149,1145,1141,1141,1138,1138,1138,1134,1134,1134,1130,1126,1123,1123,1123,1119,1119,1119,1115,1112,1108,1108,1105,1105,1105,1101,1101,1101,0,0,0,0,0,0,0,0,0,0,0,0,0,0,0,0,0,0,0,0,0,0,0,0,0,0,0,0,0,0,0,0
0,0,0,0,0,0,0,0,0,0,0,1663,1663,1663,1663,1663,1663,1663,1663,1663,1663,1655,1655,1655,1655,1655,1655,1655,1655,1671,1663,1663,1663,1663,1663,1663,1663,1663,1655,1655,1655,1655,1655,1655,1655,1655,1655,1655,1655,1655,1655,1655,1655,1655,1655,1655,1655,1655,1655,1655,1647,1647,1647,1639,1639,1639,0,0,0,0,0,0,1034,1034,1034,1034,1034,1034,1034,1034,1034,1034,1038,1038,1038,1038,1038,1041,1044,1044,1044,1044,1044,1047,1047,0,0,0,0,0,0,0,0,0,0,0,0,0,0,700,698,698,698,697,697,697,697,697,697,697,697,698,698,704,704,707,707,708,710,710,711,713,714,716,716,716,716,717,719,719,720,722,723,725,728,731,731,733,733,734,734,734,738,738,738,739,741,741,741,744,746,747,749,749,750,752,752,754,754,757,757,759,759,761,764,766,766,767,767,767,767,769,771,773,774,776,776,778,780,780,780,781,783,783,787,787,787,789,789,789,789,790,790,792,794,798,798,798,798,800,800,802,803,803,0,0,1564,1564,1564,1572,1572,1572,1572,1572,1572,1572,1572,1579,1579,1579,1579,1579,1579,1579,1579,1579,1579,1572,1572,1572,1572,1572,1572,1572,1572,1564,1268,1268,1268,1268,1268,1268,1268,1268,1268,1268,1268,1268,1268,1268,1264,1264,1268,1268,1268,1273,1273,1273,1278,1278,1278,1273,1273,1278,1564,1557,1550,1543,1543,1543,1543,1543,1543,1543,1543,1543,1543,1543,1543,1543,1536,1536,1536,1536,1536,1543,1543,1543,1543,1543,1536,1536,1536,1536,1536,1536,1536,1529,1529,1536,1529,1529,1529,1529,1529,1529,1523,1516,1516,1516,1496,1496,0,998,995,992,992,989,987,984,984,981,981,981,981,981,981,981,981,984,987,989,989,989,992,992,992,995,992,992,0,0,0,0,1503,1503,1503,1516,1509,1509,1509,1509,1509,1509,1503,1503,1503,1509,1503,1503,1503,1503,1503,1503,1503,1503,1503,1496,1496,1496,1496,1496,1496,1496,1496,1496,1496,1496,1496,1489,1489,1489,1489,1489,1496,1489,1489,1489,1489,1489,1489,1483,1483,1489,1489,1489,1483,1483,1483,1483,1477,1477,1477,1477,1477,1477,1477,1477,1477,1483,1483,1483,1483,1483,1483,1483,1483,1483,1477,1477,1477,1477,1477,1477,1470,1470,1470,1470,1470,1470,1470,1464,1464,1464,1464,1464,1458,1458,1452,1452,1452,1445,1445,1439,1439,1439,1439,1439,1433,1427,1421,1421,1415,1415,1415,1415,1410,1404,1398,1398,1398,1392,1392,1392,1387,1387,1381,1381,1376,1376,1370,1370,1370,1365,1365,1359,1354,1354,1349,1349,1343,1343,1333,1333,1333,1333,1328,1328,1328,1322,1317,1317,1312,1307,1307,1302,1302,1292,1292,1292,1292,1288,1288,1288,1283,1283,1278,1278,1273,1273,1268,1268,1264,1259,1255,1255,1255,1250,1250,1245,1245,1241,1241,1241,1236,1236,1232,1232,1232,1227,1227,1223,1223,1219,1219,1214,1214,1214,1210,1210,1206,1202,1202,1197,1197,1197,1193,1189,1185,1185,1185,1185,1181,1181,1181,1181,1181,1169,1169,1169,1165,1165,1165,1161,1161,1157,1153,1153,1153,1149,1149,1145,1141,1141,1138,1138,1138,1138,1134,1134,1130,1126,1126,1123,1123,1123,1119,1119,1119,1115,1108,1108,1108,1105,1105,1101,1101,1101,0,0,0,0,0,0,0,0,0,0,0,0,0,0,0,0,0,0,0,0,0,0,0,0,0,0,0,0,0,0,0,0
0,0,0,0,0,0,0,0,0,0,0,1655,1655,1663,1663,1655,1655,1655,1655,1655,1655,1655,1655,1655,1655,1655,1655,1655,1655,1663,1655,1655,1655,1655,1655,1655,1655,1655,1655,1655,1655,1647,1647,1647,1647,1647,1655,1647,1647,1655,1655,1655,1655,1655,1647,1647,1647,1647,1647,1647,1647,1639,1639,1632,1632,1632,0,0,0,0,0,0,0,1038,1038,1034,1034,1034,1034,1034,1034,1034,1034,1038,1038,1038,1038,1041,1044,1044,1044,1044,1044,1044,1044,0,0,0,0,0,0,0,0,0,0,0,0,0,0,700,698,698,698,697,697,697,697,697,697,698,698,700,703,706,706,707,708,710,710,711,713,713,714,716,716,716,717,717,720,720,720,722,723,727,730,731,733,734,734,734,734,734,738,738,738,739,742,742,742,746,746,749,749,749,750,752,752,754,754,757,757,759,759,762,764,766,766,767,767,767,769,769,771,773,774,776,778,778,780,780,780,781,783,783,785,787,787,789,789,789,789,790,790,792,794,798,798,798,798,800,800,0,0,0,0,1564,1564,1564,1564,1564,1572,1572,1564,1564,1572,1572,1572,1572,1572,1572,1572,1572,1572,1572,1572,1572,1572,1572,1572,1572,1572,1572,1572,1564,1564,1264,1264,1264,1264,1268,1268,1268,1268,1268,1268,1268,1268,1268,1268,1268,1268,1268,1268,1268,1273,1273,1273,1273,1278,1278,1278,1278,1278,1278,1543,1543,1543,1543,1536,1536,1536,1536,1536,1536,1536,1536,1536,1536,1536,1536,1536,1529,1529,1529,1529,1529,1529,1529,1529,1536,1536,1536,1536,1536,1536,1529,1529,1523,1523,1523,1523,1516,1516,1523,1523,1523,1516,1509,1503,1496,1496,0,0,1001,998,992,992,992,989,987,984,984,981,981,981,981,981,981,984,987,987,989,989,992,995,995,995,998,995,995,0,0,0,1496,1496,1496,1503,1503,1503,1503,1503,1503,1503,1503,1496,1496,1496,1496,1496,1496,1496,1496,1496,1496,1496,1496,1496,1496,1496,1496,1489,1489,1489,1489,1489,1489,1489,1489,1489,1489,1489,1483,1483,1489,1483,1483,1483,1483,1483,1483,1483,1483,1483,1483,1483,1483,1483,1483,1477,1477,1477,1470,1470,1470,1470,1470,1470,1470,1470,1470,1470,1470,1477,1477,1477,1477,1477,1477,1477,1477,1477,1477,1470,1470,1470,1470,1470,1470,1470,1464,1464,1464,1464,1464,1464,1464,1458,1452,1452,1452,1445,1445,1445,1439,1439,1439,1439,1439,1433,1427,1421,1421,1421,1415,1415,1410,1410,1404,1398,1398,1398,1392,1392,1392,1387,1387,1381,1381,1376,1376,1370,1370,1370,1365,1365,1359,1354,1354,1349,1349,1349,1343,1338,1333,1333,1333,1328,1328,1328,1322,1322,1317,1317,1312,1307,1302,1302,1297,1292,1292,1292,1288,1288,1288,1283,1283,1283,1278,1273,1273,1268,1268,1264,1259,1259,1255,1255,1250,1250,1245,1245,1241,1241,1241,1236,1236,1232,1232,1232,1232,1227,1223,1223,1223,1219,1214,1214,1214,1210,1210,1206,1202,1202,1197,1197,1197,1193,1189,1189,1185,1185,1185,1185,1181,1181,1181,1181,1177,1173,1169,1169,1165,1165,1165,1161,1157,1157,1157,1153,1153,1149,1145,1145,1141,1138,1138,1138,1138,1134,1134,1130,1130,1126,1126,1123,1123,1119,1119,1115,1115,1112,1108,1108,1105,1105,1105,1101,1101,0,0,0,0,0,0,0,0,0,0,0,0,0,0,0,0,0,0,0,0,0,0,0,0,0,0,0,0,0,0,0,0
0,0,0,0,0,0,0,0,0,0,0,1655,1655,1655,1655,1655,1647,1647,1647,1647,1647,1647,1647,1647,1647,1647,1639,1639,1655,1655,1655,1647,1647,1647,1647,1647,1647,1639,1639,1647,1647,1647,1647,1647,1647,1647,1647,1647,1647,1647,1647,1647,1647,1647,1647,1647,1647,1639,1639,1639,1639,1632,1632,1632,1632,1632,0,0,0,0,0,0,0,1038,1038,1034,1034,1034,1034,1034,1034,1034,1034,1038,1038,1038,1038,1041,1044,1047,1047,1047,1047,1044,1044,1050,1050,0,0,0,0,0,0,0,0,0,0,0,0,0,700,700,698,698,698,698,697,697,698,698,700,701,706,706,708,708,708,710,711,711,713,713,716,716,717,717,717,719,720,720,722,723,725,727,730,731,733,734,734,734,736,736,738,738,738,741,744,744,744,746,746,749,749,749,750,752,752,754,755,757,757,759,759,762,764,764,766,766,767,769,769,771,773,774,774,776,778,778,780,780,781,781,783,783,785,787,787,789,789,789,789,789,790,790,794,798,798,798,800,800,800,1564,1564,1564,1564,1564,1564,1564,1564,1564,1564,1564,1564,1564,1564,1564,1564,1564,1564,1564,1564,1564,1564,1564,1564,1564,1564,1564,1572,1572,1564,1564,1564,1564,1264,1264,1264,1264,1264,1264,1268,1268,1268,1268,1268,1268,1268,1268,1268,1268,1268,1268,1268,1268,1273,1273,1273,1273,1278,1278,1278,1278,1278,1278,1543,1543,1543,1536,1536,1536,1536,1536,1536,1536,1536,1536,1529,1529,1529,1529,1529,1523,1523,1523,1523,1523,1523,1523,1529,1529,1529,1529,1536,1529,1529,1529,1523,1516,1516,1516,1516,1516,1516,1516,1516,1516,1516,1509,1503,1496,1496,0,0,1001,998,998,992,992,989,989,987,984,984,981,981,981,981,984,984,987,989,989,992,995,995,995,995,998,1001,0,0,0,0,1496,1496,1496,1496,1503,1496,1496,1496,1496,1489,1489,1496,1496,1496,1496,1496,1496,1496,1496,1496,1489,1489,1489,1489,1489,1489,1489,1489,1489,1483,1483,1483,1483,1483,1483,1483,1483,1483,1477,1477,1477,1477,1477,1477,1477,1477,1477,1483,1477,1477,1477,1477,1477,1477,1477,1470,1470,1470,1470,1470,1464,1464,1464,1464,1464,1470,1470,1470,1470,1464,1464,1464,1464,1470,1470,1470,1470,1470,1470,1470,1470,1464,1464,1464,1464,1464,1464,1464,1464,1464,1458,1458,1458,1458,1452,1452,1452,1445,1445,1445,1445,1439,1439,1439,1439,1433,1427,1421,1421,1421,1415,1415,1410,1410,1404,1398,1398,1398,1392,1392,1392,1392,1387,1381,1381,1376,1376,1370,1370,1365,1365,1365,1359,1354,1354,1349,1349,1349,1343,1338,1333,1333,1333,1328,1328,1328,1322,1322,1317,1317,1312,1307,1302,1302,1297,1292,1292,1292,1288,1288,1288,1283,1283,1283,1278,1278,1273,1268,1268,1268,1264,1259,1255,1255,1250,1250,1245,1245,1241,1241,1241,1236,1236,1232,1232,1232,1232,1227,1223,1223,1223,1219,1214,1214,1214,1210,1210,1206,1202,1202,1197,1197,1197,1193,1193,1189,1185,1185,1185,1185,1181,1181,1181,1177,1177,1173,1169,1169,1165,1165,1165,1161,1161,1157,1157,1153,1153,1149,1145,1145,1141,1141,1141,1138,1138,1134,1134,1134,1130,1130,1126,1123,1123,1123,1119,1115,1115,1112,1108,1108,1108,1105,1105,1105,1105,0,0,0,0,0,0,0,0,0,0,0,0,0,0,0,0,0,0,0,0,0,0,0,0,0,0,0,0,0,0,0,0
0,0,0,0,0,0,0,0,0,0,0,1647,1647,1647,1639,1639,1639,1639,1639,1639,1639,1639,1639,1639,1639,1639,1632,1632,1647,1647,1647,1639,1639,1639,1647,1639,1639,1632,1632,1632,1639,1639,1639,1639,1639,1639,1639,1639,1639,1639,1647,1647,1647,1639,1639,1639,1639,1639,1639,1632,1632,1632,1632,1632,1632,1624,1624,0,0,0,0,0,0,0,1038,1038,1038,1034,1034,1034,1034,1034,1038,1038,1038,1038,1038,1041,1044,1047,1047,1047,1047,1047,1047,1050,1050,0,0,0,0,0,0,0,0,0,0,0,0,0,701,700,700,698,698,698,698,698,698,700,703,706,707,708,708,708,710,710,711,713,713,713,716,716,717,717,717,719,720,722,722,723,725,727,730,731,734,734,734,736,736,738,738,739,739,741,742,744,746,746,746,749,749,749,750,752,754,754,755,757,757,759,759,762,764,764,766,766,767,769,769,771,773,774,774,776,778,778,780,780,781,781,783,785,787,787,787,789,789,789,789,789,790,790,794,798,798,798,798,798,0,0,1564,1564,1564,1564,1564,1564,1564,1564,1564,1564,1564,1564,1564,1564,1564,1564,1564,1564,1564,1557,1557,1564,1564,1564,1564,1564,1564,1564,1557,1557,1564,1264,1264,1264,1264,1264,1264,1264,1268,1268,1268,1268,1268,1268,1268,1268,1268,1268,1268,1268,1268,1268,1273,1273,1273,1273,1278,1278,1278,1278,1278,1278,1536,1536,1536,1536,1536,1529,1529,1529,1529,1529,1529,1529,1523,1523,1523,1523,1523,1523,1523,1516,1516,1523,1523,1523,1523,1523,1523,1529,1529,1523,1523,1523,1516,1516,1516,1516,1509,1509,1509,1516,1509,1509,1509,1509,1509,1509,1509,1001,1001,1001,1001,998,992,992,992,989,987,984,984,984,981,981,981,984,987,989,989,989,992,995,995,995,995,1001,1001,0,0,0,0,1496,1496,1496,1496,1496,1496,1496,1489,1489,1489,1489,1489,1489,1489,1489,1489,1489,1489,1489,1489,1489,1489,1489,1489,1489,1489,1489,1483,1483,1483,1483,1477,1477,1477,1477,1477,1477,1477,1477,1477,1477,1477,1477,1470,1470,1470,1470,1470,1470,1470,1470,1470,1477,1470,1470,1470,1470,1464,1464,1464,1464,1464,1464,1464,1464,1464,1464,1464,1464,1458,1458,1458,1458,1464,1464,1464,1470,1470,1470,1470,1464,1464,1464,1464,1458,1458,1458,1458,1458,1458,1458,1458,1458,1452,1452,1445,1445,1445,1445,1445,1439,1439,1439,1439,1433,1427,1427,1421,1421,1421,1415,1415,1410,1410,1404,1404,1398,1398,1392,1392,1392,1392,1392,1387,1381,1381,1376,1370,1370,1365,1365,1365,1359,1354,1354,1354,1349,1349,1349,1343,1338,1333,1333,1328,1328,1328,1322,1322,1317,1317,1312,1312,1307,1307,1302,1297,1292,1292,1288,1288,1288,1288,1283,1283,1278,1278,1273,1273,1268,1268,1264,1259,1255,1255,1250,1250,1245,1245,1241,1241,1241,1236,1236,1236,1232,1232,1232,1227,1223,1223,1219,1219,1214,1214,1214,1210,1210,1206,1202,1202,1202,1197,1197,1193,1193,1189,1189,1185,1185,1185,1181,1181,1181,1177,1177,1173,1169,1169,1165,1165,1165,1165,1161,1161,1157,1157,1153,1149,1145,1145,1141,1141,1141,1138,1138,1134,1134,1134,1130,1130,1126,1123,1123,1123,1119,1119,1115,1112,1112,1108,1108,1105,1105,1105,1105,0,0,0,0,0,0,0,0,0,0,0,0,0,0,0,0,0,0,0,0,0,0,0,0,0,0,0,0,0,0,0,0
0,0,0,0,0,0,0,0,0,0,0,1647,1647,1639,1639,1639,1639,1639,1639,1639,1632,1632,1632,1632,1632,1632,1632,1632,1632,1632,1632,1632,1632,1632,1639,1632,1632,1632,1632,1632,1632,1632,1632,1632,1632,1639,1639,1632,1632,1632,1632,1639,1639,1639,1639,1639,1639,1632,1632,1632,1632,1632,1624,1624,1624,1624,1624,1624,0,0,0,0,0,0,1041,1038,1038,1038,1038,1038,1038,1038,1038,1038,1038,1038,1041,1041,1044,1047,1047,1047,1047,1047,1047,1050,1050,0,0,0,0,0,0,0,0,0,0,0,0,0,701,701,700,700,698,698,698,698,700,706,708,708,708,710,710,710,710,711,711,713,713,716,716,717,717,717,717,719,720,722,722,723,725,727,730,731,734,734,736,736,738,738,739,739,739,741,742,746,746,747,747,749,749,750,752,752,754,754,755,757,759,759,761,762,764,766,766,767,767,769,769,771,773,774,774,776,778,780,780,781,781,781,783,783,785,787,787,789,789,789,789,789,790,790,790,790,1550,1550,0,0,0,0,1557,1557,1557,1557,1557,1557,1557,1557,1557,1557,1557,1557,1557,1557,1557,1557,1557,1557,1557,1557,1557,1564,1564,1564,1250,1250,1250,1250,1250,1255,1255,1255,1259,1259,1259,1264,1264,1264,1264,1264,1264,1268,1268,1268,1268,1268,1268,1268,1268,1268,1268,1268,1273,1273,1273,1278,1278,1283,1278,1278,1278,1278,1536,1536,1536,1536,1529,1523,1523,1523,1523,1523,1523,1523,1516,1516,1516,1516,1516,1516,1516,1516,1516,1516,1516,1516,1516,1516,1516,1516,1516,1516,1516,1516,1509,1509,1509,1509,1509,1509,1509,1509,1509,1503,1503,1503,1503,0,1503,0,0,0,1001,998,992,992,992,989,989,987,987,984,984,984,984,984,987,989,989,989,992,995,995,995,995,1001,1001,0,0,0,0,1489,1489,1489,1496,1489,1489,1489,1489,1489,1483,1483,1483,1483,1483,1483,1483,1483,1483,1483,1483,1483,1483,1483,1483,1483,1483,1483,1483,1483,1483,1477,1477,1477,1477,1477,1477,1470,1470,1470,1470,1470,1470,1470,1470,1470,1470,1470,1470,1470,1470,1470,1470,1470,1470,1470,1470,1464,1464,1464,1464,1458,1458,1458,1458,1458,1458,1458,1458,1458,1452,1452,1452,1452,1458,1458,1458,1458,1458,1458,1458,1464,1464,1458,1458,1452,1452,1452,1452,1452,1452,1445,1445,1452,1452,1445,1445,1445,1445,1445,1439,1439,1439,1439,1433,1433,1427,1427,1421,1421,1421,1415,1415,1410,1410,1404,1404,1398,1398,1398,1392,1392,1392,1392,1387,1387,1381,1376,1370,1370,1365,1365,1365,1359,1359,1354,1354,1354,1349,1349,1343,1338,1333,1333,1328,1328,1328,1328,1322,1317,1317,1312,1312,1307,1307,1302,1302,1292,1292,1288,1288,1288,1288,1288,1283,1283,1278,1273,1273,1268,1268,1264,1264,1255,1255,1250,1250,1245,1245,1241,1241,1241,1236,1236,1236,1232,1232,1232,1227,1223,1223,1219,1219,1219,1214,1214,1214,1210,1206,1202,1202,1202,1197,1197,1197,1193,1193,1189,1189,1185,1185,1181,1181,1181,1177,1177,1173,1169,1169,1169,1165,1165,1165,1161,1161,1161,1157,1153,1149,1149,1145,1145,1141,1141,1138,1138,1134,1134,1134,1130,1130,1126,1126,1123,1123,1119,1119,1115,1112,1112,1108,1108,1105,1105,1105,1105,0,0,0,0,0,0,0,0,0,0,0,0,0,0,0,0,0,0,0,0,0,0,0,0,0,0,0,0,0,0,0,0
0,0,0,0,0,0,0,0,0,0,0,1639,1639,1639,1639,1639,1632,1632,1632,1632,1632,1632,1624,1624,1632,1632,1624,1624,1632,1632,1632,1632,1632,1632,1632,1632,1632,1624,1624,1624,1624,1624,1624,1624,1624,1624,1624,1624,1632,1632,1632,1632,1632,1632,1632,1632,1632,1632,1624,1624,1624,1624,1624,1616,1616,1616,1616,1616,0,0,0,0,0,0,0,1038,1038,1038,1038,1038,1038,1038,1038,1038,1038,1038,1041,1044,1044,1047,1047,1047,1047,1047,1047,1050,1050,0,0,0,0,0,0,0,0,0,0,0,0,0,0,704,704,701,700,700,698,698,704,710,710,710,710,710,710,710,710,711,711,713,713,716,716,716,717,717,717,719,720,722,723,725,727,728,730,731,734,734,736,736,738,738,739,739,739,741,742,746,746,747,749,749,750,752,752,754,755,755,757,757,759,761,761,762,764,766,766,767,769,769,771,773,773,774,774,776,778,778,780,781,781,781,781,783,785,787,787,789,789,789,790,790,790,792,792,1557,1550,1550,0,1550,1550,1550,1557,1557,1557,1550,1550,1557,1557,1550,1550,1550,1550,1550,1550,1550,1557,1557,1557,1557,1557,1557,1557,1557,1255,1250,1250,1250,1250,1250,1250,1255,1255,1255,1255,1259,1259,1264,1264,1264,1264,1264,1264,1264,1268,1268,1268,1268,1268,1268,1268,1268,1268,1273,1273,1273,1273,1278,1283,1283,1283,1283,1283,1283,1529,1529,1529,1529,1523,1523,1516,1516,1516,1516,1516,1516,1516,1516,1516,1516,1516,1516,1516,1516,1516,1516,1516,1516,1516,1516,1509,1509,1509,1509,1509,1509,1503,1503,1509,1509,1509,1503,1503,1509,1503,1503,1503,1503,1503,0,0,0,0,0,1004,1001,995,995,992,992,989,989,987,987,984,984,984,987,989,989,989,992,992,995,995,995,995,1001,1001,1001,0,0,0,1483,1483,1489,1489,1489,1489,1489,1483,1483,1477,1477,1477,1477,1477,1477,1477,1470,1470,1470,1470,1470,1470,1477,1477,1477,1477,1477,1477,1477,1477,1477,1470,1470,1470,1470,1470,1470,1470,1470,1470,1470,1470,1470,1470,1464,1464,1464,1464,1470,1470,1470,1470,1470,1470,1464,1464,1464,1464,1464,1464,1458,1458,1458,1458,1458,1452,1452,1452,1452,1452,1452,1445,1445,1452,1452,1452,1452,1452,1452,1452,1452,1445,1445,1452,1445,1445,1445,1445,1445,1445,1445,1445,1445,1445,1439,1439,1439,1439,1439,1439,1439,1439,1433,1433,1433,1427,1421,1421,1421,1421,1415,1415,1410,1410,1404,1404,1398,1398,1398,1392,1392,1392,1392,1387,1387,1381,1376,1370,1370,1365,1365,1365,1359,1359,1354,1354,1354,1349,1349,1343,1343,1338,1333,1333,1328,1328,1322,1322,1322,1317,1312,1312,1307,1307,1307,1302,1297,1292,1292,1288,1288,1288,1288,1283,1283,1278,1273,1273,1268,1268,1268,1264,1259,1255,1255,1250,1250,1250,1245,1245,1241,1241,1236,1236,1236,1232,1232,1232,1227,1223,1219,1219,1219,1214,1214,1214,1210,1206,1202,1202,1202,1197,1197,1197,1193,1193,1189,1189,1185,1185,1185,1181,1181,1181,1177,1173,1169,1169,1169,1165,1165,1165,1165,1161,1161,1157,1153,1153,1149,1145,1145,1141,1138,1138,1138,1134,1134,1134,1130,1130,1126,1126,1123,1123,1119,1119,1119,1115,1112,1108,1108,1105,1105,1105,1105,0,0,0,0,0,0,0,0,0,0,0,0,0,0,0,0,0,0,0,0,0,0,0,0,0,0,0,0,0,0,0,0
0,0,0,0,0,0,0,0,0,0,0,1639,1632,1632,1632,1632,1632,1632,1632,1632,1624,1624,1624,1624,1632,1632,1624,1624,1624,1624,1624,1624,1624,1624,1624,1624,1624,1624,1624,1624,1624,1624,1624,1624,1624,1624,1616,1616,1609,1609,1609,1609,1624,1624,1624,1624,1624,1624,1624,1624,1624,1624,1616,1616,1616,1616,1609,1601,1601,0,0,0,0,0,0,1038,1038,1038,1038,1038,1038,1038,1038,1038,1038,1041,1041,1044,1044,1047,1047,1047,1047,1047,1050,1050,0,0,0,0,0,0,0,0,0,0,0,0,0,0,0,0,0,0,0,0,0,716,714,713,713,711,710,710,710,710,711,711,713,713,713,716,716,716,716,717,717,717,720,722,723,725,727,728,730,733,734,736,736,738,738,739,739,739,741,741,742,746,746,747,749,750,752,752,754,755,755,757,757,759,761,761,762,764,764,766,766,767,769,769,771,773,773,774,774,776,778,778,780,781,781,781,781,783,785,785,787,789,789,789,790,790,794,794,1557,1557,1550,1550,1550,1550,1550,1550,1550,1550,1550,1550,1550,1550,1550,1550,1550,1550,1550,1550,1550,1550,1550,1557,1557,1550,1245,1245,1245,1250,1250,1250,1250,1250,1250,1250,1250,1255,1255,1255,1255,1259,1259,1259,1259,1259,1264,1264,1264,1264,1268,1268,1268,1268,1268,1268,1268,1268,1273,1273,1273,1273,1278,1283,1283,1283,1283,1283,1283,1283,1523,1523,1523,1523,1516,1516,1516,1516,1509,1509,1509,1509,1509,1509,1509,1509,1509,1509,1509,1509,1509,1509,1509,1509,1509,1509,1503,1503,1496,1496,1496,1503,1503,1503,1503,1503,1503,1503,1503,1503,1496,1496,1503,1496,1496,0,1489,0,0,0,1004,1001,998,995,995,992,992,989,989,987,987,987,987,987,989,989,992,992,992,995,995,998,998,1001,1001,0,0,0,0,1477,1477,1483,1483,1483,1477,1477,1477,1477,1477,1477,1477,1477,1470,1470,1470,1470,1470,1470,1470,1470,1470,1470,1470,1470,1470,1470,1470,1470,1470,1470,1470,1470,1470,1470,1470,1470,1464,1464,1464,1464,1464,1464,1464,1464,1464,1464,1464,1464,1464,1464,1464,1464,1464,1464,1464,1458,1458,1458,1452,1452,1452,1452,1452,1452,1452,1452,1452,1445,1445,1445,1445,1445,1445,1445,1445,1445,1445,1445,1445,1445,1439,1439,1439,1439,1439,1445,1445,1445,1445,1439,1439,1439,1439,1433,1433,1433,1433,1433,1439,1433,1433,1433,1427,1427,1421,1421,1421,1421,1415,1415,1415,1415,1410,1404,1404,1398,1398,1398,1392,1392,1392,1392,1387,1387,1387,1376,1370,1370,1365,1365,1359,1359,1359,1354,1354,1354,1354,1349,1349,1343,1338,1333,1333,1328,1328,1322,1322,1322,1317,1312,1312,1307,1307,1307,1307,1297,1292,1292,1292,1288,1288,1288,1288,1283,1278,1273,1273,1273,1268,1268,1264,1264,1259,1255,1250,1250,1250,1245,1245,1241,1241,1236,1236,1236,1236,1232,1232,1227,1223,1219,1219,1219,1214,1214,1214,1210,1206,1202,1202,1202,1197,1197,1197,1197,1193,1189,1189,1189,1185,1185,1185,1181,1181,1177,1173,1169,1169,1169,1165,1165,1165,1165,1161,1157,1157,1153,1153,1149,1145,1145,1141,1138,1138,1134,1134,1134,1130,1130,1130,1126,1126,1123,1123,1119,1119,1119,1112,1112,1108,1108,1108,1105,1105,1105,0,0,0,0,0,0,0,0,0,0,0,0,0,0,0,0,0,0,0,0,0,0,0,0,0,0,0,0,0,0,0,0
0,0,0,0,0,0,0,0,0,0,0,1632,1632,1632,1632,1632,1624,1624,1624,1624,1624,1624,1624,1624,1624,1624,1624,1624,1616,1616,1616,1616,1616,1616,1624,1624,1624,1624,1624,1616,1616,1616,1616,1616,1616,1616,1609,1609,1609,1609,1609,1609,1609,1601,1601,1609,1616,1609,1609,1616,1616,1616,1616,1609,1609,1616,1609,1601,1601,0,0,0,0,0,0,1038,1038,1038,1038,1038,1038,1038,1038,1038,1038,1041,1041,1044,1044,1047,1047,1047,1050,1050,1050,1054,0,0,0,0,0,0,0,0,0,0,0,0,0,0,0,0,0,0,0,0,0,716,714,714,714,713,711,711,711,711,711,711,713,713,714,716,716,716,716,717,717,717,720,722,725,727,727,728,728,733,734,736,738,738,739,739,741,741,741,741,744,746,747,749,750,750,752,754,754,755,755,757,757,759,759,761,762,764,764,766,766,767,769,771,771,773,774,774,776,776,778,778,780,781,781,781,781,783,785,785,787,787,787,1529,1529,1536,1543,1543,1543,1543,1543,1543,1543,1543,1543,1543,1543,1543,1543,1543,1543,1543,1543,1543,1543,1543,1543,1543,1543,1543,1550,1550,1550,1241,1241,1245,1245,1245,1250,1250,1250,1250,1250,1250,1250,1250,1255,1255,1255,1255,1255,1259,1259,1259,1264,1264,1264,1264,1268,1268,1268,1268,1268,1273,1273,1273,1273,1273,1273,1273,1278,1283,1283,1283,1283,1283,1283,1288,1516,1516,1516,1516,1516,1509,1509,1509,1509,1509,1509,1509,1509,1509,1509,1509,1509,1509,1509,1509,1503,1503,1503,1496,1496,1496,1496,1496,1489,1489,1489,1496,1496,1496,1496,1496,1496,1496,1496,1496,1496,1496,1489,1489,1489,1489,1489,0,0,1004,1004,1001,1001,998,995,995,992,989,989,989,987,987,987,989,989,989,992,992,995,995,995,998,1001,1001,1001,0,0,0,0,1477,1477,1483,1477,1477,1477,1477,1477,1470,1470,1470,1470,1470,1470,1470,1470,1470,1464,1464,1464,1464,1464,1464,1464,1464,1464,1464,1464,1464,1470,1470,1464,1464,1464,1464,1464,1464,1464,1464,1464,1464,1464,1464,1464,1458,1458,1458,1458,1458,1458,1458,1458,1458,1458,1458,1458,1452,1452,1452,1445,1445,1445,1445,1445,1445,1445,1445,1445,1445,1445,1445,1445,1445,1445,1445,1445,1445,1439,1439,1439,1439,1433,1433,1433,1433,1433,1433,1433,1433,1433,1433,1433,1433,1433,1433,1427,1427,1427,1427,1433,1433,1427,1427,1427,1427,1421,1421,1421,1415,1415,1415,1415,1410,1410,1404,1404,1398,1398,1398,1398,1392,1392,1392,1387,1387,1381,1376,1370,1370,1365,1365,1359,1359,1359,1354,1354,1354,1354,1349,1349,1343,1338,1333,1333,1333,1328,1328,1322,1322,1317,1312,1312,1312,1307,1307,1307,1302,1297,1292,1292,1288,1288,1288,1288,1283,1283,1278,1273,1273,1268,1268,1268,1264,1259,1255,1255,1255,1250,1250,1245,1245,1241,1241,1236,1236,1236,1232,1232,1227,1223,1219,1219,1219,1214,1214,1214,1210,1206,1202,1202,1202,1197,1197,1197,1197,1193,1189,1189,1189,1185,1185,1185,1181,1181,1177,1173,1169,1169,1169,1165,1165,1165,1165,1161,1157,1157,1153,1153,1149,1145,1145,1141,1138,1138,1134,1134,1134,1130,1130,1130,1126,1126,1123,1123,1119,1119,1119,1112,1112,1108,1108,1108,1105,1105,1105,0,0,0,0,0,0,0,0,0,0,0,0,0,0,0,0,0,0,0,0,0,0,0,0,0,0,0,0,0,0,0,0
0,0,0,0,0,0,0,0,0,0,0,1632,1632,1632,1624,1624,1624,1616,1616,1616,1616,1616,1616,1616,1624,1616,1616,1616,1609,1609,1609,1609,1609,1609,1616,1624,1624,1624,1616,1616,1616,1616,1609,1609,1609,1609,1601,1601,1601,1601,1601,1601,1601,1601,1601,1601,1601,1601,1601,1609,1609,1609,1609,1609,1609,1609,1601,1594,1586,1586,0,0,0,0,0,1041,1041,1038,1038,1038,1038,1038,1038,1038,1041,1041,1044,1044,1047,1047,1050,1050,1050,1050,1050,1054,1060,0,0,0,0,0,0,0,0,0,0,0,0,0,0,0,0,0,0,0,0,716,716,716,716,714,713,711,711,711,711,713,713,713,714,716,716,716,716,717,717,719,722,723,725,727,727,728,728,731,734,736,738,738,739,739,741,741,741,742,744,746,747,749,750,752,752,754,754,755,755,757,757,759,759,762,762,764,766,766,767,767,769,771,773,773,774,774,776,776,778,778,780,781,781,781,781,783,785,785,785,1523,0,1529,1529,1536,1536,1536,1543,1543,1543,1543,1543,1543,1543,1543,1543,1543,1543,1543,1543,1543,1536,1536,1536,1536,1543,1543,1543,1543,1543,1550,1550,1241,1241,1241,1245,1245,1250,1250,1250,1250,1250,1250,1250,1250,1250,1255,1255,1255,1255,1259,1259,1259,1264,1264,1264,1264,1268,1268,1268,1268,1268,1273,1273,1273,1273,1273,1273,1278,1283,1283,1283,1283,1283,1283,1288,1288,1516,1516,1509,1509,1509,1509,1509,1503,1503,1503,1503,1503,1503,1503,1503,1503,1509,1503,1503,1503,1503,1503,1496,1489,1489,1489,1489,1489,1489,1489,1489,1489,1489,1489,1489,1489,1489,1489,1489,1489,1489,1489,1489,1483,1483,1483,0,0,0,0,1007,1004,1004,1001,998,998,992,992,989,989,989,989,989,989,989,989,992,992,995,995,998,998,1001,1001,1001,1001,0,0,0,1477,1477,1470,1470,1470,1470,1470,1470,1464,1464,1464,1464,1464,1464,1464,1464,1464,1464,1464,1464,1464,1464,1464,1464,1464,1464,1464,1464,1464,1464,1464,1464,1464,1458,1458,1458,1458,1458,1458,1458,1458,1458,1458,1458,1458,1458,1458,1452,1452,1452,1452,1452,1452,1445,1445,1445,1445,1445,1445,1445,1445,1445,1439,1439,1445,1445,1445,1445,1445,1445,1439,1439,1439,1439,1439,1439,1439,1439,1439,1439,1433,1433,1433,1433,1427,1427,1433,1427,1427,1427,1427,1421,1421,1427,1427,1421,1421,1421,1427,1427,1427,1427,1427,1421,1421,1421,1421,1415,1415,1415,1415,1410,1410,1404,1404,1398,1398,1398,1398,1398,1392,1392,1392,1392,1387,1381,1376,1370,1370,1365,1365,1365,1359,1359,1354,1354,1354,1354,1354,1349,1343,1343,1338,1333,1333,1328,1328,1322,1322,1317,1312,1312,1312,1312,1307,1307,1302,1297,1292,1292,1292,1288,1288,1288,1283,1283,1278,1273,1273,1268,1268,1268,1264,1259,1259,1255,1255,1255,1250,1250,1245,1241,1241,1241,1236,1236,1232,1232,1227,1223,1219,1219,1219,1219,1214,1214,1214,1206,1206,1202,1202,1202,1197,1197,1197,1193,1193,1189,1189,1185,1185,1185,1181,1181,1177,1173,1173,1169,1169,1165,1165,1165,1161,1161,1161,1157,1153,1153,1149,1149,1145,1141,1138,1138,1134,1134,1134,1130,1130,1130,1126,1126,1123,1123,1119,1119,1119,1115,1112,1112,1108,1108,1108,1105,1105,0,0,0,0,0,0,0,0,0,0,0,0,0,0,0,0,0,0,0,0,0,0,0,0,0,0,0,0,0,0,0,0
0,0,0,0,0,0,0,0,0,0,0,1624,1624,1624,1624,1624,1616,1616,1616,1616,1616,1609,1609,1609,1616,1601,1601,1601,1609,1609,1609,1609,1609,1609,1609,1609,1616,1616,1609,1609,1609,1609,1609,1609,1609,1601,1601,1601,1594,1594,1594,1594,1594,1594,1594,1594,1594,1594,1594,1594,1594,1601,1601,1601,1601,1601,1594,1586,1586,1579,1579,0,0,0,0,0,1041,1041,1041,1041,1041,1041,1041,1041,1041,1041,1044,1044,1047,1047,1050,1050,1050,1050,1054,1057,1060,0,0,0,0,0,0,0,0,0,0,0,0,0,0,0,0,0,0,0,725,720,719,717,716,714,714,713,713,713,713,713,713,713,714,716,716,716,717,717,717,720,722,723,725,727,727,728,728,731,734,736,738,739,739,739,741,741,741,742,744,747,749,750,752,752,752,754,754,755,757,757,759,759,761,764,764,766,766,767,767,767,769,771,773,773,774,774,776,776,776,778,780,781,781,781,781,783,783,1523,1523,1523,1529,1529,1529,1529,1536,1536,1536,1536,1536,1536,1536,1536,1536,1536,1536,1536,1536,1536,1536,1536,1536,1536,1536,1536,1536,1536,1236,1236,1236,1236,1241,1241,1241,1241,1245,1245,1245,1245,1245,1245,1245,1250,1250,1250,1250,1250,1255,1255,1255,1259,1259,1259,1264,1264,1264,1264,1268,1268,1268,1268,1273,1273,1273,1273,1278,1278,1278,1278,1283,1283,1283,1283,1283,1283,1288,1288,1503,1503,1503,1503,1503,1503,1496,1496,1496,1496,1496,1496,1503,1503,1503,1503,1503,1503,1503,1496,1496,1489,1489,1489,1489,1483,1483,1483,1483,1483,1483,1483,1483,1483,1483,1483,1483,1483,1489,1489,1483,1483,1483,1477,1477,1477,1477,0,0,0,1007,1007,1004,1001,1001,998,995,992,992,989,989,989,989,989,989,989,992,995,995,995,998,998,1001,1004,1004,0,0,0,0,1470,1470,1464,1464,1464,1464,1464,1464,1464,1464,1464,1464,1464,1464,1464,1464,1464,1458,1458,1458,1458,1458,1458,1458,1458,1458,1458,1458,1452,1452,1452,1452,1452,1452,1452,1452,1458,1452,1452,1452,1452,1452,1452,1452,1452,1452,1452,1445,1445,1445,1445,1445,1445,1445,1445,1439,1439,1439,1439,1439,1439,1439,1439,1439,1439,1439,1439,1439,1439,1439,1439,1439,1439,1439,1439,1439,1433,1433,1427,1427,1427,1427,1427,1427,1421,1421,1427,1427,1421,1421,1421,1421,1421,1421,1421,1421,1421,1421,1421,1421,1421,1421,1421,1421,1421,1415,1415,1415,1415,1415,1410,1410,1410,1404,1404,1398,1398,1398,1398,1392,1392,1392,1392,1392,1387,1381,1376,1370,1370,1365,1365,1365,1365,1365,1359,1354,1354,1354,1354,1349,1343,1343,1338,1333,1333,1328,1328,1322,1322,1317,1312,1312,1312,1312,1307,1307,1302,1297,1297,1292,1292,1288,1288,1288,1283,1283,1278,1273,1273,1273,1268,1268,1268,1264,1255,1255,1255,1255,1250,1250,1250,1241,1241,1241,1236,1236,1232,1232,1227,1223,1223,1219,1219,1219,1214,1214,1214,1210,1206,1206,1202,1202,1202,1197,1197,1197,1193,1189,1189,1185,1185,1185,1181,1181,1177,1173,1173,1169,1169,1165,1165,1165,1161,1161,1161,1161,1157,1153,1153,1149,1145,1141,1138,1138,1138,1134,1134,1130,1130,1130,1126,1126,1126,1123,1123,1119,1119,1115,1112,1112,1112,1108,1108,1108,1108,0,0,0,0,0,0,0,0,0,0,0,0,0,0,0,0,0,0,0,0,0,0,0,0,0,0,0,0,0,0,0,0
0,0,0,0,0,0,0,0,0,0,0,1616,1616,1616,1616,1616,1609,1609,1609,1609,1609,1609,1609,1609,1609,1601,1601,1601,1601,1601,1601,1601,1601,1601,1601,1601,1601,1601,1609,1609,1601,1601,1601,1601,1601,1601,1594,1594,1594,1594,1594,1594,1594,1586,1586,1586,1586,1594,1594,1586,1586,1594,1594,1586,1586,1586,1586,1586,1586,1579,1579,0,0,0,0,0,1044,1041,1041,1041,1041,1041,1041,1041,1041,1044,1044,1047,1047,1047,1050,1050,1050,1054,1054,1057,1060,0,0,0,0,0,0,0,0,0,0,0,0,0,0,0,0,0,0,0,725,722,720,720,717,716,714,714,713,713,713,713,713,714,714,716,716,717,717,717,717,720,722,723,725,727,727,728,728,730,733,736,738,739,741,741,741,742,742,744,747,749,750,752,752,752,752,754,754,755,757,757,759,761,761,764,764,766,766,767,767,767,769,771,773,773,774,774,776,776,776,778,780,781,781,781,781,1516,1516,1523,1523,1523,1529,1523,1523,1523,1523,1529,1536,1536,1536,1536,1536,1536,1536,1536,1536,1536,1536,1536,1536,1536,1536,1536,1536,1236,1236,1236,1236,1236,1236,1236,1236,1236,1241,1241,1241,1245,1245,1245,1245,1245,1245,1250,1250,1250,1250,1250,1255,1259,1259,1259,1259,1264,1264,1264,1264,1264,1268,1268,1268,1273,1273,1273,1273,1278,1278,1278,1278,1278,1283,1283,1283,1283,1283,1288,1288,1288,1496,1496,1496,1496,1496,1496,1496,1496,1496,1496,1496,1496,1496,1496,1496,1496,1496,1496,1496,1489,1489,1489,1483,1483,1483,1483,1483,1483,1483,1483,1483,1483,1483,1483,1477,1477,1477,1477,1483,1483,1477,1477,1477,1477,1477,1470,1464,1464,0,0,0,1004,1004,1004,1001,998,995,992,992,989,989,989,989,989,989,989,992,995,995,995,998,1001,1004,1004,1004,0,0,0,0,1464,1464,1458,1458,1458,1458,1458,1458,1458,1458,1458,1458,1458,1458,1458,1458,1458,1458,1458,1458,1458,1458,1452,1452,1452,1452,1452,1452,1452,1452,1445,1445,1445,1445,1445,1445,1445,1445,1445,1445,1445,1445,1445,1445,1445,1445,1445,1445,1445,1445,1445,1439,1439,1439,1439,1439,1439,1439,1439,1439,1439,1433,1433,1433,1433,1433,1433,1433,1433,1433,1433,1433,1433,1433,1427,1427,1427,1427,1427,1427,1421,1421,1421,1421,1421,1421,1421,1421,1421,1421,1421,1421,1415,1415,1415,1415,1415,1415,1415,1421,1421,1415,1415,1415,1415,1415,1415,1415,1415,1415,1410,1410,1410,1404,1404,1398,1398,1398,1398,1392,1392,1392,1392,1387,1387,1381,1376,1376,1370,1365,1365,1365,1365,1365,1359,1359,1354,1354,1354,1349,1349,1343,1338,1338,1333,1328,1328,1328,1322,1322,1317,1312,1312,1312,1312,1307,1302,1302,1297,1292,1292,1292,1288,1288,1288,1283,1278,1273,1273,1273,1268,1268,1268,1264,1255,1255,1259,1255,1255,1250,1250,1250,1245,1241,1241,1236,1232,1232,1227,1227,1223,1219,1219,1219,1214,1214,1214,1210,1206,1206,1202,1202,1202,1197,1197,1197,1193,1193,1189,1185,1185,1185,1185,1181,1177,1177,1173,1169,1169,1169,1165,1165,1165,1161,1161,1161,1157,1153,1153,1149,1145,1145,1141,1138,1138,1134,1134,1134,1130,1130,1130,1130,1123,1123,1123,1119,1119,1115,1115,1112,1112,1112,1108,1108,1108,0,0,0,0,0,0,0,0,0,0,0,0,0,0,0,0,0,0,0,0,0,0,0,0,0,0,0,0,0,0,0,0
0,0,0,0,0,0,0,0,0,0,0,1601,1601,1609,1609,1609,1601,1601,1601,1609,1609,1609,1601,1601,1609,1609,1601,1601,1594,1594,1601,1601,1594,1594,1594,1594,1594,1594,1601,1601,1594,1594,1594,1594,1594,1594,1586,1586,1586,1586,1586,1586,1586,1586,1586,1586,1586,1586,1586,1586,1586,1586,1586,1579,1579,1579,1579,1579,1579,1579,1579,0,0,0,0,0,1044,1041,1041,1041,1041,1041,1041,1041,1041,1044,1047,1047,1047,1047,1050,1050,1050,1054,1054,1057,1057,0,0,0,0,0,0,0,0,0,0,0,0,0,0,0,0,0,0,0,728,727,725,723,720,719,716,714,714,714,714,714,714,714,714,716,716,717,717,717,717,720,723,723,725,727,728,728,728,730,733,736,738,739,741,741,741,742,744,746,747,749,750,752,752,752,752,754,754,755,757,759,759,761,762,764,764,766,766,767,767,767,769,771,773,774,774,774,776,776,776,776,783,783,783,1509,1509,1516,1516,1516,1523,1523,1523,1523,1523,1523,1523,1523,1523,1523,1529,1529,1536,1536,1536,1536,1536,1536,1536,1536,1536,1536,1536,1536,1236,1236,1236,1236,1236,1236,1236,1236,1236,1236,1241,1241,1241,1245,1245,1245,1245,1245,1245,1250,1250,1250,1250,1255,1255,1259,1259,1259,1259,1264,1264,1264,1264,1268,1268,1268,1268,1273,1278,1278,1278,1278,1278,1278,1283,1283,1283,1283,1283,1288,1288,1288,1288,1288,1288,1489,1489,1489,1489,1496,1496,1489,1489,1489,1489,1489,1489,1489,1489,1489,1489,1489,1489,1483,1483,1483,1483,1483,1483,1477,1477,1477,1477,1477,1477,1477,1477,1477,1470,1470,1470,1470,1477,1477,1477,1477,1477,1470,1470,1470,1464,1464,0,0,0,0,1004,1004,1001,1001,998,995,992,992,989,989,989,989,989,992,992,995,995,998,1001,1004,1004,1004,1004,0,0,0,0,1458,1458,1452,1452,1452,1452,1452,1452,1452,1452,1452,1452,1452,1452,1452,1452,1452,1452,1452,1452,1452,1452,1452,1445,1445,1445,1445,1445,1445,1445,1445,1445,1445,1445,1445,1445,1445,1445,1445,1439,1439,1439,1445,1445,1445,1439,1439,1439,1439,1439,1439,1433,1433,1433,1433,1433,1433,1433,1433,1433,1433,1427,1427,1427,1427,1427,1427,1427,1427,1427,1433,1433,1427,1427,1427,1427,1427,1427,1421,1421,1421,1421,1415,1415,1415,1415,1415,1415,1415,1415,1415,1415,1415,1415,1415,1415,1410,1410,1410,1410,1410,1404,1404,1410,1410,1410,1410,1410,1410,1410,1404,1404,1404,1404,1398,1398,1398,1398,1398,1392,1392,1392,1392,1387,1381,1376,1376,1376,1370,1365,1365,1365,1365,1365,1359,1359,1354,1354,1354,1349,1349,1343,1343,1338,1333,1328,1328,1328,1322,1322,1317,1317,1312,1312,1307,1307,1307,1302,1297,1292,1292,1292,1292,1288,1288,1283,1278,1273,1273,1273,1273,1268,1268,1264,1264,1259,1259,1255,1255,1255,1250,1250,1245,1241,1241,1236,1232,1232,1232,1227,1223,1219,1219,1219,1214,1214,1214,1210,1206,1206,1202,1202,1202,1202,1202,1197,1197,1193,1189,1189,1185,1185,1185,1181,1181,1177,1173,1173,1169,1169,1169,1165,1165,1161,1161,1161,1157,1157,1153,1153,1149,1145,1145,1141,1138,1138,1138,1134,1134,1134,1130,1130,1123,1123,1123,1119,1119,1119,1115,1115,1115,1112,1112,1108,1108,0,0,0,0,0,0,0,0,0,0,0,0,0,0,0,0,0,0,0,0,0,0,0,0,0,0,0,0,0,0,0,0
