0,0,0,0,0,0,0,1292,1288,1283,1283,1283,1278,1278,1283,1283,1283,1283,1283,1283,1283,1283,1283,1283,1283,1283,1283,1283,1283,1283,1283,1278,1278,1283,1283,1283,1283,1283,1283,1283,1283,1283,1283,1283,1283,1283,1283,1278,1278,1278,1278,1278,1278,1283,1283,1278,1278,1278,1273,1273,1268,1268,1273,1278,1278,1278,1283,1283,1283,1283,1283,1283,1283,1283,1283,1283,1283,1283,1283,1283,1283,1283,1283,1283,1283,1283,1283,1283,1283,1278,1278,1288,1288,0,0,0,0,0,943,940,940,940,938,935,933,930,928,928,928,928,928,928,930,933,933,935,935,938,940,943,946,946,948,948,951,0,0,0,1297,1297,1297,1297,1297,1297,1297,1297,1297,1297,1297,1297,1297,1297,1297,1297,1302,1302,1302,1302,1302,1302,1302,1302,1302,1302,1302,1302,1302,1302,1302,1302,1307,1307,1307,1307,1307,1044,1044,1047,1047,1044,1044,1044,1044,1044,1047,1047,1047,1050,1054,1054,1054,1054,1054,1054,1054,1054,1054,1057,1060,1063,1063,1067,1067,1067,1067,1067,1070,1073,1073,1073,1077,1080,1080,1080,1080,1080,1080,1080,1077,1077,1077,1077,1077,1073,1073,1073,1070,1067,1067,1063,1060,1060,0,0,0,0,0,0,0,0,0,679,679,676,676,676,676,675,672,671,670,668,667,667,666,666,664,664,664,664,664,666,666,667,668,671,672,674,674,676,678,679,680,680,682,682,0,0,0,0,0,0,0,0,0,1232,1232,1232,1236,1236,1236,1241,1241,1241,1236,1236,1236,1328,1328,1322,1322,1322,1322,1328,1328,1328,1328,1328,1328,1328,1328,1328,1328,1328,1328,1328,1328,1328,1328,1328,1333,1333,1333,1333,1333,1338,1338,1338,1338,1338,1338,1338,1338,1333,1333,1333,1333,1333,1333,1333,1333,1333,1333,1333,1333,1333,1338,1338,1338,1338,1338,1343,1343,1343,1343,1343,1343,1343,1343,1343,1343,1338,1338,1338,1338,1333,1333,1333,1333,1333,1333,1333,1333,1333,1338,1338,1338,1338,1338,1343,1343,1343,1343,1343,1013,1013,1010,1010,1010,1010,1010,1007,1004,1001,1001,1001,998,998,998,995,995,998,1001,1004,1010,1010,1010,1010,1010,1010,1010,0,1354,1354,1354,1349,1349,1349,1349,1349,1349,1349,1349,1349,1349,1343,1343,1343,1343,1343,1343,1343,1343,1349,1349,1349,1343,1343,1349,1349,1349,1349,1349,1349,1349,1349,1349,1349,1349,1349,1349,1349,1349,1349,1349,1349,1354,1354,1354,1354,1354,1354,1354,1354,1354,1354,1349,1349,1349,1349,1349,1349,1349,1349,1349,1349,1349,1349,1349,1349,1349,1349,1349,1349,1349,1349,1349,1354,1354,1354,1359,1354,1354,1349,1349,1349,1349,1343,1343,1349,1354,1354,1354,1354,1354,1359,1359,1359,1359,1359,1359,1359,1359,1354,1354,1349,1349,1349,1349,1349,1349,1349,1349,1349,1349,1349,1349,1349,1343,1343,1343,1338,1338,1338,1333,1333,1333,1328,1328,1322,1322,1317,1317,1317,1317,1317,1312,1312,1312,1312,1307,1307,1307,1302,1302,1297,1297,1297,1292,1292,1292,1292,1292,1292,1288,1288,1288,1288,1283,1283,1278,1278,1278,1273,1273,1273,1273,1268,1268,1264,1264,1264,1264,1259,1259,1259,1259,1259,1255,1255,1255,1250,1245,1245,1241,1241,1236,1236,1236,1236,1232,1232,1232,1232,1232,1227,1223,1219,1219,1219,1097,1094,1094,1090,1090,1087,1087,0,0,0,0,0,0,0,0,0,0,0,0,0,0,0,0,0,0,0,0,0,0,0,0,0,0,0,0,0,0,0,0,0
0,0,0,0,0,0,0,1288,1288,1283,1283,1278,1278,1278,1283,1278,1278,1278,1278,1283,1283,1283,1278,1278,1278,1278,1278,1278,1278,1278,1278,1278,1278,1278,1278,1278,1278,1278,1278,1278,1278,1278,1273,1273,1278,1278,1278,1278,1273,1273,1273,1278,1278,1278,1278,1278,1278,1273,1268,1268,1268,1268,1273,1273,1273,1273,1278,1278,1278,1278,1278,1283,1278,1278,1278,1278,1278,1278,1278,1278,1278,1283,1278,1278,1278,1278,1278,1278,1273,1273,1273,1278,1283,0,0,0,0,0,943,940,940,940,938,935,933,930,928,928,928,928,928,928,930,933,933,935,935,940,943,946,946,948,948,948,951,951,0,1292,1292,1292,1297,1292,1292,1292,1292,1292,1292,1292,1292,1292,1292,1292,1297,1297,1297,1297,1297,1297,1297,1297,1297,1297,1297,1297,1297,1297,1297,1297,1302,1302,1302,1302,1307,1307,1307,1044,1044,1044,1044,1044,1044,1044,1044,1044,1044,1047,1047,1047,1050,1050,1050,1050,1050,1054,1054,1054,1054,1057,1060,1063,1063,1067,1067,1067,1067,1067,1070,1073,1073,1077,1077,1080,1080,1080,1080,1080,1080,1080,1077,1077,1073,1073,1073,1073,1070,1070,1067,1067,1063,1063,1060,1060,0,0,0,0,0,0,0,0,0,0,679,678,676,676,676,675,674,671,671,668,667,667,666,666,664,664,664,664,664,666,666,667,668,671,672,674,674,676,678,679,680,680,682,682,683,0,0,0,0,0,0,0,0,1232,1232,1236,1236,1236,1236,1241,1241,1241,1241,1241,1241,1241,1322,1322,1322,1322,1322,1322,1322,1328,1322,1322,1322,1322,1322,1322,1322,1322,1322,1322,1322,1322,1322,1322,1322,1322,1328,1328,1328,1333,1333,1333,1333,1333,1333,1333,1333,1333,1333,1333,1328,1328,1328,1328,1328,1328,1328,1333,1333,1333,1333,1333,1333,1333,1333,1338,1333,1333,1333,1333,1333,1333,1338,1338,1338,1333,1333,1333,1333,1333,1333,1333,1333,1333,1333,1333,1333,1333,1333,1333,1333,1333,1333,1333,1328,1328,1343,1343,1013,1013,1013,1013,1010,1010,1010,1007,1004,1001,1001,1001,1001,998,998,998,998,998,1001,1004,1010,1010,1010,1013,1010,1010,0,1338,1338,1338,1338,1343,1343,1338,1338,1349,1338,1338,1349,1343,1338,1338,1338,1338,1338,1338,1338,1338,1338,1338,1338,1338,1338,1338,1343,1343,1343,1343,1349,1349,1349,1343,1343,1349,1349,1349,1349,1349,1349,1349,1349,1349,1349,1349,1349,1349,1349,1349,1349,1349,1349,1349,1349,1349,1349,1349,1343,1343,1343,1343,1349,1349,1349,1349,1349,1349,1349,1349,1349,1349,1349,1343,1343,1343,1343,1343,1354,1349,1349,1349,1349,1343,1343,1343,1343,1349,1349,1349,1354,1354,1354,1354,1354,1354,1354,1354,1349,1349,1354,1354,1349,1349,1349,1349,1349,1349,1349,1349,1349,1349,1349,1349,1343,1343,1343,1343,1343,1338,1338,1333,1333,1333,1328,1328,1328,1322,1322,1322,1317,1317,1317,1317,1312,1312,1312,1312,1307,1307,1307,1307,1307,1302,1297,1297,1292,1292,1292,1292,1292,1292,1288,1288,1288,1288,1283,1283,1283,1278,1278,1273,1273,1273,1273,1268,1268,1264,1264,1264,1264,1259,1259,1259,1255,1255,1255,1255,1255,1250,1245,1245,1241,1241,1236,1236,1236,1236,1232,1232,1232,1227,1227,1227,1223,1219,1219,1097,1094,1094,1094,1090,1090,1087,1087,0,0,0,0,0,0,0,0,0,0,0,0,0,0,0,0,0,0,0,0,0,0,0,0,0,0,0,0,0,0,0,0,0
0,0,0,0,0,0,0,1283,1283,1283,1278,1278,1278,1278,1278,1273,1273,1273,1273,1278,1278,1278,1273,1273,1273,1273,1273,1273,1268,1268,1268,1273,1273,1268,1268,1273,1273,1273,1273,1273,1268,1268,1268,1268,1264,1264,1264,1268,1268,1268,1273,1273,1273,1273,1273,1273,1273,1268,1268,1268,1268,1268,1268,1268,1268,1273,1273,1273,1278,1278,1278,1278,1278,1273,1273,1273,1273,1278,1273,1273,1273,1278,1273,1273,1273,1273,1273,1273,1273,1273,1273,1273,1278,0,0,0,0,0,943,940,940,940,938,935,933,930,930,928,928,930,930,930,933,933,935,935,938,943,943,946,948,948,948,948,951,951,0,1292,1292,1288,1288,1288,1288,1288,1288,1288,1288,1288,1288,1288,1288,1288,1292,1292,1292,1292,1292,1292,1292,1292,1292,1292,1292,1292,1292,1292,1297,1297,1297,1297,1302,1302,1034,1034,1038,1038,1041,1041,1044,1044,1044,1044,1044,1044,1044,1044,1044,1047,1050,1050,1050,1050,1050,1050,1054,1054,1057,1057,1060,1063,1063,1067,1067,1067,1067,1070,1070,1073,1073,1077,1077,1080,1084,1084,1084,1084,1080,1080,1077,1077,1073,1073,1073,1070,1070,1067,1063,1063,1060,1060,1060,1060,1060,0,0,0,0,0,0,0,0,0,679,678,678,678,676,675,674,672,671,668,668,667,666,666,664,664,664,664,664,666,666,667,668,671,672,674,675,678,679,679,680,682,682,683,683,0,0,0,0,0,0,0,0,0,1236,1236,1236,1236,1241,1241,1245,1245,1241,1241,1241,1241,1317,1317,1317,1317,1317,1322,1322,1322,1322,1322,1322,1322,1322,1322,1322,1322,1317,1317,1317,1322,1322,1322,1322,1322,1322,1322,1328,1328,1328,1328,1328,1328,1328,1328,1328,1328,1328,1328,1328,1328,1328,1328,1328,1328,1328,1328,1328,1328,1328,1328,1333,1333,1333,1333,1333,1333,1333,1333,1328,1328,1333,1333,1333,1333,1333,1333,1333,1333,1333,1333,1333,1333,1333,1333,1333,1328,1328,1328,1328,1328,1328,1322,1322,1328,1328,1016,1016,1016,1013,1013,1013,1013,1010,1007,1004,1004,1004,1001,1001,998,998,998,998,998,1001,1004,1010,1010,1013,1013,1013,1013,0,1338,1338,1338,1338,1338,1338,1338,1338,1338,1333,1333,1333,1333,1333,1333,1333,1333,1333,1333,1333,1333,1333,1333,1333,1333,1333,1333,1338,1343,1343,1343,1343,1343,1343,1343,1343,1343,1343,1343,1338,1338,1343,1343,1343,1343,1343,1349,1349,1349,1343,1338,1333,1333,1343,1343,1338,1338,1338,1338,1338,1343,1343,1343,1343,1343,1343,1343,1349,1349,1343,1343,1343,1343,1343,1338,1338,1338,1338,1338,1338,1338,1343,1343,1343,1343,1338,1338,1338,1349,1349,1349,1349,1349,1349,1349,1349,1349,1343,1343,1343,1343,1343,1343,1343,1343,1343,1343,1343,1343,1343,1343,1343,1343,1343,1343,1343,1343,1343,1338,1338,1338,1333,1333,1333,1333,1328,1328,1328,1328,1322,1322,1317,1317,1317,1317,1312,1312,1312,1312,1307,1307,1307,1307,1307,1302,1297,1297,1292,1292,1292,1292,1292,1292,1292,1288,1288,1288,1288,1283,1283,1278,1278,1273,1273,1273,1268,1268,1268,1264,1264,1264,1264,1259,1259,1259,1255,1255,1255,1255,1255,1250,1250,1250,1241,1241,1236,1236,1236,1236,1232,1232,1232,1227,1227,1227,1223,1223,1101,1097,1094,1094,1094,1090,1090,1087,1087,0,0,0,0,0,0,0,0,0,0,0,0,0,0,0,0,0,0,0,0,0,0,0,0,0,0,0,0,0,0,0,0,0
0,0,0,0,0,0,0,1283,1278,1278,1273,1273,1273,1273,1273,1273,1268,1268,1273,1273,1273,1273,1273,1273,1273,1273,1273,1268,1268,1268,1264,1264,1264,1264,1264,1268,1268,1268,1268,1268,1264,1264,1264,1264,1259,1259,1259,1268,1264,1264,1268,1268,1268,1268,1268,1268,1268,1268,1264,1264,1264,1264,1264,1268,1268,1273,1273,1273,1273,1273,1273,1273,1273,1268,1268,1268,1268,1268,1268,1268,1268,1268,1268,1268,1268,1268,1268,1268,1268,1268,1268,1268,1268,1268,0,0,0,0,946,943,943,940,940,935,933,933,930,930,930,930,930,930,933,935,935,938,938,943,946,946,948,948,948,951,954,954,0,1288,1288,1288,1288,1288,1288,1283,1283,1283,1283,1283,1283,1283,1283,1283,1288,1288,1288,1288,1288,1288,1288,1288,1288,1288,1288,1288,1288,1288,1288,1288,1297,1297,1302,1034,1034,1034,1034,1034,1038,1038,1041,1041,1041,1041,1041,1041,1041,1041,1041,1044,1047,1047,1047,1047,1047,1050,1050,1054,1054,1057,1060,1063,1063,1067,1067,1067,1067,1070,1073,1073,1073,1077,1077,1080,1084,1084,1084,1084,1084,1080,1077,1077,1073,1073,1073,1070,1067,1063,1063,1063,1060,1060,1060,1057,1057,0,0,0,0,0,0,0,0,0,679,679,679,679,678,676,674,672,671,670,668,667,667,666,664,664,664,664,664,666,667,668,668,671,672,675,676,679,679,680,682,682,683,683,683,0,0,0,0,0,0,0,0,0,1241,1241,1241,1241,1241,1245,1245,1245,1245,1245,1250,1307,1307,1307,1312,1312,1312,1317,1317,1322,1317,1317,1317,1317,1317,1317,1317,1317,1312,1312,1312,1312,1317,1317,1317,1317,1317,1317,1322,1322,1322,1322,1322,1322,1322,1322,1322,1322,1322,1322,1322,1322,1322,1322,1322,1322,1328,1328,1328,1328,1328,1328,1328,1328,1328,1328,1328,1328,1328,1328,1322,1322,1328,1328,1328,1328,1328,1328,1333,1333,1328,1328,1328,1328,1328,1328,1328,1328,1322,1322,1322,1322,1322,1317,1317,1322,1322,0,1016,1016,1016,1013,1013,1013,1010,1007,1004,1004,1004,1004,1001,1001,1001,998,998,998,1001,1004,1010,1010,1013,1013,1013,1333,0,1333,1333,1333,1333,1333,1333,1333,1333,1333,1333,1333,1328,1328,1328,1328,1328,1333,1333,1333,1333,1333,1333,1333,1333,1333,1328,1328,1338,1338,1338,1338,1343,1343,1343,1343,1338,1338,1338,1338,1338,1338,1338,1338,1338,1333,1333,1333,1333,1338,1333,1333,1333,1333,1338,1338,1333,1333,1333,1333,1338,1338,1338,1338,1338,1338,1343,1343,1343,1343,1338,1338,1333,1333,1338,1338,1333,1333,1333,1333,1333,1333,1333,1333,1333,1338,1338,1338,1338,1343,1338,1338,1338,1343,1343,1343,1343,1343,1338,1338,1338,1338,1338,1338,1338,1338,1338,1338,1338,1338,1333,1333,1343,1343,1343,1343,1343,1343,1338,1338,1338,1338,1333,1333,1333,1328,1328,1328,1328,1328,1322,1322,1322,1322,1317,1317,1317,1312,1312,1312,1312,1312,1312,1307,1307,1307,1302,1297,1292,1292,1292,1292,1292,1292,1292,1288,1288,1288,1283,1283,1283,1278,1278,1273,1273,1273,1268,1268,1268,1264,1264,1264,1264,1264,1259,1259,1255,1255,1255,1255,1255,1250,1250,1250,1245,1241,1236,1236,1236,1236,1232,1232,1232,1232,1232,1227,1227,1223,1101,1097,1094,1094,1094,1090,1090,1087,1087,0,0,0,0,0,0,0,0,0,0,0,0,0,0,0,0,0,0,0,0,0,0,0,0,0,0,0,0,0,0,0,0,0
0,0,0,0,0,0,0,1273,1273,1273,1268,1268,1268,1268,1268,1268,1268,1268,1268,1268,1268,1268,1268,1268,1268,1268,1268,1268,1264,1264,1259,1255,1255,1259,1255,1255,1255,1259,1264,1264,1264,1264,1259,1255,1250,1250,1255,1259,1259,1259,1264,1264,1264,1268,1264,1264,1264,1264,1264,1264,1259,1259,1264,1264,1264,1268,1268,1268,1268,1268,1268,1268,1268,1264,1264,1264,1264,1264,1264,1264,1264,1264,1268,1268,1268,1268,1268,1268,1264,1264,1264,1268,1264,1264,1264,0,0,0,946,943,943,943,940,940,935,935,933,930,930,933,933,933,933,935,935,938,938,943,946,946,948,948,948,954,954,0,1268,1283,1283,1283,1283,1283,1283,1283,1283,1283,1283,1283,1283,1283,1283,1283,1283,1283,1283,1283,1283,1283,1283,1283,1283,1283,1288,1288,1288,1283,1283,1288,1297,1297,1031,1031,1034,1034,1034,1034,1038,1038,1041,1041,1041,1041,1041,1041,1041,1041,1041,1044,1044,1047,1047,1047,1047,1050,1050,1054,1054,1057,1060,1063,1063,1067,1067,1067,1070,1070,1073,1073,1077,1077,1080,1084,1084,1084,1084,1084,1084,1080,1080,1077,1073,1070,1070,1067,1067,1063,1063,1060,1060,1057,1057,1054,1054,0,0,0,0,0,0,0,0,682,679,679,679,679,678,676,675,672,671,670,670,667,667,664,664,664,664,664,666,666,667,668,670,671,674,675,676,679,680,680,682,683,683,683,683,0,0,0,0,0,0,0,0,0,1236,1236,1236,1236,1241,1245,1245,1245,1250,1250,1250,1307,1307,1307,1307,1312,1312,1312,1312,1312,1317,1312,1312,1312,1312,1312,1312,1307,1307,1307,1307,1307,1307,1307,1307,1307,1312,1312,1317,1317,1317,1317,1312,1312,1312,1317,1317,1317,1317,1317,1317,1317,1317,1322,1322,1322,1322,1322,1322,1322,1322,1322,1322,1322,1322,1328,1322,1322,1322,1322,1317,1317,1328,1328,1328,1328,1328,1328,1328,1328,1328,1328,1328,1328,1328,1322,1322,1322,1317,1317,1317,1317,1317,1317,1317,1317,1317,1016,1016,1016,1016,1013,1013,1013,1010,1007,1004,1004,1004,1004,1001,1001,1001,1001,1001,1001,1001,1004,1013,1013,1016,1019,1019,0,0,1328,1328,1328,1328,1328,1328,1333,1333,1333,1333,1328,1328,1328,1328,1328,1328,1328,1328,1328,1328,1328,1328,1328,1328,1328,1328,1328,1333,1333,1333,1333,1333,1333,1338,1338,1333,1333,1333,1333,1333,1333,1333,1333,1333,1333,1333,1328,1328,1333,1333,1328,1328,1333,1333,1333,1333,1333,1333,1333,1333,1333,1333,1333,1333,1333,1333,1333,1333,1333,1333,1333,1333,1333,1333,1333,1333,1333,1333,1333,1333,1328,1328,1328,1328,1333,1333,1333,1333,1338,1338,1333,1333,1343,1343,1343,1338,1338,1338,1338,1333,1333,1338,1333,1333,1338,1338,1338,1333,1333,1333,1333,1333,1333,1333,1333,1338,1338,1338,1338,1333,1333,1333,1333,1333,1328,1328,1328,1328,1328,1328,1322,1322,1322,1317,1317,1317,1312,1312,1312,1312,1312,1312,1307,1307,1307,1302,1297,1297,1292,1292,1292,1292,1292,1288,1288,1288,1288,1283,1283,1283,1278,1278,1273,1273,1273,1268,1268,1268,1264,1264,1264,1264,1259,1255,1255,1250,1250,1255,1255,1250,1250,1250,1250,1245,1245,1241,1236,1236,1236,1236,1232,1232,1232,1232,1227,1105,1101,1101,1097,1094,1094,1094,1090,1084,1084,1087,0,0,0,0,0,0,0,0,0,0,0,0,0,0,0,0,0,0,0,0,0,0,0,0,0,0,0,0,0,0,0,0,0
0,0,0,0,0,0,0,1273,1268,1268,1268,1268,1268,1268,1268,1268,1264,1264,1264,1264,1264,1264,1264,1264,1268,1268,1268,1264,1259,1259,1255,1250,1250,1255,1255,1250,1250,1255,1255,1255,1259,1259,1250,1250,1250,1250,1255,1259,1259,1259,1259,1264,1264,1264,1264,1264,1264,1264,1264,1259,1259,1259,1264,1264,1264,1264,1264,1264,1264,1264,1264,1264,1264,1264,1264,1264,1264,1264,1264,1264,1264,1264,1264,1264,1264,1264,1264,1264,1264,1264,1264,1264,1264,1264,1264,0,0,0,946,943,943,943,943,940,935,935,933,933,933,933,933,935,935,935,938,938,940,943,946,946,946,948,948,954,954,0,1268,1268,1268,1273,1278,1278,1278,1278,1278,1278,1283,1283,1283,1283,1283,1283,1283,1278,1278,1278,1278,1278,1278,1278,1283,1283,1283,1283,1028,1025,1025,1025,1028,1028,1031,1031,1031,1031,1034,1034,1038,1038,1038,1038,1041,1041,1041,1038,1038,1038,1041,1041,1044,1044,1044,1047,1047,1050,1050,1054,1057,1057,1060,1063,1067,1067,1067,1070,1070,1073,1073,1073,1077,1077,1080,1084,1084,1084,1087,1087,1084,1084,1080,1077,1073,1070,1070,1067,1067,1063,1063,1060,1060,1057,1057,1054,1054,0,0,0,0,0,0,0,0,682,679,679,679,679,678,676,675,674,672,671,670,668,667,664,664,664,664,664,666,666,667,670,670,671,674,675,678,679,680,680,683,683,683,683,683,0,0,0,0,0,0,0,0,0,1236,1236,1236,1236,1241,1245,1245,1250,1250,1250,1255,1302,1302,1302,1307,1307,1307,1307,1307,1307,1307,1307,1307,1307,1307,1307,1307,1307,1307,1302,1302,1302,1302,1302,1302,1302,1307,1307,1312,1312,1312,1312,1312,1312,1312,1312,1307,1307,1312,1312,1312,1317,1317,1317,1317,1317,1317,1317,1317,1317,1317,1317,1322,1322,1322,1328,1322,1322,1322,1322,1317,1317,1322,1322,1322,1322,1322,1322,1322,1328,1328,1322,1322,1322,1322,1322,1317,1317,1317,1312,1312,1317,1317,1312,1312,1312,1312,1016,1016,1016,1016,1016,1013,1013,1013,1010,1007,1004,1004,1004,1001,1001,1001,1001,1001,1001,1004,1004,1007,1010,1016,1016,1016,0,1317,1317,1317,1328,1328,1328,1328,1328,1328,1328,1328,1328,1328,1322,1322,1322,1328,1328,1328,1328,1328,1322,1322,1322,1322,1322,1322,1322,1328,1333,1328,1328,1328,1328,1328,1328,1328,1333,1333,1333,1328,1328,1328,1328,1328,1328,1328,1328,1328,1328,1333,1328,1328,1333,1333,1333,1333,1328,1328,1328,1333,1333,1333,1333,1333,1333,1333,1333,1333,1328,1322,1322,1328,1328,1328,1328,1328,1328,1328,1328,1328,1328,1328,1328,1328,1328,1328,1328,1328,1333,1333,1333,1333,1333,1333,1333,1333,1333,1333,1333,1333,1333,1333,1333,1333,1333,1333,1333,1333,1333,1333,1333,1333,1333,1333,1333,1333,1333,1333,1333,1333,1333,1328,1328,1328,1328,1328,1328,1328,1328,1322,1322,1322,1322,1317,1317,1317,1312,1312,1312,1312,1312,1312,1307,1307,1307,1302,1297,1297,1297,1297,1292,1292,1292,1288,1288,1288,1288,1283,1283,1283,1278,1273,1273,1273,1273,1268,1268,1268,1264,1264,1264,1264,1259,1255,1255,1250,1250,1255,1255,1250,1250,1250,1250,1245,1245,1241,1236,1236,1236,1236,1232,1232,1232,1232,1232,1105,1101,1097,1097,1094,1094,1090,1090,1080,1080,0,0,0,0,0,0,0,0,0,0,0,0,0,0,0,0,0,0,0,0,0,0,0,0,0,0,0,0,0,0,0,0,0,0
0,0,0,0,0,0,1268,1268,1268,1264,1264,1264,1264,1264,1264,1264,1264,1264,1259,1259,1259,1259,1264,1264,1264,1264,1264,1259,1259,1255,1250,1250,1250,1250,1250,1250,1250,1250,1250,1250,1250,1250,1250,1250,1250,1250,1250,1255,1255,1255,1255,1259,1259,1264,1259,1259,1259,1259,1259,1255,1255,1259,1259,1259,1264,1264,1264,1264,1259,1259,1259,1259,1259,1259,1259,1259,1259,1259,1259,1259,1259,1259,1259,1264,1264,1264,1264,1264,1259,1259,1259,1259,1259,1264,1264,0,0,0,946,946,946,943,943,940,938,935,935,933,933,935,935,935,935,935,938,940,940,943,946,946,946,948,948,954,954,0,1268,1268,1268,1268,1273,1273,1273,1273,1268,1268,1273,1278,1278,1278,1278,1278,1278,1278,1278,1278,1278,1278,1273,1273,1278,1283,1025,1025,1025,1025,1025,1025,1028,1028,1028,1031,1031,1031,1031,1034,1034,1038,1038,1038,1038,1038,1038,1038,1038,1038,1038,1041,1044,1044,1044,1047,1050,1050,1050,1054,1057,1060,1063,1063,1067,1067,1070,1070,1070,1073,1073,1077,1077,1077,1080,1084,1084,1084,1087,1087,1084,1084,1080,1077,1073,1073,1070,1067,1067,1063,1063,1060,1060,1060,1060,1060,0,0,0,0,0,0,0,0,0,682,682,680,680,679,678,676,675,674,674,672,671,668,666,666,664,664,664,664,666,667,668,670,670,671,674,676,678,679,680,680,683,683,683,683,683,0,0,0,0,0,0,0,0,0,1241,1241,1241,1241,1245,1245,1245,1250,1250,1250,1255,1288,1297,1297,1302,1302,1302,1302,1302,1302,1302,1302,1302,1302,1302,1302,1302,1302,1302,1302,1302,1297,1297,1302,1302,1302,1302,1302,1307,1307,1307,1307,1307,1307,1307,1307,1307,1307,1307,1307,1307,1312,1312,1312,1312,1312,1317,1317,1317,1317,1317,1317,1317,1322,1317,1317,1317,1317,1317,1312,1312,1317,1317,1317,1317,1317,1317,1317,1317,1317,1322,1322,1322,1317,1317,1317,1317,1312,1312,1312,1312,1312,1312,1312,1312,1312,1312,1016,1016,1016,1016,1016,1013,1013,1013,1010,1007,1004,1004,1004,1004,1001,1001,1001,1001,1001,1004,1004,1007,1007,0,1016,0,0,1317,1317,1317,1322,1322,1322,1328,1328,1328,1328,1328,1322,1322,1322,1322,1322,1322,1322,1322,1322,1322,1322,1317,1317,1317,1317,1322,1322,1328,1328,1328,1328,1328,1328,1328,1322,1322,1322,1322,1328,1328,1328,1328,1328,1328,1328,1328,1322,1322,1328,1328,1328,1328,1328,1328,1328,1328,1328,1322,1322,1328,1328,1328,1328,1328,1328,1328,1328,1328,1328,1322,1322,1322,1322,1322,1322,1322,1322,1322,1328,1328,1328,1322,1322,1322,1322,1322,1322,1322,1322,1322,1322,1328,1328,1333,1333,1333,1333,1328,1328,1328,1328,1328,1328,1328,1328,1333,1333,1328,1328,1328,1328,1328,1328,1328,1328,1328,1328,1328,1328,1328,1328,1328,1322,1322,1322,1322,1322,1328,1328,1322,1322,1317,1317,1317,1317,1317,1312,1312,1312,1312,1312,1312,1307,1307,1307,1307,1302,1297,1297,1292,1292,1292,1288,1288,1292,1292,1288,1283,1283,1283,1278,1273,1273,1273,1273,1268,1268,1268,1264,1264,1264,1264,1259,1255,1255,1250,1250,1255,1255,1250,1250,1250,1250,1245,1245,1241,1236,1236,1236,1236,1232,1232,1232,1108,1105,1101,1101,1097,1097,1094,1094,1090,1087,1077,1077,0,0,0,0,0,0,0,0,0,0,0,0,0,0,0,0,0,0,0,0,0,0,0,0,0,0,0,0,0,0,0,0,0,0
0,0,0,0,0,0,1268,1268,1264,1264,1264,1264,1264,1259,1259,1259,1259,1259,1255,1255,1255,1255,1255,1259,1255,1255,1255,1255,1255,1250,1250,1250,1250,1250,1250,1250,1250,1250,1250,1250,1250,1250,1250,1250,1250,1250,1250,1250,1250,1250,1250,1255,1255,1259,1255,1255,1259,1259,1255,1250,1250,1255,1259,1259,1259,1259,1259,1259,1255,1255,1255,1255,1255,1255,1255,1255,1259,1259,1255,1255,1255,1255,1255,1259,1259,1259,1259,1259,1259,1255,1255,1255,1255,1255,1255,1255,0,946,946,946,946,943,943,940,938,935,935,935,935,935,935,935,935,938,938,940,943,946,946,946,946,948,948,954,954,1264,1264,1264,1264,1264,1264,1268,1268,1268,1268,1268,1268,1273,1268,1268,1273,1273,1273,1273,1273,1273,1273,1273,1010,1010,1019,1019,1022,1022,1025,1025,1025,1025,1025,1025,1025,1028,1028,1031,1031,1031,1034,1034,1034,1034,1034,1034,1038,1038,1038,1038,1038,1041,1044,1044,1044,1047,1050,1050,1054,1057,1060,1060,1060,1063,1067,1067,1070,1073,1073,1073,1077,1077,1077,1080,1080,1084,1084,1084,1087,1087,1084,1084,1080,1077,1073,1073,1070,1067,1067,1063,1063,1060,1060,1060,1060,1060,0,0,0,0,0,0,0,0,0,683,683,682,682,679,678,676,675,674,674,672,671,670,666,666,664,664,664,666,666,667,668,670,671,672,674,676,679,680,680,682,683,683,683,683,683,0,0,0,0,0,0,0,0,0,1241,1241,1241,1241,1245,1245,1245,1250,1250,1250,1283,1283,1292,1297,1297,1292,1292,1297,1297,1297,1297,1297,1297,1297,1297,1297,1297,1297,1297,1297,1292,1292,1292,1297,1297,1297,1297,1297,1302,1302,1302,1302,1302,1307,1307,1307,1307,1307,1307,1307,1302,1302,1302,1302,1307,1307,1312,1312,1312,1312,1312,1312,1312,1317,1312,1312,1312,1312,1312,1312,1312,1312,1312,1312,1312,1312,1312,1312,1312,1312,1312,1312,1312,1312,1312,1312,1312,1312,1312,1307,1307,1307,1307,1307,1307,1307,1307,1016,1016,1016,1016,1016,1013,1013,1013,1010,1007,1004,1004,1004,1004,1004,1001,1001,1001,1001,1004,1004,1007,1007,1016,1016,1016,0,1317,1317,1317,1317,1317,1317,1322,1317,1317,1317,1317,1317,1317,1317,1317,1317,1317,1317,1317,1317,1317,1317,1317,1317,1317,1317,1317,1317,1317,1317,1322,1312,1312,1312,1312,1317,1317,1322,1322,1317,1317,1322,1322,1322,1322,1317,1317,1322,1322,1322,1322,1322,1322,1322,1322,1322,1322,1322,1317,1317,1317,1317,1322,1322,1322,1328,1328,1322,1322,1317,1317,1317,1317,1317,1317,1317,1317,1317,1317,1322,1322,1322,1317,1317,1317,1317,1317,1317,1317,1317,1317,1317,1317,1317,1322,1322,1328,1328,1328,1328,1328,1328,1328,1328,1328,1328,1328,1328,1328,1328,1328,1322,1322,1322,1328,1328,1328,1328,1328,1328,1322,1322,1322,1317,1317,1317,1322,1322,1322,1322,1317,1317,1317,1317,1312,1312,1312,1312,1312,1312,1312,1312,1312,1307,1307,1307,1307,1302,1302,1297,1292,1292,1292,1288,1288,1292,1292,1288,1288,1288,1283,1278,1273,1273,1273,1273,1268,1268,1268,1268,1268,1268,1264,1259,1255,1255,1255,1255,1255,1255,1250,1250,1250,1250,1245,1245,1241,1236,1236,1236,1236,1236,1232,1232,1108,1105,1101,1101,1097,1097,1094,1094,1090,1080,1073,1073,0,0,0,0,0,0,0,0,0,0,0,0,0,0,0,0,0,0,0,0,0,0,0,0,0,0,0,0,0,0,0,0,0,0
0,0,0,0,0,0,1264,1264,1264,1259,1259,1259,1259,1255,1255,1255,1255,1255,1250,1250,1250,1250,1250,1250,1250,1250,1250,1250,1250,1250,1250,1245,1245,1245,1245,1245,1245,1245,1245,1245,1245,1250,1250,1245,1245,1250,1250,1250,1250,1245,1245,1245,1250,1250,1250,1250,1255,1255,1255,1250,1250,1255,1255,1255,1255,1255,1259,1255,1250,1250,1255,1255,1255,1255,1255,1255,1255,1255,1255,1255,1255,1255,1255,1255,1255,1255,1255,1255,1255,1255,1255,1255,1255,1255,1255,1255,0,946,946,946,946,943,943,943,940,938,935,935,935,935,935,935,935,938,938,940,943,943,946,946,946,946,948,948,1264,1264,1264,1264,1264,1259,1259,1264,1264,1264,1264,1264,1268,1268,1268,1268,1268,1268,1268,1268,1268,1268,1010,1010,1010,1010,1016,1019,1019,1022,1022,1022,1022,1025,1025,1025,1025,1025,1028,1028,1028,1028,1028,1031,1031,1031,1034,1034,1034,1034,1034,1038,1038,1041,1044,1044,1044,1047,1050,1050,1054,1057,1060,1060,1060,1063,1067,1067,1070,1073,1073,1073,1077,1077,1077,1080,1080,1080,1084,1087,1087,1087,1084,1084,1080,1077,1077,1073,1073,1070,1067,1063,1063,1063,1060,1060,1060,1060,0,0,0,0,0,0,0,0,686,684,683,683,683,680,678,676,675,674,674,672,671,670,667,666,666,666,666,666,666,668,670,670,671,672,674,678,679,680,682,682,683,683,683,682,682,0,0,0,0,0,0,0,0,0,1241,1241,1241,1241,1245,1245,1245,1250,1250,1255,1278,1278,1288,1292,1292,1292,1292,1292,1292,1292,1292,1292,1292,1292,1292,1292,1292,1292,1292,1292,1292,1292,1292,1292,1292,1292,1292,1292,1297,1297,1297,1297,1297,1302,1302,1302,1302,1302,1302,1302,1302,1297,1297,1297,1297,1297,1302,1307,1312,1307,1307,1307,1307,1307,1307,1307,1307,1307,1307,1307,1307,1307,1307,1307,1307,1307,1307,1307,1307,1307,1307,1307,1307,1307,1307,1307,1307,1307,1307,1307,1307,1307,1307,1302,1302,1307,1307,1297,1016,1016,1016,1016,1016,1016,1013,1010,1010,1007,1004,1004,1004,1004,1001,1001,1001,1004,1004,1004,1007,1010,1016,1016,1016,1307,1312,1312,1312,1317,1312,1312,1312,1312,1312,1312,1312,1312,1312,1312,1312,1312,1312,1312,1317,1312,1312,1317,1317,1317,1317,1317,1312,1312,1312,1312,1312,1312,1312,1312,1312,1312,1312,1312,1317,1317,1317,1317,1317,1317,1317,1317,1317,1317,1317,1317,1317,1317,1317,1322,1322,1322,1317,1317,1312,1312,1312,1312,1312,1317,1312,1312,1317,1317,1317,1312,1312,1312,1312,1312,1312,1312,1312,1312,1312,1317,1317,1317,1317,1317,1317,1317,1317,1317,1312,1312,1312,1312,1312,1312,1312,1312,1322,1322,1328,1328,1328,1328,1322,1322,1322,1317,1317,1317,1317,1317,1317,1317,1322,1322,1322,1322,1322,1322,1322,1322,1322,1317,1317,1317,1317,1317,1317,1317,1322,1322,1317,1317,1317,1317,1312,1312,1312,1312,1312,1312,1312,1312,1312,1307,1307,1307,1307,1302,1302,1297,1292,1292,1292,1288,1288,1292,1292,1288,1288,1288,1283,1278,1273,1273,1273,1273,1268,1268,1268,1268,1268,1268,1264,1259,1255,1255,1255,1255,1255,1255,1250,1250,1250,1250,1250,1245,1245,1241,1236,1236,1236,1236,1236,1232,1108,1105,1101,1101,1097,1097,1094,1094,1087,1077,1070,1070,0,0,0,0,0,0,0,0,0,0,0,0,0,0,0,0,0,0,0,0,0,0,0,0,0,0,0,0,0,0,0,0,0,0
0,0,0,0,0,0,1264,1264,1264,1259,1255,1255,1250,1250,1250,1250,1250,1250,1250,1250,1250,1250,1250,1250,1245,1245,1245,1245,1245,1245,1245,1245,1245,1245,1245,1245,1245,1241,1241,1241,1245,1245,1245,1245,1245,1245,1245,1245,1245,1245,1245,1245,1245,1245,1241,1241,1245,1245,1250,1245,1245,1250,1250,1250,1250,1250,1255,1250,1250,1250,1250,1250,1250,1250,1250,1250,1250,1250,1250,1250,1250,1250,1250,1250,1250,1250,1250,1250,1250,1250,1250,1250,1250,1250,1250,1250,0,946,946,946,946,946,943,943,940,938,935,935,935,935,935,935,938,938,940,940,943,943,946,946,946,946,954,954,0,1259,1259,1259,1259,1259,1259,1259,1264,1264,1264,1264,1264,1264,1268,1268,1268,1268,1268,1268,1268,1268,1010,1010,1010,1013,1016,1019,1019,1019,1019,1022,1022,1022,1022,1022,1022,1025,1025,1025,1025,1025,1028,1028,1031,1031,1034,1034,1034,1034,1034,1038,1038,1041,1044,1044,1044,1047,1050,1050,1054,1057,1060,1060,1060,1063,1067,1067,1070,1073,1073,1073,1077,1077,1077,1080,1080,1080,1084,1087,1087,1087,1084,1084,1084,1080,1077,1073,1073,1067,1067,1063,1063,1063,1060,1060,1060,0,0,0,0,0,0,0,0,0,686,686,684,683,683,680,678,676,675,675,674,672,671,670,667,666,666,666,666,666,667,668,670,671,671,672,675,678,680,682,682,682,683,683,683,682,682,0,0,0,0,0,0,0,0,1236,1236,1241,1241,1241,1245,1245,1250,1250,1255,1273,1273,1278,1288,1288,1288,1288,1288,1288,1288,1288,1288,1288,1288,1288,1288,1292,1292,1292,1288,1288,1288,1288,1288,1288,1288,1288,1288,1288,1292,1292,1292,1292,1292,1297,1297,1297,1297,1297,1297,1297,1297,1297,1297,1292,1292,1297,1297,1297,1297,1297,1307,1307,1302,1302,1302,1302,1302,1302,1302,1302,1307,1307,1307,1302,1302,1302,1302,1302,1302,1302,1302,1302,1302,1302,1302,1302,1302,1302,1302,1307,1307,1302,1302,1302,1302,1297,1297,1297,1016,1016,1016,1016,1016,1016,1013,1013,1010,1007,1004,1004,1004,1004,1004,1004,1004,1004,1004,1007,1010,1010,1016,1016,1016,1307,1307,1307,1307,1307,1307,1307,1307,1307,1307,1307,1307,1307,1307,1307,1312,1312,1312,1312,1312,1312,1312,1312,1312,1312,1312,1312,1312,1312,1312,1312,1312,1307,1307,1307,1307,1312,1312,1312,1312,1312,1312,1312,1312,1312,1312,1312,1312,1312,1312,1312,1312,1312,1312,1317,1317,1317,1312,1312,1312,1307,1307,1307,1307,1312,1312,1312,1312,1312,1312,1312,1307,1307,1312,1312,1312,1312,1312,1312,1312,1312,1312,1312,1312,1312,1312,1312,1312,1312,1312,1312,1312,1312,1312,1312,1312,1312,1312,1312,1312,1322,1322,1322,1322,1317,1317,1317,1317,1317,1317,1317,1317,1317,1317,1317,1317,1317,1322,1317,1317,1317,1317,1317,1317,1317,1317,1317,1317,1317,1317,1312,1312,1312,1312,1312,1312,1312,1312,1312,1312,1312,1312,1312,1312,1307,1307,1307,1302,1302,1302,1297,1292,1292,1292,1292,1292,1292,1292,1292,1288,1288,1283,1278,1278,1273,1273,1273,1268,1268,1268,1268,1268,1268,1268,1259,1259,1264,1255,1255,1255,1255,1255,1250,1250,1250,1250,1245,1245,1241,1236,1236,1236,1236,1236,1232,1108,1101,1101,1101,1097,1097,1094,1090,1080,1073,1067,1067,0,0,0,0,0,0,0,0,0,0,0,0,0,0,0,0,0,0,0,0,0,0,0,0,0,0,0,0,0,0,0,0,0,0
0,0,0,0,0,0,1259,1259,1259,1255,1255,1250,1250,1250,1250,1250,1250,1250,1250,1250,1250,1245,1245,1245,1245,1241,1241,1241,1241,1245,1245,1245,1245,1245,1241,1241,1241,1236,1236,1236,1241,1241,1245,1245,1245,1245,1245,1245,1241,1241,1241,1241,1241,1241,1236,1236,1241,1245,1241,1241,1241,1245,1250,1250,1250,1250,1250,1250,1245,1245,1245,1245,1245,1245,1245,1245,1245,1245,1245,1245,1245,1245,1245,1245,1245,1245,1245,1245,1250,1250,1250,1250,1250,1250,1250,1250,0,0,946,946,946,946,946,943,940,938,938,935,935,935,935,935,938,938,940,943,943,946,946,946,946,946,951,951,1245,1255,1255,1255,1255,1255,1255,1255,1259,1264,1264,1259,1259,1264,1264,1264,1264,1268,1268,1013,1010,1010,1010,1010,1010,1013,1016,1019,1019,1019,1019,1022,1022,1022,1022,1022,1022,1022,1022,1025,1025,1025,1025,1028,1031,1031,1034,1034,1034,1034,1034,1038,1038,1041,1044,1044,1044,1047,1050,1054,1057,1057,1060,1060,1060,1063,1067,1067,1067,1073,1073,1073,1073,1073,1080,1259,1259,1259,1264,1087,1087,1087,1084,1084,1080,1080,1077,1073,1070,1063,1063,1067,1063,1063,1063,1060,1060,0,0,0,0,0,0,0,0,0,687,686,684,683,683,680,679,676,676,675,674,674,672,670,667,667,666,666,666,667,667,670,671,671,672,674,676,678,679,682,682,682,683,683,680,680,0,0,0,0,0,0,0,0,0,1236,1236,1241,1241,1245,1245,1245,1250,1255,1255,1264,1273,1278,1278,1283,1283,1283,1283,1283,1283,1283,1283,1283,1283,1283,1283,1283,1283,1288,1283,1283,1288,1283,1283,1283,1283,1283,1283,1288,1292,1292,1292,1292,1292,1292,1292,1292,1292,1297,1297,1292,1292,1292,1292,1292,1292,1292,1292,1292,1297,1297,1297,1297,1297,1297,1297,1297,1297,1297,1297,1297,1302,1302,1302,1302,1302,1302,1297,1297,1297,1297,1297,1297,1297,1297,1297,1302,1297,1297,1297,1302,1302,1302,1297,1297,1297,1297,1297,1297,0,1016,1016,1016,1016,1016,1013,1013,1013,1010,1007,1004,1004,1004,1004,1004,1004,1004,1007,1007,1013,1013,1016,1016,1016,1307,1307,1307,1302,1302,1307,1302,1302,1302,1302,1307,1307,1307,1307,1307,1307,1307,1307,1307,1307,1307,1307,1307,1307,1307,1307,1307,1307,1307,1307,1307,1307,1307,1307,1307,1307,1307,1307,1307,1312,1307,1307,1307,1307,1307,1307,1307,1307,1307,1307,1307,1312,1312,1312,1312,1312,1312,1312,1307,1307,1307,1307,1307,1307,1307,1307,1307,1307,1307,1307,1307,1307,1307,1307,1307,1307,1307,1307,1307,1307,1312,1312,1312,1312,1312,1312,1312,1312,1312,1307,1307,1307,1307,1307,1307,1307,1307,1307,1312,1312,1312,1312,1317,1312,1312,1312,1312,1312,1312,1312,1312,1312,1312,1312,1312,1317,1317,1317,1317,1312,1312,1317,1312,1312,1312,1312,1312,1312,1312,1312,1312,1312,1312,1312,1307,1307,1312,1312,1312,1312,1312,1307,1307,1307,1307,1307,1302,1302,1302,1297,1297,1292,1292,1292,1292,1292,1292,1292,1292,1288,1288,1283,1278,1278,1278,1273,1273,1273,1268,1268,1268,1268,1268,1264,1259,1255,1255,1255,1255,1255,1255,1255,1250,1250,1250,1250,1245,1245,1241,1241,1236,1236,1236,1236,1232,1232,1101,1097,1097,1094,1094,1087,1084,1077,1070,1067,1067,0,0,0,0,0,0,0,0,0,0,0,0,0,0,0,0,0,0,0,0,0,0,0,0,0,0,0,0,0,0,0,0,0,0
0,0,0,0,0,0,1255,1255,1255,1250,1250,1250,1245,1245,1245,1245,1245,1245,1245,1245,1245,1241,1241,1241,1241,1241,1236,1236,1236,1241,1241,1241,1241,1241,1241,1241,1241,1236,1236,1236,1236,1236,1236,1241,1241,1241,1241,1241,1241,1241,1236,1236,1236,1236,1232,1232,1236,1241,1236,1236,1236,1241,1241,1241,1236,1236,1236,1245,1241,1241,1245,1245,1245,1245,1245,1245,1245,1241,1241,1241,1241,1241,1241,1241,1241,1241,1241,1245,1245,1245,1245,1245,1245,1245,1245,1245,1245,946,946,946,946,946,943,940,940,938,938,935,935,935,935,938,938,940,940,943,943,946,946,946,946,946,951,951,1245,1245,1245,1250,1255,1255,1255,1255,1259,1259,1264,1259,1259,1264,1264,1264,1264,1264,1010,1010,1010,1010,1010,1010,1013,1013,1013,1016,1016,1016,1016,1019,1022,1022,1022,1022,1022,1022,1022,1025,1025,1025,1025,1028,1028,1031,1034,1034,1034,1034,1034,1038,1038,1041,1044,1044,1047,1050,1050,1054,1054,1057,1060,1060,1060,1060,1063,1067,1067,1070,1073,1073,1073,1073,1255,1255,1255,1259,1259,1264,1264,1264,1264,1084,1080,1080,1077,1073,1070,1063,1063,1067,1067,1067,1067,1063,1063,0,0,0,0,0,0,0,0,0,687,687,686,684,683,680,679,676,676,675,675,674,672,670,668,667,667,667,667,667,667,670,671,671,672,674,676,678,679,682,682,682,683,684,680,680,0,0,0,0,0,0,0,0,0,1236,1236,1241,1241,1245,1245,1245,1250,1255,1255,1264,1268,1273,1273,1278,1278,1278,1283,1283,1278,1278,1278,1278,1278,1278,1273,1273,1278,1278,1283,1283,1283,1283,1283,1283,1278,1278,1283,1283,1288,1288,1288,1288,1288,1288,1288,1288,1288,1292,1292,1292,1292,1292,1288,1288,1288,1288,1288,1292,1292,1292,1292,1292,1292,1292,1292,1292,1297,1297,1297,1297,1297,1297,1297,1297,1297,1297,1297,1297,1297,1297,1297,1292,1292,1292,1297,1297,1297,1297,1297,1297,1297,1297,1297,1297,1297,1292,1292,1292,0,1016,1016,1016,1016,1016,1013,1013,1013,1010,1007,1004,1004,1004,1004,1004,1004,1004,1007,1010,1013,1013,1013,1016,1016,1307,1307,1297,1297,1297,1302,1302,1302,1302,1302,1302,1302,1302,1302,1302,1302,1302,1302,1302,1302,1302,1302,1302,1302,1302,1302,1302,1302,1302,1302,1302,1302,1302,1302,1307,1307,1307,1307,1307,1307,1307,1307,1302,1302,1307,1307,1307,1302,1302,1297,1297,1302,1302,1302,1302,1307,1307,1307,1302,1302,1302,1302,1302,1302,1302,1302,1302,1302,1307,1307,1307,1307,1307,1307,1307,1307,1307,1307,1307,1307,1307,1307,1307,1307,1307,1307,1307,1307,1307,1307,1307,1307,1307,1307,1307,1302,1302,1307,1307,1307,1307,1307,1307,1307,1307,1307,1307,1307,1307,1307,1312,1312,1312,1312,1312,1312,1312,1312,1312,1312,1312,1312,1312,1312,1312,1312,1312,1312,1312,1312,1312,1312,1312,1307,1307,1307,1307,1307,1307,1307,1307,1307,1307,1307,1307,1302,1302,1302,1302,1297,1297,1292,1292,1292,1292,1292,1292,1292,1288,1288,1288,1283,1278,1278,1278,1273,1273,1273,1273,1273,1268,1268,1264,1264,1255,1255,1255,1255,1255,1255,1255,1255,1255,1255,1250,1250,1245,1245,1241,1241,1236,1236,1232,1232,1101,1101,1097,1097,1097,1094,1090,1087,1080,1073,1070,1067,1067,0,0,0,0,0,0,0,0,0,0,0,0,0,0,0,0,0,0,0,0,0,0,0,0,0,0,0,0,0,0,0,0,0,0
0,0,0,0,0,0,1250,1250,1250,1250,1245,1245,1245,1245,1245,1245,1245,1245,1245,1245,1241,1241,1241,1241,1236,1236,1236,1232,1232,1236,1236,1236,1236,1236,1236,1236,1236,1232,1232,1232,1232,1236,1236,1236,1236,1236,1241,1241,1236,1236,1236,1236,1232,1232,1232,1232,1232,1236,1236,1236,1236,1236,1232,1232,1232,1232,1232,1232,1236,1236,1236,1241,1241,1241,1241,1241,1236,1236,1236,1236,1236,1236,1236,1236,1236,1236,1236,1241,1241,1241,1245,1245,1245,1245,1245,1245,1245,0,951,951,946,946,943,940,940,938,938,938,935,935,938,938,938,940,943,943,946,946,946,946,946,948,948,948,1241,1241,1241,1245,1255,1255,1255,1255,1255,1259,1259,1255,1255,1264,1264,1001,1001,1001,1001,1004,1004,1004,1010,1010,1010,1010,1013,1013,1016,1013,1013,1016,1019,1019,1019,1022,1022,1022,1022,1025,1025,1025,1025,1028,1028,1031,1034,1034,1034,1034,1034,1038,1038,1041,1044,1047,1047,1050,1050,1054,1054,1057,1060,1060,1060,1060,1063,1063,1067,1070,1073,1073,1255,1255,1255,1255,1255,1259,1259,1259,1264,1264,1264,1264,1264,1080,1077,1073,1073,1073,1067,1067,1067,1070,1067,1063,1063,0,0,0,0,0,0,0,0,0,687,687,686,686,682,680,679,678,676,676,675,674,672,670,668,668,667,667,667,667,668,670,671,671,672,674,676,678,680,682,682,682,683,684,682,682,0,0,0,0,0,0,0,0,0,1241,1241,1241,1241,1245,1245,1245,1250,1255,1255,1264,1264,1268,1268,1273,1273,1273,1278,1273,1273,1273,1273,1273,1273,1273,1273,1273,1273,1278,1278,1278,1278,1278,1278,1278,1278,1278,1278,1283,1288,1288,1288,1288,1288,1288,1288,1288,1288,1288,1288,1288,1288,1288,1288,1288,1288,1288,1288,1288,1288,1288,1288,1288,1288,1288,1288,1288,1288,1288,1292,1292,1292,1297,1297,1297,1297,1297,1292,1292,1292,1292,1292,1292,1292,1292,1292,1292,1292,1292,1292,1297,1292,1292,1292,1292,1292,1292,1292,1292,1001,1016,1016,1016,1016,1016,1016,1013,1013,1010,1007,1007,1004,1004,1004,1004,1004,1007,1007,1010,1013,1013,1013,1016,1016,1297,1297,1297,1297,1297,1297,1297,1297,1297,1297,1297,1297,1297,1297,1297,1297,1302,1297,1297,1297,1297,1302,1302,1302,1297,1297,1297,1297,1297,1297,1297,1297,1297,1297,1297,1302,1297,1297,1297,1297,1297,1297,1297,1297,1297,1302,1302,1302,1297,1292,1292,1292,1292,1292,1292,1297,1302,1302,1302,1302,1302,1302,1302,1302,1302,1297,1297,1297,1302,1292,1292,1292,1302,1302,1302,1302,1302,1302,1302,1302,1307,1307,1307,1307,1307,1307,1307,1302,1302,1302,1302,1302,1302,1302,1302,1302,1302,1302,1302,1302,1302,1302,1302,1302,1302,1302,1307,1307,1307,1307,1307,1307,1307,1307,1307,1307,1307,1307,1307,1307,1307,1307,1307,1307,1307,1307,1307,1307,1307,1307,1307,1307,1307,1307,1307,1307,1307,1307,1307,1302,1302,1307,1302,1302,1302,1302,1302,1297,1297,1297,1292,1292,1292,1292,1292,1292,1292,1292,1288,1288,1288,1283,1283,1278,1278,1278,1278,1273,1273,1273,1268,1268,1264,1264,1255,1255,1259,1255,1255,1255,1255,1255,1255,1255,1250,1250,1250,1250,1250,1250,1236,1236,1232,1232,1097,1097,1097,1094,1094,1090,1087,1080,1077,1070,1067,1063,1063,0,0,0,0,0,0,0,0,0,0,0,0,0,0,0,0,0,0,0,0,0,0,0,0,0,0,0,0,0,0,0,0,0,0
0,0,0,0,0,0,1250,1250,1250,1245,1245,1245,1245,1241,1241,1236,1236,1241,1241,1241,1236,1236,1236,1236,1236,1232,1232,1232,1232,1232,1232,1232,1232,1232,1232,1232,1232,1227,1227,1227,1232,1232,1232,1232,1232,1232,1232,1232,1232,1232,1232,1232,1227,1227,1227,1227,1232,1232,1232,1232,1232,1232,1232,1227,1227,1227,1227,1227,1232,1232,1232,1232,1232,1232,1236,1236,1236,1232,1232,1232,1232,1232,1232,1232,1232,1232,1236,1236,1236,1241,1241,1241,1241,1241,1241,1245,1245,0,951,951,948,946,943,940,940,938,938,938,935,935,938,938,938,940,943,943,946,946,946,946,948,948,948,0,1241,1241,1241,1245,1250,1250,1250,1250,1250,1250,1250,1250,1250,998,998,998,1001,1001,1001,1001,1001,1001,1004,1004,1004,1004,1010,1013,1013,1013,1013,1013,1016,1016,1016,1019,1022,1022,1022,1025,1025,1025,1025,1028,1031,1031,1034,1034,1034,1034,1038,1038,1038,1041,1044,1047,1047,1050,1054,1054,1057,1057,1060,1060,1060,1060,1063,1063,1255,1250,1250,1250,1250,1250,1255,1255,1255,1255,1255,1255,1259,1259,1259,1259,1259,1259,1255,1250,1250,1255,1073,1073,1073,1073,1073,1073,0,0,0,0,0,0,0,0,0,0,687,687,686,684,682,680,680,679,678,676,675,675,674,670,670,668,668,667,667,667,668,670,671,671,674,675,676,678,680,682,682,683,683,684,687,687,0,0,0,0,0,0,0,0,0,1241,1241,1241,1245,1245,1245,1245,1250,1255,1259,1259,1264,1268,1268,1268,1273,1273,1273,1273,1273,1273,1268,1268,1268,1268,1273,1273,1273,1273,1273,1273,1273,1273,1273,1273,1273,1273,1278,1278,1283,1283,1283,1283,1283,1283,1278,1278,1283,1283,1283,1288,1288,1288,1288,1288,1288,1288,1288,1288,1288,1288,1288,1288,1288,1288,1288,1288,1288,1288,1288,1283,1283,1288,1288,1288,1288,1288,1288,1288,1292,1292,1292,1288,1288,1288,1288,1288,1288,1288,1288,1292,1292,1292,1288,1288,1288,1001,1001,1001,1001,1016,1016,1016,1016,1016,1016,1013,1013,1013,1010,1007,1004,1004,1004,1004,1007,1007,1010,1013,1013,1013,1016,1016,1016,1292,1292,1292,1292,1292,1292,1292,1292,1292,1292,1292,1297,1292,1292,1297,1297,1297,1297,1297,1297,1297,1297,1297,1297,1292,1292,1292,1292,1292,1292,1292,1292,1292,1292,1292,1292,1292,1292,1292,1292,1292,1292,1292,1292,1292,1292,1297,1297,1292,1292,1292,1292,1292,1292,1292,1297,1297,1297,1297,1297,1297,1297,1297,1297,1297,1297,1297,1297,1297,1292,1292,1292,1297,1288,1288,1302,1297,1297,1297,1297,1302,1302,1302,1302,1302,1302,1302,1302,1302,1302,1302,1302,1302,1302,1302,1297,1297,1297,1297,1292,1292,1292,1292,1297,1297,1297,1297,1297,1302,1302,1302,1302,1302,1307,1302,1302,1302,1302,1302,1302,1302,1302,1302,1302,1307,1307,1307,1302,1302,1302,1302,1302,1302,1302,1302,1302,1302,1302,1302,1302,1302,1302,1302,1302,1297,1297,1297,1297,1292,1292,1292,1292,1292,1292,1292,1292,1292,1292,1288,1288,1288,1283,1278,1278,1283,1278,1278,1273,1273,1273,1268,1268,1264,1264,1259,1259,1259,1255,1255,1255,1255,1255,1255,1255,1250,1250,1250,1250,1250,1250,1236,1236,1236,1236,1094,1094,1097,1094,1094,1090,1084,1073,1073,1067,1063,1063,1063,0,0,0,0,0,0,0,0,0,0,0,0,0,0,0,0,0,0,0,0,0,0,0,0,0,0,0,0,0,0,0,0,0,0
0,0,0,0,0,0,1245,1245,1245,1245,1245,1245,1245,1241,1241,1236,1236,1236,1236,1236,1236,1232,1232,1236,1236,1232,1232,1232,1232,1232,1232,1227,1227,1227,1223,1223,1227,1227,1227,1227,1227,1227,1227,1227,1227,1227,1227,1227,1227,1227,1227,1227,1227,1227,1227,1227,1227,1227,1227,1227,1227,1227,1223,1223,1223,1223,1223,1223,1227,1227,1227,1227,1227,1227,1232,1232,1232,1232,1232,1232,1232,1232,1232,1232,1232,1232,1232,1232,1232,1232,1232,1232,1232,1232,1232,1232,1227,0,951,951,948,946,946,940,940,938,935,935,935,935,938,938,940,940,943,943,946,946,946,946,948,948,948,948,954,1232,1232,1232,1250,1250,1250,1250,1250,1245,998,998,998,998,998,998,998,1001,1001,1001,1001,1001,1001,1001,1001,1004,1004,1004,1004,1010,1013,1013,1013,1016,1016,1019,1022,1022,1022,1025,1025,1025,1025,1028,1031,1031,1034,1034,1034,1038,1038,1038,1041,1041,1044,1047,1047,1050,1050,1054,1057,1060,1060,1060,1060,1060,1063,1250,1250,1250,1250,1250,1250,1250,1250,1250,1250,1250,1255,1255,1255,1255,1259,1255,1255,1255,1255,1250,1250,1250,1250,1250,1073,1073,1073,1073,0,0,0,0,0,0,0,0,0,0,687,687,686,684,682,682,680,679,678,676,676,675,674,670,670,668,668,667,667,668,668,670,671,671,674,675,676,678,680,682,682,683,684,686,687,684,684,0,0,0,0,0,0,0,0,0,1241,1241,1245,1245,1245,1245,1250,1255,1259,1259,1259,1264,1264,1264,1268,1268,1268,1268,1268,1268,1268,1268,1268,1268,1268,1268,1268,1268,1268,1268,1268,1273,1273,1273,1268,1268,1273,1278,1278,1278,1283,1278,1278,1278,1278,1273,1273,1278,1278,1278,1278,1278,1283,1283,1283,1283,1283,1283,1283,1283,1283,1283,1283,1283,1283,1283,1283,1283,1283,1278,1278,1278,1278,1283,1283,1283,1288,1288,1288,1288,1288,1288,1288,1288,1288,1283,1283,1288,1288,1288,1288,1288,1288,1288,1288,1001,1001,1001,1004,1004,1019,1019,1016,1016,1016,1016,1013,1013,1013,1010,1004,1004,1004,1004,1007,1007,1010,1013,1016,1016,1016,1016,1016,1288,1288,1288,1292,1292,1288,1288,1292,1292,1292,1292,1292,1292,1292,1292,1292,1292,1292,1292,1292,1288,1288,1292,1292,1292,1292,1292,1292,1292,1292,1288,1288,1288,1288,1288,1288,1292,1292,1292,1292,1292,1292,1292,1292,1292,1292,1292,1292,1292,1292,1288,1288,1288,1288,1288,1292,1292,1292,1292,1292,1297,1297,1297,1292,1292,1292,1292,1292,1292,1292,1292,1292,1292,1288,1288,1297,1297,1297,1297,1297,1297,1297,1297,1297,1297,1297,1297,1297,1297,1297,1297,1297,1297,1292,1292,1292,1292,1292,1292,1292,1292,1292,1292,1292,1292,1292,1292,1292,1297,1297,1297,1297,1297,1297,1302,1297,1292,1292,1297,1297,1297,1297,1297,1297,1302,1302,1302,1302,1297,1297,1297,1292,1292,1297,1297,1297,1297,1297,1297,1297,1297,1297,1297,1297,1297,1297,1292,1292,1292,1292,1292,1292,1292,1292,1292,1292,1288,1288,1288,1288,1288,1288,1278,1278,1283,1278,1278,1278,1273,1273,1268,1268,1264,1264,1259,1259,1259,1255,1255,1255,1255,1255,1255,1250,1250,1250,1250,1250,1250,1250,1241,1236,1236,1236,1094,1094,1097,1094,1090,1087,1077,1070,1067,1067,1063,1063,1063,0,0,0,0,0,0,0,0,0,0,0,0,0,0,0,0,0,0,0,0,0,0,0,0,0,0,0,0,0,0,0,0,0,0
0,0,0,0,0,0,1241,1241,1245,1241,1241,1241,1241,1241,1236,1236,1236,1236,1232,1232,1232,1232,1232,1232,1232,1232,1232,1232,1232,1232,1227,1223,1223,1223,1219,1219,1219,1223,1223,1214,1214,1223,1223,1219,1219,1219,1219,1219,1219,1219,1219,1223,1223,1223,1223,1227,1223,1223,1223,1219,1219,1219,1219,1219,1219,1223,1219,1219,1223,1223,1223,1227,1227,1227,1227,1232,1232,1227,1227,1227,1227,1227,1227,1227,1227,1227,1227,1227,1227,1227,1227,1227,1227,1227,1227,1227,1227,951,951,951,948,946,946,940,938,938,935,935,935,935,938,938,940,940,943,943,946,946,948,948,948,951,951,954,954,1232,1232,1232,1250,1250,1250,1245,992,992,992,995,995,995,998,998,998,998,998,1001,1001,1001,1001,1001,1001,1001,1004,1004,1004,1010,1010,1013,1013,1016,1016,1019,1022,1022,1022,1025,1025,1025,1028,1028,1031,1034,1034,1034,1038,1038,1038,1038,1041,1041,1044,1047,1047,1050,1050,1054,1057,1060,1060,1060,1250,1250,1250,1250,1250,1250,1250,1250,1250,1250,1250,1250,1250,1250,1250,1250,1250,1250,1255,1250,1250,1250,1250,1250,1250,1245,1245,1250,1250,1245,0,0,0,0,0,0,0,0,0,0,0,0,687,687,686,684,682,682,680,679,679,678,676,675,674,671,670,670,668,668,668,668,670,670,671,672,674,675,678,679,680,682,682,684,686,686,687,684,684,0,0,0,0,0,0,0,0,0,1245,1245,1245,1245,1245,1250,1250,1255,1255,1259,1259,1264,1264,1264,1264,1264,1264,1268,1268,1268,1264,1264,1264,1264,1264,1264,1264,1264,1264,1264,1264,1268,1268,1268,1268,1268,1268,1273,1273,1273,1278,1278,1278,1278,1273,1273,1273,1273,1273,1273,1273,1273,1278,1278,1278,1278,1283,1283,1278,1278,1278,1278,1278,1278,1278,1278,1278,1278,1278,1273,1273,1273,1278,1278,1278,1278,1283,1283,1283,1283,1283,1283,1283,1283,1283,1283,1283,1283,1283,1283,1283,1283,1283,1283,1007,1004,1004,1004,1004,1019,1019,1019,1016,1016,1016,1016,1016,1013,1013,1010,1007,1007,1007,1007,1007,1010,1010,1013,1016,1016,1016,1019,1019,1288,1288,1288,1288,1288,1288,1288,1283,1283,1288,1288,1292,1288,1288,1288,1288,1288,1288,1283,1283,1283,1283,1288,1288,1288,1288,1288,1288,1288,1288,1288,1288,1283,1283,1288,1288,1288,1288,1288,1288,1288,1292,1288,1288,1288,1288,1288,1288,1288,1288,1288,1288,1288,1288,1288,1288,1288,1288,1288,1288,1288,1292,1292,1292,1292,1292,1292,1292,1292,1292,1292,1292,1292,1292,1292,1292,1292,1292,1292,1292,1292,1292,1292,1292,1292,1292,1292,1292,1292,1292,1292,1288,1288,1288,1288,1288,1288,1288,1288,1288,1288,1288,1288,1288,1288,1288,1288,1288,1292,1292,1288,1288,1288,1292,1292,1292,1292,1292,1292,1292,1292,1292,1292,1297,1297,1297,1297,1297,1297,1297,1297,1292,1292,1292,1292,1292,1292,1292,1292,1292,1292,1292,1292,1292,1292,1292,1292,1292,1292,1292,1292,1292,1292,1292,1288,1288,1288,1288,1283,1283,1283,1283,1278,1278,1283,1278,1278,1278,1273,1273,1268,1268,1264,1264,1259,1259,1259,1259,1255,1255,1255,1255,1255,1250,1250,1250,1250,1245,1241,1241,1236,1108,1108,1105,1101,1094,1094,1090,1087,1084,1077,1070,1067,1063,1063,1063,1063,0,0,0,0,0,0,0,0,0,0,0,0,0,0,0,0,0,0,0,0,0,0,0,0,0,0,0,0,0,0,0,0,0,0
0,0,0,0,0,0,1236,1236,1241,1236,1232,1232,1236,1236,1236,1232,1232,1236,1232,1232,1232,1232,1232,1232,1232,1232,1232,1227,1227,1227,1227,1223,1219,1219,1219,1214,1214,1219,1219,1214,1214,1219,1219,1219,1214,1214,1214,1214,1214,1214,1219,1219,1219,1219,1219,1223,1214,1214,1219,1219,1219,1219,1214,1214,1219,1219,1219,1219,1219,1219,1219,1223,1223,1223,1227,1227,1227,1227,1227,1223,1223,1223,1223,1219,1214,1214,1219,1219,1223,1223,1223,1223,1223,1227,1227,1227,1227,951,951,951,948,948,946,940,938,938,935,935,935,935,938,938,940,943,943,943,946,946,948,948,948,951,951,954,954,1250,1250,1250,1250,1245,992,989,989,992,992,992,992,992,995,995,995,998,998,998,998,998,1001,1001,1001,1001,1004,1004,1010,1010,1010,1013,1013,1013,1016,1019,1022,1022,1022,1022,1025,1025,1028,1028,1031,1034,1034,1034,1038,1038,1038,1041,1041,1041,1044,1047,1050,1050,1050,1054,1057,1060,1063,1245,1245,1245,1245,1245,1245,1245,1245,1245,1245,1245,1245,1245,1245,1245,1250,1250,1250,1250,1250,1245,1245,1245,1250,1250,1245,1245,1245,1245,1245,0,0,0,0,0,0,0,0,0,0,0,0,0,687,687,687,683,683,682,680,679,679,678,676,675,675,671,670,670,668,668,668,668,670,670,671,672,674,675,678,679,680,682,683,684,686,686,687,688,688,0,0,0,0,0,0,0,0,0,1250,1250,1250,1245,1245,1250,1250,1250,1255,1255,1259,1259,1259,1259,1259,1259,1259,1264,1264,1264,1264,1264,1264,1264,1264,1264,1264,1264,1264,1264,1264,1264,1264,1264,1264,1264,1264,1268,1273,1273,1273,1273,1273,1273,1268,1268,1268,1268,1268,1268,1273,1273,1273,1273,1273,1273,1273,1278,1273,1273,1273,1273,1273,1273,1273,1273,1273,1273,1273,1273,1273,1273,1273,1273,1273,1273,1273,1273,1273,1278,1278,1278,1283,1283,1283,1278,1278,1278,1278,1278,1278,1278,1278,1278,1007,1004,1004,1004,1004,1019,1019,1019,1019,1016,1016,1016,1016,1013,1013,1010,1007,1007,1007,1007,1007,1010,1010,1013,1016,1016,1019,1022,1268,1268,1268,1278,1278,1283,1283,1283,1283,1283,1283,1283,1283,1288,1283,1283,1283,1283,1283,1278,1278,1278,1278,1278,1288,1288,1288,1288,1283,1283,1283,1283,1283,1283,1283,1283,1283,1283,1283,1283,1288,1288,1288,1283,1283,1283,1283,1283,1283,1283,1283,1283,1283,1283,1283,1283,1283,1283,1283,1283,1283,1283,1288,1288,1288,1288,1288,1288,1288,1288,1288,1288,1288,1288,1288,1288,1288,1292,1288,1288,1288,1292,1292,1288,1288,1292,1292,1292,1292,1288,1288,1288,1278,1278,1283,1283,1283,1283,1283,1283,1283,1283,1283,1283,1283,1288,1288,1288,1288,1288,1288,1288,1283,1283,1283,1283,1283,1288,1288,1288,1288,1288,1288,1288,1288,1292,1292,1292,1292,1292,1292,1292,1292,1292,1292,1288,1288,1288,1288,1292,1292,1292,1292,1292,1292,1292,1292,1292,1292,1288,1288,1288,1288,1288,1288,1288,1288,1288,1288,1283,1283,1283,1283,1283,1283,1283,1283,1278,1278,1273,1273,1273,1268,1268,1268,1264,1259,1259,1259,1255,1255,1255,1255,1255,1250,1250,1250,1250,1245,1241,1241,1236,1108,1105,1105,1101,1094,1094,1090,1087,1084,1077,1070,1067,1063,1063,1063,1063,0,0,0,0,0,0,0,0,0,0,0,0,0,0,0,0,0,0,0,0,0,0,0,0,0,0,0,0,0,0,0,0,0,0
0,0,0,0,0,0,1232,1232,1232,1232,1227,1227,1227,1227,1232,1227,1227,1232,1232,1232,1232,1227,1227,1232,1232,1232,1232,1227,1227,1227,1223,1219,1214,1214,1214,1214,1214,1214,1219,1219,1214,1214,1214,1214,1214,1210,1210,1210,1210,1210,1214,1214,1214,1219,1219,1219,1214,1214,1214,1214,1214,1214,1214,1214,1214,1214,1214,1214,1214,1214,1219,1219,1219,1219,1227,1223,1223,1223,1219,1219,1219,1214,1214,1214,1214,1214,1214,1214,1219,1214,1214,1219,1219,1223,1223,1223,1227,951,951,951,948,948,946,940,940,938,935,935,935,935,938,938,940,943,946,946,946,948,948,948,951,954,954,956,956,975,975,987,987,987,987,987,987,989,989,989,992,992,995,995,995,995,998,998,998,998,1001,1001,1001,1001,1004,1004,1007,1010,1010,1013,1013,1013,1016,1019,1022,1022,1022,1022,1025,1025,1028,1028,1031,1034,1034,1038,1038,1038,1038,1041,1041,1041,1044,1047,1050,1050,1054,1057,1057,1060,1241,1241,1241,1245,1245,1241,1241,1241,1241,1241,1241,1241,1241,1245,1245,1245,1245,1245,1245,1245,1245,1245,1245,1245,1245,1245,1241,1241,1241,1241,1236,1236,0,0,0,0,0,0,0,0,0,0,0,0,0,687,686,683,683,682,680,680,679,679,678,676,675,674,671,670,668,668,668,670,670,671,671,674,675,676,678,679,680,682,683,684,686,686,687,688,688,0,0,0,0,0,0,0,0,0,1245,1245,1245,1245,1245,1245,1245,1250,1250,1250,1255,1255,1255,1255,1259,1259,1259,1259,1259,1259,1259,1259,1259,1264,1259,1259,1259,1259,1259,1255,1255,1255,1259,1259,1259,1259,1259,1264,1268,1268,1268,1268,1268,1268,1268,1268,1268,1268,1268,1268,1268,1268,1268,1268,1268,1268,1268,1268,1268,1268,1268,1268,1273,1268,1268,1268,1273,1268,1268,1268,1268,1268,1273,1273,1273,1273,1273,1273,1268,1268,1268,1273,1273,1273,1278,1278,1273,1273,1273,1273,1273,1273,1273,1273,1004,1004,1004,1004,1004,1025,1022,1019,1019,1019,1019,1016,1016,1016,1013,1010,1007,1007,1007,1007,1007,1010,1010,1016,1016,1016,1019,1019,1268,1268,1268,1273,1273,1273,1278,1278,1278,1278,1278,1278,1278,1278,1273,1273,1278,1278,1278,1278,1273,1273,1273,1273,1273,1273,1278,1278,1278,1283,1283,1278,1278,1278,1278,1278,1278,1273,1273,1278,1278,1278,1283,1278,1278,1278,1278,1278,1278,1278,1278,1278,1278,1278,1278,1278,1278,1278,1278,1278,1278,1278,1273,1273,1273,1273,1273,1278,1288,1288,1288,1288,1288,1283,1283,1283,1283,1288,1283,1283,1283,1288,1288,1288,1288,1288,1288,1283,1283,1283,1283,1278,1278,1278,1278,1278,1278,1278,1278,1278,1283,1283,1283,1283,1283,1283,1283,1283,1283,1283,1283,1283,1283,1283,1278,1278,1278,1278,1283,1283,1283,1283,1283,1283,1283,1288,1288,1288,1288,1288,1288,1292,1292,1288,1288,1288,1288,1283,1283,1288,1288,1288,1288,1292,1292,1292,1292,1288,1288,1288,1288,1288,1288,1288,1288,1288,1288,1288,1288,1283,1283,1283,1283,1283,1283,1283,1283,1278,1278,1273,1273,1273,1268,1268,1268,1264,1264,1259,1259,1255,1255,1255,1250,1250,1250,1250,1245,1245,1245,1241,1241,1241,1108,1105,1105,1101,1090,1090,1090,1087,1084,1077,1073,1067,1067,1063,1060,1060,0,0,0,0,0,0,0,0,0,0,0,0,0,0,0,0,0,0,0,0,0,0,0,0,0,0,0,0,0,0,0,0,0,0
0,0,0,0,0,0,1232,1232,1232,1227,1227,1223,1223,1223,1223,1227,1227,1227,1227,1227,1227,1227,1227,1227,1227,1227,1227,1227,1227,1227,1219,1214,1214,1214,1214,1210,1210,1210,1214,1214,1214,1214,1214,1214,1210,1210,1210,1210,1210,1210,1210,1210,1210,1214,1214,1214,1214,1214,1214,1214,1214,1210,1210,1210,1210,1214,1214,1214,1214,1214,1214,1210,1210,1210,1219,1219,1219,1214,1214,1214,1214,1214,1214,1214,1210,1210,1210,1210,1214,1214,1214,1214,1219,1219,1214,1214,1214,951,951,951,948,948,946,943,940,938,938,938,935,935,938,940,943,943,946,946,948,948,948,951,951,954,954,956,975,975,975,984,984,984,984,987,987,987,989,989,989,989,992,992,992,995,995,995,998,998,998,1001,1001,1001,1001,1004,1007,1010,1010,1013,1013,1016,1016,1019,1022,1022,1022,1022,1025,1028,1028,1031,1034,1034,1038,1038,1038,1041,1041,1041,1041,1044,1044,1047,1050,1050,1054,1057,1060,1232,1241,1241,1241,1241,1241,1241,1241,1236,1236,1236,1236,1236,1236,1241,1241,1241,1241,1241,1241,1241,1241,1241,1241,1241,1241,1241,1236,1236,1236,1236,1232,1227,1227,0,0,0,0,0,0,0,0,0,0,0,0,0,686,684,683,682,682,680,680,679,678,676,675,671,671,670,670,670,670,670,670,671,671,674,675,676,678,679,680,682,683,686,687,687,688,690,691,0,0,0,0,0,0,0,0,0,1245,1245,1245,1245,1245,1245,1245,1245,1250,1250,1250,1250,1250,1250,1250,1250,1250,1250,1255,1255,1255,1255,1255,1255,1255,1255,1255,1259,1259,1255,1250,1250,1255,1255,1259,1259,1259,1264,1268,1268,1268,1264,1264,1264,1264,1264,1264,1264,1264,1264,1264,1268,1268,1268,1264,1264,1268,1268,1268,1268,1268,1268,1268,1268,1268,1268,1268,1268,1268,1268,1264,1264,1268,1268,1268,1268,1268,1268,1268,1268,1264,1264,1264,1264,1273,1273,1268,1268,1268,1268,1268,1268,1268,1013,1004,1004,1004,1004,1022,1025,1025,1022,1022,1022,1019,1019,1016,1016,1013,1010,1010,1010,1010,1010,1010,1010,1013,1016,1016,1016,1019,1264,1264,1264,1268,1268,1268,1268,1273,1273,1273,1273,1273,1273,1273,1273,1273,1273,1273,1273,1273,1273,1273,1273,1268,1268,1268,1268,1273,1273,1273,1278,1278,1278,1278,1278,1273,1273,1273,1273,1273,1273,1273,1278,1278,1273,1273,1273,1273,1273,1273,1273,1273,1273,1273,1273,1273,1273,1273,1273,1273,1273,1273,1273,1273,1273,1273,1268,1268,1268,1268,1268,1273,1273,1283,1278,1278,1278,1278,1278,1278,1278,1278,1283,1283,1283,1283,1283,1283,1278,1278,1278,1273,1273,1273,1273,1273,1273,1273,1273,1273,1273,1273,1278,1278,1278,1278,1278,1278,1278,1278,1278,1278,1278,1278,1278,1278,1278,1278,1278,1278,1278,1278,1278,1278,1278,1283,1283,1283,1288,1288,1288,1288,1288,1288,1283,1283,1278,1278,1278,1283,1283,1288,1288,1288,1288,1288,1288,1288,1288,1288,1288,1288,1288,1288,1288,1288,1288,1288,1288,1288,1283,1283,1283,1283,1283,1283,1278,1278,1278,1278,1273,1273,1273,1268,1268,1268,1268,1264,1264,1259,1259,1255,1255,1250,1250,1250,1250,1245,1245,1245,1241,1241,1236,1108,1105,1105,1097,1087,1087,1087,1084,1080,1077,1073,1067,1063,1063,1060,1060,0,0,0,0,0,0,0,0,0,0,0,0,0,0,0,0,0,0,0,0,0,0,0,0,0,0,0,0,0,0,0,0,0,0
0,0,0,0,0,0,1227,1227,1227,1223,1223,1219,1219,1219,1219,1223,1223,1223,1223,1227,1227,1227,1227,1227,1227,1223,1223,1223,1223,1223,1214,1214,1214,1214,1210,1210,1210,1210,1210,1210,1210,1210,1210,1210,1210,1210,1210,1210,1210,1210,1210,1210,1210,1210,1214,1214,1214,1214,1214,1214,1210,1210,1210,1210,1210,1210,1210,1210,1210,1210,1210,1206,1206,1206,1210,1210,1214,1210,1210,1210,1210,1210,1210,1210,1210,1210,1210,1210,1210,1214,1214,1214,1214,1214,1210,1210,1210,0,951,951,948,948,946,943,943,940,938,938,935,935,938,940,943,943,946,946,948,948,951,951,954,954,956,956,973,973,978,978,981,981,984,984,984,987,987,989,989,989,989,989,992,992,995,995,995,998,998,1001,1001,1001,1001,1004,1007,1010,1010,1013,1013,1016,1016,1019,1022,1022,1022,1025,1025,1028,1031,1031,1034,1034,1038,1038,1038,1041,1041,1041,1041,1227,1227,1227,1227,1227,1227,1227,1232,1232,1236,1236,1241,1241,1236,1236,1236,1236,1236,1232,1232,1232,1232,1236,1236,1236,1236,1236,1236,1236,1236,1236,1236,1236,1236,1236,1236,1232,1232,1232,1227,1227,1227,0,0,0,0,0,0,0,0,0,0,0,0,0,684,683,683,682,682,680,680,679,679,676,675,671,671,670,670,670,670,670,670,671,672,674,676,678,679,680,680,682,684,686,687,687,688,690,691,0,0,0,0,0,0,0,0,1241,1241,1241,1241,1241,1241,1241,1241,1245,1245,1245,1245,1245,1245,1245,1245,1250,1245,1245,1250,1250,1250,1250,1250,1250,1250,1250,1250,1250,1255,1250,1250,1250,1250,1250,1250,1255,1255,1255,1264,1264,1264,1259,1259,1259,1259,1264,1264,1259,1259,1259,1259,1268,1264,1264,1264,1264,1264,1264,1264,1264,1268,1268,1268,1268,1264,1264,1264,1264,1264,1264,1264,1264,1264,1264,1264,1264,1264,1264,1264,1259,1259,1259,1259,1259,1259,1264,1264,1268,1268,1268,1268,1268,1268,1013,1013,1004,1004,1013,1022,1025,1025,1022,1022,1022,1022,1019,1019,1016,1016,1013,1010,1010,1010,1010,1010,1013,1013,1016,1016,1019,1019,1264,1264,1264,1264,1264,1259,1259,1264,1268,1268,1268,1268,1273,1273,1273,1268,1268,1268,1268,1268,1268,1268,1268,1268,1268,1268,1268,1268,1268,1268,1273,1273,1273,1273,1273,1273,1273,1273,1268,1268,1268,1268,1268,1273,1273,1273,1273,1273,1273,1273,1273,1273,1268,1268,1268,1268,1268,1268,1268,1273,1273,1268,1268,1268,1268,1268,1268,1264,1264,1264,1264,1268,1273,1273,1273,1273,1273,1273,1273,1278,1278,1278,1278,1278,1278,1278,1278,1278,1273,1273,1273,1268,1268,1268,1268,1268,1268,1268,1268,1268,1268,1273,1273,1273,1273,1273,1273,1278,1273,1273,1273,1278,1278,1278,1278,1273,1273,1273,1273,1273,1273,1273,1273,1273,1278,1278,1278,1278,1283,1283,1283,1283,1283,1283,1283,1278,1278,1278,1278,1278,1278,1283,1283,1288,1288,1288,1283,1283,1288,1283,1283,1283,1283,1283,1288,1288,1288,1288,1288,1288,1283,1283,1283,1283,1283,1283,1278,1278,1278,1273,1273,1273,1273,1268,1268,1268,1268,1268,1264,1259,1259,1255,1255,1255,1255,1250,1250,1245,1245,1245,1245,1245,1236,1236,1105,1105,1097,1087,1087,1084,1084,1080,1077,1073,1067,1063,1063,1060,1060,0,0,0,0,0,0,0,0,0,0,0,0,0,0,0,0,0,0,0,0,0,0,0,0,0,0,0,0,0,0,0,0,0,0
0,0,0,0,0,0,1227,1223,1223,1223,1219,1214,1214,1214,1214,1219,1219,1219,1219,1223,1223,1223,1227,1227,1223,1223,1219,1219,1219,1214,1214,1210,1210,1210,1210,1206,1206,1206,1206,1206,1210,1210,1210,1210,1210,1206,1206,1210,1210,1210,1210,1210,1210,1210,1210,1210,1210,1210,1210,1210,1210,1210,1206,1206,1206,1210,1210,1210,1206,1206,1210,1202,1202,1202,1197,1197,1206,1206,1206,1210,1210,1206,1206,1206,1206,1206,1206,1206,1206,1210,1210,1210,1210,1206,1202,1202,1202,1197,954,954,948,948,948,946,943,940,938,938,938,938,938,940,940,946,946,946,948,948,951,951,954,954,956,956,973,973,975,978,978,981,984,984,984,987,987,987,987,987,989,989,989,992,995,995,995,998,998,1001,1001,1001,1001,1004,1007,1010,1010,1013,1013,1016,1016,1019,1022,1022,1022,1025,1025,1028,1028,1031,1034,1038,1038,1038,1038,1219,1223,1223,1227,1227,1227,1227,1227,1227,1227,1227,1232,1232,1236,1236,1236,1236,1236,1236,1232,1232,1232,1232,1227,1227,1227,1227,1227,1227,1232,1232,1232,1232,1232,1232,1232,1232,1232,1232,1232,1232,1232,1227,1227,1227,1227,0,0,0,0,0,0,0,0,0,0,0,0,0,684,683,683,682,682,680,680,679,679,676,675,672,671,671,670,670,670,671,671,671,672,675,676,678,679,680,680,682,684,686,687,688,690,690,691,0,0,0,0,0,0,0,0,1241,1241,1241,1241,1236,1236,1236,1241,1241,1241,1241,1241,1241,1241,1241,1241,1241,1241,1241,1245,1245,1245,1245,1245,1245,1245,1245,1245,1245,1245,1245,1245,1245,1250,1250,1250,1250,1250,1250,1259,1259,1259,1259,1259,1259,1259,1259,1259,1259,1255,1255,1255,1255,1255,1255,1255,1255,1255,1255,1259,1259,1259,1259,1264,1264,1264,1259,1259,1259,1259,1259,1259,1259,1259,1259,1259,1259,1259,1259,1255,1255,1255,1255,1255,1255,1255,1255,1255,1255,1255,1255,1264,1264,1264,1013,1013,1013,1013,1013,1022,1025,1025,1025,1025,1025,1022,1022,1019,1016,1016,1013,1013,1010,1010,1010,1010,1013,1016,1016,1016,1019,1019,1259,1259,1259,1259,1259,1259,1259,1259,1264,1264,1268,1268,1264,1264,1268,1264,1264,1264,1264,1264,1264,1264,1264,1264,1268,1268,1268,1268,1268,1268,1268,1268,1268,1268,1268,1268,1268,1268,1268,1264,1264,1264,1264,1268,1268,1268,1268,1268,1268,1268,1268,1268,1268,1268,1268,1268,1268,1268,1268,1268,1268,1268,1268,1264,1264,1264,1264,1259,1259,1259,1259,1268,1268,1268,1268,1268,1273,1273,1273,1273,1273,1273,1273,1273,1273,1273,1268,1268,1268,1268,1268,1268,1264,1264,1264,1264,1264,1264,1264,1264,1264,1268,1268,1268,1268,1273,1273,1273,1273,1268,1268,1273,1273,1273,1273,1273,1273,1273,1273,1273,1268,1268,1268,1268,1268,1273,1278,1278,1278,1278,1278,1283,1283,1283,1278,1278,1273,1273,1273,1273,1273,1278,1278,1283,1283,1283,1278,1278,1283,1283,1283,1283,1283,1283,1288,1288,1288,1288,1288,1288,1283,1283,1278,1278,1278,1278,1278,1273,1273,1273,1273,1268,1268,1268,1268,1268,1268,1268,1268,1264,1259,1259,1255,1255,1255,1255,1250,1245,1245,1250,1245,1245,1241,1236,1236,1241,1084,1084,1084,1080,1080,1077,1077,1073,1067,1063,1063,1063,1063,0,0,0,0,0,0,0,0,0,0,0,0,0,0,0,0,0,0,0,0,0,0,0,0,0,0,0,0,0,0,0,0,0,0
0,0,0,0,0,0,1223,1223,1223,1223,1219,1214,1214,1214,1214,1210,1210,1210,1210,1214,1214,1214,1219,1223,1219,1219,1214,1214,1214,1214,1214,1210,1210,1210,1210,1206,1206,1206,1206,1206,1206,1206,1206,1206,1206,1206,1206,1206,1206,1206,1206,1206,1206,1206,1206,1206,1206,1206,1206,1206,1206,1206,1202,1202,1202,1202,1202,1202,1202,1202,1206,1202,1202,1202,1197,1197,1202,1202,1202,1206,1206,1206,1206,1206,1206,1206,1206,1202,1202,1202,1206,1202,1202,1202,1197,1197,1197,1197,954,954,948,948,948,946,943,943,940,938,938,938,938,940,940,946,946,946,948,948,951,954,954,956,956,959,970,973,975,975,978,978,981,981,984,984,984,987,987,987,989,989,989,989,992,992,995,995,998,1001,1001,1001,1001,1007,1007,1007,1010,1013,1013,1016,1016,1022,1022,1022,1022,1022,1025,1025,1025,1031,1214,1210,1210,1210,1219,1219,1223,1223,1227,1223,1223,1223,1227,1227,1227,1227,1227,1227,1232,1232,1232,1232,1232,1232,1232,1227,1227,1227,1227,1227,1227,1227,1227,1227,1227,1227,1227,1227,1227,1227,1227,1227,1227,1232,1232,1227,1227,1227,1227,1227,1227,0,0,0,0,0,0,0,0,0,0,0,0,0,684,684,683,682,682,682,680,679,679,676,675,674,671,671,671,671,671,671,671,672,674,675,676,678,679,680,682,683,686,686,688,688,690,691,693,0,0,0,0,0,0,0,0,1236,1236,1236,1236,1232,1232,1236,1236,1236,1236,1236,1236,1236,1236,1236,1236,1236,1236,1236,1241,1241,1241,1241,1241,1241,1245,1245,1241,1241,1241,1241,1241,1241,1241,1241,1245,1245,1245,1250,1255,1255,1255,1255,1255,1255,1255,1255,1255,1255,1255,1255,1255,1255,1250,1250,1250,1250,1250,1250,1255,1255,1255,1255,1255,1259,1259,1259,1255,1255,1255,1255,1255,1255,1255,1259,1259,1259,1259,1255,1255,1255,1250,1250,1250,1250,1250,1250,1250,1250,1250,1255,1255,1250,1250,1013,1013,1013,1013,1019,1022,1025,1025,1025,1025,1025,1022,1022,1019,1019,1016,1013,1013,1010,1010,1013,1013,1013,1016,1019,1019,1022,1025,1259,1259,1259,1259,1259,1255,1255,1259,1264,1264,1264,1264,1264,1264,1264,1255,1255,1255,1255,1255,1259,1259,1259,1264,1264,1264,1264,1264,1264,1268,1268,1264,1264,1264,1264,1264,1264,1264,1264,1264,1264,1264,1264,1264,1264,1264,1264,1264,1264,1264,1268,1268,1268,1264,1264,1264,1264,1264,1264,1264,1264,1264,1264,1264,1264,1264,1259,1259,1259,1259,1259,1259,1259,1268,1268,1268,1268,1268,1268,1268,1268,1268,1268,1264,1264,1264,1264,1264,1264,1264,1264,1264,1264,1264,1259,1259,1259,1259,1259,1259,1259,1259,1264,1268,1268,1268,1268,1268,1268,1268,1268,1268,1268,1268,1268,1268,1268,1268,1268,1268,1268,1268,1268,1268,1268,1268,1273,1273,1273,1273,1273,1278,1278,1278,1273,1273,1273,1273,1273,1273,1273,1273,1273,1273,1273,1278,1278,1278,1278,1278,1278,1278,1278,1278,1283,1283,1283,1278,1278,1278,1278,1278,1278,1278,1278,1278,1273,1273,1273,1268,1268,1268,1268,1268,1268,1268,1268,1268,1268,1264,1259,1259,1259,1255,1255,1255,1250,1250,1250,1250,1245,1245,1241,1236,1236,1094,1094,1084,1080,1080,1080,1077,1077,1073,1070,1067,1063,1063,1063,0,0,0,0,0,0,0,0,0,0,0,0,0,0,0,0,0,0,0,0,0,0,0,0,0,0,0,0,0,0,0,0,0,0
0,0,0,0,0,0,1223,1219,1219,1219,1214,1214,1214,1210,1210,1210,1210,1206,1206,1206,1202,1202,1206,1210,1214,1214,1214,1214,1214,1214,1210,1210,1210,1210,1206,1206,1206,1202,1202,1206,1206,1206,1206,1206,1206,1202,1202,1202,1202,1202,1202,1206,1206,1202,1202,1202,1202,1202,1202,1202,1202,1202,1202,1197,1197,1202,1202,1202,1202,1202,1202,1197,1197,1197,1197,1197,1197,1202,1202,1202,1202,1202,1202,1202,1202,1202,1202,1202,1202,1202,1202,1197,1197,1197,1197,1193,1193,1193,0,954,948,948,948,946,946,943,940,938,938,938,940,940,943,946,946,946,948,951,954,954,954,956,956,962,970,973,975,975,975,978,978,981,981,984,984,984,984,987,987,987,989,989,992,992,995,995,998,1001,1001,1001,1004,1007,1007,1007,1010,1013,1013,1016,1016,1022,1022,1022,1022,1022,1025,1025,1025,1214,1214,1214,1214,1214,1214,1214,1219,1219,1223,1223,1223,1223,1223,1223,1223,1227,1227,1227,1227,1227,1227,1232,1232,1232,1232,1227,1227,1227,1227,1223,1223,1223,1223,1223,1223,1227,1227,1227,1227,1227,1227,1227,1227,1227,1227,1227,1227,1223,1223,1227,1227,0,0,0,0,0,0,0,0,0,0,0,0,0,686,684,684,683,683,682,680,680,679,676,675,674,671,671,671,671,671,671,672,672,675,676,676,678,679,680,682,683,686,687,690,690,691,691,693,0,0,0,0,0,0,0,0,1232,1232,1232,1232,1232,1232,1232,1232,1232,1232,1232,1232,1232,1232,1232,1232,1232,1232,1232,1232,1236,1236,1232,1232,1236,1236,1236,1236,1236,1236,1236,1241,1241,1241,1236,1236,1236,1245,1245,1250,1250,1255,1255,1255,1255,1255,1250,1250,1250,1250,1250,1250,1250,1250,1250,1250,1245,1245,1250,1250,1250,1250,1250,1250,1255,1255,1255,1255,1255,1255,1255,1255,1255,1255,1255,1255,1255,1255,1255,1250,1250,1250,1250,1250,1245,1245,1245,1245,1250,1250,1250,1250,1250,1250,1013,1013,1013,1016,1019,1022,1025,1025,1025,1025,1025,1022,1022,1019,1019,1016,1013,1013,1013,1013,1013,1013,1013,1016,1019,1019,1022,1025,1025,1255,1255,1255,1255,1255,1255,1259,1259,1259,1259,1259,1259,1259,1255,1255,1255,1255,1250,1250,1255,1255,1255,1255,1255,1255,1255,1255,1255,1259,1259,1255,1255,1259,1259,1259,1259,1259,1259,1259,1259,1259,1259,1259,1259,1259,1259,1259,1264,1264,1264,1264,1264,1259,1259,1259,1255,1255,1255,1255,1255,1255,1255,1259,1255,1255,1255,1255,1255,1255,1255,1255,1255,1259,1268,1268,1268,1264,1264,1264,1268,1264,1264,1259,1259,1259,1259,1259,1259,1259,1259,1259,1259,1259,1255,1255,1255,1255,1255,1255,1255,1255,1259,1264,1264,1264,1268,1259,1259,1264,1264,1264,1264,1264,1264,1268,1268,1264,1264,1264,1264,1264,1264,1264,1268,1268,1268,1268,1268,1268,1273,1273,1273,1273,1273,1273,1273,1268,1268,1268,1268,1268,1268,1268,1268,1268,1273,1273,1273,1273,1273,1273,1273,1273,1273,1278,1278,1273,1273,1273,1273,1273,1273,1273,1273,1273,1273,1273,1268,1268,1268,1268,1268,1268,1268,1268,1268,1268,1268,1264,1259,1259,1259,1255,1255,1255,1250,1250,1250,1250,1245,1245,1241,1241,1241,1090,1090,1084,1080,1080,1080,1080,1077,1073,1070,1067,1063,1063,1063,0,0,0,0,0,0,0,0,0,0,0,0,0,0,0,0,0,0,0,0,0,0,0,0,0,0,0,0,0,0,0,0,0,0
0,0,0,0,0,1214,1214,1214,1214,1214,1214,1210,1210,1206,1206,1202,1202,1202,1202,1202,1197,1197,1202,1202,1202,1202,1202,1210,1210,1210,1210,1206,1206,1206,1206,1206,1202,1202,1202,1202,1202,1202,1202,1202,1202,1197,1197,1202,1197,1197,1197,1197,1202,1197,1197,1197,1197,1197,1197,1197,1197,1197,1197,1197,1197,1197,1197,1197,1197,1197,1197,1197,1197,1197,1197,1197,1197,1197,1197,1197,1197,1202,1202,1197,1197,1197,1197,1197,1197,1197,1197,1197,1197,1197,1193,1193,1193,1193,0,948,948,948,948,946,946,943,943,940,940,940,940,940,943,946,946,946,951,951,954,954,954,956,956,964,967,973,975,975,975,978,978,978,981,981,981,984,984,987,987,987,989,989,992,992,995,995,998,1001,1001,1001,1004,1007,1007,1007,1010,1010,1013,1016,1016,1022,1022,1022,1022,1022,1025,1025,1025,1210,1210,1210,1210,1210,1210,1214,1214,1214,1219,1219,1219,1219,1223,1223,1223,1219,1219,1219,1223,1223,1223,1227,1227,1227,1227,1227,1227,1227,1223,1223,1223,1223,1219,1219,1219,1223,1223,1223,1223,1223,1223,1223,1223,1227,1227,1223,1223,1223,1223,1223,1227,0,0,0,0,0,0,0,0,0,0,0,0,0,686,686,684,684,683,682,682,680,679,678,676,674,674,671,671,671,671,671,672,672,675,676,676,679,680,680,682,683,686,687,690,690,691,691,693,0,0,0,0,0,0,0,1227,1227,1232,1232,1232,1232,1232,1232,1232,1227,1227,1232,1227,1227,1227,1227,1227,1232,1232,1232,1232,1232,1236,1232,1232,1232,1232,1232,1232,1232,1232,1232,1236,1236,1236,1232,1232,1232,1236,1241,1241,1245,1250,1250,1250,1250,1250,1245,1245,1245,1245,1245,1245,1245,1245,1245,1241,1241,1245,1245,1245,1245,1245,1250,1250,1250,1250,1250,1250,1250,1250,1250,1250,1250,1250,1250,1250,1250,1250,1250,1250,1250,1250,1250,1245,1245,1245,1245,1245,1245,1245,1245,1241,1241,1245,1245,1250,1255,1019,1019,1022,1025,1025,1025,1025,1025,1022,1022,1019,1019,1016,1016,1016,1013,1013,1013,1013,1016,1019,1022,1022,1025,1025,1025,1255,1255,1255,1250,1250,1255,1255,1255,1255,1255,1259,1255,1255,1255,1255,1255,1250,1250,1250,1250,1255,1255,1255,1255,1255,1255,1255,1255,1250,1250,1255,1255,1255,1255,1255,1255,1255,1255,1255,1255,1259,1255,1255,1255,1255,1255,1255,1259,1259,1259,1259,1264,1259,1255,1255,1255,1255,1255,1255,1255,1255,1255,1255,1255,1255,1255,1255,1250,1250,1255,1255,1255,1255,1255,1255,1268,1264,1264,1264,1259,1259,1259,1255,1255,1255,1259,1255,1255,1255,1255,1259,1259,1255,1255,1255,1255,1255,1255,1255,1255,1255,1255,1255,1255,1255,1255,1255,1255,1255,1255,1259,1259,1259,1259,1264,1264,1264,1264,1264,1264,1264,1264,1264,1264,1264,1264,1264,1264,1259,1259,1259,1259,1268,1268,1268,1268,1268,1268,1268,1268,1268,1268,1264,1264,1264,1268,1268,1268,1268,1268,1268,1268,1268,1268,1273,1273,1268,1268,1268,1268,1268,1268,1268,1268,1268,1268,1268,1268,1264,1264,1264,1264,1264,1264,1264,1264,1268,1268,1264,1259,1259,1259,1255,1255,1255,1250,1250,1250,1250,1245,1245,1241,1241,1241,1090,1090,1084,1080,1080,1080,1080,1077,1073,1070,1067,1063,1063,1063,0,0,0,0,0,0,0,0,0,0,0,0,0,0,0,0,0,0,0,0,0,0,0,0,0,0,0,0,0,0,0,0,0,0
0,0,0,0,0,1210,1206,1206,1210,1210,1210,1206,1202,1202,1202,1202,1202,1202,1202,1197,1197,1197,1197,1197,1197,1197,1197,1197,1197,1197,1197,1202,1202,1206,1202,1197,1197,1197,1197,1197,1197,1197,1197,1197,1197,1197,1197,1197,1197,1197,1197,1197,1197,1193,1193,1193,1193,1193,1193,1193,1193,1193,1193,1193,1193,1193,1197,1197,1197,1197,1197,1197,1197,1193,1193,1193,1193,1193,1193,1193,1193,1197,1197,1197,1197,1197,1197,1197,1197,1197,1197,1197,1193,1193,1193,1193,1193,1193,0,951,951,951,948,948,946,946,943,943,940,940,940,940,943,946,948,948,951,954,954,954,954,956,956,964,967,973,973,975,975,975,978,978,981,981,981,984,984,987,987,987,989,989,995,995,995,998,998,1001,1001,1001,1004,1007,1004,1004,1007,1010,1013,1013,1019,1022,1022,1022,1022,1022,1022,1025,1210,1210,1210,1210,1210,1210,1210,1210,1210,1214,1214,1219,1219,1219,1219,1219,1219,1214,1214,1214,1214,1214,1214,1219,1223,1223,1223,1223,1223,1223,1219,1219,1219,1219,1219,1219,1219,1219,1219,1219,1223,1223,1219,1219,1219,1223,1223,1223,1223,1223,1223,1223,1227,0,0,0,0,0,0,0,0,0,0,0,0,0,688,686,686,684,683,682,682,680,679,678,676,674,672,672,671,671,672,672,674,674,675,676,678,679,680,680,682,683,686,687,690,691,691,691,0,0,0,0,0,0,0,0,1227,1227,1232,1232,1227,1227,1227,1227,1227,1227,1227,1227,1227,1227,1227,1227,1227,1227,1227,1227,1227,1232,1232,1232,1232,1232,1232,1232,1232,1232,1232,1232,1232,1232,1232,1232,1232,1232,1232,1236,1236,1236,1241,1241,1250,1245,1245,1245,1241,1241,1241,1241,1241,1241,1241,1241,1241,1241,1241,1241,1241,1241,1241,1245,1245,1245,1245,1245,1250,1245,1245,1245,1245,1250,1250,1245,1245,1250,1250,1250,1245,1245,1245,1245,1245,1245,1245,1245,1245,1241,1241,1241,1241,1241,1004,1004,1004,1004,1004,1004,1013,1022,1025,1022,1022,1022,1022,1022,1019,1019,1016,1016,1016,1016,1013,1013,1013,1016,1019,1022,1022,1025,1025,1025,1250,1250,1250,1250,1250,1250,1250,1250,1250,1250,1255,1250,1250,1255,1255,1250,1250,1245,1245,1250,1250,1250,1250,1250,1250,1250,1250,1250,1250,1250,1250,1250,1250,1255,1250,1250,1250,1255,1255,1255,1255,1255,1255,1255,1250,1250,1250,1255,1255,1255,1255,1255,1255,1255,1255,1250,1250,1255,1255,1255,1250,1250,1250,1250,1250,1250,1250,1250,1250,1250,1250,1250,1250,1255,1255,1255,1259,1259,1259,1255,1255,1255,1250,1250,1255,1255,1255,1255,1255,1255,1255,1255,1255,1255,1255,1250,1250,1250,1250,1250,1250,1255,1255,1255,1255,1255,1255,1255,1255,1255,1255,1255,1255,1255,1259,1259,1259,1259,1259,1259,1259,1259,1259,1259,1255,1255,1259,1259,1259,1259,1255,1255,1255,1268,1268,1268,1264,1264,1264,1264,1264,1264,1264,1259,1259,1264,1264,1264,1264,1259,1259,1264,1264,1264,1264,1264,1264,1264,1264,1268,1268,1268,1268,1268,1268,1268,1268,1264,1264,1259,1259,1259,1259,1259,1259,1259,1264,1264,1264,1264,1264,1259,1259,1255,1255,1255,1255,1250,1250,1250,1245,1245,1245,1090,1090,1090,1084,1080,1080,1080,1080,1077,1073,1070,1067,1063,1063,1063,0,0,0,0,0,0,0,0,0,0,0,0,0,0,0,0,0,0,0,0,0,0,0,0,0,0,0,0,0,0,0,0,0,0
0,0,0,0,0,1210,1202,1202,1206,1206,1206,1202,1202,1197,1197,1197,1197,1197,1197,1197,1197,1197,1197,1197,1193,1193,1193,1193,1193,1193,1193,1193,1193,1193,1193,1193,1193,1197,1197,1193,1193,1193,1197,1193,1193,1193,1193,1193,1193,1193,1193,1193,1193,1189,1189,1189,1189,1189,1189,1189,1189,1189,1189,1189,1189,1193,1193,1193,1193,1193,1193,1193,1193,1193,1193,1189,1189,1189,1193,1193,1193,1193,1193,1193,1193,1193,1193,1193,1193,1193,1193,1193,1193,1193,1193,1193,1193,1193,0,0,948,948,948,948,946,946,943,943,940,940,940,940,943,943,948,948,951,954,954,954,956,956,959,964,967,970,973,973,973,975,978,978,981,981,981,984,984,987,987,987,989,992,995,995,998,998,1001,1001,1001,1004,1004,1004,1004,1004,1004,1010,1013,1013,1019,1022,1022,1022,1022,1022,1022,1210,1210,1210,1210,1210,1206,1206,1206,1206,1206,1210,1210,1214,1214,1214,1214,1219,1214,1214,1214,1214,1214,1210,1210,1210,1210,1210,1210,1214,1214,1214,1214,1214,1214,1214,1214,1214,1214,1214,1214,1214,1214,1214,1214,1214,1214,1214,1214,1214,1214,1219,1219,1219,1227,0,0,0,0,0,0,0,0,0,0,0,0,0,688,687,686,686,684,683,682,682,680,679,676,675,672,672,671,671,672,672,674,674,675,676,678,679,680,682,682,684,687,688,691,691,691,691,693,0,0,0,0,0,0,0,1227,1227,1227,1227,1227,1227,1227,1227,1227,1227,1227,1227,1227,1227,1227,1227,1227,1227,1227,1227,1227,1227,1232,1227,1227,1227,1227,1227,1227,1227,1227,1227,1227,1227,1232,1232,1227,1227,1227,1232,1236,1236,1236,1232,1232,1236,1236,1236,1236,1236,1236,1236,1236,1236,1241,1236,1236,1236,1241,1241,1236,1236,1241,1241,1241,1241,1241,1241,1241,1241,1241,1241,1241,1245,1241,1241,1245,1245,1245,1245,1245,1245,1245,1241,1241,1241,1241,1241,1241,1241,1241,1241,1236,1007,1004,1004,1004,1004,1004,1004,1004,1004,1022,1016,1016,1019,1022,1019,1019,1016,1016,1016,1016,1016,1013,1013,1013,1016,1019,1022,1025,1025,1025,1025,1250,1250,1245,1245,1245,1250,1250,1250,1245,1245,1250,1250,1250,1250,1250,1250,1245,1245,1245,1245,1245,1241,1241,1241,1241,1250,1245,1245,1245,1250,1250,1250,1250,1250,1250,1250,1250,1250,1250,1250,1250,1250,1250,1250,1250,1250,1250,1250,1250,1250,1250,1250,1250,1250,1250,1250,1250,1250,1250,1250,1250,1250,1250,1250,1250,1250,1250,1250,1250,1250,1250,1250,1250,1250,1250,1250,1250,1255,1255,1250,1250,1250,1250,1250,1250,1250,1250,1250,1250,1250,1250,1250,1250,1250,1250,1250,1250,1250,1250,1250,1250,1250,1255,1255,1255,1250,1250,1250,1250,1255,1250,1250,1250,1250,1255,1255,1255,1255,1255,1255,1255,1255,1255,1255,1255,1255,1259,1259,1259,1259,1255,1255,1255,1255,1259,1259,1264,1264,1259,1259,1259,1259,1259,1259,1259,1259,1259,1259,1255,1255,1255,1259,1259,1259,1259,1264,1264,1264,1264,1264,1264,1264,1264,1264,1264,1264,1264,1259,1259,1259,1259,1259,1259,1259,1259,1259,1264,1264,1264,1264,1264,1264,1259,1255,1255,1255,1255,1250,1250,1250,1250,1250,1094,1094,1090,1087,1084,1080,1080,1080,1080,1077,1073,1070,1067,1063,1063,1063,0,0,0,0,0,0,0,0,0,0,0,0,0,0,0,0,0,0,0,0,0,0,0,0,0,0,0,0,0,0,0,0,0,0
0,0,0,0,0,1202,1197,1197,1197,1202,1202,1197,1197,1193,1193,1197,1197,1197,1193,1193,1193,1193,1193,1193,1193,1189,1189,1193,1193,1193,1193,1193,1189,1189,1185,1185,1185,1185,1185,1185,1189,1189,1189,1189,1189,1189,1189,1189,1189,1189,1189,1189,1189,1189,1185,1185,1185,1185,1185,1185,1185,1185,1185,1189,1189,1189,1189,1189,1193,1193,1193,1193,1193,1193,1189,1189,1189,1189,1185,1185,1189,1189,1189,1189,1189,1189,1189,1189,1193,1193,1193,1193,1193,1193,1189,1189,1189,1189,0,0,948,948,948,948,946,946,943,943,943,940,940,940,943,943,948,948,951,954,954,954,956,956,959,964,967,970,973,973,973,975,978,978,981,981,981,984,984,987,987,989,989,992,995,995,998,998,1001,1001,1001,1004,1004,1004,1004,1004,1004,1010,1013,1013,1022,1025,1025,1022,1022,1022,1202,1206,1206,1206,1206,1206,1206,1206,1206,1206,1206,1206,1206,1210,1210,1210,1210,1214,1210,1210,1210,1210,1210,1210,1210,1210,1206,1206,1206,1206,1206,1206,1210,1210,1214,1214,1214,1214,1214,1210,1210,1210,1210,1210,1210,1214,1214,1214,1214,1214,1214,1219,1219,1219,0,0,0,0,0,0,0,0,0,0,0,0,0,690,688,688,687,686,686,684,683,682,680,679,678,676,674,672,672,672,672,672,674,674,675,678,679,680,682,682,683,684,687,688,691,691,691,691,693,0,0,0,0,0,0,0,0,1227,1227,1223,1223,1223,1223,1223,1223,1223,1223,1227,1223,1223,1223,1223,1223,1223,1223,1223,1227,1227,1227,1227,1227,1227,1227,1227,1223,1223,1227,1227,1227,1227,1227,1227,1227,1223,1223,1227,1227,1227,1223,1223,1223,1227,1232,1232,1232,1232,1232,1232,1236,1236,1236,1236,1236,1236,1236,1236,1236,1236,1236,1241,1236,1236,1236,1236,1236,1236,1236,1236,1236,1241,1236,1236,1241,1245,1245,1245,1241,1241,1241,1241,1236,1236,1241,1241,1241,1241,1236,1236,1236,1007,1004,1004,1004,1004,1004,1004,1004,1004,1013,1013,1016,1016,1016,1016,1016,1016,1016,1016,1016,1016,1013,1013,1016,1019,1022,1022,1025,1025,1025,1025,1245,1245,1245,1245,1245,1250,1250,1250,1245,1245,1245,1241,1241,1241,1241,1241,1241,1241,1241,1241,1241,1236,1236,1236,1236,1236,1241,1241,1241,1241,1250,1250,1245,1245,1245,1245,1245,1245,1250,1245,1245,1245,1245,1241,1241,1241,1241,1241,1241,1245,1245,1245,1250,1245,1245,1241,1241,1245,1245,1245,1245,1245,1245,1245,1245,1245,1241,1241,1241,1241,1241,1245,1245,1245,1245,1245,1245,1250,1245,1245,1245,1245,1245,1245,1245,1245,1245,1245,1245,1250,1250,1250,1250,1250,1250,1250,1250,1250,1250,1250,1250,1250,1255,1255,1255,1250,1250,1250,1250,1250,1250,1250,1250,1250,1250,1250,1250,1250,1250,1250,1250,1250,1250,1255,1250,1250,1255,1255,1250,1250,1250,1250,1250,1250,1255,1255,1259,1259,1259,1259,1259,1259,1255,1255,1255,1255,1255,1255,1255,1250,1250,1250,1255,1255,1255,1259,1259,1259,1259,1259,1259,1259,1259,1259,1259,1259,1259,1259,1259,1259,1259,1259,1259,1259,1255,1255,1255,1264,1264,1264,1264,1264,1259,1255,1255,1255,1255,1250,1250,1245,1245,1245,1094,1094,1090,1087,1084,1080,1080,1080,1080,1077,1073,1070,1067,1060,1060,1060,0,0,0,0,0,0,0,0,0,0,0,0,0,0,0,0,0,0,0,0,0,0,0,0,0,0,0,0,0,0,0,0,0,0
0,0,0,0,0,1197,1197,1197,1197,1197,1197,1197,1193,1193,1193,1193,1193,1197,1193,1193,1193,1193,1193,1189,1189,1189,1189,1189,1189,1189,1189,1189,1185,1185,1185,1181,1181,1185,1181,1181,1185,1185,1185,1185,1185,1185,1189,1189,1189,1189,1189,1185,1185,1185,1181,1181,1181,1181,1181,1181,1181,1181,1181,1185,1185,1185,1185,1185,1185,1185,1181,1181,1181,1181,1185,1185,1185,1185,1185,1185,1185,1185,1189,1185,1185,1185,1185,1185,1185,1185,1189,1189,1189,1189,1189,1189,1189,1189,0,0,948,948,948,948,946,946,943,943,943,940,940,943,943,946,948,948,951,954,954,954,956,956,959,964,964,970,973,973,973,975,978,978,981,981,981,984,984,987,989,989,989,992,995,995,998,998,998,1001,1001,1004,1004,1004,1004,1004,1010,1197,1197,1197,1197,1197,1197,1193,1193,1197,1197,1202,1202,1202,1202,1202,1202,1202,1202,1202,1202,1202,1202,1206,1206,1206,1206,1210,1210,1206,1206,1206,1206,1206,1206,1206,1202,1202,1202,1202,1202,1202,1202,1206,1206,1210,1210,1210,1210,1210,1210,1210,1206,1206,1210,1210,1210,1210,1210,1210,1210,1214,1214,0,0,0,0,0,0,0,0,0,0,0,0,0,0,690,690,688,687,686,686,684,683,682,680,679,678,675,675,674,672,672,674,674,674,674,676,678,679,680,682,683,684,686,687,688,691,691,691,691,693,0,0,0,0,0,0,0,0,1223,1223,1223,1223,1223,1223,1223,1223,1223,1223,1223,1219,1219,1223,1219,1219,1223,1219,1219,1223,1223,1227,1223,1223,1223,1223,1223,1219,1219,1219,1223,1223,1223,1223,1223,1223,1219,1219,1223,1223,1223,1223,1223,1223,1223,1223,1227,1227,1227,1227,1227,1227,1232,1236,1232,1232,1236,1236,1236,1236,1232,1232,1236,1236,1232,1232,1232,1232,1236,1232,1232,1236,1236,1232,1232,1236,1236,1236,1236,1236,1236,1236,1236,1236,1236,1236,1236,1236,1236,1236,1236,1236,1007,1004,1004,1004,1004,1004,1001,1001,1004,1004,1007,1007,1007,1007,1016,1016,1016,1016,1016,1016,1016,1016,1016,1016,1016,1019,1025,1025,1025,1028,1034,1245,1245,1236,1236,1236,1236,1236,1236,1236,1236,1236,1236,1236,1236,1236,1236,1236,1236,1236,1236,1236,1232,1232,1232,1232,1236,1236,1236,1236,1236,1236,1236,1236,1241,1241,1241,1241,1241,1241,1241,1245,1245,1241,1236,1236,1236,1241,1236,1236,1236,1241,1241,1241,1241,1241,1241,1241,1241,1241,1241,1241,1241,1241,1241,1236,1236,1236,1236,1236,1236,1236,1241,1241,1241,1241,1241,1236,1236,1236,1236,1236,1236,1241,1241,1241,1241,1241,1241,1241,1245,1245,1245,1245,1245,1245,1245,1245,1245,1250,1250,1250,1250,1250,1250,1250,1250,1250,1250,1245,1245,1245,1245,1245,1245,1245,1245,1245,1245,1245,1245,1245,1245,1245,1250,1250,1245,1245,1245,1245,1245,1245,1245,1245,1250,1250,1250,1250,1250,1250,1255,1255,1255,1255,1255,1250,1250,1250,1250,1250,1250,1250,1250,1250,1250,1250,1255,1255,1255,1255,1255,1255,1255,1259,1255,1255,1255,1255,1255,1255,1255,1255,1255,1255,1255,1255,1255,1255,1157,1153,1153,1264,1264,1264,1255,1255,1255,1255,1250,1250,1245,1245,1094,1094,1094,1090,1087,1087,1084,1084,1080,1080,1077,1073,1070,1063,1057,1054,1054,0,0,0,0,0,0,0,0,0,0,0,0,0,0,0,0,0,0,0,0,0,0,0,0,0,0,0,0,0,0,0,0,0,0
0,0,0,0,0,1193,1193,1193,1193,1197,1197,1193,1193,1193,1193,1193,1193,1193,1193,1193,1193,1193,1189,1189,1189,1189,1189,1189,1189,1189,1185,1185,1185,1185,1181,1181,1181,1181,1181,1181,1181,1181,1181,1181,1181,1181,1181,1185,1185,1185,1185,1185,1181,1181,1181,1181,1181,1181,1181,1181,1181,1181,1181,1181,1181,1181,1181,1181,1181,1181,1181,1181,1181,1181,1185,1185,1185,1185,1181,1181,1185,1185,1181,1181,1181,1181,1181,1181,1181,1181,1185,1189,1189,1189,1185,1185,1189,1189,1185,0,948,948,948,948,948,946,946,946,943,943,943,943,946,946,948,951,951,954,954,956,956,959,959,964,964,970,973,973,973,975,978,978,981,981,984,984,987,987,989,989,989,992,995,995,995,995,998,1001,1001,1004,1004,1004,1007,1193,1193,1193,1197,1197,1197,1197,1197,1193,1193,1197,1197,1197,1197,1197,1197,1197,1197,1197,1197,1197,1197,1197,1197,1197,1202,1202,1202,1202,1202,1202,1202,1202,1202,1202,1202,1202,1197,1197,1197,1197,1197,1197,1202,1202,1202,1206,1202,1202,1206,1206,1206,1206,1202,1202,1202,1206,1206,1206,1206,1206,1206,1202,1202,0,0,0,0,0,0,0,0,0,0,0,0,0,691,690,690,690,688,687,686,684,683,682,680,679,678,675,675,674,674,674,674,674,674,675,676,678,679,680,682,683,684,686,687,688,691,691,691,693,693,0,0,0,0,0,0,0,1227,1223,1223,1223,1223,1223,1219,1219,1219,1219,1219,1214,1214,1219,1214,1214,1214,1219,1219,1219,1219,1219,1223,1223,1223,1219,1219,1219,1214,1214,1219,1219,1214,1214,1219,1219,1219,1214,1214,1219,1219,1219,1219,1219,1219,1219,1223,1223,1223,1223,1223,1223,1223,1223,1223,1232,1232,1232,1236,1236,1232,1232,1232,1232,1232,1232,1232,1232,1232,1232,1232,1232,1232,1232,1227,1227,1227,1227,1227,1232,1232,1232,1232,1232,1232,1232,1232,1232,1236,1236,1236,1236,1236,1236,1004,1004,1001,998,998,998,1001,1001,1001,1004,1004,1004,1004,1007,1013,1013,1016,1016,1016,1016,1016,1016,1016,1016,1019,1025,1025,1025,1028,1034,1236,1236,1236,1232,1232,1232,1232,1232,1232,1232,1232,1232,1232,1232,1236,1236,1232,1232,1232,1232,1232,1232,1232,1232,1232,1232,1232,1232,1232,1232,1232,1232,1232,1232,1236,1236,1236,1236,1236,1236,1236,1236,1236,1236,1236,1236,1236,1236,1236,1236,1236,1236,1236,1236,1236,1236,1236,1236,1236,1236,1236,1236,1232,1232,1232,1232,1236,1236,1236,1232,1232,1236,1236,1236,1236,1236,1236,1236,1236,1236,1236,1236,1236,1236,1236,1236,1236,1236,1236,1236,1236,1236,1236,1241,1241,1241,1236,1236,1245,1245,1245,1245,1245,1245,1245,1245,1245,1245,1245,1241,1241,1241,1241,1241,1241,1241,1241,1241,1241,1241,1241,1241,1241,1241,1241,1241,1245,1241,1241,1245,1245,1245,1241,1241,1241,1241,1241,1241,1241,1241,1241,1250,1250,1250,1250,1250,1250,1250,1250,1250,1250,1250,1250,1250,1250,1250,1250,1250,1250,1250,1250,1250,1250,1250,1250,1250,1255,1255,1255,1255,1255,1255,1255,1255,1255,1157,1157,1157,1153,1153,1153,1153,1264,1264,1259,1255,1255,1250,1250,1245,1245,1094,1094,1090,1090,1087,1084,1084,1084,1080,1080,1073,1070,1063,1057,1054,1054,1054,0,0,0,0,0,0,0,0,0,0,0,0,0,0,0,0,0,0,0,0,0,0,0,0,0,0,0,0,0,0,0,0,0,0
0,0,0,0,0,1193,1193,1193,1193,1193,1193,1193,1189,1189,1193,1193,1193,1189,1189,1189,1189,1189,1189,1185,1185,1185,1185,1185,1185,1185,1185,1181,1181,1181,1181,1177,1177,1177,1177,1177,1177,1177,1177,1177,1177,1177,1177,1177,1177,1177,1177,1181,1181,1181,1177,1177,1177,1177,1177,1177,1177,1177,1177,1177,1177,1181,1177,1177,1177,1177,1181,1177,1177,1177,1181,1181,1181,1181,1181,1181,1181,1181,1181,1181,1177,1177,1181,1181,1177,1177,1181,1185,1185,1185,1185,1185,1185,1185,1185,0,948,948,948,948,948,946,946,943,943,943,943,946,946,946,948,951,954,954,956,956,956,959,959,962,964,970,973,973,973,975,978,978,981,981,984,984,987,987,989,989,989,992,992,995,995,995,998,1001,1004,1007,1007,1185,1189,1189,1193,1193,1193,1193,1193,1193,1193,1193,1193,1193,1193,1197,1197,1197,1197,1197,1197,1197,1197,1197,1193,1193,1197,1197,1197,1197,1197,1197,1197,1202,1202,1202,1197,1197,1197,1197,1197,1197,1197,1197,1197,1197,1197,1197,1197,1202,1197,1197,1202,1197,1197,1197,1197,1197,1202,1202,1202,1202,1202,1202,1202,1197,1197,0,0,0,0,0,0,0,0,0,0,0,0,0,691,691,691,690,688,687,686,684,683,682,682,680,679,676,675,674,674,674,674,675,675,675,676,679,680,682,683,683,684,686,687,688,691,691,691,693,0,0,0,0,0,978,978,978,978,1223,1223,1219,1219,1219,1219,1214,1214,1214,1214,1214,1214,1214,1214,1214,1214,1214,1214,1214,1214,1219,1219,1219,1219,1219,1214,1214,1214,1214,1214,1214,1214,1214,1214,1214,1214,1214,1214,1219,1219,1219,1219,1219,1219,1219,1219,1219,1219,1219,1219,1219,1219,1219,1219,1219,1223,1223,1227,1227,1227,1227,1227,1219,1219,1219,1219,1219,1223,1227,1227,1227,1227,1227,1223,1219,1219,1219,1219,1223,1223,1227,1227,1227,1227,1227,1227,1227,1227,1232,1236,1236,1236,995,995,995,995,995,995,998,998,998,998,1001,1001,1001,1001,1004,1007,1010,1013,1013,1016,1016,1016,1016,1016,1019,1019,1025,1025,1025,1025,1025,1236,1236,1232,1232,1232,1232,1232,1232,1232,1232,1232,1232,1232,1232,1232,1232,1232,1232,1232,1232,1232,1227,1227,1227,1227,1227,1227,1227,1227,1232,1232,1232,1232,1232,1236,1232,1232,1232,1227,1227,1227,1232,1232,1232,1236,1236,1236,1232,1232,1236,1232,1232,1232,1236,1236,1232,1232,1232,1232,1232,1232,1232,1232,1232,1232,1232,1232,1232,1232,1232,1232,1232,1232,1232,1232,1236,1236,1232,1232,1232,1232,1232,1236,1236,1236,1232,1232,1232,1232,1236,1236,1232,1232,1236,1236,1236,1236,1236,1236,1236,1241,1236,1236,1236,1236,1236,1241,1241,1241,1236,1236,1241,1241,1241,1236,1236,1236,1236,1236,1236,1236,1236,1236,1236,1241,1236,1236,1236,1236,1241,1241,1241,1236,1236,1236,1236,1236,1236,1236,1236,1236,1241,1241,1241,1245,1245,1250,1245,1245,1245,1245,1245,1245,1245,1245,1245,1245,1245,1250,1250,1250,1245,1245,1245,1245,1245,1245,1245,1245,1250,1255,1255,1255,1255,1255,1157,1157,1153,1153,1153,1153,1153,1149,0,0,1259,1259,1250,1250,1250,1097,1097,1094,1090,1090,1087,1084,1084,1084,1080,1080,1073,1067,1057,1054,1054,1054,1054,0,0,0,0,0,0,0,0,0,0,0,0,0,0,0,0,0,0,0,0,0,0,0,0,0,0,0,0,0,0,0,0,0,0
0,0,0,0,0,1193,1193,1189,1189,1193,1193,1189,1189,1189,1189,1189,1189,1189,1189,1189,1185,1185,1185,1185,1185,1181,1181,1181,1185,1181,1181,1177,1177,1177,1177,1177,1177,1177,1177,1177,1177,1177,1177,1177,1173,1173,1173,1177,1177,1173,1173,1173,1177,1177,1177,1177,1177,1177,1177,1173,1173,1173,1173,1177,1177,1177,1177,1177,1177,1177,1177,1177,1177,1177,1177,1177,1177,1177,1177,1177,1177,1177,1177,1177,1177,1177,1177,1173,1173,1173,1177,1177,1181,1181,1181,1181,1181,1181,1181,946,948,948,948,948,948,948,946,943,943,943,943,946,946,946,948,951,954,954,956,956,959,959,959,962,967,970,973,973,975,975,978,981,981,981,984,987,987,987,989,989,989,992,992,995,995,995,995,1001,1185,1185,1185,1185,1189,1189,1193,1193,1193,1193,1193,1193,1193,1189,1189,1193,1193,1193,1193,1193,1193,1193,1193,1193,1193,1193,1193,1193,1189,1189,1189,1193,1193,1197,1197,1197,1197,1197,1193,1193,1193,1193,1193,1193,1193,1193,1193,1193,1197,1197,1197,1197,1197,1197,1197,1197,1197,1197,1197,1197,1197,1197,1197,1197,1197,1197,1197,1197,1197,1197,0,0,0,0,0,0,0,0,0,0,0,0,691,691,691,690,688,687,686,684,683,682,682,680,679,676,675,674,674,674,674,675,675,675,676,679,680,682,683,684,686,686,688,690,691,691,693,693,0,0,0,0,0,978,978,978,978,975,975,1219,1219,1219,1214,1214,1210,1210,1210,1210,1210,1214,1210,1210,1214,1214,1214,1214,1214,1214,1214,1210,1210,1210,1210,1210,1210,1210,1210,1210,1210,1210,1210,1210,1210,1210,1210,1214,1214,1214,1214,1214,1214,1219,1214,1214,1214,1214,1214,1214,1214,1214,1219,1219,1219,1219,1219,1219,1219,1223,1223,1219,1219,1219,1219,1219,1219,1223,1223,1219,1219,1219,1219,1219,1219,1219,1219,1219,1219,1223,1223,1223,1223,1223,1223,1223,1227,1227,1236,1236,992,992,992,992,992,992,995,995,995,995,995,998,998,1001,1001,1001,1004,1007,1010,1013,1013,1016,1016,1016,1016,1019,1022,1025,1025,1025,1025,1025,1232,1232,1232,1227,1227,1227,1227,1227,1227,1232,1232,1232,1227,1227,1232,1232,1232,1232,1227,1227,1227,1227,1227,1227,1227,1227,1227,1227,1227,1227,1227,1232,1232,1232,1232,1232,1227,1227,1227,1223,1223,1227,1227,1227,1232,1232,1232,1232,1232,1232,1232,1232,1232,1232,1232,1232,1232,1232,1232,1232,1227,1227,1223,1223,1223,1223,1227,1227,1227,1232,1232,1232,1232,1232,1232,1232,1232,1232,1232,1232,1232,1232,1232,1232,1232,1232,1232,1232,1232,1232,1232,1232,1232,1232,1232,1232,1232,1232,1232,1232,1232,1232,1232,1232,1232,1232,1232,1232,1232,1236,1236,1236,1236,1236,1236,1232,1232,1232,1232,1232,1232,1232,1232,1232,1236,1236,1232,1232,1236,1236,1236,1236,1232,1232,1232,1232,1232,1232,1236,1236,1236,1236,1236,1236,1236,1236,1245,1245,1245,1241,1241,1245,1245,1245,1245,1245,1245,1245,1245,1245,1245,1241,1241,1241,1241,1241,1236,1236,1241,1241,1245,1245,1245,1245,1153,1153,1153,1149,1149,1149,1149,1149,1149,1149,0,0,1105,1105,0,1097,1097,1097,1094,1094,1090,1087,1087,1084,1084,1080,1073,1070,1063,1054,1054,1054,1054,1054,0,0,0,0,0,0,0,0,0,0,0,0,0,0,0,0,0,0,0,0,0,0,0,0,0,0,0,0,0,0,0,0,0,0
0,0,0,0,0,1193,1193,1189,1189,1193,1193,1189,1189,1185,1185,1185,1185,1181,1181,1181,1181,1181,1181,1181,1181,1181,1181,1181,1181,1181,1177,1177,1177,1177,1177,1173,1173,1173,1173,1177,1177,1173,1173,1173,1173,1173,1173,1173,1173,1173,1173,1173,1173,1173,1173,1173,1173,1173,1173,1173,1173,1169,1169,1173,1173,1177,1177,1177,1173,1173,1177,1173,1173,1173,1173,1177,1177,1177,1177,1177,1177,1177,1177,1177,1173,1173,1173,1169,1169,1169,1169,1169,1173,1177,1173,1173,1177,1177,1177,946,946,946,948,948,948,948,946,946,946,946,946,946,946,948,951,951,954,956,956,956,959,959,962,962,967,970,970,973,975,978,978,981,981,984,987,987,987,987,989,989,989,992,992,992,992,995,995,1185,1185,1185,1185,1185,1189,1189,1189,1189,1189,1189,1189,1189,1185,1185,1185,1189,1189,1189,1189,1189,1189,1193,1193,1193,1189,1189,1189,1189,1185,1185,1185,1189,1189,1193,1193,1193,1193,1197,1193,1193,1189,1189,1193,1189,1189,1193,1193,1193,1193,1193,1193,1193,1193,1193,1193,1193,1193,1197,1193,1193,1193,1193,1193,1193,1193,1193,1193,1193,1193,1197,0,0,0,0,0,0,0,0,0,0,0,0,693,693,691,691,688,687,686,686,683,682,682,680,679,676,676,675,674,674,674,675,675,675,678,679,680,682,683,684,686,687,688,690,691,691,693,693,0,0,0,0,0,981,978,978,978,975,975,975,973,973,1214,1214,1210,1206,1206,1206,1206,1210,1210,1210,1210,1210,1210,1210,1210,1210,1210,1210,1206,1206,1210,1206,1206,1206,1206,1206,1206,1206,1206,1206,1206,1206,1206,1210,1210,1210,1210,1210,1214,1214,1214,1214,1214,1214,1214,1210,1210,1214,1214,1214,1214,1214,1214,1214,1214,1214,1214,1214,1214,1214,1219,1219,1219,1219,1219,1219,1219,1219,1219,1214,1214,1214,1214,1214,1214,1219,1219,1219,1219,1219,1219,1223,1223,1227,1236,992,992,992,992,992,992,992,992,992,992,992,995,995,998,998,998,998,1001,1004,1007,1013,1013,1016,1016,1016,1016,1019,1022,1025,1025,1025,1025,1025,1227,1227,1223,1223,1223,1223,1223,1223,1223,1227,1227,1227,1227,1227,1227,1227,1227,1227,1223,1223,1223,1223,1223,1223,1223,1227,1223,1223,1227,1227,1223,1223,1227,1227,1232,1223,1223,1223,1223,1219,1219,1223,1223,1223,1227,1227,1227,1227,1227,1227,1227,1227,1227,1227,1227,1227,1227,1227,1227,1227,1227,1223,1223,1223,1223,1223,1223,1223,1223,1223,1223,1227,1227,1227,1227,1227,1232,1232,1232,1232,1232,1232,1232,1232,1232,1232,1227,1227,1227,1227,1227,1227,1227,1227,1227,1227,1223,1223,1227,1227,1232,1232,1232,1232,1232,1232,1232,1227,1227,1232,1232,1232,1232,1232,1236,1232,1232,1232,1232,1232,1232,1232,1232,1232,1232,1232,1232,1232,1232,1232,1232,1232,1232,1232,1232,1232,1232,1232,1232,1232,1232,1232,1232,1232,1232,1232,1232,1232,1241,1241,1241,1241,1241,1236,1236,1236,1236,1236,1241,1241,1245,1241,1241,1236,1236,1236,1236,1236,1236,1236,1236,1236,1236,0,0,1153,1153,1149,1149,1149,1145,1145,1145,1145,0,0,0,0,0,1105,1097,1097,1094,1094,1094,1087,1087,1084,1084,1084,1073,1070,1063,1054,1054,1054,1054,1054,0,0,0,0,0,0,0,0,0,0,0,0,0,0,0,0,0,0,0,0,0,0,0,0,0,0,0,0,0,0,0,0,0,0
