0,0,0,0,0,0,0,1210,1210,1210,1210,1210,1210,1210,1210,1210,1206,1206,1206,1210,1210,1206,1206,1206,1206,1206,1202,1202,1202,1202,1202,1202,1202,1202,1202,1202,1202,1202,1206,1202,1202,1202,1202,1202,1202,1202,1202,1202,1202,1197,1197,1197,1197,1197,1197,1197,1197,1197,1202,1197,1197,1197,1197,1197,1197,1197,1197,1197,1197,1197,1197,1197,1197,1197,1197,1197,1202,1202,1202,1206,1206,1202,1202,1197,1197,1197,1197,1197,1197,1197,1197,1197,1197,1197,1197,1197,1197,1197,1197,1197,1197,1197,1197,1197,1193,1193,1193,1193,1101,1101,1101,1101,1101,1101,1105,1105,1105,1105,1108,1108,1108,1108,1108,1108,1108,1112,1112,0,0,0,0,0,0,0,0,0,733,731,731,731,731,731,733,733,734,734,734,734,736,738,739,739,741,741,741,742,742,744,744,746,746,746,0,0,0,0,0,0,1177,1177,1189,1189,1189,1189,1185,1185,1185,1185,1189,1185,1185,1189,1185,1185,1185,1185,1185,1185,1185,1185,1185,1185,1185,1185,1181,1181,1181,1181,1181,1181,1181,1181,1181,1181,1181,1181,1181,1181,1181,1181,1181,1181,1181,1181,1181,1181,1181,1181,1181,1181,1181,1181,1181,1181,1181,1181,1181,1181,1181,1181,1181,1181,1181,1181,1177,1177,1177,1177,1177,1173,1173,1173,1173,989,989,984,981,978,964,959,959,959,956,954,954,951,951,948,948,948,946,946,946,946,946,946,946,1181,1181,1181,1181,1177,1177,1173,1173,1173,1169,1169,1169,1169,1169,1169,1169,1169,1173,1169,1169,1169,1169,1169,1173,1173,1173,1173,1177,1177,1177,1177,1177,943,943,943,943,943,943,940,940,943,943,943,943,943,943,946,946,946,946,946,948,948,948,948,948,948,951,951,954,956,956,959,962,964,967,967,967,967,970,970,970,973,975,975,978,978,978,981,981,981,981,984,984,984,989,1001,1007,1007,1004,1004,1004,1004,1004,1004,1004,1004,1004,1007,1010,1013,1013,1013,1013,1013,1013,1157,1157,1157,1153,1153,1157,1157,1157,1157,1157,1157,1157,1157,1157,1157,1157,1157,1157,1157,1157,1157,1157,1157,1157,1157,1157,1153,1153,1153,1153,1153,1153,1153,1153,1157,1157,1153,1153,1153,1153,1153,1153,1153,1153,1153,1153,1153,1153,1153,1153,1153,1153,1153,1153,1153,1153,1153,1153,1153,1149,1149,1149,1149,1149,1149,1149,1149,1149,1149,1149,1145,1145,1149,1149,1149,1149,1149,1149,1149,1149,1149,1149,1145,1145,1145,1141,1141,1149,1145,1145,1149,1145,1145,1145,1145,1145,1145,1141,1141,1141,1141,1141,1141,1141,1141,1141,1141,1141,1141,1141,1141,1138,1138,1138,1138,1138,1138,1138,1138,1138,1138,1138,1138,1138,1134,1134,1134,1134,1134,1134,1134,1134,1138,1134,1134,1134,1130,1130,1130,1130,1130,1130,1134,1134,1130,1130,1130,1130,1130,1130,1130,1134,1134,1130,1130,1130,1130,1134,1134,1134,1130,1130,1130,1130,1130,1130,1130,1130,1130,1134,1134,1134,1134,1134,1134,1134,1130,1126,1126,1126,1126,1126,1130,1130,1130,1130,1130,1126,1123,1123,1123,1123,1126,1130,1126,1126,1126,1130,1126,1126,1126,1126,1126,1126,1126,1126,1126,1126,1126,1126,1126,1126,1126,1126,1123,1123,1123,1119,1119,1119,1119,1119,1119,1119,1119,1119,1119,1115,1115,1112,1108,1108,1108,1108,0,0,0,0,0,0,0,0,0,0,0,0,0,0,0,0,0,0,0,0,0,0,0,0,0,0,0,0,0,0,0,0,0
0,0,0,0,0,0,0,1206,1206,1206,1206,1206,1206,1206,1206,1206,1206,1206,1206,1206,1206,1202,1202,1202,1202,1202,1202,1202,1202,1197,1197,1197,1197,1197,1197,1197,1197,1197,1197,1197,1197,1197,1197,1197,1197,1197,1197,1197,1197,1197,1197,1193,1193,1193,1193,1193,1197,1197,1197,1197,1197,1197,1197,1197,1197,1197,1197,1197,1197,1193,1193,1193,1193,1193,1193,1193,1197,1197,1197,1197,1197,1197,1197,1197,1193,1193,1193,1193,1193,1193,1193,1193,1193,1193,1193,1197,1197,1197,1197,1193,1193,1193,1193,1193,1189,1189,1189,1193,1193,1101,1101,1101,1101,1101,1105,1105,1105,1105,1105,1108,1108,1108,1108,1108,1108,1112,1112,0,0,0,0,0,0,0,0,0,0,733,733,733,733,733,733,733,734,734,734,736,738,739,739,739,741,741,741,742,742,744,746,746,746,746,0,0,0,0,0,0,1177,1177,1181,1185,1185,1185,1185,1185,1185,1185,1185,1181,1181,1181,1181,1181,1181,1181,1181,1181,1181,1181,1181,1181,1181,1181,1181,1181,1181,1181,1181,1181,1177,1177,1177,1177,1177,1177,1177,1177,1177,1177,1177,1177,1177,1181,1181,1177,1177,1181,1177,1177,1177,1177,1177,1177,1177,1177,1177,1177,1177,1177,1181,1181,1177,1177,1177,1177,1177,1177,1173,1173,1173,1169,1165,1165,989,984,981,975,964,959,959,959,956,954,951,951,946,946,946,946,946,946,946,943,943,943,943,943,1181,1181,1177,1177,1173,1173,1169,1169,1165,1165,1165,1165,1165,1165,1165,1165,1165,1165,1165,1169,1169,1169,1169,933,933,933,933,935,935,935,938,938,940,940,940,940,940,940,940,940,940,940,940,940,940,943,943,946,946,946,946,948,948,948,948,951,951,954,954,956,959,959,964,964,967,967,967,967,970,970,970,973,975,975,978,978,978,978,981,978,978,978,978,978,1013,1013,1010,1007,1007,1004,1004,1004,1004,1004,1004,1004,1007,1007,1010,1013,1013,1013,1013,1013,1016,1153,1153,1153,1149,1149,1149,1153,1153,1153,1153,1153,1153,1153,1153,1153,1153,1153,1153,1153,1153,1153,1153,1153,1153,1153,1153,1153,1153,1149,1149,1149,1149,1149,1153,1153,1153,1153,1149,1149,1149,1153,1153,1149,1149,1149,1149,1149,1149,1149,1149,1149,1149,1149,1149,1149,1149,1149,1149,1149,1149,1149,1145,1145,1145,1145,1141,1141,1141,1141,1141,1141,1141,1141,1145,1145,1145,1145,1145,1145,1145,1145,1141,1141,1141,1141,1141,1141,1141,1141,1141,1145,1145,1145,1141,1141,1141,1141,1141,1141,1141,1138,1138,1138,1138,1138,1138,1138,1138,1138,1138,1138,1138,1138,1138,1134,1134,1134,1134,1134,1134,1134,1134,1134,1130,1130,1134,1134,1134,1134,1130,1130,1134,1138,1134,1134,1134,1130,1130,1126,1126,1126,1126,1126,1126,1126,1126,1130,1130,1130,1130,1130,1130,1130,1130,1130,1130,1130,1134,1134,1130,1130,1130,1130,1130,1126,1126,1126,1126,1126,1130,1130,1130,1134,1134,1134,1130,1126,1123,1123,1123,1123,1123,1123,1123,1123,1126,1126,1126,1123,1123,1123,1123,1126,1126,1123,1123,1123,1126,1126,1126,1126,1126,1126,1123,1123,1123,1123,1123,1123,1123,1123,1123,1123,1123,1119,1119,1119,1119,1119,1119,1119,1119,1119,1119,1119,1119,1119,1115,1112,1112,1108,1108,1105,1105,0,0,0,0,0,0,0,0,0,0,0,0,0,0,0,0,0,0,0,0,0,0,0,0,0,0,0,0,0,0,0,0,0
0,0,0,0,0,0,0,1197,1197,1202,1202,1202,1202,1202,1202,1202,1197,1197,1197,1202,1202,1202,1197,1197,1202,1197,1197,1197,1197,1197,1197,1197,1197,1197,1197,1193,1193,1193,1197,1197,1193,1193,1193,1193,1193,1193,1193,1193,1193,1193,1189,1189,1189,1189,1189,1193,1193,1193,1193,1193,1193,1193,1193,1193,1193,1193,1193,1193,1193,1193,1193,1193,1189,1189,1193,1193,1193,1197,1193,1193,1193,1193,1189,1189,1185,1185,1189,1189,1189,1189,1193,1193,1193,1193,1193,1193,1193,1189,1189,1189,1189,1189,1189,1189,1185,1185,1185,1185,1185,1101,1101,1101,1101,1101,1105,1105,1105,1105,1105,1108,1108,1108,1108,1108,1108,1112,1112,1115,0,0,0,0,0,0,0,0,0,0,734,733,733,733,734,734,734,736,736,738,739,739,739,741,741,742,742,742,742,744,746,746,746,0,0,0,0,0,0,0,1165,1165,1177,1181,1181,1185,1181,1181,1181,1181,1181,1177,1177,1177,1181,1181,1181,1181,1181,1181,1177,1177,1177,1177,1177,1177,1177,1177,1181,1177,1177,1177,1173,1173,1173,1169,1169,1173,1173,1173,1173,1177,1177,1177,1177,1177,1177,1173,1173,1177,1177,1177,1177,1173,1173,1173,1173,1173,1173,1177,1173,1173,1177,1177,1177,1177,1177,1177,1173,1173,1169,1169,1169,1165,1165,1165,1165,981,981,975,964,962,962,959,954,954,951,948,946,946,946,943,943,943,943,943,943,943,943,943,943,1177,1177,1173,1173,1169,1169,1165,1161,1161,1161,1161,1161,1165,1165,1165,1165,1165,1165,1165,1165,1165,933,933,933,933,933,933,933,935,935,935,938,938,938,938,938,938,938,938,938,938,940,940,940,943,943,943,943,946,946,948,948,948,948,951,951,954,954,956,959,962,964,964,967,967,967,967,970,970,973,973,975,975,978,978,978,978,981,978,978,978,978,978,1025,1019,1016,1013,1010,1007,1004,1004,1004,1004,1004,1007,1007,1007,1010,1013,1013,1013,1013,1013,1149,1149,1149,1149,1149,1145,1145,1149,1149,1149,1149,1149,1149,1149,1149,1149,1149,1149,1149,1149,1149,1149,1149,1149,1149,1149,1149,1149,1149,1149,1149,1149,1149,1149,1145,1145,1145,1145,1149,1149,1149,1149,1149,1149,1149,1149,1149,1149,1145,1145,1145,1149,1149,1149,1149,1149,1149,1145,1145,1145,1145,1145,1141,1141,1141,1138,1138,1138,1138,1138,1138,1138,1138,1141,1141,1141,1141,1141,1141,1141,1141,1141,1138,1138,1138,1138,1138,1138,1138,1138,1138,1138,1138,1138,1138,1138,1138,1138,1138,1138,1138,1138,1138,1138,1138,1138,1134,1134,1138,1138,1138,1138,1134,1134,1134,1134,1134,1134,1134,1134,1134,1134,1130,1130,1126,1126,1130,1130,1130,1130,1126,1126,1130,1134,1134,1134,1134,1123,1123,1123,1123,1126,1123,1123,1123,1123,1123,1126,1126,1126,1126,1126,1126,1126,1126,1126,1126,1126,1126,1130,1130,1126,1126,1126,1126,1126,1123,1123,1123,1123,1123,1123,1123,1123,1123,1123,1123,1123,1119,1119,1123,1119,1119,1123,1119,1119,1123,1123,1123,1123,1123,1123,1123,1123,1123,1123,1123,1123,1119,1119,1123,1123,1123,1123,1123,1123,1123,1123,1119,1119,1119,1119,1119,1119,1119,1119,1115,1115,1115,1115,1115,1115,1115,1115,1115,1115,1119,1115,1115,1112,1108,1108,1108,1105,1105,0,0,0,0,0,0,0,0,0,0,0,0,0,0,0,0,0,0,0,0,0,0,0,0,0,0,0,0,0,0,0,0,0
0,0,0,0,0,0,0,1197,1197,1197,1193,1193,1193,1197,1197,1197,1197,1197,1197,1197,1197,1197,1197,1197,1197,1197,1197,1197,1197,1197,1193,1193,1193,1193,1193,1193,1189,1189,1193,1193,1193,1193,1193,1193,1193,1189,1189,1189,1185,1185,1189,1189,1189,1189,1189,1189,1193,1189,1189,1193,1189,1189,1189,1189,1189,1193,1193,1193,1193,1189,1189,1189,1185,1185,1185,1185,1189,1189,1189,1189,1189,1189,1185,1185,1185,1181,1181,1181,1181,1181,1185,1185,1189,1189,1189,1189,1185,1185,1185,1185,1185,1185,1185,1185,1181,1181,1181,1181,1181,1181,1101,1101,1101,1101,1105,1105,1105,1105,1105,1108,1108,1108,1108,1108,1112,1112,1112,1115,0,0,0,0,0,0,0,0,0,0,734,734,733,733,734,734,736,738,738,738,739,739,739,741,741,742,742,742,742,744,746,746,746,747,0,0,0,0,0,0,1165,1165,1177,1177,1177,1181,1181,1177,1177,1177,1177,1173,1173,1173,1177,1177,1177,1177,1177,1177,1177,1173,1173,1177,1173,1173,1177,1177,1177,1173,1169,1169,1169,1169,1169,1169,1169,1169,1169,1169,1169,1173,1173,1173,1173,1173,1169,1169,1169,1173,1173,1173,1173,1173,1169,1169,1173,1169,1169,1165,1165,1169,1173,1173,1173,1173,1173,1173,1173,1169,1165,1165,1165,1165,1165,1165,1165,1165,1165,964,964,962,962,959,954,954,951,948,946,943,943,943,943,943,943,943,943,943,943,940,940,940,1173,1173,1169,1165,1165,1161,1161,1161,1161,1161,1161,1161,1161,1161,1165,1165,1165,928,928,928,930,933,933,933,933,933,933,935,935,935,935,935,935,935,935,935,935,935,935,935,938,938,940,940,943,943,943,946,946,948,948,948,948,951,951,954,956,956,959,962,964,964,967,967,967,967,970,970,970,973,975,975,978,978,978,978,978,975,975,975,975,1028,1025,1022,1019,1016,1013,1010,1007,1007,1004,1004,1004,1007,1007,1007,1013,1013,1013,1013,1013,1016,1145,1145,1145,1145,1145,1145,1145,1145,1145,1145,1145,1145,1145,1145,1145,1145,1149,1149,1149,1149,1149,1149,1149,1145,1145,1145,1145,1145,1145,1145,1145,1145,1145,1145,1145,1141,1141,1145,1141,1141,1141,1141,1145,1145,1145,1145,1145,1145,1145,1145,1145,1145,1145,1145,1145,1145,1145,1145,1145,1145,1141,1141,1138,1138,1138,1138,1138,1138,1138,1134,1134,1138,1138,1138,1138,1138,1138,1138,1138,1138,1138,1138,1138,1138,1138,1138,1134,1134,1134,1134,1134,1134,1134,1134,1134,1134,1134,1134,1138,1138,1138,1138,1134,1134,1134,1134,1134,1134,1134,1134,1134,1134,1134,1134,1134,1134,1130,1130,1130,1130,1130,1130,1126,1123,1123,1123,1123,1123,1123,1123,1123,1123,1126,1126,1123,1123,1123,1119,1119,1123,1123,1123,1123,1123,1119,1119,1119,1119,1119,1119,1123,1123,1123,1126,1123,1123,1123,1123,1123,1123,1123,1123,1123,1123,1123,1119,1119,1119,1119,1123,1123,1123,1123,1123,1119,1119,1119,1119,1119,1119,1119,1119,1119,1119,1119,1119,1119,1119,1119,1119,1123,1119,1119,1119,1119,1119,1119,1119,1115,1115,1115,1115,1119,1119,1119,1119,1119,1119,1119,1115,1115,1119,1115,1115,1115,1115,1115,1115,1115,1115,1115,1115,1115,1115,1115,1115,1115,1112,1112,1108,1108,1108,1108,1108,1108,0,0,0,0,0,0,0,0,0,0,0,0,0,0,0,0,0,0,0,0,0,0,0,0,0,0,0,0,0,0,0,0,0
0,0,0,0,0,0,0,1193,1193,1193,1189,1189,1189,1189,1189,1189,1189,1193,1193,1193,1193,1193,1193,1193,1193,1193,1193,1193,1193,1193,1189,1189,1189,1189,1189,1189,1189,1189,1189,1189,1189,1189,1189,1189,1189,1185,1185,1185,1185,1185,1185,1185,1185,1185,1185,1189,1189,1185,1185,1189,1189,1189,1189,1185,1185,1189,1189,1189,1189,1189,1189,1189,1185,1185,1185,1181,1181,1185,1185,1185,1185,1185,1185,1181,1181,1181,1181,1181,1181,1181,1181,1181,1181,1181,1185,1185,1185,1185,1185,1181,1181,1181,1181,1181,1181,1181,1181,1177,1177,1177,1105,1105,1105,1105,1105,1105,1105,1105,1105,1108,1108,1112,1112,1112,1112,1112,1112,1115,0,0,0,0,0,0,0,0,0,0,736,734,734,734,734,736,738,738,739,739,741,741,741,741,741,742,742,744,744,746,746,747,747,747,0,0,0,0,0,0,1165,1165,1165,1173,1173,1177,1177,1173,1173,1173,1173,1169,1169,1169,1173,1173,1173,1173,1173,1173,1169,1169,1173,1173,1173,1173,1173,1173,1173,1169,1169,1169,1169,1165,1165,1165,1165,1165,1169,1169,1169,1169,1169,1169,1169,1169,1169,1165,1165,1169,1169,1169,1169,1169,1169,1169,1169,1165,1165,1165,1165,1165,1165,1165,1165,1165,1169,1169,1165,1165,1165,1165,1165,1161,1161,1161,1161,1161,1161,964,964,962,959,956,956,954,951,946,943,943,943,940,940,940,940,940,940,940,938,938,935,935,935,1169,1169,1161,1157,1157,1157,1157,1157,1157,1157,1161,1161,1161,1165,1161,923,923,925,925,925,928,928,928,930,933,933,933,933,933,933,930,930,933,933,933,933,933,933,935,938,938,938,940,940,943,943,946,946,948,948,948,951,951,954,954,956,959,959,962,964,964,964,967,967,967,967,970,970,973,975,978,978,978,975,975,978,975,975,975,975,1028,1025,1022,1022,1016,1016,1013,1007,1007,1007,1007,1007,1010,1010,1010,1013,1013,1013,1016,1016,1019,1141,1141,1141,1141,1141,1141,1141,1141,1141,1141,1141,1141,1141,1141,1141,1141,1145,1145,1145,1145,1145,1145,1145,1145,1141,1141,1141,1141,1141,1141,1141,1145,1145,1141,1141,1141,1141,1141,1141,1138,1138,1138,1138,1138,1141,1141,1141,1141,1141,1141,1141,1141,1141,1141,1141,1141,1141,1138,1138,1138,1138,1138,1138,1138,1138,1134,1134,1134,1134,1134,1134,1134,1134,1134,1134,1134,1134,1134,1134,1134,1134,1134,1134,1134,1134,1134,1134,1134,1134,1134,1130,1130,1130,1130,1130,1130,1130,1130,1130,1130,1134,1134,1130,1130,1130,1130,1126,1126,1126,1126,1126,1126,1126,1126,1126,1126,1126,1126,1126,1123,1123,1123,1123,1123,1123,1119,1119,1119,1119,1119,1123,1123,1123,1123,1123,1123,1119,1119,1119,1119,1119,1119,1119,1119,1119,1119,1119,1119,1119,1115,1115,1119,1119,1123,1123,1123,1123,1123,1123,1119,1119,1119,1119,1119,1119,1115,1115,1119,1119,1119,1119,1119,1119,1119,1119,1119,1119,1119,1115,1115,1119,1119,1119,1119,1119,1119,1119,1119,1119,1119,1119,1115,1112,1112,1115,1115,1115,1115,1115,1115,1112,1112,1112,1108,1108,1115,1115,1115,1115,1112,1112,1119,1112,1112,1112,1115,1112,1112,1112,1112,1112,1112,1112,1112,1112,1108,1108,1108,1108,1108,1108,1108,1108,1108,1108,0,0,0,0,0,0,0,0,0,0,0,0,0,0,0,0,0,0,0,0,0,0,0,0,0,0,0,0,0,0,0,0,0
0,0,0,0,0,0,0,1193,1193,1189,1189,1189,1189,1185,1185,1185,1185,1189,1185,1181,1181,1189,1189,1189,1193,1193,1193,1193,1193,1193,1189,1189,1189,1189,1189,1189,1185,1185,1185,1189,1185,1185,1185,1185,1185,1185,1181,1181,1181,1181,1181,1181,1181,1181,1185,1185,1185,1185,1185,1185,1185,1185,1185,1181,1181,1185,1185,1185,1185,1185,1185,1181,1181,1181,1181,1181,1181,1181,1181,1181,1181,1181,1181,1181,1181,1181,1177,1177,1181,1181,1181,1181,1177,1177,1181,1181,1177,1177,1177,1181,1181,1181,1177,1177,1177,1177,1177,1177,1177,1177,1105,1105,1105,1105,1105,1105,1105,1105,1108,1108,1108,1112,1112,1112,1112,1112,1112,0,0,0,0,0,0,0,0,0,0,0,736,736,736,736,736,738,739,739,739,739,741,741,741,742,742,744,744,744,744,746,747,747,747,747,0,0,0,0,0,0,1165,1165,1165,1169,1173,1173,1173,1173,1169,1169,1169,1169,1165,1165,1169,1169,1169,1169,1165,1165,1169,1169,1169,1169,1169,1169,1169,1169,1169,1165,1165,1165,1165,1165,1165,1165,1165,1165,1165,1165,1165,1165,1165,1165,1165,1165,1165,1161,1161,1165,1165,1161,1161,1165,1165,1165,1165,1165,1165,1161,1161,1161,1161,1161,1161,1161,1157,1157,1161,1165,1161,1161,1161,1161,1161,1157,1157,1157,1157,964,964,962,959,956,956,954,951,946,943,940,940,938,938,938,938,938,938,938,935,935,933,933,933,928,1157,1157,1157,1157,1157,1157,1157,1157,1157,1161,1161,1161,1165,1161,923,923,925,925,925,925,925,925,925,925,925,928,928,928,928,928,928,928,928,928,930,930,930,935,938,938,938,940,940,943,943,946,946,948,948,948,951,951,954,956,956,959,962,962,964,964,964,967,967,967,967,970,970,973,1138,1138,1141,1145,975,975,978,978,1038,1038,1031,1028,1028,1025,1022,1019,1016,1013,1010,1010,1010,1007,1007,1010,1010,1013,1013,1013,1016,1016,1019,1022,1138,1138,1138,1138,1141,1138,1138,1141,1138,1138,1138,1138,1138,1138,1138,1141,1141,1141,1141,1141,1141,1141,1141,1141,1138,1138,1138,1138,1141,1141,1141,1141,1141,1141,1141,1138,1138,1138,1138,1138,1138,1138,1138,1138,1138,1138,1138,1138,1138,1138,1138,1138,1138,1138,1138,1138,1138,1138,1138,1138,1134,1134,1134,1134,1134,1134,1134,1134,1134,1134,1134,1134,1134,1134,1134,1130,1130,1130,1134,1134,1134,1134,1134,1134,1130,1130,1130,1130,1130,1130,1126,1126,1126,1126,1126,1126,1126,1126,1126,1126,1126,1126,1126,1126,1123,1123,1123,1123,1123,1123,1123,1123,1123,1123,1123,1123,1123,1123,1123,1123,1123,1123,1123,1119,1119,1119,1119,1119,1119,1119,1119,1119,1119,1119,1119,1119,1119,1119,1115,1115,1119,1119,1115,1115,1115,1115,1115,1115,1115,1112,1112,1115,1115,1119,1119,1119,1119,1119,1119,1119,1115,1115,1115,1115,1112,1112,1112,1112,1115,1115,1119,1119,1115,1115,1115,1115,1115,1119,1115,1115,1115,1115,1115,1115,1115,1112,1112,1112,1112,1115,1112,1112,1112,1112,1108,1108,1112,1112,1112,1112,1112,1108,1108,1108,1108,1108,1108,1108,1112,1112,1112,1108,1108,1108,1108,1112,1112,1112,1112,1112,1112,1112,1112,1108,1108,1105,1105,1108,1108,1108,1108,1108,1108,1108,0,0,0,0,0,0,0,0,0,0,0,0,0,0,0,0,0,0,0,0,0,0,0,0,0,0,0,0,0,0,0,0,0,0
0,0,0,0,0,0,1189,1189,1189,1189,1185,1185,1185,1185,1185,1185,1185,1189,1185,1181,1181,1185,1181,1181,1181,1181,1189,1189,1189,1189,1185,1185,1185,1185,1189,1185,1185,1181,1181,1185,1181,1181,1181,1181,1181,1181,1181,1181,1181,1181,1181,1181,1181,1181,1181,1181,1181,1181,1181,1181,1181,1181,1181,1181,1181,1181,1181,1181,1181,1181,1181,1181,1181,1181,1181,1177,1177,1177,1177,1177,1181,1177,1177,1177,1177,1177,1177,1177,1177,1177,1177,1177,1177,1177,1177,1177,1173,1173,1173,1177,1177,1177,1177,1177,1177,1173,1173,1173,1169,1169,1108,1108,1105,1105,1105,1105,1108,1108,1108,1108,1112,1112,1112,1112,1112,1112,1112,1112,0,0,0,0,0,0,0,0,0,0,738,738,738,738,738,738,739,739,739,741,741,741,741,742,744,744,746,746,746,747,749,749,749,749,752,0,0,0,0,0,1165,1161,1161,1161,1165,1169,1169,1165,1165,1165,1165,1165,1165,1165,1165,1165,1165,1165,1165,1165,1165,1165,1165,1165,1165,1165,1165,1165,1165,1165,1165,1165,1165,1161,1161,1161,1161,1161,1161,1161,1161,1161,1161,1161,1161,1161,1161,1161,1161,1161,1161,1157,1157,1157,1157,1157,1161,1161,1161,1161,1161,1161,1157,1157,1157,1157,1157,1157,1157,1157,1157,1157,1157,1161,1157,1157,1153,1153,1153,967,967,964,959,956,956,954,951,946,943,940,938,935,935,935,935,935,933,933,933,933,930,928,928,928,1157,1157,1153,1153,1153,1153,1153,1153,1153,1161,1161,1161,1161,923,923,923,923,923,923,923,923,923,923,923,923,925,923,923,923,925,925,925,925,928,928,928,930,935,938,938,938,940,943,946,946,946,946,948,948,951,954,954,956,956,959,959,962,962,964,964,964,967,967,967,967,1138,1138,1138,1138,1138,1138,1141,1138,1138,1138,1138,1038,1038,1034,1031,1031,1028,1025,1019,1016,1013,1010,1010,1010,1010,1010,1010,1010,1013,1013,1016,1016,1016,1019,1022,1025,1138,1134,1134,1138,1138,1138,1138,1138,1138,1138,1138,1138,1138,1138,1138,1138,1138,1138,1138,1138,1138,1138,1138,1138,1138,1138,1138,1138,1138,1138,1141,1138,1138,1138,1138,1138,1138,1134,1134,1134,1134,1134,1134,1134,1134,1134,1134,1134,1138,1138,1134,1134,1134,1134,1134,1134,1134,1134,1134,1134,1134,1130,1130,1130,1130,1130,1130,1130,1130,1130,1130,1130,1130,1130,1130,1126,1126,1130,1130,1130,1130,1130,1130,1130,1130,1130,1130,1126,1126,1123,1123,1123,1123,1123,1123,1123,1123,1123,1119,1119,1119,1119,1119,1119,1119,1119,1119,1119,1119,1123,1119,1119,1119,1119,1119,1119,1119,1119,1119,1119,1119,1119,1119,1115,1115,1115,1115,1115,1115,1115,1115,1115,1115,1119,1115,1115,1115,1115,1115,1115,1115,1112,1112,1112,1112,1112,1112,1112,1112,1112,1112,1112,1112,1115,1115,1115,1115,1115,1115,1112,1112,1112,1112,1112,1112,1112,1112,1112,1112,1115,1115,1112,1112,1115,1115,1115,1112,1112,1112,1112,1115,1115,1115,1112,1108,1108,1108,1108,1108,1108,1108,1108,1108,1108,1105,1105,1108,1108,1108,1108,1105,1105,1105,1105,1105,1105,1105,1105,1108,1108,1108,1108,1108,1108,1108,1108,1108,1108,1112,1112,1112,1112,1108,1108,1105,1105,1108,1105,1105,1108,1108,1108,0,0,0,0,0,0,0,0,0,0,0,0,0,0,0,0,0,0,0,0,0,0,0,0,0,0,0,0,0,0,0,0,0,0,0
0,0,0,0,0,0,1189,1189,1185,1185,1181,1181,1181,1181,1181,1181,1181,1185,1181,1181,1181,1181,1181,1177,1177,1181,1181,1181,1181,1185,1185,1185,1181,1181,1181,1181,1181,1177,1177,1181,1181,1181,1181,1181,1181,1177,1177,1177,1177,1177,1177,1177,1181,1181,1177,1177,1181,1181,1181,1177,1177,1177,1177,1177,1177,1177,1177,1177,1177,1177,1177,1181,1181,1181,1177,1177,1177,1177,1177,1177,1177,1177,1177,1177,1177,1177,1177,1177,1177,1173,1173,1173,1173,1173,1173,1173,1169,1169,1173,1173,1173,1173,1173,1173,1173,1173,1173,1169,1169,1165,1165,1108,1108,1108,1108,1108,1108,1108,1108,1112,1112,1115,1112,1112,1112,1108,1108,1112,0,0,0,0,0,0,0,0,739,739,739,739,738,738,738,739,739,739,739,741,741,741,742,744,744,746,746,746,747,749,749,749,750,750,752,0,0,0,0,0,0,1161,1161,1161,1161,1161,1165,1165,1165,1165,1165,1161,1161,1161,1161,1161,1165,1161,1161,1161,1161,1161,1161,1161,1161,1161,1161,1161,1161,1161,1161,1161,1161,1161,1161,1161,1161,1161,1161,1161,1161,1157,1157,1157,1157,1157,1157,1157,1153,1153,1157,1153,1153,1153,1153,1153,1157,1157,1157,1157,1157,1157,1153,1153,1153,1153,1153,1153,1153,1153,1153,1153,1153,1153,1153,1153,1149,1149,1145,1145,967,967,962,959,956,954,951,946,943,940,935,933,933,933,930,930,930,930,930,928,928,925,925,923,918,915,915,913,913,913,913,913,913,915,918,918,918,920,920,920,920,920,923,923,923,923,923,923,923,923,923,923,923,923,925,925,925,928,928,928,930,935,938,938,938,940,943,946,946,946,946,948,951,951,954,954,956,956,959,959,962,962,964,964,964,967,967,967,967,1138,1138,1138,1138,1138,1138,1138,1138,1138,1138,1138,1038,1038,1038,1034,1034,1028,1028,1022,1019,1016,1013,1013,1013,1013,1013,1013,1013,1013,1013,1016,1016,1019,1022,1025,1025,1134,1134,1134,1134,1138,1138,1138,1138,1138,1138,1138,1138,1138,1138,1138,1138,1138,1138,1138,1138,1134,1134,1134,1134,1134,1134,1134,1134,1138,1138,1138,1138,1138,1138,1134,1134,1134,1134,1134,1130,1130,1130,1130,1126,1126,1130,1126,1126,1130,1130,1130,1134,1130,1130,1130,1130,1130,1130,1130,1130,1130,1130,1130,1130,1130,1130,1130,1130,1126,1126,1126,1126,1126,1126,1126,1123,1123,1126,1126,1126,1126,1126,1126,1126,1126,1126,1126,1123,1123,1123,1119,1119,1119,1119,1119,1119,1119,1119,1115,1115,1115,1115,1115,1115,1115,1115,1119,1119,1119,1119,1119,1119,1115,1115,1119,1119,1119,1119,1119,1119,1119,1119,1115,1115,1115,1115,1115,1115,1115,1112,1112,1112,1112,1112,1112,1112,1112,1112,1112,1112,1112,1108,1108,1108,1108,1108,1108,1108,1108,1108,1108,1108,1108,1108,1108,1108,1108,1108,1112,1112,1112,1112,1108,1108,1108,1108,1108,1108,1108,1108,1112,1108,1108,1108,1108,1108,1108,1108,1108,1108,1108,1108,1112,1108,1108,1108,1108,1108,1105,1105,1108,1105,1105,1105,1105,1105,1105,1108,1105,1105,1105,1105,1105,1105,1105,1105,1105,1105,1105,1105,1105,1105,1105,1108,1108,1108,1108,1108,1108,1108,1108,1108,1108,1105,1105,1105,1108,1105,1105,1108,1108,0,0,0,0,0,0,0,0,0,0,0,0,0,0,0,0,0,0,0,0,0,0,0,0,0,0,0,0,0,0,0,0,0,0,0,0
0,0,0,0,0,0,1185,1185,1185,1185,1181,1181,1181,1181,1181,1181,1181,1181,1181,1177,1177,1177,1177,1169,1169,1173,1173,1173,1177,1177,1177,1177,1177,1177,1181,1177,1177,1173,1173,1177,1177,1177,1177,1177,1177,1177,1177,1177,1177,1177,1177,1177,1177,1177,1177,1177,1177,1177,1177,1177,1173,1173,1177,1173,1173,1173,1173,1177,1177,1177,1177,1177,1177,1177,1177,1173,1173,1173,1177,1177,1177,1177,1177,1173,1173,1173,1173,1173,1173,1173,1173,1173,1173,1173,1173,1173,1169,1169,1173,1173,1173,1173,1173,1169,1169,1169,1169,1165,1165,1165,1165,1108,1108,1108,1108,1108,1112,1112,1112,1112,1112,1115,1115,1112,1112,1105,1105,1105,0,0,0,0,0,0,0,0,739,739,741,739,739,739,739,739,739,739,739,741,741,742,742,744,744,746,746,747,747,749,749,750,750,750,752,0,0,0,0,0,0,1161,1157,1157,1161,1161,1161,1161,1161,1157,1157,1157,1157,1161,1161,1161,1161,1161,1161,1161,1157,1157,1157,1157,1157,1157,1157,1157,1157,1157,1161,1157,1157,1157,1157,1157,1157,1157,1157,1157,1157,1157,1157,1157,1153,1153,1153,1153,1153,1153,1153,1149,1149,1149,1149,1149,1149,1149,1149,1153,1153,1153,1153,1153,1149,1149,1149,1149,1149,1149,1149,1149,1149,1149,1149,1149,1145,1145,1145,1145,1145,959,959,956,956,954,951,946,943,938,935,933,930,928,928,928,925,925,928,928,928,925,925,920,918,915,913,913,913,913,913,913,913,915,915,915,918,920,918,918,918,918,918,918,918,920,920,923,923,923,923,923,923,923,923,925,925,928,928,928,930,935,938,938,938,940,943,946,946,946,948,948,951,951,954,954,956,959,959,962,962,962,964,964,964,967,967,967,1134,1138,1134,1134,1134,1134,1138,1138,1138,1138,1138,1134,1134,1038,1038,1038,1034,1031,1028,1025,1019,1016,1013,1013,1013,1013,1013,1013,1013,1013,1016,1016,1016,1019,1025,1025,1028,1130,1130,1130,1130,1134,1134,1134,1134,1134,1134,1134,1134,1134,1134,1134,1134,1134,1134,1134,1134,1134,1134,1134,1130,1130,1130,1134,1134,1134,1134,1134,1134,1134,1134,1134,1130,1130,1130,1130,1126,1126,1126,1126,1123,1123,1126,1123,1123,1126,1126,1126,1126,1126,1126,1126,1126,1126,1126,1126,1126,1126,1126,1126,1126,1126,1126,1126,1126,1126,1123,1123,1123,1123,1123,1123,1123,1123,1123,1123,1123,1123,1123,1123,1123,1123,1123,1123,1123,1119,1119,1119,1119,1119,1119,1115,1115,1115,1115,1112,1112,1112,1112,1112,1112,1112,1115,1115,1115,1115,1115,1115,1115,1115,1115,1115,1112,1112,1112,1115,1115,1115,1115,1115,1112,1112,1112,1112,1112,1112,1108,1108,1108,1108,1108,1108,1108,1108,1108,1108,1108,1108,1108,1108,1108,1108,1108,1108,1108,1105,1105,1105,1105,1105,1105,1105,1108,1108,1108,1108,1108,1108,1108,1108,1108,1108,1108,1108,1108,1108,1108,1108,1108,1108,1108,1108,1105,1105,1105,1105,1108,1108,1108,1108,1108,1108,1108,1108,1108,1105,1105,1105,1105,1105,1105,1105,1105,1105,1105,1101,1101,1101,1101,1101,1101,1101,1101,1101,1101,1101,1101,1101,1101,1101,1101,1105,1105,1105,1105,1108,1108,1108,1108,1108,1105,1105,1105,1108,1108,1004,1001,1001,0,0,0,0,0,0,0,0,0,0,0,0,0,0,0,0,0,0,0,0,0,0,0,0,0,0,0,0,0,0,0,0,0,0,0,0
0,0,0,0,0,0,1181,1181,1177,1177,1177,1177,1177,1177,1177,1177,1177,1177,1177,1177,1173,1173,1169,1169,1169,1169,1173,1173,1173,1173,1173,1177,1165,1165,1165,1165,1169,1173,1173,1173,1173,1177,1177,1177,1177,1177,1177,1177,1177,1173,1173,1173,1173,1173,1173,1173,1173,1173,1169,1169,1169,1173,1169,1169,1169,1169,1169,1173,1173,1173,1173,1173,1173,1177,1173,1173,1173,1173,1173,1173,1173,1173,1173,1169,1169,1169,1169,1169,1169,1169,1169,1169,1169,1169,1169,1169,1169,1169,1169,1169,1169,1169,1165,1165,1165,1165,1165,1161,1161,1161,1161,1112,1112,1112,1112,1112,1112,1112,1112,1115,1115,1115,1115,1112,1112,1105,1105,1105,0,0,0,0,0,0,0,0,741,741,741,741,741,739,739,739,741,741,741,741,741,742,742,744,746,746,747,747,749,750,750,750,752,752,752,0,0,0,0,0,1157,1157,1157,1157,1157,1157,1157,1157,1157,1157,1153,1153,1157,1157,1157,1157,1157,1157,1157,1157,1153,1153,1153,1153,1153,1153,1153,1153,1153,1153,1157,1153,1153,1153,1153,1153,1153,1153,1153,1157,1153,1153,1153,1153,1153,1153,1149,1149,1149,1149,1149,1149,1149,1149,1149,1145,1145,1145,1145,1149,1149,1149,1149,1149,1149,1149,1149,1149,1149,1149,1145,1145,1149,1145,1145,1145,1141,1141,1141,1138,1138,1134,959,956,956,954,951,946,943,938,933,930,928,925,925,925,925,925,925,923,923,923,923,918,918,915,913,913,913,913,913,913,913,915,915,915,915,918,918,915,915,915,918,918,918,918,918,920,920,923,923,923,923,923,923,925,925,928,930,930,930,935,938,938,938,943,946,946,946,946,948,948,951,951,954,954,956,959,959,962,962,962,964,964,964,1138,1134,1134,1134,1134,1134,1134,1134,1134,1134,1134,1134,1134,1134,1134,1134,1134,1038,1038,1034,1031,1028,1025,1019,1016,1016,1013,1013,1013,1013,1013,1013,1013,1016,1016,1019,1022,1025,1028,1028,1123,1123,1126,1126,1130,1134,1134,1134,1134,1134,1134,1134,1134,1134,1134,1134,1130,1130,1126,1126,1130,1130,1130,1130,1130,1130,1130,1130,1130,1130,1130,1130,1130,1130,1130,1126,1126,1126,1123,1123,1123,1123,1123,1123,1123,1123,1123,1123,1123,1123,1123,1123,1123,1123,1123,1123,1123,1123,1123,1123,1126,1126,1126,1126,1126,1123,1123,1123,1123,1123,1123,1123,1123,1119,1119,1119,1119,1119,1119,1119,1119,1119,1119,1119,1119,1119,1119,1119,1119,1115,1115,1115,1115,1115,1115,1112,1112,1112,1112,1112,1112,1112,1112,1112,1112,1112,1112,1112,1112,1112,1112,1112,1112,1112,1112,1112,1112,1112,1112,1112,1112,1115,1112,1108,1108,1108,1108,1108,1108,1108,1105,1105,1108,1108,1108,1108,1108,1108,1108,1108,1108,1105,1105,1108,1105,1105,1105,1105,1105,1105,1105,1101,1101,1105,1105,1105,1105,1101,1101,1105,1105,1105,1105,1105,1105,1105,1105,1105,1105,1105,1105,1105,1105,1105,1101,1101,1101,1101,1101,1101,1105,1105,1105,1105,1105,1105,1105,1105,1105,1105,1105,1105,1105,1105,1105,1101,1101,1097,1097,1097,1097,1097,1097,1097,1097,1097,1097,1101,1101,1101,1097,1097,1101,1101,1097,1097,1101,1105,1105,1105,1105,1108,1108,1108,1105,1004,1004,1001,1001,1001,1001,0,0,0,0,0,0,0,0,0,0,0,0,0,0,0,0,0,0,0,0,0,0,0,0,0,0,0,0,0,0,0,0,0,0,0,0
0,0,0,0,0,0,1177,1177,1173,1173,1177,1173,1173,1177,1173,1173,1173,1173,1169,1169,1169,1169,1169,1165,1165,1169,1169,1169,1169,1169,1173,1173,1161,1161,1165,1165,1165,1165,1165,1169,1169,1173,1173,1173,1173,1173,1173,1173,1173,1173,1169,1169,1169,1169,1169,1169,1165,1165,1165,1165,1165,1169,1169,1169,1165,1165,1165,1169,1169,1169,1169,1169,1169,1173,1173,1169,1169,1169,1169,1169,1169,1169,1165,1165,1161,1161,1165,1165,1165,1165,1165,1165,1165,1165,1165,1165,1165,1165,1165,1165,1165,1165,1165,1161,1161,1161,1161,1161,1161,1161,1161,1115,1115,1112,1112,1112,1112,1115,1115,1115,1115,1115,1115,1115,1112,1112,1105,1105,0,0,0,0,0,0,0,0,741,741,741,741,741,741,741,741,741,741,741,741,741,742,744,746,746,746,747,747,749,750,750,752,752,752,754,0,0,0,0,0,1157,1157,1157,1153,1153,1153,1153,1153,1153,1153,1153,1153,1153,1153,1153,1153,1153,1149,1149,1149,1149,1149,1149,1149,1149,1149,1149,1149,1149,1149,1153,1149,1149,1149,1149,1149,1149,1149,1149,1149,1149,1149,1149,1149,1149,1149,1149,1149,1149,1149,1145,1145,1145,1145,1145,1141,1141,1141,1141,1141,1141,1141,1145,1145,1145,1145,1145,1145,1145,1145,1145,1145,1145,1145,1145,1145,1141,1141,1141,1138,1138,1134,1134,956,956,954,951,946,943,938,933,930,928,925,925,923,923,923,923,920,920,920,918,915,915,915,913,913,913,913,913,913,913,913,915,915,915,915,915,915,915,915,915,915,915,918,918,918,918,920,920,923,923,923,925,925,925,928,930,930,930,935,938,938,940,943,946,946,946,946,948,948,951,954,954,956,956,959,959,962,962,962,964,964,1134,1134,1134,1130,1130,1134,1134,1134,1134,1134,1134,1134,1134,1134,1134,1134,1134,1134,1038,1038,1038,1031,1031,1028,1022,1019,1016,1016,1013,1013,1013,1013,1013,1013,1016,1016,1022,1022,1025,1028,1028,1123,1123,1123,1126,1126,1130,1130,1130,1130,1134,1134,1130,1130,1130,1130,1130,1126,1126,1126,1126,1126,1126,1126,1126,1126,1126,1126,1126,1126,1126,1126,1126,1126,1130,1126,1126,1123,1123,1123,1123,1123,1123,1123,1123,1123,1123,1119,1119,1123,1123,1123,1123,1123,1123,1123,1123,1119,1119,1119,1123,1123,1123,1123,1123,1123,1123,1123,1119,1119,1119,1119,1119,1119,1119,1119,1115,1115,1115,1115,1115,1115,1115,1115,1115,1115,1115,1115,1115,1115,1112,1112,1112,1115,1112,1112,1112,1112,1112,1108,1108,1108,1108,1108,1108,1108,1112,1108,1108,1108,1108,1108,1108,1108,1108,1108,1108,1108,1108,1108,1108,1108,1108,1108,1108,1108,1108,1108,1105,1105,1105,1105,1105,1105,1105,1105,1105,1105,1108,1105,1105,1108,1105,1105,1105,1105,1105,1105,1105,1105,1105,1101,1101,1101,1101,1101,1097,1097,1097,1101,1101,1101,1101,1101,1101,1101,1101,1101,1101,1101,1101,1101,1101,1101,1097,1097,1097,1097,1097,1097,1097,1097,1097,1097,1097,1097,1101,1101,1101,1101,1101,1105,1105,1101,1101,1097,1097,1097,1094,1094,1094,1094,1094,1097,1094,1094,1097,1097,1097,1097,1097,1097,1097,1097,1097,1097,1097,1001,1001,1001,1001,1105,1108,1105,1004,1004,1004,1004,1001,1001,1001,1001,1004,0,0,0,0,0,0,0,0,0,0,0,0,0,0,0,0,0,0,0,0,0,0,0,0,0,0,0,0,0,0,0,0,0,0,0
0,0,0,0,0,0,1173,1173,1173,1173,1173,1169,1169,1173,1169,1169,1169,1169,1169,1165,1165,1165,1165,1165,1165,1165,1165,1165,1169,1169,1169,1169,1161,1161,1165,1161,1161,1161,1161,1161,1161,1161,1165,1165,1165,1169,1169,1169,1169,1169,1169,1165,1165,1165,1165,1165,1165,1165,1165,1165,1165,1165,1165,1165,1165,1165,1165,1165,1165,1165,1165,1165,1165,1165,1165,1165,1165,1165,1165,1161,1161,1165,1161,1161,1161,1161,1161,1161,1161,1161,1161,1161,1161,1161,1161,1161,1161,1161,1161,1161,1161,1161,1161,1161,1161,1161,1161,1161,1161,1157,1157,1119,1115,1112,1112,1112,1112,1115,1115,1115,1115,1115,1115,1115,1115,1112,1112,1112,0,0,0,0,0,0,0,0,741,741,741,741,741,741,741,741,741,741,741,741,742,744,746,746,746,747,747,749,749,750,750,752,752,754,754,0,0,0,0,0,0,1157,1153,1153,1153,1153,1149,1149,1149,1149,1149,1149,1149,1149,1149,1149,1149,1149,1145,1145,1145,1145,1145,1145,1145,1149,1149,1149,1149,1149,1149,1149,1149,1149,1149,1145,1145,1145,1145,1145,1145,1145,1145,1145,1145,1145,1145,1145,1145,1145,1145,1145,1145,1141,1141,1138,1138,1138,1138,1138,1138,1138,1141,1141,1141,1141,1145,1145,1145,1141,1141,1141,1141,1141,1141,1141,1141,1138,1138,1138,1134,1134,1134,1130,956,954,954,951,943,938,933,928,925,925,923,923,923,923,920,918,918,918,918,915,915,915,913,913,913,913,913,913,913,913,913,913,913,915,915,915,915,915,915,915,915,915,918,918,918,920,920,923,923,923,925,925,928,930,930,930,933,938,938,940,940,946,946,946,946,946,948,951,951,954,954,956,956,959,959,964,964,964,964,967,1134,1134,1130,1126,1126,1130,1130,1130,1130,1130,1130,1130,1130,1130,1130,1130,1130,1130,1038,1038,1038,1034,1034,1031,1025,1022,1019,1016,1016,1013,1013,1013,1013,1016,1016,1019,1022,1025,1025,1028,1028,1119,1119,1119,1119,1123,1123,1126,1126,1130,1130,1130,1130,1126,1126,1126,1126,1123,1123,1123,1123,1123,1123,1123,1123,1123,1123,1123,1123,1123,1123,1123,1123,1123,1123,1123,1123,1119,1119,1119,1119,1119,1119,1119,1119,1119,1119,1119,1119,1119,1119,1119,1119,1119,1119,1119,1119,1119,1115,1115,1115,1115,1115,1119,1119,1119,1119,1119,1119,1119,1119,1115,1115,1115,1115,1115,1112,1112,1112,1112,1112,1112,1112,1112,1112,1112,1112,1112,1112,1112,1112,1112,1112,1112,1108,1108,1108,1108,1108,1108,1108,1108,1108,1108,1108,1108,1108,1108,1108,1108,1108,1108,1108,1108,1108,1105,1105,1105,1108,1108,1105,1105,1105,1105,1105,1105,1105,1105,1105,1101,1101,1101,1101,1101,1101,1101,1101,1101,1105,1101,1101,1105,1101,1101,1105,1101,1101,1101,1101,1101,1101,1101,1097,1097,1097,1097,1097,1097,1097,1094,1094,1094,1094,1094,1097,1097,1097,1097,1097,1097,1097,1097,1097,1097,1094,1094,1094,1094,1094,1094,1094,1094,1094,1094,1094,1094,1094,1094,1097,1097,1097,1097,1097,1097,1097,1094,1094,1094,1094,1094,1094,1094,1094,1094,1094,1094,1094,1094,1094,1094,1094,1094,1094,1094,1094,1094,1094,1001,1001,1001,1001,1001,1001,1001,1001,1001,1001,1004,1001,1001,1001,1001,1001,0,0,0,0,0,0,0,0,0,0,0,0,0,0,0,0,0,0,0,0,0,0,0,0,0,0,0,0,0,0,0,0,0,0,0
0,0,0,0,0,0,1169,1169,1169,1169,1169,1165,1165,1169,1169,1165,1165,1165,1165,1161,1161,1161,1161,1161,1161,1161,1161,1161,1165,1165,1165,1165,1165,1165,1161,1161,1161,1157,1157,1157,1157,1157,1161,1161,1161,1161,1161,1161,1161,1165,1165,1161,1161,1161,1161,1161,1161,1161,1161,1165,1165,1161,1161,1165,1165,1165,1165,1161,1161,1165,1161,1161,1161,1157,1157,1161,1157,1157,1153,1153,1153,1153,1153,1153,1153,1157,1157,1161,1157,1157,1157,1157,1157,1157,1157,1157,1157,1157,1157,1157,1157,1157,1157,1157,1157,1157,1157,1157,1157,1157,1157,1119,1119,1115,1115,1115,1115,1115,1115,1115,1115,1115,1115,1115,1115,1115,1115,1115,0,0,0,0,0,0,0,0,0,741,741,741,741,741,741,741,741,741,742,742,742,746,746,747,747,747,749,749,750,750,752,752,752,754,754,755,0,0,0,0,0,1157,1149,1149,1149,1149,1149,1145,1145,1149,1145,1145,1145,1145,1149,1149,1145,1145,1145,1145,1145,1145,1145,1145,1145,1145,1145,1145,1145,1145,1145,1145,1145,1145,1145,1145,1145,1145,1145,1145,1145,1145,1145,1145,1145,1141,1141,1141,1141,1145,1145,1145,1141,1141,1141,1138,1138,1138,1138,1134,1134,1134,1138,1138,1141,1141,1141,1141,1145,1141,1141,1138,1138,1138,1138,1138,1138,1138,1138,1134,1134,1134,1130,1130,1130,954,954,951,943,940,933,928,925,923,923,923,923,920,918,915,915,915,915,915,915,913,913,913,913,913,910,910,910,910,910,913,913,913,913,913,913,913,915,915,915,915,915,918,918,920,920,923,923,923,925,925,928,930,930,933,933,938,940,943,943,946,946,946,946,948,948,951,951,954,956,956,956,959,962,964,964,964,1130,1130,1130,1130,1130,1123,1123,1126,1130,1130,1126,1126,1126,1126,1126,1126,1126,1126,1126,1126,1123,1038,1038,1034,1034,1031,1028,1022,1019,1016,1016,1016,1016,1016,1016,1016,1016,1019,1025,1028,1028,1028,1028,1115,1115,1115,1119,1119,1119,1119,1123,1123,1126,1126,1126,1123,1123,1123,1123,1123,1123,1123,1123,1123,1123,1123,1119,1119,1119,1119,1119,1119,1119,1119,1119,1119,1119,1119,1119,1115,1115,1119,1115,1115,1115,1115,1115,1115,1115,1115,1115,1115,1115,1115,1115,1115,1115,1112,1112,1115,1115,1115,1115,1115,1115,1112,1112,1112,1115,1115,1115,1115,1115,1115,1115,1112,1112,1112,1112,1112,1112,1112,1108,1108,1108,1108,1108,1108,1108,1108,1108,1108,1108,1108,1108,1108,1108,1108,1108,1105,1105,1105,1105,1105,1105,1105,1105,1105,1108,1108,1108,1105,1105,1105,1105,1105,1105,1101,1101,1101,1101,1101,1101,1101,1101,1101,1101,1101,1101,1101,1101,1101,1097,1097,1097,1097,1097,1097,1097,1097,1097,1097,1097,1097,1097,1097,1097,1097,1097,1097,1097,1097,1097,1097,1097,1097,1097,1097,1097,1094,1094,1094,1094,1094,1094,1094,1097,1094,1094,1097,1094,1094,1094,1094,1094,1094,1094,1094,1094,1094,1094,1094,1094,1094,1094,1090,1090,1090,1090,1090,1090,1094,1094,1094,1094,1094,1094,1094,1094,1094,1090,1090,1090,1090,1090,1090,1094,1094,1090,1090,1090,1094,1090,1090,1090,1090,1094,1094,1090,1001,1001,1001,1001,998,998,1001,1001,1001,1001,1001,1001,1001,1001,1001,1001,0,0,0,0,0,0,0,0,0,0,0,0,0,0,0,0,0,0,0,0,0,0,0,0,0,0,0,0,0,0,0,0,0,0,0
0,0,0,0,0,0,1169,1169,1165,1165,1165,1165,1165,1165,1165,1165,1165,1165,1165,1161,1161,1161,1161,1161,1161,1161,1161,1161,1161,1161,1161,1161,1161,1161,1157,1157,1157,1157,1157,1153,1153,1153,1157,1157,1153,1153,1157,1157,1161,1161,1161,1157,1157,1157,1161,1161,1161,1161,1161,1161,1161,1161,1161,1161,1161,1161,1161,1161,1161,1161,1161,1157,1157,1153,1153,1153,1153,1149,1149,1149,1149,1149,1149,1153,1153,1153,1153,1157,1157,1157,1157,1157,1153,1153,1153,1153,1153,1153,1153,1153,1153,1153,1153,1153,1153,1153,1153,1153,1153,1153,1153,1145,1126,1119,1119,1119,1115,1115,1115,1119,1115,1115,1115,1115,1115,1115,1115,1119,0,0,0,0,0,0,0,0,0,742,742,742,741,741,741,741,741,741,742,744,744,746,746,747,747,747,749,750,750,752,752,752,754,754,754,755,0,0,0,0,0,0,1149,1149,1149,1145,1145,1145,1145,1145,1145,1145,1145,1145,1145,1145,1145,1145,1141,1141,1141,1141,1141,1141,1141,1141,1141,1141,1141,1141,1141,1141,1141,1141,1141,1138,1138,1141,1141,1138,1138,1141,1141,1141,1141,1141,1141,1141,1141,1141,1141,1141,1141,1138,1138,1138,1138,1134,1134,1134,1134,1134,1134,1134,1138,1138,1138,1138,1141,1141,1138,1138,1138,1138,1138,1134,1134,1134,1134,1134,1134,1130,1130,1130,1130,1126,1126,946,946,940,933,923,923,923,923,923,918,918,915,915,915,915,915,913,913,913,913,913,910,910,910,910,910,910,910,910,910,910,913,913,913,913,913,913,915,915,915,918,918,920,920,923,923,925,925,928,930,933,933,933,935,938,940,943,943,946,946,946,946,948,948,951,954,956,956,956,956,959,962,967,970,1126,1126,1126,1126,1126,1126,1123,1123,1126,1126,1126,1123,1123,1126,1126,1123,1123,1123,1123,1123,1123,1123,1041,1038,1038,1034,1034,1028,1025,1022,1019,1016,1016,1016,1016,1016,1016,1019,1019,1025,1028,1028,1028,1028,1115,1115,1115,1115,1115,1115,1119,1119,1119,1119,1119,1119,1123,1123,1123,1123,1123,1119,1119,1119,1119,1119,1119,1119,1119,1119,1119,1115,1115,1115,1115,1115,1115,1115,1115,1115,1115,1115,1115,1115,1115,1115,1115,1115,1115,1115,1112,1112,1112,1112,1112,1112,1112,1112,1112,1112,1112,1112,1112,1112,1112,1112,1112,1108,1108,1112,1108,1108,1108,1112,1112,1112,1108,1108,1108,1108,1108,1108,1108,1108,1105,1105,1105,1105,1105,1105,1105,1105,1108,1108,1108,1105,1105,1105,1105,1105,1105,1101,1101,1101,1101,1101,1101,1101,1101,1101,1105,1105,1101,1101,1101,1101,1101,1101,1097,1097,1101,1101,1097,1097,1097,1097,1101,1101,1097,1097,1097,1097,1097,1094,1094,1094,1094,1094,1094,1094,1094,1094,1094,1094,1097,1097,1094,1094,1094,1094,1094,1094,1094,1094,1094,1094,1094,1094,1094,1094,1094,1094,1094,1090,1090,1090,1090,1094,1094,1094,1094,1094,1094,1094,1090,1090,1090,1090,1090,1094,1094,1094,1094,1090,1090,1090,1090,1090,1087,1087,1090,1090,1090,1090,1090,1094,1094,1094,1094,1090,1090,1090,1090,1090,1087,1087,1090,1090,1090,1090,1090,1090,1090,1090,1090,1090,1090,1090,1090,1001,1001,1001,1001,1001,998,998,1001,1001,998,998,998,998,1001,1001,1001,1001,0,0,0,0,0,0,0,0,0,0,0,0,0,0,0,0,0,0,0,0,0,0,0,0,0,0,0,0,0,0,0,0,0,0,0
0,0,0,0,0,0,1165,1165,1165,1165,1165,1165,1165,1165,1165,1165,1161,1161,1161,1161,1161,1161,1161,1161,1161,1161,1161,1157,1157,1157,1157,1157,1157,1157,1157,1157,1153,1153,1153,1153,1153,1153,1153,1153,1153,1153,1153,1157,1157,1157,1157,1157,1157,1157,1157,1157,1157,1157,1157,1161,1157,1157,1157,1157,1161,1157,1157,1157,1157,1157,1157,1153,1149,1149,1149,1149,1149,1149,1149,1149,1149,1149,1149,1149,1149,1149,1149,1157,1153,1153,1153,1153,1153,1153,1149,1149,1149,1149,1149,1149,1149,1149,1149,1149,1149,1149,1149,1149,1149,1149,1149,1145,1134,1123,1119,1119,1119,1119,1119,1119,1119,1119,1119,1119,1119,1119,1119,1119,1119,0,0,0,0,0,0,0,0,0,744,744,742,742,742,741,741,741,744,744,746,746,747,747,747,747,749,750,752,752,752,752,754,754,755,755,0,0,0,0,0,0,1149,1145,1145,1145,1145,1141,1141,1141,1141,1141,1141,1141,1141,1141,1141,1141,1138,1138,1138,1138,1138,1138,1138,1141,1141,1141,1141,1138,1138,1138,1138,1138,1138,1138,1138,1138,1138,1138,1138,1138,1138,1138,1138,1138,1138,1138,1138,1138,1138,1138,1138,1134,1134,1134,1134,1134,1134,1134,1134,1134,1134,1134,1134,1134,1134,1138,1141,1138,1134,1134,1134,1134,1134,1134,1130,1130,1130,1130,1130,1130,1130,1126,1126,1123,1123,1123,896,896,923,923,910,910,915,918,915,915,913,913,913,913,913,910,910,910,910,910,910,910,908,908,908,908,908,908,910,910,910,913,913,913,913,913,915,915,915,915,918,920,923,923,923,925,925,928,930,933,933,933,935,938,940,943,943,946,946,946,948,948,951,954,954,956,956,956,956,959,1119,1119,1119,1123,1123,1123,1123,1123,1123,1123,1123,1123,1123,1123,1123,1123,1123,1123,1123,1123,1123,1123,1119,1119,1123,1041,1038,1038,1038,1034,1031,1028,1022,1019,1016,1016,1016,1016,1016,1016,1019,1022,1028,1028,1028,1031,1031,1115,1115,1115,1115,1112,1112,1115,1115,1115,1115,1115,1115,1115,1115,1115,1119,1119,1119,1119,1119,1119,1115,1115,1119,1115,1115,1115,1112,1112,1112,1112,1112,1112,1112,1112,1112,1112,1112,1112,1112,1112,1112,1112,1112,1112,1112,1112,1112,1108,1108,1108,1108,1108,1108,1108,1108,1108,1108,1108,1108,1108,1108,1108,1108,1108,1108,1108,1105,1105,1108,1108,1108,1108,1108,1108,1108,1108,1108,1108,1105,1105,1105,1105,1105,1105,1105,1105,1105,1105,1105,1105,1105,1105,1101,1101,1101,1101,1097,1097,1097,1097,1097,1097,1097,1097,1097,1097,1097,1094,1094,1094,1097,1097,1097,1094,1094,1097,1097,1097,1094,1094,1094,1094,1094,1094,1094,1094,1097,1097,1094,1094,1094,1094,1094,1094,1090,1090,1094,1094,1094,1094,1094,1094,1090,1090,1094,1094,1090,1090,1094,1094,1094,1094,1094,1094,1094,1094,1094,1094,1090,1090,1090,1090,1090,1090,1090,1090,1090,1090,1090,1090,1090,1087,1087,1090,1090,1090,1090,1090,1090,1090,1090,1090,1087,1087,1087,1087,1087,1087,1087,1087,1090,1090,1090,1090,1090,1087,1087,1087,1087,1084,1084,1084,1087,1087,1087,1087,1087,1087,1087,1087,1087,1087,1087,1090,1001,1001,1001,1001,998,995,995,995,995,995,995,998,998,1001,1001,1001,0,0,0,0,0,0,0,0,0,0,0,0,0,0,0,0,0,0,0,0,0,0,0,0,0,0,0,0,0,0,0,0,0,0,0,0
0,0,0,0,0,0,1165,1165,1161,1161,1161,1161,1161,1161,1161,1161,1161,1161,1161,1157,1157,1161,1161,1161,1161,1157,1157,1157,1153,1153,1153,1153,1153,1153,1153,1153,1153,1153,1153,1149,1149,1149,1153,1153,1149,1149,1153,1153,1157,1157,1157,1153,1153,1157,1157,1153,1153,1149,1149,1153,1153,1157,1153,1153,1157,1157,1153,1153,1153,1153,1153,1149,1149,1149,1149,1149,1149,1149,1149,1149,1149,1149,1149,1149,1149,1149,1149,1153,1149,1149,1149,1149,1149,1149,1149,1149,1145,1145,1145,1145,1149,1149,1145,1145,1145,1145,1145,1145,1145,1145,1145,1141,1138,1130,1123,1119,1119,1119,1119,1119,1119,1119,1119,1119,1119,1119,1123,1119,1119,1126,0,0,0,0,0,0,0,0,746,746,742,742,742,742,742,742,744,746,746,746,747,747,747,749,749,750,752,752,752,754,754,754,755,755,757,0,0,0,0,0,1145,1145,1145,1145,1141,1138,1138,1138,1141,1141,1138,1138,1138,1138,1134,1134,1134,1134,1134,1134,1134,1134,1134,1138,1134,1134,1138,1134,1134,1134,1134,1134,1134,1134,1134,1134,1134,1134,1134,1134,1134,1134,1134,1134,1134,1134,1134,1134,1134,1130,1130,1130,1130,1130,1134,1134,1130,1130,1130,1134,1130,1130,1134,1134,1134,1134,1134,1134,1134,1134,1134,1130,1130,1130,1130,1130,1130,1130,1130,1130,1126,1126,1126,1123,1119,898,896,896,898,903,901,901,913,908,908,906,906,908,910,910,910,908,908,908,908,908,908,908,906,906,906,908,908,908,908,908,908,910,913,913,913,913,915,915,915,915,918,920,923,923,925,925,928,930,930,933,933,933,935,940,940,943,943,946,946,946,948,948,951,954,954,956,956,956,956,1119,1119,1119,1119,1119,1119,1119,1119,1119,1119,1119,1119,1119,1119,1119,1119,1119,1119,1123,1123,1123,1119,1119,1119,1119,1119,1123,1041,1041,1038,1038,1031,1028,1025,1022,1019,1019,1019,1019,1019,1019,1022,1025,1028,1028,1028,1028,1028,1115,1112,1108,1108,1112,1112,1112,1112,1112,1112,1112,1112,1112,1112,1112,1112,1112,1112,1115,1115,1115,1115,1115,1115,1112,1112,1112,1108,1108,1108,1108,1112,1108,1108,1108,1108,1108,1108,1108,1108,1108,1108,1108,1108,1108,1108,1108,1108,1108,1108,1108,1108,1108,1105,1105,1108,1108,1108,1108,1108,1108,1108,1108,1105,1105,1105,1105,1105,1105,1105,1105,1105,1105,1105,1105,1105,1105,1105,1105,1105,1105,1101,1101,1101,1101,1101,1101,1105,1105,1105,1105,1101,1101,1101,1101,1097,1097,1097,1094,1094,1094,1094,1094,1094,1094,1094,1097,1097,1094,1094,1094,1094,1094,1094,1094,1094,1094,1094,1094,1094,1094,1090,1090,1090,1094,1094,1094,1094,1094,1094,1094,1094,1090,1090,1090,1090,1090,1090,1090,1090,1090,1090,1090,1090,1090,1090,1094,1090,1090,1090,1090,1090,1090,1090,1094,1094,1090,1090,1090,1090,1090,1087,1087,1087,1087,1087,1087,1087,1087,1087,1087,1087,1087,1087,1087,1087,1087,1087,1087,1090,1090,1090,1087,1087,1087,1087,1087,1087,1087,1084,1084,1087,1087,1087,1087,1087,1084,1084,1084,1084,1084,1080,1080,1080,1080,1080,1080,1080,1084,1084,1084,1084,1084,1084,1080,1001,1001,1001,1001,998,995,995,995,995,995,995,998,998,1001,1001,0,0,0,0,0,0,0,0,0,0,0,0,0,0,0,0,0,0,0,0,0,0,0,0,0,0,0,0,0,0,0,0,0,0,0,0,0
0,0,0,0,0,0,1161,1161,1161,1161,1161,1161,1161,1161,1157,1157,1157,1157,1157,1157,1157,1157,1157,1157,1157,1157,1153,1153,1153,1149,1149,1153,1149,1149,1149,1149,1149,1149,1149,1149,1149,1149,1149,1149,1149,1149,1149,1149,1149,1149,1149,1149,1153,1153,1153,1153,1149,1149,1149,1149,1145,1145,1149,1149,1149,1153,1153,1149,1149,1149,1149,1145,1145,1145,1145,1149,1145,1145,1145,1145,1149,1149,1149,1149,1149,1145,1145,1149,1149,1149,1149,1149,1149,1145,1145,1145,1145,1145,1145,1145,1145,1145,1145,1145,1145,1145,1141,1141,1145,1145,1145,1141,1138,1134,1130,1123,1119,1119,1119,1119,1119,1119,1119,1119,1123,1123,1126,1126,1126,1126,0,0,0,0,0,0,0,0,0,742,742,742,742,742,742,742,744,746,746,746,747,747,747,749,750,750,752,752,754,754,754,754,755,757,757,757,0,0,0,0,1145,1145,1141,1141,1141,1138,1134,1134,1138,1138,1134,1134,1134,1134,1134,1134,1134,1130,1130,1130,1130,1130,1134,1134,1134,1134,1134,1134,1134,1134,1134,1134,1134,1134,1134,1134,1134,1134,1134,1130,1130,1130,1130,1130,1130,1130,1130,1130,1130,1130,1130,1130,1130,1130,1130,1130,1130,1130,1130,1130,1130,1130,1130,1130,1130,1130,1130,1130,1130,1130,1130,1130,1130,1130,1130,1130,1126,1126,1126,1126,1126,1123,1123,1123,894,894,896,896,896,898,898,896,896,896,898,901,901,901,903,903,903,906,906,906,906,906,906,906,906,906,906,906,906,906,906,908,908,910,910,910,913,913,915,915,915,918,918,920,923,923,925,925,928,930,930,933,933,933,935,940,940,943,946,946,946,946,1115,1115,1115,1115,1115,1119,1119,1115,1115,1119,1119,1115,1115,1115,1115,1115,1112,1112,1112,1112,1115,1115,1115,1115,1119,1119,1119,1119,1119,1119,1119,1119,1115,1115,1115,1044,1041,1041,1038,1038,1034,1031,1028,1025,1022,1022,1022,1022,1022,1022,1025,1025,1028,1028,1028,1028,1028,1112,1108,1108,1108,1108,1108,1108,1108,1108,1108,1108,1108,1108,1108,1108,1108,1108,1108,1108,1108,1112,1115,1115,1112,1108,1108,1108,1108,1108,1108,1108,1108,1108,1108,1108,1108,1108,1108,1108,1108,1108,1105,1105,1105,1105,1105,1105,1105,1105,1105,1105,1105,1105,1105,1105,1105,1105,1105,1105,1105,1105,1105,1105,1105,1101,1101,1105,1105,1101,1101,1101,1101,1101,1097,1097,1101,1101,1101,1101,1101,1101,1101,1097,1097,1101,1101,1101,1101,1101,1101,1101,1101,1097,1097,1097,1097,1097,1094,1094,1094,1094,1094,1094,1094,1094,1094,1094,1094,1090,1090,1090,1090,1090,1090,1090,1090,1090,1090,1090,1090,1090,1090,1090,1090,1090,1090,1090,1090,1090,1090,1090,1090,1090,1090,1087,1087,1087,1090,1090,1090,1090,1090,1090,1090,1087,1087,1090,1090,1090,1090,1090,1090,1090,1090,1087,1087,1090,1090,1087,1087,1087,1084,1084,1084,1084,1084,1084,1084,1084,1087,1084,1084,1084,1084,1084,1084,1087,1084,1084,1084,1084,1084,1087,1084,1084,1084,1084,1084,1084,1084,1084,1084,1084,1084,1084,1084,1084,1084,1080,1080,1080,1077,1077,1077,1080,1077,1077,1080,1080,1080,1080,1080,1080,1077,1073,1073,1073,1073,995,995,995,995,995,995,995,995,925,923,923,0,0,0,0,0,0,0,0,0,0,0,0,0,0,0,0,0,0,0,0,0,0,0,0,0,0,0,0,0,0,0,0,0,0,0,0,0,0
0,0,0,0,0,0,1161,1161,1157,1157,1157,1157,1157,1157,1157,1153,1153,1153,1153,1153,1153,1153,1153,1153,1157,1153,1153,1153,1149,1149,1149,1149,1149,1149,1149,1149,1149,1149,1149,1145,1145,1145,1145,1145,1145,1145,1145,1145,1145,1145,1149,1149,1149,1149,1149,1149,1145,1141,1141,1141,1141,1141,1141,1141,1145,1145,1145,1145,1145,1145,1145,1145,1141,1141,1145,1145,1145,1145,1145,1145,1145,1145,1145,1145,1145,1141,1141,1145,1145,1145,1145,1149,1149,1145,1145,1145,1145,1145,1141,1141,1141,1138,1138,1138,1141,1141,1138,1138,1138,1141,1141,1138,1138,1134,1130,1126,1123,1123,1119,1119,1119,1119,1119,1123,1126,1126,1126,1134,1119,1119,0,0,0,0,0,0,0,0,0,759,742,742,742,742,742,742,746,746,746,747,747,749,749,749,750,752,752,752,754,754,754,755,757,757,757,757,0,0,0,0,0,0,1141,1134,1134,1134,1134,1134,1134,1130,1130,1130,1130,1130,1130,1130,1130,1130,1130,1130,1130,1130,1130,1130,1126,1126,1130,1130,1130,1130,1130,1130,1130,1130,1130,1130,1130,1130,1130,1126,1126,1126,1126,1130,1130,1130,1130,1126,1126,1126,1126,1126,1126,1126,1126,1126,1126,1126,1126,1126,1126,1126,1126,1126,1123,1123,1123,1126,1126,1126,1126,1126,1126,1126,1126,1123,1123,1123,1123,1123,1123,889,889,891,894,894,894,894,894,896,896,896,896,896,896,896,896,896,896,898,898,898,898,898,898,903,903,903,903,903,903,906,906,906,906,906,908,908,910,910,913,913,915,915,918,918,918,920,923,925,925,925,930,930,930,930,933,933,935,938,938,943,946,946,1112,1112,1112,1115,1115,1112,1112,1115,1115,1112,1112,1115,1115,1112,1112,1112,1112,1112,1112,1108,1108,1112,1112,1112,1112,1115,1115,1115,1115,1115,1119,1115,1115,1115,1115,1112,1112,1044,1041,1041,1041,1038,1034,1031,1028,1025,1025,1022,1022,1022,1022,1025,1025,1025,1028,1028,1028,1031,1031,1034,1108,1105,1105,1105,1105,1105,1108,1108,1105,1105,1108,1108,1108,1108,1105,1105,1108,1105,1105,1108,1105,1105,1105,1105,1105,1105,1105,1105,1105,1105,1108,1108,1108,1108,1108,1105,1105,1105,1105,1105,1101,1101,1101,1101,1101,1101,1101,1101,1101,1105,1101,1101,1101,1105,1105,1105,1101,1101,1101,1101,1101,1101,1101,1097,1097,1097,1097,1097,1097,1097,1097,1097,1094,1094,1094,1094,1094,1094,1097,1097,1097,1097,1097,1097,1097,1097,1097,1097,1097,1097,1097,1094,1094,1094,1094,1094,1094,1094,1094,1094,1090,1090,1090,1090,1090,1090,1090,1090,1090,1090,1090,1090,1090,1087,1087,1087,1087,1087,1087,1087,1087,1087,1087,1087,1087,1087,1087,1087,1087,1084,1084,1084,1087,1087,1087,1087,1087,1087,1090,1087,1087,1087,1087,1084,1084,1084,1084,1084,1084,1084,1080,1080,1080,1087,1087,1090,1087,1087,1084,1084,1080,1080,1080,1080,1080,1080,1080,1080,1080,1080,1080,1080,1080,1080,1080,1080,1080,1080,1080,1077,1077,1077,1077,1077,1080,1080,1080,1080,1080,1080,1080,1084,1084,1080,1080,1080,1080,1077,1077,1077,1077,1077,1077,1077,1077,1077,1077,1077,1077,1073,1073,1073,1067,1067,1067,0,0,0,995,995,995,995,928,928,925,925,923,923,920,920,920,0,0,0,0,0,0,0,0,0,0,0,0,0,0,0,0,0,0,0,0,0,0,0,0,0,0,0,0,0,0,0,0,0,0,0
0,0,0,0,0,0,1149,1149,1153,1153,1153,1153,1153,1153,1153,1153,1153,1149,1149,1149,1149,1149,1149,1149,1149,1149,1149,1149,1149,1145,1145,1145,1145,1145,1145,1141,1141,1141,1141,1141,1141,1141,1141,1138,1138,1138,1138,1141,1145,1145,1145,1145,1145,1145,1145,1145,1141,1138,1138,1138,1138,1138,1138,1138,1138,1141,1145,1145,1141,1141,1141,1138,1138,1141,1141,1145,1145,1145,1145,1145,1145,1141,1141,1141,1141,1138,1138,1141,1141,1141,1145,1145,1145,1145,1145,1141,1141,1141,1138,1138,1138,1138,1138,1138,1138,1138,1134,1134,1138,1138,1134,1134,1134,1130,1130,1126,1126,1123,1123,1123,1119,1119,1123,1123,1126,1126,1126,1130,1115,1115,1115,0,0,0,0,0,0,762,759,759,761,746,744,742,742,744,746,747,747,747,747,749,749,749,750,752,752,754,754,754,754,755,757,757,757,757,0,0,0,0,0,1130,1130,1130,1130,1134,1130,1130,1130,1130,1130,1126,1126,1126,1126,1126,1126,1126,1126,1126,1126,1126,1123,1123,1123,1123,1126,1126,1126,1126,1126,1126,1130,1130,1130,1130,1126,1126,1126,1123,1123,1123,1123,1123,1123,1123,1123,1123,1123,1123,1123,1123,1123,1123,1123,1123,1123,1123,1123,1123,1123,1119,1119,1123,1119,1119,1123,1123,1123,1123,1123,1123,1123,1123,1123,1119,1119,1119,1119,1119,887,887,887,891,894,894,894,894,894,894,894,894,894,894,894,896,896,896,896,896,898,898,896,896,898,898,898,901,901,903,903,903,903,903,906,906,908,908,910,910,913,915,915,915,918,918,920,920,923,925,925,928,930,930,930,930,933,933,935,938,938,1112,1112,1108,1108,1108,1108,1112,1112,1112,1112,1112,1112,1108,1108,1112,1112,1112,1108,1108,1108,1108,1108,1108,1108,1108,1108,1108,1108,1108,1108,1108,1115,1115,1115,1112,1112,1112,1112,1112,1112,1044,1044,1044,1041,1041,1038,1034,1028,1028,1025,1025,1025,1025,1025,1025,1025,1028,1028,1031,1031,1034,1034,1034,1105,1101,1101,1105,1105,1105,1105,1105,1105,1105,1105,1105,1105,1105,1105,1105,1105,1105,1105,1105,1105,1105,1105,1101,1101,1101,1105,1105,1105,1105,1105,1105,1105,1105,1105,1105,1105,1101,1101,1101,1097,1097,1097,1097,1097,1097,1097,1097,1097,1101,1101,1101,1101,1101,1101,1097,1097,1097,1097,1097,1097,1097,1097,1094,1094,1094,1094,1094,1094,1094,1094,1094,1090,1090,1090,1090,1090,1090,1090,1090,1090,1094,1094,1094,1094,1094,1094,1094,1094,1094,1094,1094,1094,1094,1094,1094,1094,1090,1090,1090,1090,1090,1090,1090,1087,1087,1087,1087,1087,1087,1084,1084,1084,1084,1084,1084,1084,1084,1084,1084,1084,1084,1080,1080,1080,1080,1080,1080,1084,1084,1084,1084,1080,1080,1084,1084,1084,1087,1087,1087,1087,1087,1084,1084,1084,1080,1080,1080,1080,1080,1080,1080,1080,1084,1084,1084,1084,1084,1084,1084,1080,1080,1080,1080,1080,1077,1077,1077,1077,1077,1077,1077,1077,1073,1073,1073,1077,1073,1073,1077,1073,1073,1073,1073,1073,1073,1073,1080,1077,1077,1077,1080,1080,1080,1080,1077,1077,1077,1077,1073,1073,1077,1077,1077,1077,1077,1077,1073,1073,1070,1070,1070,1067,1067,1067,1067,1067,0,0,0,995,995,928,928,925,925,923,923,920,920,920,0,0,0,0,0,0,0,0,0,0,0,0,0,0,0,0,0,0,0,0,0,0,0,0,0,0,0,0,0,0,0,0,0,0,0
0,0,0,0,0,0,1149,1149,1149,1149,1149,1149,1149,1149,1149,1149,1149,1149,1149,1145,1145,1149,1149,1149,1149,1149,1149,1149,1149,1145,1141,1141,1141,1141,1141,1138,1138,1138,1138,1138,1138,1138,1138,1138,1138,1138,1134,1134,1138,1138,1138,1141,1141,1141,1138,1138,1138,1138,1138,1134,1134,1134,1134,1134,1134,1138,1141,1141,1138,1138,1138,1138,1134,1134,1134,1134,1134,1138,1138,1141,1141,1141,1138,1138,1138,1134,1134,1134,1138,1141,1141,1141,1141,1141,1138,1138,1138,1138,1134,1134,1134,1134,1134,1134,1134,1134,1134,1134,1134,1134,1134,1134,1134,1130,1130,1126,1126,1123,1123,1123,1123,1123,1123,1123,1126,1126,1126,1130,1115,1115,1115,0,0,0,0,0,0,762,759,759,754,749,744,744,744,746,746,747,747,747,747,749,749,750,752,752,754,754,755,755,755,757,757,759,759,761,0,0,0,0,0,1130,1123,1123,1123,1126,1126,1126,1126,1126,1126,1123,1123,1123,1123,1123,1123,1123,1123,1123,1123,1123,1123,1119,1119,1123,1123,1123,1123,1123,1123,1123,1123,1123,1123,1123,1123,1123,1119,1119,1119,1119,1119,1119,1119,1119,1119,1119,1119,1119,1119,1119,1119,1119,1119,1119,1119,1119,1119,1119,1119,1119,1115,1115,1119,1119,1119,1119,1119,1119,1119,1119,1119,1119,1119,1119,1119,1119,1119,1119,887,887,887,889,891,894,891,891,894,894,894,891,891,891,891,894,894,894,894,896,896,896,896,896,896,896,896,898,898,901,901,903,903,903,906,906,908,908,910,910,913,915,915,915,918,920,920,923,923,925,928,928,930,930,930,930,933,933,935,938,1108,1108,1108,1108,1108,1108,1108,1108,1108,1108,1108,1108,1108,1108,1108,1108,1108,1108,1108,1105,1105,1105,1105,1105,1105,1105,1105,1108,1108,1108,1108,1108,1108,1108,1108,1108,1108,1108,1108,1108,1108,1108,1044,1044,1041,1041,1038,1034,1031,1028,1025,1025,1025,1025,1025,1025,1028,1028,1028,1031,1031,1034,1034,1038,1105,1101,1101,1101,1101,1101,1101,1101,1101,1101,1101,1101,1101,1101,1101,1101,1101,1101,1101,1105,1101,1101,1097,1097,1097,1097,1097,1094,1094,1101,1101,1101,1101,1101,1101,1101,1101,1101,1101,1097,1097,1097,1097,1097,1097,1097,1097,1097,1097,1097,1097,1097,1097,1094,1094,1094,1094,1094,1094,1094,1094,1094,1094,1094,1094,1094,1094,1090,1090,1090,1090,1090,1087,1087,1087,1087,1087,1087,1087,1090,1090,1090,1090,1090,1090,1090,1090,1090,1090,1090,1090,1090,1090,1090,1090,1090,1090,1090,1090,1090,1087,1087,1087,1087,1084,1084,1084,1084,1084,1084,1084,1084,1084,1080,1080,1080,1080,1080,1080,1080,1080,1080,1077,1077,1077,1077,1077,1077,1080,1080,1080,1077,1077,1080,1080,1080,1080,1084,1084,1084,1084,1084,1084,1080,1080,1080,1080,1077,1077,1077,1077,1077,1077,1080,1077,1077,1080,1080,1080,1080,1077,1077,1077,1077,1077,1073,1073,1073,1073,1073,1077,1077,1077,1070,1070,1070,1073,1070,1070,1070,1070,1070,1070,1070,1070,1070,1070,1073,1073,1073,1077,1077,1077,1077,1077,1077,1073,1073,1077,1073,1073,1073,1073,1073,1073,1073,1073,1070,1070,1067,1067,1067,1067,1067,1067,1067,1067,0,0,928,928,928,928,928,925,925,923,923,923,923,923,0,0,0,0,0,0,0,0,0,0,0,0,0,0,0,0,0,0,0,0,0,0,0,0,0,0,0,0,0,0,0,0,0,0,0
0,0,0,0,0,0,1149,1149,1149,1149,1145,1145,1145,1145,1149,1149,1145,1145,1145,1145,1145,1145,1145,1145,1145,1145,1145,1145,1141,1141,1141,1141,1138,1138,1138,1138,1138,1138,1134,1134,1134,1134,1134,1134,1134,1134,1134,1134,1134,1134,1134,1138,1138,1138,1134,1134,1134,1134,1134,1134,1134,1134,1134,1134,1134,1134,1134,1134,1134,1134,1134,1134,1130,1130,1130,1130,1130,1130,1130,1130,1130,1138,1138,1134,1134,1130,1130,1130,1134,1134,1134,1138,1138,1138,1134,1134,1134,1134,1130,1130,1134,1134,1134,1134,1134,1134,1130,1130,1130,1130,1130,1130,1130,1130,1126,1126,1126,1123,1123,1123,1123,1123,1123,1123,1123,1126,1130,1126,1115,1115,0,0,0,0,0,0,0,762,761,761,754,749,747,746,746,747,747,747,747,747,749,750,750,750,752,752,754,754,755,757,757,757,759,759,761,762,0,0,0,0,0,0,1119,1119,1119,1119,1123,1123,1123,1123,1123,1123,1123,1119,1119,1123,1123,1119,1119,1119,1123,1119,1119,1119,1119,1119,1119,1119,1119,1119,1119,1119,1119,1119,1119,1119,1115,1115,1115,1115,1115,1115,1115,1115,1115,1115,1115,1115,1115,1115,1115,1115,1115,1115,1115,1115,1115,1115,1115,1115,1115,1115,1115,1115,1115,1115,1115,1115,1115,1119,1119,1119,1119,1119,1119,1119,1119,1119,1119,885,885,885,887,887,891,891,891,891,891,891,891,891,889,889,891,891,891,894,894,894,894,896,896,896,896,896,896,898,898,901,901,903,903,903,906,908,908,910,910,913,913,915,915,918,920,920,923,923,925,925,928,928,930,930,930,930,933,933,1105,1101,1101,1105,1108,1108,1108,1108,1108,1108,1108,1108,1108,1108,1108,1105,1105,1105,1105,1105,1105,1105,1105,1105,1105,1105,1105,1101,1101,1101,1101,1101,1105,1101,1101,1101,1105,1105,1105,1105,1105,1105,1105,1105,1047,1044,1044,1041,1038,1038,1034,1031,1028,1028,1025,1025,1025,1025,1028,1028,1028,1031,1031,1034,1034,1038,1105,1097,1097,1097,1097,1097,1097,1097,1101,1101,1101,1101,1101,1101,1101,1097,1097,1097,1097,1101,1097,1097,1097,1097,1094,1094,1094,1094,1094,1094,1094,1097,1097,1097,1097,1097,1097,1097,1097,1097,1094,1094,1094,1094,1094,1094,1094,1094,1094,1094,1094,1094,1094,1094,1090,1090,1090,1090,1090,1090,1090,1090,1090,1090,1090,1090,1087,1087,1084,1084,1084,1084,1084,1084,1084,1084,1087,1087,1087,1087,1087,1087,1087,1087,1084,1084,1087,1087,1087,1087,1087,1087,1087,1087,1087,1087,1087,1087,1084,1084,1084,1084,1084,1084,1084,1084,1084,1084,1084,1080,1080,1080,1080,1080,1080,1080,1080,1080,1080,1080,1080,1080,1077,1077,1077,1077,1077,1077,1077,1077,1077,1077,1077,1077,1077,1077,1073,1073,1077,1077,1077,1080,1080,1080,1077,1077,1077,1077,1077,1077,1073,1073,1073,1073,1070,1070,1073,1073,1077,1077,1077,1077,1077,1077,1077,1073,1070,1070,1070,1070,1077,1077,1070,1070,1067,1067,1070,1067,1067,1067,1067,1067,1067,1067,1067,1067,1067,1067,1067,1070,1073,1073,1073,1073,1073,1073,1070,1070,1070,1070,1067,1067,1070,1070,1070,1070,1070,1067,1067,1067,1067,1063,1063,1067,1067,1067,1067,1067,0,0,928,925,925,925,925,925,923,923,920,920,923,0,0,0,0,0,0,0,0,0,0,0,0,0,0,0,0,0,0,0,0,0,0,0,0,0,0,0,0,0,0,0,0,0,0,0
0,0,0,0,0,0,1145,1145,1145,1145,1145,1145,1145,1145,1145,1145,1145,1145,1145,1141,1141,1138,1138,1141,1141,1141,1141,1141,1141,1138,1138,1138,1138,1138,1134,1134,1134,1134,1134,1134,1134,1134,1134,1134,1134,1130,1130,1130,1130,1130,1130,1130,1134,1134,1134,1134,1130,1130,1130,1130,1130,1130,1130,1130,1130,1130,1130,1130,1130,1130,1130,1130,1130,1130,1126,1126,1126,1130,1130,1130,1130,1130,1130,1130,1130,1130,1130,1130,1130,1130,1130,1134,1134,1134,1130,1130,1130,1130,1130,1130,1130,1130,1130,1130,1130,1130,1130,1130,1130,1130,1126,1126,1126,1126,1126,1126,1126,1123,1123,1123,1123,1123,1123,1123,1123,1123,1126,1123,1115,1115,0,0,0,0,0,0,0,764,762,761,759,754,750,747,747,747,747,747,747,749,749,750,750,752,752,754,754,755,755,757,757,759,759,761,761,762,0,0,0,0,0,0,1119,1119,1119,1119,1119,1119,1119,1119,1119,1119,1119,1119,1119,1119,1119,1119,1119,1119,1119,1119,1119,1119,1119,1119,1119,1119,1119,1115,1115,1115,1115,1115,1115,1115,1112,1112,1115,1115,1115,1115,1115,1115,1115,1115,1115,1115,1115,1115,1115,1115,1115,1112,1112,1112,1115,1112,1112,1112,1112,1115,1112,1112,1112,1115,1115,1115,1115,1115,1115,1115,1115,1115,1119,1119,1119,1119,885,885,885,885,887,887,889,891,891,891,891,891,891,889,889,889,889,889,891,891,891,894,894,894,894,894,896,896,896,898,898,901,901,903,903,906,906,908,910,910,910,913,915,915,918,918,920,923,923,923,925,925,928,930,930,930,930,930,1105,1105,1105,1101,1101,1105,1105,1105,1105,1105,1108,1105,1105,1105,1105,1105,1105,1105,1105,1105,1105,1105,1105,1101,1101,1101,1101,1101,1101,1097,1097,1097,1097,1097,1097,1097,1097,1097,1101,1101,1101,1101,1101,1101,1105,1105,1105,1044,1044,1041,1041,1038,1034,1031,1028,1028,1028,1028,1028,1028,1028,1028,1028,1031,1031,1038,1038,1041,1041,1097,1097,1094,1094,1094,1094,1094,1094,1094,1097,1097,1097,1097,1097,1097,1097,1094,1094,1097,1094,1094,1094,1094,1094,1094,1094,1090,1090,1090,1090,1090,1090,1090,1094,1094,1094,1094,1094,1094,1094,1094,1094,1094,1094,1090,1090,1090,1090,1090,1090,1090,1087,1087,1087,1087,1087,1087,1087,1087,1087,1087,1087,1087,1087,1084,1084,1084,1084,1080,1080,1080,1080,1080,1080,1080,1084,1084,1084,1084,1084,1084,1084,1084,1080,1080,1080,1080,1080,1084,1084,1084,1084,1084,1084,1084,1084,1084,1080,1080,1080,1080,1080,1080,1080,1080,1080,1080,1080,1080,1080,1080,1080,1077,1077,1077,1077,1077,1077,1077,1077,1077,1077,1077,1077,1073,1073,1077,1077,1077,1073,1070,1070,1077,1077,1077,1070,1070,1077,1077,1073,1073,1077,1077,1077,1073,1073,1073,1073,1073,1070,1070,1070,1070,1067,1067,1067,1067,1070,1070,1073,1070,1067,1067,1067,1067,1070,1067,1067,1067,1073,1073,1067,1067,1067,1067,1067,1067,1067,1063,1063,1063,1063,1063,1067,1067,1067,1067,1067,1067,1067,1067,1067,1070,1070,1070,1067,1067,1067,1067,1067,1067,1067,1067,1070,1070,1067,1067,1067,1067,1067,1063,1063,1067,1067,1067,1067,0,0,928,928,925,925,925,925,925,920,920,920,920,0,0,0,0,0,0,0,0,0,0,0,0,0,0,0,0,0,0,0,0,0,0,0,0,0,0,0,0,0,0,0,0,0,0,0,0
0,0,0,0,0,0,1141,1141,1141,1145,1141,1141,1145,1145,1145,1145,1141,1141,1141,1141,1138,1138,1138,1138,1138,1138,1134,1134,1134,1134,1134,1134,1134,1134,1130,1130,1130,1130,1130,1130,1130,1130,1130,1130,1130,1130,1130,1130,1130,1130,1130,1130,1130,1130,1130,1130,1130,1130,1130,1130,1130,1130,1126,1126,1130,1130,1130,1130,1126,1126,1130,1126,1126,1126,1126,1126,1126,1126,1126,1126,1126,1126,1126,1126,1126,1123,1123,1126,1130,1126,1126,1126,1126,1130,1126,1126,1126,1126,1126,1126,1126,1126,1126,1126,1130,1130,1126,1126,1126,1126,1126,1123,1123,1123,1123,1123,1123,1123,1123,1123,1123,1123,1123,1123,1123,1123,1123,1119,1119,1119,0,0,0,0,0,0,0,0,761,761,759,755,752,750,749,749,749,749,749,749,749,750,752,752,754,754,755,755,757,759,759,759,759,761,761,762,0,0,0,0,0,0,1119,1115,1115,1115,1119,1115,1115,1115,1115,1115,1115,1115,1115,1115,1115,1115,1115,1115,1115,1115,1115,1115,1115,1115,1115,1115,1115,1115,1112,1112,1112,1112,1112,1112,1112,1112,1112,1108,1108,1112,1112,1112,1112,1112,1112,1112,1112,1112,1112,1112,1112,1112,1112,1112,1108,1108,1108,1108,1112,1112,1108,1108,1108,1112,1112,1112,1112,1112,1112,1112,1115,1115,1119,1119,885,885,885,885,885,885,887,887,887,889,889,889,889,889,889,887,887,887,889,889,889,889,891,894,894,894,894,894,896,896,896,898,898,901,903,903,906,906,908,908,910,910,913,913,915,915,918,920,923,923,923,925,925,928,930,930,933,933,933,1101,1101,1101,1101,1101,1101,1105,1105,1105,1105,1105,1105,1105,1105,1101,1101,1101,1101,1101,1101,1101,1101,1101,1101,1101,1101,1097,1097,1097,1097,1094,1094,1094,1094,1094,1094,1094,1094,1094,1097,1097,1097,1097,1097,1097,1097,1097,1097,1047,1044,1041,1041,1038,1034,1034,1031,1028,1028,1028,1028,1028,1028,1028,1031,1031,1034,1038,1038,1041,1041,1094,1094,1090,1090,1090,1090,1090,1090,1090,1094,1094,1094,1094,1094,1094,1094,1090,1090,1094,1090,1090,1090,1090,1090,1090,1090,1090,1090,1090,1090,1090,1090,1090,1090,1087,1087,1090,1090,1090,1090,1090,1090,1090,1090,1090,1090,1087,1087,1087,1087,1087,1084,1084,1084,1084,1084,1084,1084,1084,1084,1084,1084,1080,1080,1080,1080,1080,1080,1080,1080,1080,1080,1080,1080,1080,1080,1080,1080,1084,1080,1080,1080,1080,1077,1077,1077,1077,1077,1077,1077,1077,1080,1080,1080,1080,1080,1080,1080,1080,1080,1080,1077,1077,1077,1077,1077,1077,1077,1077,1077,1077,1077,1077,1077,1077,1077,1077,1077,1073,1073,1073,1073,1073,1073,1073,1073,1073,1073,1073,1070,1070,1070,1070,1070,1070,1070,1070,1070,1073,1070,1070,1070,1070,1073,1073,1073,1073,1070,1067,1067,1067,1067,1067,1067,1067,1067,1067,1067,1067,1070,1070,1067,1067,1067,1067,1067,1063,1063,1063,1063,1067,1067,1067,1067,1067,1067,1067,1063,1063,1063,1063,1063,1063,1063,1063,1063,1063,1063,1063,1063,1063,1063,1063,1063,1067,1067,1067,1067,1067,1067,1067,1067,1067,1067,1067,1067,1063,1063,1063,1063,1063,1063,1063,1063,1063,1063,0,0,928,928,928,928,928,925,925,920,920,918,918,0,0,0,0,0,0,0,0,0,0,0,0,0,0,0,0,0,0,0,0,0,0,0,0,0,0,0,0,0,0,0,0,0,0,0,0
0,0,0,0,0,0,1138,1138,1141,1141,1141,1141,1141,1141,1141,1141,1141,1141,1141,1141,1138,1134,1134,1134,1134,1134,1134,1130,1130,1130,1130,1130,1130,1130,1130,1130,1130,1130,1130,1130,1130,1130,1130,1130,1130,1130,1130,1130,1130,1130,1126,1126,1130,1130,1130,1130,1126,1126,1126,1126,1126,1126,1126,1126,1126,1126,1126,1126,1123,1123,1126,1123,1123,1123,1123,1123,1123,1123,1126,1123,1123,1123,1123,1123,1123,1123,1123,1126,1126,1123,1123,1123,1126,1126,1123,1123,1123,1123,1123,1123,1123,1123,1126,1126,1126,1126,1123,1123,1123,1123,1123,1123,1123,1123,1123,1123,1119,1119,1119,1119,1119,1123,1123,1123,1123,1123,1123,1119,1115,1115,0,0,0,0,0,0,0,0,761,761,759,755,752,750,750,749,749,749,750,750,750,752,752,752,754,754,755,757,757,759,759,759,761,761,761,762,0,0,0,0,0,0,1115,1115,1115,1115,1115,1115,1115,1115,1115,1115,1115,1115,1115,1115,1115,1115,1115,1115,1112,1112,1112,1112,1112,1112,1112,1112,1112,1112,1108,1108,1112,1108,1108,1108,1108,1108,1108,1108,1108,1108,1108,1108,1108,1108,1108,1108,1108,1108,1108,1108,1108,1108,1108,1108,1108,1105,1105,1108,1108,1108,1108,1108,1108,1108,1108,1112,1112,1108,1108,1112,1112,882,882,882,882,882,885,885,885,885,885,885,887,887,887,887,887,887,887,887,887,887,887,887,889,889,891,894,894,894,894,894,896,896,896,898,898,901,903,903,906,908,910,910,910,910,913,915,915,918,920,923,923,923,923,925,925,928,930,933,933,933,933,1097,1097,1097,1097,1097,1097,1101,1101,1101,1101,1097,1097,1101,1097,1097,1097,1097,1097,1097,1097,1097,1097,1097,1097,1097,1097,1097,1097,1094,1094,1094,1094,1090,1090,1094,1094,1094,1094,1094,1094,1094,1094,1094,1094,1097,1094,1094,1090,1090,1060,1044,1041,1038,1034,1034,1031,1031,1028,1028,1028,1028,1028,1031,1031,1031,1034,1038,1038,1041,1041,1090,1090,1090,1087,1087,1090,1090,1090,1090,1090,1090,1090,1090,1090,1090,1090,1087,1087,1087,1087,1087,1087,1087,1090,1090,1090,1090,1090,1087,1087,1087,1084,1084,1087,1084,1084,1084,1084,1084,1090,1090,1090,1090,1087,1087,1087,1084,1084,1084,1084,1084,1080,1080,1080,1084,1084,1084,1084,1084,1084,1080,1080,1080,1080,1080,1080,1080,1080,1077,1077,1077,1077,1077,1080,1080,1080,1080,1080,1080,1077,1077,1077,1077,1077,1073,1073,1073,1073,1073,1077,1077,1077,1077,1077,1077,1077,1077,1077,1077,1077,1077,1077,1077,1077,1077,1073,1073,1077,1077,1077,1073,1073,1073,1073,1073,1073,1073,1070,1070,1070,1070,1070,1070,1070,1070,1070,1067,1067,1070,1067,1067,1067,1067,1067,1067,1067,1067,1067,1067,1067,1067,1067,1067,1070,1067,1067,1070,1070,1067,1067,1067,1063,1063,1063,1063,1063,1067,1067,1067,1067,1067,1063,1063,1063,1063,1063,1063,1063,1063,1063,1063,1063,1063,1063,1063,1063,1063,1063,1063,1063,1063,1063,1063,1063,1063,1063,1063,1063,1063,1063,1063,1063,1063,1063,1063,1063,1063,1063,1063,1063,1063,1067,1067,1067,1063,1063,1063,1063,1063,1063,1063,1063,1063,1063,1063,1063,1063,933,928,928,928,928,928,925,925,920,920,918,918,0,0,0,0,0,0,0,0,0,0,0,0,0,0,0,0,0,0,0,0,0,0,0,0,0,0,0,0,0,0,0,0,0,0,0,0
0,0,0,0,0,0,1134,1134,1138,1138,1138,1138,1134,1134,1134,1134,1138,1138,1138,1138,1134,1134,1134,1134,1134,1134,1130,1130,1130,1130,1130,1130,1130,1130,1130,1130,1130,1130,1130,1130,1130,1130,1130,1130,1130,1130,1126,1126,1126,1126,1126,1126,1126,1126,1126,1126,1126,1126,1126,1123,1123,1126,1123,1123,1123,1123,1123,1123,1123,1123,1123,1123,1123,1123,1123,1123,1123,1123,1123,1123,1123,1123,1123,1119,1119,1119,1119,1123,1123,1119,1119,1119,1119,1119,1119,1119,1119,1119,1119,1119,1119,1119,1119,1119,1123,1123,1123,1123,1123,1123,1119,1119,1119,1119,1119,1119,1119,1119,1119,1119,1119,1119,1119,1119,1119,1119,1119,1115,1115,1115,0,0,0,0,0,0,0,0,761,761,759,755,754,752,750,750,749,749,750,750,750,752,754,754,755,755,757,757,759,759,759,761,761,761,762,762,0,0,0,0,0,0,1115,1112,1112,1112,1112,1112,1112,1112,1112,1112,1112,1112,1112,1112,1112,1112,1112,1112,1112,1112,1112,1112,1112,1108,1108,1112,1112,1108,1108,1108,1105,1105,1105,1105,1105,1105,1105,1105,1105,1105,1105,1105,1105,1105,1105,1105,1105,1105,1105,1105,1105,1105,1105,1105,1105,1105,1105,1105,1105,1105,1105,1105,1105,1105,1105,1108,1108,878,878,878,878,878,878,880,880,880,882,882,882,882,882,882,882,882,882,882,885,885,885,887,887,887,887,887,887,889,889,891,894,894,894,896,896,898,898,898,901,903,903,906,908,910,910,910,913,913,915,915,918,918,920,923,923,923,925,925,928,928,933,933,933,933,1087,1090,1090,1094,1094,1094,1094,1094,1097,1097,1097,1094,1094,1094,1094,1094,1090,1090,1094,1094,1094,1094,1094,1094,1094,1094,1094,1094,1094,1094,1094,1090,1090,1090,1090,1090,1090,1090,1090,1090,1094,1094,1094,1094,1094,1090,1090,1090,1087,1080,1060,1047,1041,1041,1038,1034,1031,1031,1031,1028,1028,1028,1031,1031,1031,1034,1038,1038,1041,1041,1041,1087,1087,1087,1087,1087,1087,1087,1087,1087,1090,1087,1087,1087,1087,1087,1087,1084,1084,1084,1084,1084,1084,1084,1087,1087,1087,1087,1084,1084,1084,1080,1080,1080,1080,1080,1080,1080,1080,1080,1084,1080,1080,1087,1087,1084,1084,1084,1080,1080,1080,1080,1080,1080,1080,1080,1080,1080,1080,1080,1080,1080,1080,1077,1077,1077,1077,1077,1077,1077,1077,1077,1077,1077,1077,1077,1077,1077,1077,1077,1077,1073,1073,1073,1073,1073,1073,1073,1073,1073,1073,1073,1073,1073,1073,1073,1073,1077,1073,1073,1073,1073,1073,1073,1073,1073,1073,1073,1073,1073,1073,1073,1073,1073,1073,1073,1073,1070,1070,1070,1067,1067,1067,1067,1067,1067,1067,1067,1067,1067,1067,1067,1067,1063,1063,1067,1063,1063,1063,1063,1063,1063,1063,1067,1067,1063,1063,1067,1067,1067,1067,1063,1063,1063,1063,1063,1063,1063,1063,1063,1063,1063,1063,1060,1060,1060,1060,1060,1060,1057,1057,1060,1060,1060,1060,1060,1060,1060,1063,1060,1060,1060,1060,1060,1063,1063,1060,1060,1060,1060,1060,1060,1060,1060,1060,1060,1060,1060,1060,1060,1063,1063,1063,1063,1063,1060,1060,1060,1060,1060,1060,1060,1060,1063,1063,1063,1063,0,933,933,928,928,930,928,928,925,923,923,920,920,0,0,0,0,0,0,0,0,0,0,0,0,0,0,0,0,0,0,0,0,0,0,0,0,0,0,0,0,0,0,0,0,0,0,0,0
0,0,0,0,0,1134,1134,1134,1134,1134,1134,1134,1134,1134,1130,1130,1130,1130,1130,1130,1130,1130,1130,1130,1130,1130,1126,1123,1123,1126,1126,1126,1126,1126,1126,1126,1126,1126,1126,1130,1126,1126,1126,1126,1126,1126,1123,1123,1123,1123,1123,1123,1126,1123,1123,1123,1123,1123,1123,1123,1123,1123,1123,1119,1119,1119,1119,1119,1119,1119,1119,1119,1119,1119,1119,1119,1119,1119,1119,1119,1119,1119,1119,1115,1115,1115,1115,1115,1115,1115,1115,1115,1119,1119,1115,1115,1119,1119,1115,1115,1119,1119,1119,1119,1119,1119,1119,1119,1119,1119,1119,1119,1115,1115,1119,1119,1115,1115,1115,1115,1115,1115,1115,1115,1115,1115,1115,1112,1112,1112,0,0,0,0,0,0,0,0,761,761,759,759,754,752,752,750,750,750,750,752,752,752,754,754,755,755,757,759,759,759,761,761,762,762,762,762,0,0,0,0,0,0,1112,1112,1108,1108,1108,1108,1108,1108,1108,1108,1108,1112,1112,1112,1112,1112,1112,1108,1108,1108,1108,1108,1105,1105,1105,1108,1108,1105,1105,1105,1105,1105,1105,1105,1105,1105,1105,1105,1105,1105,1101,1101,1101,1101,1101,1101,1101,1101,1101,1101,1101,1101,1101,1101,1101,1101,1101,1105,1105,1105,1101,1101,1105,1105,1105,875,875,875,878,878,878,878,878,878,880,880,882,882,882,882,880,880,880,880,880,880,882,885,885,885,885,885,887,887,887,889,889,891,894,894,894,896,896,898,898,901,901,903,906,906,908,910,913,913,913,913,915,915,918,920,923,923,923,923,925,925,930,930,1084,1087,1087,1087,1087,1090,1090,1090,1090,1094,1094,1094,1094,1094,1094,1094,1090,1090,1090,1087,1087,1087,1090,1090,1090,1090,1090,1090,1090,1090,1090,1090,1090,1090,1090,1090,1090,1090,1090,1090,1090,1090,1090,1090,1090,1090,1090,1090,1090,1090,1087,1087,1080,1077,1063,1054,1044,1041,1038,1038,1034,1034,1031,1031,1031,1031,1031,1031,1034,1034,1038,1038,1041,1041,1041,1080,1080,1084,1084,1084,1084,1084,1084,1087,1087,1084,1084,1084,1084,1084,1084,1080,1080,1080,1080,1080,1080,1080,1084,1084,1084,1084,1084,1080,1080,1080,1080,1080,1080,1080,1080,1080,1080,1080,1080,1080,1080,1077,1077,1080,1080,1080,1080,1080,1080,1080,1077,1077,1077,1077,1077,1077,1077,1077,1077,1077,1077,1077,1077,1077,1077,1077,1077,1077,1077,1077,1077,1077,1077,1077,1077,1077,1077,1077,1073,1070,1070,1070,1070,1070,1070,1070,1070,1070,1070,1070,1070,1070,1070,1070,1070,1070,1070,1070,1073,1073,1073,1073,1070,1070,1070,1070,1070,1070,1070,1070,1070,1070,1070,1070,1070,1070,1067,1067,1067,1067,1067,1067,1067,1067,1063,1063,1067,1063,1063,1063,1063,1060,1060,1063,1060,1060,1063,1063,1063,1063,1063,1063,1063,1063,1063,1063,1063,1063,1060,1060,1060,1060,1060,1057,1057,1060,1063,1063,1063,1063,1060,1057,1057,1057,1057,1057,1057,1057,1057,1057,1057,1057,1057,1057,1057,1060,1060,1057,1057,1057,1057,1057,1060,1057,1057,1057,1057,1057,1057,1057,1057,1057,1057,1057,1057,1057,1057,1057,1054,1054,1057,1057,1057,1057,1057,1057,1057,1057,1057,1057,1060,1060,1060,1063,1063,933,933,933,933,930,930,930,928,925,923,923,920,920,0,0,0,0,0,0,0,0,0,0,0,0,0,0,0,0,0,0,0,0,0,0,0,0,0,0,0,0,0,0,0,0,0,0,0,0
0,0,0,0,0,1130,1130,1134,1134,1134,1134,1130,1130,1130,1130,1130,1130,1130,1126,1126,1130,1126,1126,1126,1126,1130,1123,1123,1123,1123,1123,1123,1123,1123,1123,1123,1123,1123,1123,1126,1123,1123,1126,1126,1126,1123,1119,1119,1119,1119,1119,1119,1119,1119,1119,1119,1119,1119,1119,1119,1119,1119,1119,1119,1119,1119,1115,1115,1115,1115,1119,1115,1115,1115,1115,1119,1119,1119,1119,1119,1115,1115,1115,1112,1112,1112,1112,1112,1115,1115,1115,1115,1115,1115,1115,1115,1115,1115,1112,1112,1112,1112,1115,1115,1115,1115,1115,1115,1115,1115,1115,1115,1112,1112,1115,1115,1115,1112,1112,1112,1115,1115,1112,1112,1112,1112,1108,1105,1105,1105,1105,0,0,0,0,0,0,0,0,761,759,759,754,752,752,750,750,750,750,752,752,754,754,754,755,757,757,759,759,761,761,762,762,762,764,764,764,0,0,0,0,0,1108,1105,1105,1105,1105,1105,1105,1105,1105,1105,1105,1108,1108,1105,1105,1108,1105,1105,1105,1105,1105,1105,1105,1105,1105,1105,1105,1105,1101,1101,1101,1101,1101,1101,1101,1101,1101,1101,1101,1101,1101,1101,1097,1097,1097,1094,1094,1094,1094,1097,1097,1097,1101,1101,1101,1101,1101,1101,1101,1101,1101,1101,871,871,871,873,873,873,878,878,878,878,878,878,878,878,880,880,880,880,878,878,878,878,878,878,880,882,882,885,885,885,887,887,887,889,891,894,894,894,894,896,898,898,901,901,903,903,906,908,910,913,913,913,913,915,915,918,918,920,923,923,923,925,1073,1077,1080,1080,1080,1084,1087,1087,1087,1087,1090,1090,1090,1090,1090,1094,1094,1094,1090,1090,1090,1090,1087,1087,1087,1087,1084,1084,1087,1087,1087,1087,1087,1087,1090,1090,1090,1090,1090,1090,1090,1090,1090,1090,1087,1087,1087,1087,1087,1087,1087,1090,1090,1087,1087,1084,1080,1077,1063,1060,1054,1047,1041,1038,1034,1034,1034,1031,1031,1031,1031,1034,1034,1038,1038,1041,1041,1044,1077,1077,1080,1080,1080,1080,1080,1080,1080,1080,1080,1080,1080,1080,1080,1080,1080,1080,1080,1080,1080,1080,1080,1080,1080,1080,1080,1080,1080,1080,1080,1077,1077,1077,1077,1077,1077,1077,1077,1077,1077,1077,1073,1073,1073,1073,1073,1073,1077,1077,1077,1077,1077,1077,1077,1077,1077,1077,1077,1077,1077,1077,1077,1073,1073,1073,1073,1073,1073,1073,1073,1073,1073,1073,1073,1073,1073,1073,1073,1070,1070,1067,1067,1067,1067,1067,1067,1067,1067,1067,1067,1067,1067,1067,1067,1067,1067,1067,1067,1067,1067,1067,1070,1070,1067,1067,1067,1067,1067,1067,1067,1067,1067,1067,1067,1067,1067,1067,1067,1067,1063,1063,1063,1063,1063,1063,1063,1060,1060,1063,1060,1060,1060,1060,1060,1060,1060,1060,1057,1057,1060,1060,1060,1060,1060,1063,1063,1063,1060,1060,1057,1057,1057,1057,1057,1057,1057,1057,1057,1057,1057,1057,1057,1057,1057,1057,1057,1057,1057,1054,1054,1054,1054,1054,1057,1057,1057,1057,1057,1057,1054,1054,1054,1054,1054,1054,1054,1054,1054,1054,1054,1054,1054,1054,1054,1054,1054,1054,1054,1054,1054,1054,1054,1054,1054,1054,1054,1054,1054,1054,1054,1054,1057,1054,1047,1047,1047,1047,933,933,933,930,930,928,928,925,925,923,920,920,0,0,0,0,0,0,0,0,0,0,0,0,0,0,0,0,0,0,0,0,0,0,0,0,0,0,0,0,0,0,0,0,0,0,0,0
0,0,0,0,0,1130,1130,1130,1130,1130,1130,1126,1126,1126,1126,1123,1123,1126,1123,1123,1123,1123,1123,1123,1123,1119,1119,1119,1119,1119,1119,1119,1119,1119,1119,1119,1119,1119,1119,1123,1119,1119,1119,1119,1119,1119,1119,1119,1119,1119,1119,1119,1115,1115,1115,1115,1115,1115,1115,1119,1119,1119,1119,1115,1115,1115,1115,1115,1115,1115,1115,1115,1115,1115,1115,1115,1115,1115,1115,1115,1112,1112,1112,1112,1112,1108,1108,1108,1112,1112,1112,1112,1112,1112,1112,1112,1112,1112,1108,1108,1112,1112,1108,1108,1112,1112,1112,1115,1115,1115,1115,1112,1112,1112,1112,1112,1112,1108,1108,1108,1112,1108,1108,1108,1108,1108,1105,1105,1105,1105,1101,1101,1101,0,0,0,0,0,0,761,759,759,755,754,752,752,750,750,752,752,752,754,754,754,755,757,759,759,759,761,761,762,762,764,764,764,764,0,0,0,0,0,1105,1105,1101,1101,1101,1101,1101,1101,1101,1101,1101,1105,1105,1105,1105,1105,1105,1105,1101,1101,1101,1101,1101,1101,1101,1101,1101,1101,1101,1101,1097,1097,1097,1097,1097,1097,1101,1101,1101,1101,1097,1097,1097,1097,1094,1094,1094,1094,1094,1094,1094,1097,1097,1097,1097,1097,1097,1101,1101,1101,869,869,869,869,869,871,871,871,875,875,875,878,878,878,878,878,878,878,878,878,878,878,878,878,878,878,880,880,882,882,885,885,887,887,887,889,891,894,894,894,896,898,898,901,901,903,903,906,906,908,910,913,913,913,913,915,915,918,918,920,923,1073,1073,1073,1073,1077,1077,1080,1080,1080,1084,1084,1087,1087,1087,1087,1087,1087,1090,1090,1090,1090,1087,1087,1087,1087,1084,1084,1084,1084,1084,1084,1084,1084,1084,1087,1084,1084,1087,1087,1087,1087,1087,1087,1087,1087,1087,1087,1087,1084,1084,1084,1084,1087,1087,1087,1087,1084,1084,1080,1077,1077,1070,1060,1057,1050,1044,1041,1038,1034,1034,1034,1031,1031,1034,1034,1034,1038,1041,1041,1041,1044,1077,1077,1077,1077,1080,1080,1080,1080,1080,1077,1077,1077,1077,1077,1077,1077,1077,1077,1077,1077,1077,1077,1077,1077,1077,1077,1077,1077,1077,1077,1077,1077,1077,1077,1077,1077,1077,1077,1077,1077,1073,1073,1070,1070,1070,1070,1070,1070,1070,1070,1070,1073,1073,1073,1073,1073,1073,1073,1073,1073,1073,1073,1073,1073,1073,1073,1073,1073,1073,1073,1070,1070,1070,1070,1070,1070,1070,1070,1070,1070,1067,1067,1067,1067,1067,1067,1067,1067,1067,1067,1067,1067,1063,1063,1063,1063,1063,1063,1063,1063,1063,1063,1063,1063,1063,1067,1063,1063,1067,1067,1067,1067,1067,1067,1067,1067,1067,1063,1063,1063,1063,1063,1063,1063,1060,1060,1060,1057,1057,1057,1060,1057,1057,1057,1057,1060,1057,1057,1057,1057,1057,1057,1057,1057,1057,1060,1060,1057,1057,1057,1057,1054,1054,1054,1054,1054,1054,1057,1057,1057,1054,1054,1057,1057,1054,1054,1054,1054,1054,1054,1054,1054,1054,1054,1054,1054,1054,1054,1057,1054,1054,1054,1054,1054,1054,1054,1054,1054,1054,1054,1054,1054,1054,1054,1050,1050,1050,1050,1050,1050,1050,1050,1050,1050,1050,1050,1050,1050,1050,1050,1054,1054,1054,1050,1047,1047,1047,1047,0,935,930,930,930,928,928,925,925,923,920,920,0,0,0,0,0,0,0,0,0,0,0,0,0,0,0,0,0,0,0,0,0,0,0,0,0,0,0,0,0,0,0,0,0,0,0,0
0,0,0,0,0,1126,1126,1126,1126,1126,1126,1123,1123,1123,1119,1119,1119,1119,1119,1119,1119,1119,1119,1119,1119,1115,1115,1119,1115,1115,1115,1115,1115,1115,1115,1115,1115,1115,1115,1119,1119,1119,1115,1115,1115,1115,1115,1115,1115,1115,1115,1115,1115,1115,1115,1112,1112,1112,1112,1115,1115,1115,1115,1115,1112,1112,1112,1112,1112,1112,1112,1112,1112,1112,1112,1112,1108,1108,1112,1112,1108,1108,1105,1105,1108,1105,1105,1108,1108,1108,1108,1108,1108,1108,1108,1108,1112,1108,1108,1108,1108,1108,1108,1108,1108,1108,1108,1108,1108,1108,1108,1112,1108,1108,1108,1108,1108,1105,1105,1105,1105,1105,1105,1105,1105,1105,1105,1101,1101,1101,1097,1097,1101,0,0,0,0,0,0,0,0,759,755,754,754,752,752,752,752,752,754,754,754,755,757,757,759,759,761,761,762,764,764,766,766,766,766,0,0,0,0,0,1101,1101,1101,1097,1097,1097,1097,1097,1097,1097,1097,1101,1101,1101,1101,1101,1101,1101,1101,1097,1097,1097,1097,1097,1097,1097,1097,1097,1097,1097,1094,1094,1094,1094,1094,1094,1097,1097,1097,1097,1097,1094,1094,1094,1094,1090,1090,1090,1090,1090,1094,1094,1094,1094,1094,1094,1094,1097,1101,869,869,869,869,869,869,869,869,869,871,873,873,873,873,873,875,875,875,875,875,875,875,875,875,878,878,878,878,880,880,882,885,885,885,887,887,889,891,894,894,894,896,898,901,901,901,903,903,906,906,908,910,913,913,913,913,915,915,915,918,920,1077,1073,1073,1073,1073,1077,1077,1077,1077,1080,1080,1080,1084,1084,1084,1084,1084,1084,1084,1087,1087,1087,1087,1087,1084,1084,1080,1080,1080,1080,1080,1080,1080,1080,1080,1084,1080,1080,1084,1084,1084,1084,1084,1084,1084,1084,1084,1084,1084,1084,1084,1084,1084,1084,1084,1084,1084,1084,1080,1080,1077,1073,1070,1063,1057,1050,1047,1041,1041,1038,1038,1034,1034,1034,1034,1038,1038,1038,1041,1041,1044,1047,1073,1073,1073,1077,1080,1077,1077,1077,1077,1077,1073,1073,1073,1073,1073,1073,1077,1077,1077,1077,1077,1077,1077,1077,1077,1073,1073,1073,1073,1073,1073,1073,1073,1073,1073,1073,1073,1073,1073,1073,1073,1073,1070,1070,1067,1067,1067,1067,1067,1067,1067,1067,1067,1067,1070,1070,1070,1070,1070,1070,1070,1070,1070,1070,1070,1070,1070,1070,1070,1070,1067,1067,1067,1067,1067,1067,1067,1067,1067,1067,1063,1063,1063,1063,1063,1063,1063,1063,1067,1067,1067,1063,1063,1063,1060,1060,1057,1057,1057,1060,1060,1057,1057,1057,1060,1057,1057,1060,1063,1063,1063,1063,1063,1067,1063,1063,1063,1063,1063,1060,1060,1060,1060,1060,1060,1057,1057,1054,1054,1054,1054,1054,1054,1054,1054,1054,1054,1054,1054,1054,1054,1054,1054,1054,1054,1054,1057,1057,1054,1054,1054,1054,1054,1054,1054,1050,1050,1054,1054,1054,1054,1054,1054,1054,1054,1054,1050,1050,1054,1050,1050,1050,1050,1050,1050,1050,1050,1054,1054,1054,1050,1050,1050,1050,1050,1050,1050,1050,1054,1050,1050,1050,1050,1050,1050,1047,1047,1047,1047,1050,1050,1050,1050,1050,1047,1047,1047,1047,1047,1047,1050,1050,1047,1047,1041,1041,1044,1044,938,935,935,930,930,928,928,925,923,923,920,920,0,0,0,0,0,0,0,0,0,0,0,0,0,0,0,0,0,0,0,0,0,0,0,0,0,0,0,0,0,0,0,0,0,0,0,0
0,0,0,0,0,1119,1119,1123,1123,1123,1123,1123,1119,1119,1119,1119,1115,1115,1115,1115,1115,1119,1115,1115,1115,1115,1115,1115,1115,1115,1115,1115,1115,1115,1115,1115,1115,1115,1115,1115,1115,1112,1112,1112,1112,1112,1112,1112,1112,1112,1115,1115,1112,1112,1112,1112,1112,1112,1112,1112,1115,1112,1112,1112,1112,1112,1108,1108,1108,1108,1108,1108,1108,1108,1108,1108,1108,1108,1108,1108,1108,1105,1105,1105,1105,1105,1105,1105,1105,1105,1105,1108,1108,1105,1105,1108,1108,1105,1105,1105,1105,1105,1105,1105,1105,1108,1108,1108,1108,1105,1105,1105,1105,1105,1105,1105,1105,1105,1105,1105,1105,1105,1101,1101,1101,1101,1101,1101,1101,1101,1097,1097,0,0,0,0,0,0,0,0,0,0,754,754,754,752,752,752,752,754,754,754,755,755,757,759,759,759,761,761,762,764,766,766,766,766,766,0,0,0,0,0,1101,1101,1097,1097,1094,1094,1094,1094,1094,1094,1094,1094,1094,1097,1101,1101,1101,1101,1097,1097,1097,1097,1097,1097,1097,1094,1094,1094,1094,1090,1090,1090,1090,1090,1090,1090,1090,1090,1090,1094,1094,1090,1090,1090,1090,1090,1090,1090,1090,1090,1090,1090,1090,860,860,860,864,864,867,867,869,869,869,869,869,869,869,869,869,871,871,871,871,871,871,871,871,871,875,875,875,875,875,878,878,878,878,880,880,882,885,885,885,887,887,889,891,894,894,894,896,898,901,901,901,903,903,906,906,908,908,910,910,910,913,913,915,915,918,1077,1077,1073,1073,1073,1073,1077,1077,1077,1077,1077,1077,1077,1080,1080,1084,1080,1080,1080,1080,1084,1080,1080,1080,1084,1084,1084,1080,1080,1080,1080,1080,1080,1080,1080,1080,1080,1080,1080,1080,1080,1080,1080,1080,1080,1080,1084,1084,1080,1080,1080,1080,1080,1080,1080,1080,1080,1080,1080,1080,1077,1077,1073,1070,1063,1060,1054,1050,1044,1041,1041,1038,1038,1038,1038,1038,1038,1038,1038,1041,1041,1044,1050,1073,1073,1073,1073,1077,1077,1073,1073,1073,1073,1070,1070,1070,1070,1070,1070,1073,1073,1073,1077,1077,1077,1077,1073,1073,1070,1070,1070,1070,1070,1070,1070,1070,1070,1070,1070,1070,1070,1067,1067,1067,1067,1067,1067,1067,1067,1067,1067,1067,1063,1063,1067,1067,1067,1067,1067,1067,1067,1067,1067,1067,1067,1067,1067,1067,1067,1067,1067,1063,1063,1063,1063,1063,1060,1060,1063,1063,1063,1063,1063,1063,1060,1060,1060,1063,1063,1063,1063,1063,1063,1063,1063,1063,1060,1060,1060,1057,1057,1057,1057,1057,1054,1054,1054,1054,1054,1054,1054,1057,1057,1060,1060,1060,1063,1063,1060,1060,1060,1060,1060,1057,1057,1057,1057,1057,1054,1054,1054,1054,1054,1054,1054,1054,1054,1054,1054,1054,1054,1054,1050,1050,1050,1050,1054,1054,1054,1054,1054,1050,1050,1050,1050,1050,1050,1050,1050,1050,1050,1054,1050,1050,1050,1050,1050,1050,1050,1047,1047,1050,1050,1050,1050,1050,1050,1050,1050,1050,1050,1050,1050,1050,1050,1050,1047,1047,1050,1047,1047,1050,1050,1050,1047,1047,1047,1047,1047,1047,1047,1047,1047,1047,1047,1047,1047,1047,1047,1044,1044,1044,1044,1044,1044,1044,1044,1038,1038,1028,1028,938,938,935,930,930,928,928,925,923,923,920,920,0,0,0,0,0,0,0,0,0,0,0,0,0,0,0,0,0,0,0,0,0,0,0,0,0,0,0,0,0,0,0,0,0,0,0,0
0,0,0,0,0,1119,1119,1119,1123,1119,1119,1119,1119,1119,1119,1119,1115,1115,1115,1115,1115,1115,1112,1112,1112,1112,1112,1112,1112,1112,1115,1112,1112,1112,1112,1112,1112,1108,1108,1108,1108,1108,1108,1108,1108,1108,1108,1108,1108,1112,1112,1112,1112,1112,1108,1105,1105,1108,1108,1108,1108,1108,1112,1112,1108,1108,1108,1105,1105,1105,1105,1105,1105,1105,1105,1105,1105,1105,1105,1105,1105,1105,1105,1105,1105,1105,1105,1105,1105,1105,1105,1105,1105,1105,1105,1105,1105,1101,1101,1101,1101,1105,1105,1105,1105,1105,1105,1105,1105,1105,1105,1101,1101,1101,1101,1101,1101,1101,1101,1101,1105,1101,1101,1101,1101,1101,1101,1097,1097,1097,1094,1094,1094,0,0,0,0,0,0,0,0,0,754,754,754,752,752,752,754,754,754,754,755,757,757,759,759,761,761,762,764,766,766,766,766,766,766,0,0,0,0,0,1097,1097,1097,1097,1094,1094,1094,1094,1094,1090,1090,1090,1090,1094,1094,1094,1094,1094,1097,1094,1094,1094,1094,1094,1094,1090,1090,1090,1090,1090,1090,1090,1090,1090,1090,1090,1090,1090,1090,1090,1090,1090,1090,1090,1090,1090,1090,1090,1090,1090,1090,1090,860,860,860,860,864,864,864,867,867,867,867,869,867,867,867,867,869,869,869,869,869,869,871,869,869,871,873,873,875,875,875,878,878,878,878,880,880,882,885,885,885,887,887,891,891,894,894,896,896,898,901,901,901,903,903,906,906,906,908,908,910,910,910,913,1073,1073,1073,1073,1073,1073,1073,1073,1077,1077,1077,1077,1077,1077,1077,1077,1077,1077,1077,1077,1077,1077,1077,1080,1080,1080,1080,1080,1080,1080,1080,1080,1080,1077,1077,1077,1077,1077,1077,1077,1077,1077,1077,1077,1077,1080,1080,1080,1080,1080,1080,1077,1077,1077,1077,1077,1077,1077,1077,1077,1077,1077,1077,1077,1073,1073,1070,1063,1060,1057,1050,1047,1044,1041,1041,1038,1038,1038,1038,1038,1041,1041,1041,1044,1044,1057,1063,1063,1067,1067,1073,1073,1073,1070,1070,1070,1070,1070,1070,1070,1070,1070,1070,1070,1070,1073,1073,1073,1073,1070,1070,1070,1070,1070,1067,1067,1070,1070,1070,1070,1067,1067,1067,1067,1067,1067,1067,1067,1067,1067,1067,1067,1063,1063,1063,1063,1063,1063,1063,1063,1063,1063,1063,1063,1063,1063,1063,1063,1063,1067,1063,1063,1063,1063,1060,1060,1060,1060,1057,1057,1057,1060,1057,1057,1060,1060,1060,1057,1057,1057,1060,1060,1060,1060,1063,1063,1063,1063,1060,1060,1057,1057,1057,1054,1054,1054,1054,1054,1054,1054,1054,1054,1054,1054,1054,1054,1054,1057,1057,1057,1060,1057,1057,1054,1054,1057,1054,1054,1054,1054,1054,1054,1054,1050,1050,1050,1050,1050,1050,1050,1054,1050,1050,1050,1050,1050,1050,1050,1050,1050,1050,1050,1050,1050,1050,1047,1047,1050,1050,1050,1050,1050,1050,1050,1050,1047,1047,1047,1044,1044,1047,1047,1044,1044,1044,1044,1047,1047,1047,1047,1047,1050,1047,1047,1047,1047,1047,1047,1044,1044,1044,1047,1044,1044,1044,1047,1047,1044,1044,1044,1044,1044,1044,1044,1044,1047,1047,1047,1047,1047,1044,1044,1044,1041,1041,1041,1041,1041,1041,1044,1038,1038,1028,1025,1025,938,933,930,930,928,928,925,925,925,0,0,0,0,0,0,0,0,0,0,0,0,0,0,0,0,0,0,0,0,0,0,0,0,0,0,0,0,0,0,0,0,0,0,0,0,0,0
0,0,0,0,0,1119,1119,1119,1119,1119,1119,1119,1119,1119,1115,1115,1115,1112,1112,1112,1112,1112,1105,1105,1108,1105,1105,1108,1105,1105,1112,1112,1112,1112,1112,1108,1108,1101,1101,1108,1105,1105,1105,1105,1105,1105,1105,1105,1105,1108,1112,1108,1108,1108,1105,1105,1105,1105,1105,1105,1105,1105,1105,1105,1105,1105,1105,1105,1105,1105,1105,1105,1105,1105,1105,1101,1101,1105,1105,1105,1105,1101,1101,1101,1101,1101,1105,1101,1101,1101,1101,1105,1101,1097,1097,1101,1101,1101,1101,1097,1097,1101,1101,1101,1101,1101,1101,1101,1101,1097,1097,1097,1097,1097,1097,1097,1097,1097,1097,1097,1097,1097,1097,1097,1097,1097,1097,1097,1097,1097,1094,1094,1094,0,0,0,0,0,0,0,0,0,0,754,754,754,754,754,754,754,754,754,755,757,759,759,761,761,762,764,764,766,766,766,766,766,767,0,0,0,0,0,1094,1094,1094,1094,1090,1090,1090,1090,1090,1090,1090,1090,1090,1090,1090,1090,1090,1090,1090,1090,1090,1090,1090,1090,1090,1090,1090,1090,1090,1090,1090,1090,1090,1090,1087,1087,1087,1087,1087,1087,1087,1087,1090,1090,1090,1090,1087,1087,1090,1090,1090,858,858,860,860,860,862,864,864,864,867,867,867,867,867,867,867,867,867,867,867,867,869,869,869,869,869,871,871,873,875,875,875,875,878,878,878,880,880,882,885,885,885,887,889,891,894,894,894,896,896,898,901,901,901,903,903,906,906,906,906,908,910,910,910,1073,1073,1073,1073,1073,1073,1073,1073,1073,1073,1073,1073,1073,1073,1073,1073,1073,1073,1073,1073,1073,1073,1073,1073,1077,1077,1077,1077,1077,1077,1077,1073,1073,1073,1073,1077,1077,1077,1077,1077,1077,1077,1077,1077,1077,1077,1077,1077,1077,1077,1077,1077,1077,1077,1073,1073,1073,1073,1073,1073,1073,1073,1073,1073,1073,1070,1070,1067,1063,1060,1057,1050,1047,1044,1041,1041,1041,1038,1038,1038,1038,1041,1044,1047,1050,1050,1057,1063,1063,1063,1067,1070,1070,1070,1070,1070,1070,1070,1067,1067,1067,1067,1067,1067,1067,1067,1070,1070,1070,1070,1067,1067,1067,1067,1067,1067,1067,1067,1067,1067,1067,1063,1063,1063,1063,1063,1063,1063,1063,1063,1063,1063,1063,1063,1063,1063,1060,1060,1063,1063,1060,1060,1060,1060,1060,1057,1057,1060,1063,1063,1063,1060,1060,1060,1057,1057,1057,1057,1057,1057,1054,1054,1057,1054,1054,1057,1057,1057,1054,1054,1054,1057,1057,1057,1060,1060,1060,1060,1060,1060,1057,1057,1054,1054,1054,1054,1054,1050,1050,1050,1050,1050,1050,1050,1050,1050,1050,1050,1050,1050,1050,1050,1050,1050,1047,1047,1050,1050,1050,1050,1050,1050,1050,1050,1050,1050,1050,1050,1050,1050,1050,1050,1050,1050,1050,1050,1047,1047,1050,1050,1050,1050,1050,1050,1050,1047,1047,1047,1047,1047,1047,1050,1047,1047,1047,1047,1044,1044,1044,1041,1041,1041,1044,1044,1044,1044,1044,1044,1044,1044,1044,1044,1044,1044,1044,1044,1047,1044,1044,1044,1044,1044,1044,1044,1041,1041,1044,1044,1041,1041,1041,1041,1041,1041,1041,1044,1044,1044,1044,1044,1044,1041,1041,1041,1041,1041,1041,1038,1038,1041,1041,1038,1038,1028,1025,1025,1025,933,930,930,930,928,928,928,928,0,0,0,0,0,0,0,0,0,0,0,0,0,0,0,0,0,0,0,0,0,0,0,0,0,0,0,0,0,0,0,0,0,0,0,0,0,0
