0,0,0,0,0,0,1119,1119,1119,1115,1115,1115,1112,1112,1112,1112,1112,1108,1108,1108,1108,1108,1108,1112,1112,1112,1112,1112,1112,1112,1112,1112,1112,1112,1112,1112,1112,1112,1112,1112,1112,1108,1108,1105,1105,1105,1105,1108,1108,1108,1108,1108,1108,1108,1108,1105,1105,1105,1105,1105,1105,1105,1105,1105,1105,1105,1105,1105,1105,1105,1105,1105,1105,1105,1101,1101,1101,1101,1101,1101,1101,1101,1105,1105,1105,1105,1105,1105,1101,1101,1097,1097,1019,1019,1019,1016,1016,1013,1010,1010,1010,1010,1010,1013,1013,1013,1016,1019,1022,1022,1022,1025,1025,1025,1025,1108,1105,1105,1105,1105,1105,1105,1101,1101,1101,1101,1101,1101,1097,1097,1097,1094,1094,1094,1094,1094,1094,1094,1094,1094,1094,1097,1094,1094,1094,1094,1094,1094,1094,1097,1097,1097,1097,1097,1097,1094,1094,1094,1094,1094,1094,1094,1094,1094,1094,1094,1094,1094,1094,1094,1094,1094,1094,1094,1094,1094,1090,1090,1090,1094,1094,1094,1094,1094,1094,1094,1090,1090,1094,1094,1094,1090,1090,1090,1090,1090,1090,1090,1094,1090,1090,1090,1087,1087,1087,1087,1084,1084,0,0,0,0,0,0,0,755,754,754,754,752,752,749,747,746,744,742,742,741,741,741,742,742,742,744,746,749,750,752,752,754,757,757,759,759,761,764,0,0,0,0,0,1087,1087,1087,1087,1087,1087,1087,1087,1087,1087,1087,1087,858,858,858,858,858,858,858,858,858,860,860,860,860,862,862,864,864,867,867,869,871,871,875,878,880,885,889,889,891,894,894,896,1073,1073,1073,1073,1073,1073,1077,1077,1077,1077,1077,1077,1077,1080,1077,1077,1080,1080,1080,1077,1077,1077,1077,1077,1077,1077,1077,1077,1077,1077,1077,1077,1077,1077,1077,1077,1077,1077,1077,1077,1077,1073,1073,1070,1070,1070,1070,1070,1070,1070,1070,1070,1070,1070,1070,1070,1070,1070,1070,1070,1070,1070,1070,1070,1070,1070,1070,1070,1070,1070,1070,1070,1070,1070,1070,1070,1070,1070,1070,1070,1070,1067,1067,1067,1067,1067,1067,1067,1067,1067,1070,1067,1067,1067,1067,1067,1067,1067,1067,1067,1067,1067,1067,1067,1067,1067,1067,1067,1067,1067,1067,1067,1067,1067,1063,1063,1063,1063,1063,1063,1063,1063,1063,1063,1063,1060,1060,1063,1063,1063,1063,1063,1063,1063,1063,1063,1060,1060,1060,1063,1063,1063,1063,1063,1063,1063,1060,1060,1060,1060,1060,1060,1060,1057,1057,1057,1057,1057,1057,1057,1057,1057,1057,1054,1054,1054,1054,1054,1054,1054,1054,1054,1054,1054,1054,1054,1054,1054,1050,1050,1050,1050,1050,1054,1054,1054,1054,1054,1054,1054,1054,1054,1054,1054,1054,1054,1054,1054,1054,1054,1054,1054,1054,1050,1050,1050,1050,1050,1047,1047,1047,1047,1047,1050,1047,1047,1047,1044,1044,1044,1044,1044,1044,1044,1044,1041,1041,1041,1041,1041,1041,1044,1041,1041,1041,1041,1038,1019,1013,1010,1010,1010,1010,1010,1010,1013,1013,1016,1019,1028,1034,1038,1034,1034,1038,1038,959,956,956,956,956,954,954,956,954,951,951,948,948,948,951,951,951,951,951,1038,1038,1038,1038,1038,1038,1038,1038,1038,1038,1038,1038,1038,1038,1038,1038,1034,1034,1034,1038,1034,1034,1034,1022,1001,1001,998,998,995,995,995,992,992,989,989,989,0,0,0,0,0,0,0,0,0,0,0,0,0,0,0,0,0,0,0,0,0,0,0,0,0,0,0,0,0,0,0,0,0,0
0,0,0,0,0,0,1115,1115,1115,1115,1115,1112,1112,1112,1108,1108,1108,1105,1105,1105,1105,1105,1108,1108,1108,1108,1108,1108,1108,1108,1108,1108,1108,1108,1108,1108,1108,1108,1108,1105,1105,1105,1105,1101,1101,1101,1101,1105,1105,1105,1105,1105,1105,1105,1105,1105,1101,1101,1101,1101,1101,1105,1105,1105,1101,1101,1105,1105,1101,1101,1101,1101,1101,1101,1101,1101,1101,1101,1101,1101,1101,1101,1101,1101,1101,1101,1105,1101,1101,1097,1097,1097,1019,1019,1022,1019,1016,1013,1013,1013,1013,1013,1013,1013,1013,1013,1016,1019,1022,1022,1022,1025,1025,1025,1025,1105,1105,1105,1101,1101,1101,1101,1101,1101,1101,1097,1097,1097,1097,1097,1094,1094,1094,1094,1094,1090,1090,1090,1090,1090,1090,1094,1090,1090,1094,1094,1094,1094,1094,1094,1097,1094,1094,1094,1094,1090,1090,1090,1090,1090,1090,1090,1090,1090,1090,1090,1090,1090,1090,1090,1090,1090,1090,1090,1090,1090,1090,1090,1090,1090,1090,1090,1090,1090,1090,1090,1090,1090,1090,1090,1090,1090,1090,1090,1090,1087,1087,1087,1087,1087,1087,1087,1084,1084,1084,1084,1084,1084,0,0,0,0,0,0,757,757,755,754,754,754,752,750,749,747,746,744,742,742,742,742,742,744,744,746,747,749,750,752,752,754,757,757,759,761,761,766,767,0,0,0,0,1084,1084,1084,1084,1084,1087,1087,1087,1087,1087,1087,1087,858,858,856,856,858,858,858,858,858,858,858,858,860,860,862,862,862,867,867,869,871,873,875,878,880,887,889,889,891,894,894,1073,1073,1073,1073,1073,1073,1073,1073,1073,1073,1073,1073,1073,1073,1077,1073,1073,1077,1077,1080,1077,1077,1077,1073,1073,1073,1073,1073,1073,1077,1077,1077,1077,1077,1077,1077,1077,1077,1073,1073,1073,1073,1070,1070,1070,1070,1070,1070,1070,1067,1067,1067,1067,1067,1067,1067,1067,1067,1067,1070,1067,1067,1067,1067,1067,1067,1067,1067,1067,1067,1067,1067,1067,1067,1067,1067,1067,1067,1067,1067,1067,1067,1067,1067,1067,1067,1067,1067,1067,1067,1067,1067,1067,1067,1067,1063,1063,1067,1063,1063,1063,1063,1063,1063,1063,1063,1063,1063,1063,1063,1063,1063,1063,1063,1063,1063,1060,1060,1060,1060,1060,1060,1060,1060,1057,1057,1057,1057,1057,1057,1060,1060,1057,1057,1057,1060,1060,1057,1057,1057,1057,1057,1057,1057,1057,1060,1060,1060,1060,1060,1057,1057,1060,1057,1057,1057,1054,1054,1054,1054,1054,1054,1054,1054,1050,1050,1050,1050,1050,1050,1050,1050,1054,1050,1050,1050,1050,1050,1050,1047,1047,1050,1050,1050,1050,1050,1050,1050,1050,1050,1050,1050,1050,1050,1050,1050,1050,1050,1050,1050,1050,1050,1050,1050,1050,1047,1047,1047,1047,1047,1047,1047,1047,1047,1047,1047,1044,1044,1044,1044,1041,1041,1041,1041,1041,1041,1041,1041,1041,1041,1041,1041,1041,1038,1038,1038,1038,1034,1034,1016,1010,1010,1010,1010,1010,1010,1010,1010,1013,1016,1025,1034,1034,1034,1034,1034,1034,959,959,956,956,956,954,954,956,954,951,951,948,948,948,948,951,951,951,951,951,1038,1038,1038,1038,1038,1038,1038,1038,1038,1038,1034,1034,1034,1034,1034,1031,1031,1034,1034,1028,1028,1025,1022,1013,1001,1001,998,995,995,995,992,992,989,989,989,0,0,0,0,0,0,0,0,0,0,0,0,0,0,0,0,0,0,0,0,0,0,0,0,0,0,0,0,0,0,0,0,0,0
0,0,0,0,0,0,1115,1112,1112,1112,1112,1112,1108,1108,1105,1105,1105,1105,1105,1105,1105,1105,1105,1105,1105,1105,1105,1105,1105,1105,1105,1105,1105,1105,1105,1105,1105,1105,1101,1101,1097,1097,1101,1097,1097,1097,1101,1101,1101,1101,1101,1101,1101,1101,1101,1101,1101,1101,1101,1101,1101,1101,1101,1101,1101,1101,1101,1101,1101,1101,1101,1101,1101,1101,1101,1101,1101,1097,1097,1097,1097,1097,1097,1101,1097,1097,1101,1101,1097,1097,1094,1094,1019,1019,1022,1019,1019,1016,1016,1016,1013,1013,1013,1013,1016,1019,1019,1019,1022,1022,1022,1025,1025,1025,1025,1105,1101,1101,1101,1097,1097,1097,1097,1097,1097,1094,1094,1094,1094,1094,1090,1090,1090,1090,1090,1090,1090,1090,1090,1090,1090,1090,1090,1090,1090,1090,1090,1090,1090,1090,1094,1090,1090,1090,1090,1090,1090,1090,1087,1087,1087,1090,1090,1090,1090,1090,1090,1087,1087,1087,1087,1087,1087,1087,1087,1087,1087,1087,1087,1087,1087,1087,1084,1084,1084,1084,1087,1087,1087,1087,1087,1087,1087,1087,1084,1084,1084,1084,1084,1080,1080,1080,1080,1080,1080,1080,1080,1077,1077,0,0,0,0,0,757,757,757,755,755,755,752,752,750,749,747,746,746,744,742,742,744,744,746,746,747,749,750,752,754,754,757,757,761,761,766,767,767,769,0,0,0,1084,1084,1084,1084,1084,1084,1084,1084,1087,1087,854,854,854,856,856,856,856,858,858,858,858,858,858,858,858,860,860,860,862,864,869,869,873,873,875,878,880,887,889,889,891,894,894,1070,1070,1070,1070,1070,1070,1073,1070,1070,1070,1070,1070,1070,1070,1073,1070,1070,1073,1073,1073,1073,1073,1073,1070,1070,1070,1070,1070,1070,1070,1070,1073,1073,1073,1073,1073,1073,1070,1070,1070,1070,1070,1067,1067,1067,1067,1067,1067,1067,1067,1067,1063,1063,1063,1063,1063,1063,1063,1063,1067,1067,1067,1067,1067,1067,1067,1063,1063,1063,1063,1063,1063,1063,1063,1063,1063,1063,1063,1063,1063,1063,1067,1063,1063,1063,1063,1063,1063,1063,1063,1063,1063,1063,1063,1063,1063,1063,1063,1060,1060,1060,1060,1060,1060,1060,1060,1060,1063,1063,1060,1060,1060,1060,1060,1060,1057,1057,1057,1057,1057,1057,1057,1057,1057,1057,1057,1057,1057,1054,1054,1057,1057,1054,1054,1054,1054,1054,1054,1054,1054,1054,1054,1054,1054,1054,1054,1057,1057,1057,1057,1057,1057,1057,1054,1054,1054,1054,1054,1054,1054,1050,1050,1050,1047,1044,1044,1044,1044,1047,1047,1050,1050,1050,1050,1050,1047,1047,1047,1047,1044,1044,1047,1047,1047,1047,1047,1047,1047,1047,1044,1044,1044,1044,1047,1047,1047,1047,1047,1050,1050,1050,1050,1050,1050,1047,1044,1044,1047,1047,1044,1044,1044,1044,1044,1044,1044,1041,1041,1041,1041,1041,1041,1041,1041,1041,1041,1038,1038,1041,1041,1038,1038,1041,1038,1038,1038,1038,1034,1028,1025,1025,1013,1010,1010,1007,1007,1007,1007,1013,1016,1025,1031,1031,1031,1031,1031,1028,1028,959,959,956,956,956,956,956,954,951,951,948,948,948,948,948,951,951,951,951,1034,1034,1034,1038,1034,1034,1038,1034,1034,1034,1031,1031,1031,1034,1031,1031,1031,1031,1031,1028,1028,1025,1022,1013,1004,1004,998,998,998,992,992,992,992,989,989,0,0,0,0,0,0,0,0,0,0,0,0,0,0,0,0,0,0,0,0,0,0,0,0,0,0,0,0,0,0,0,0,0,0
0,0,0,0,0,0,1112,1112,1108,1108,1108,1108,1105,1105,1105,1105,1105,1105,1101,1101,1101,1101,1101,1105,1105,1105,1105,1105,1105,1105,1101,1101,1105,1105,1105,1105,1101,1101,1097,1094,1094,1094,1094,1094,1094,1094,1097,1097,1097,1097,1097,1097,1097,1097,1097,1097,1097,1097,1097,1097,1097,1097,1097,1097,1097,1097,1097,1101,1101,1101,1101,1101,1097,1097,1097,1097,1097,1097,1094,1094,1094,1094,1094,1097,1094,1094,1097,1097,1094,1094,1094,1094,1022,1022,1019,1019,1019,1016,1016,1016,1013,1013,1013,1016,1016,1019,1019,1022,1022,1022,1025,1025,1025,1025,1025,1028,1097,1094,1094,1094,1094,1094,1094,1094,1094,1090,1090,1090,1090,1090,1090,1090,1090,1090,1087,1087,1087,1087,1087,1087,1087,1087,1087,1087,1087,1087,1087,1090,1090,1090,1090,1090,1087,1087,1087,1087,1087,1087,1087,1087,1087,1087,1087,1087,1087,1087,1087,1087,1087,1087,1084,1084,1084,1084,1084,1084,1084,1084,1084,1084,1084,1084,1084,1080,1080,1080,1080,1080,1080,1080,1087,1087,1087,1087,1084,1084,1080,1080,1080,1080,1080,1080,1080,1080,1080,1077,1077,1077,1077,0,0,0,0,0,759,757,757,757,757,755,754,752,752,750,749,747,747,746,744,744,744,746,746,747,747,749,750,752,754,757,757,759,762,762,767,767,767,767,0,0,0,0,1077,1077,1077,1080,1080,1084,1084,1087,851,851,851,851,854,854,854,856,856,856,856,856,856,856,858,858,858,860,860,862,864,869,869,873,873,875,878,880,885,889,889,891,894,1067,1067,1067,1067,1067,1067,1067,1070,1067,1067,1067,1067,1067,1067,1067,1067,1067,1067,1070,1070,1070,1067,1067,1067,1067,1067,1067,1067,1067,1067,1067,1067,1070,1067,1067,1067,1067,1070,1070,1067,1067,1067,1067,1063,1063,1063,1063,1063,1063,1063,1063,1063,1060,1060,1063,1063,1063,1063,1063,1063,1063,1063,1063,1063,1063,1063,1063,1063,1063,1060,1060,1063,1063,1063,1060,1060,1063,1063,1060,1060,1060,1060,1060,1060,1060,1063,1063,1063,1063,1063,1063,1063,1063,1060,1060,1060,1060,1060,1060,1060,1057,1057,1057,1057,1057,1057,1057,1057,1060,1060,1060,1057,1057,1057,1057,1054,1054,1054,1054,1054,1054,1054,1054,1054,1054,1054,1054,1054,1054,1054,1054,1054,1054,1054,1054,1054,1054,1054,1050,1050,1050,1050,1050,1050,1050,1050,1050,1050,1050,1054,1054,1054,1054,1054,1054,1050,1050,1050,1050,1050,1050,1047,1047,1047,1047,1044,1044,1044,1044,1044,1047,1047,1050,1050,1047,1047,1044,1044,1044,1044,1044,1044,1044,1044,1047,1047,1047,1044,1044,1044,1041,1041,1041,1041,1041,1041,1041,1041,1044,1047,1047,1047,1047,1047,1047,1044,1044,1044,1044,1044,1044,1044,1041,1041,1041,1041,1041,1038,1038,1038,1038,1038,1038,1038,1038,1038,1038,1038,1038,1041,1041,1038,1038,1038,1038,1034,1034,1034,1031,1028,1025,1025,1013,1010,1010,1007,1004,1004,1004,1007,1007,1022,1028,1028,1031,1031,1028,1028,1028,1028,1028,956,956,956,956,956,951,951,948,948,948,948,948,948,948,948,948,948,948,1034,1034,1034,1034,1034,1034,1031,1031,1031,1031,1031,1031,1031,1031,1028,1028,1028,1031,1028,1028,1025,1022,1022,1010,1010,1004,1004,1004,1004,1016,989,989,989,989,0,0,0,0,0,0,0,0,0,0,0,0,0,0,0,0,0,0,0,0,0,0,0,0,0,0,0,0,0,0,0,0,0,0
0,0,0,0,0,0,1105,1105,1105,1105,1105,1105,1105,1105,1105,1101,1101,1101,1101,1101,1101,1097,1097,1101,1101,1101,1101,1101,1101,1101,1101,1101,1101,1101,1101,1101,1101,1097,1094,1094,1094,1094,1094,1094,1090,1090,1094,1090,1090,1094,1094,1094,1090,1090,1090,1094,1094,1094,1094,1097,1094,1094,1097,1094,1094,1094,1094,1094,1097,1097,1097,1097,1097,1097,1094,1094,1094,1090,1090,1090,1090,1090,1090,1090,1090,1090,1094,1090,1090,1090,1090,1090,1090,1022,1019,1019,1019,1019,1019,1016,1016,1016,1016,1016,1019,1019,1019,1022,1022,1022,1025,1028,1028,1028,1028,1028,1034,1090,1087,1087,1087,1087,1087,1087,1090,1090,1090,1090,1090,1090,1087,1087,1087,1087,1087,1087,1087,1087,1087,1087,1087,1087,1087,1084,1084,1084,1087,1087,1087,1087,1087,1087,1087,1087,1087,1087,1087,1084,1084,1084,1084,1084,1087,1087,1087,1087,1084,1084,1084,1084,1080,1080,1080,1080,1080,1080,1080,1080,1080,1080,1084,1080,1080,1080,1080,1080,1080,1080,1080,1080,1080,1080,1080,1084,1080,1080,1077,1077,1077,1077,1077,1077,1077,1077,1077,1077,1077,1077,1077,1077,0,0,0,0,759,759,759,757,757,757,754,754,752,750,749,749,747,746,746,746,746,746,746,747,747,749,750,754,754,757,757,761,762,764,767,767,767,767,0,0,0,0,1077,1077,1077,1077,1077,1084,1084,851,851,851,849,849,851,851,851,854,854,854,854,856,856,856,856,858,858,860,860,862,864,869,871,873,875,875,878,880,882,887,889,891,1063,1063,1063,1063,1063,1063,1063,1063,1067,1067,1063,1063,1063,1067,1063,1063,1063,1063,1067,1067,1067,1067,1067,1067,1067,1063,1063,1063,1063,1067,1067,1067,1067,1067,1063,1063,1067,1067,1067,1067,1067,1067,1067,1067,1063,1063,1063,1063,1063,1063,1063,1060,1060,1060,1060,1060,1060,1060,1060,1060,1060,1060,1060,1060,1060,1060,1060,1060,1060,1060,1060,1060,1060,1060,1060,1060,1057,1057,1057,1057,1057,1057,1057,1057,1057,1057,1057,1057,1057,1060,1060,1060,1060,1060,1060,1060,1060,1060,1057,1057,1057,1057,1054,1054,1054,1054,1054,1054,1054,1057,1057,1057,1054,1054,1054,1054,1054,1054,1054,1054,1054,1054,1054,1054,1054,1054,1054,1054,1054,1054,1050,1050,1050,1050,1050,1050,1050,1050,1050,1050,1050,1050,1047,1047,1047,1047,1047,1047,1050,1050,1050,1050,1050,1050,1050,1050,1050,1050,1050,1050,1047,1047,1044,1044,1044,1044,1041,1041,1041,1041,1044,1044,1044,1047,1047,1044,1044,1044,1044,1041,1041,1041,1041,1041,1041,1044,1044,1044,1041,1041,1041,1041,1041,1038,1038,1038,1038,1038,1038,1041,1041,1041,1041,1041,1041,1041,1041,1041,1041,1041,1041,1041,1041,1041,1041,1038,1038,1038,1038,1038,1034,1034,1034,1034,1034,1038,1038,1038,1038,1038,1038,1041,1038,1038,1038,1038,1034,1031,1028,1028,1028,1025,1022,1013,1010,1010,1007,1004,1004,1004,1004,1007,1022,1028,1028,1031,1028,1028,1028,1028,1028,1028,1028,956,956,956,951,951,948,948,948,946,946,946,948,948,948,948,948,948,1034,1034,1031,1031,1031,1028,1028,1031,1028,1028,1028,1028,1028,1028,1025,1025,1028,1028,1028,1025,1025,1025,1022,1022,1016,1016,1013,1013,1016,1016,1016,989,989,989,0,0,0,0,0,0,0,0,0,0,0,0,0,0,0,0,0,0,0,0,0,0,0,0,0,0,0,0,0,0,0,0,0,0
0,0,0,0,0,0,1101,1101,1101,1101,1101,1101,1101,1101,1101,1101,1101,1097,1097,1097,1097,1094,1094,1094,1094,1094,1094,1097,1097,1097,1097,1097,1097,1097,1097,1097,1097,1094,1094,1094,1094,1090,1090,1090,1090,1090,1090,1090,1087,1087,1087,1087,1087,1087,1090,1094,1094,1094,1094,1094,1090,1090,1090,1090,1090,1090,1090,1090,1090,1094,1094,1094,1094,1094,1090,1090,1090,1090,1090,1090,1090,1090,1090,1090,1087,1087,1087,1087,1084,1084,1084,1084,1084,1022,1019,1019,1019,1019,1019,1019,1016,1016,1016,1016,1019,1019,1019,1022,1022,1022,1025,1028,1028,1031,1031,1031,1034,1087,1087,1087,1087,1087,1087,1087,1087,1087,1087,1087,1090,1087,1087,1087,1087,1087,1087,1087,1084,1084,1084,1084,1084,1084,1084,1084,1080,1080,1084,1084,1080,1080,1080,1084,1084,1084,1084,1084,1084,1084,1080,1080,1080,1080,1084,1084,1084,1084,1084,1080,1080,1080,1077,1077,1077,1077,1077,1077,1077,1077,1077,1077,1080,1077,1077,1077,1077,1077,1077,1077,1077,1077,1077,1077,1077,1077,1077,1077,1077,1077,1077,1077,1077,1073,1073,1077,1073,1073,1073,1073,1073,1077,0,0,0,0,759,759,759,759,759,759,755,754,752,752,750,749,749,747,746,746,746,746,746,747,747,749,750,754,754,757,759,761,762,766,767,767,767,767,0,0,0,0,1077,1077,1077,1077,1077,1077,845,849,849,849,849,849,849,849,849,849,849,849,851,851,851,854,854,856,858,860,860,862,864,869,871,873,875,878,878,880,882,885,889,1060,1060,1060,1063,1063,1063,1063,1060,1060,1063,1063,1063,1063,1063,1063,1060,1060,1060,1060,1063,1063,1063,1063,1063,1063,1063,1063,1063,1063,1063,1060,1060,1060,1060,1063,1063,1063,1063,1063,1067,1063,1063,1063,1063,1063,1063,1063,1063,1060,1060,1060,1060,1057,1057,1057,1057,1057,1060,1060,1060,1060,1057,1057,1057,1057,1057,1057,1057,1057,1057,1057,1057,1057,1057,1057,1057,1054,1054,1054,1057,1057,1057,1054,1054,1054,1054,1054,1054,1054,1054,1054,1054,1057,1057,1057,1057,1057,1057,1057,1054,1054,1054,1054,1054,1054,1054,1054,1054,1054,1054,1054,1054,1054,1050,1050,1050,1050,1050,1050,1050,1050,1050,1050,1050,1050,1050,1050,1050,1050,1050,1050,1050,1050,1050,1047,1047,1047,1047,1047,1047,1047,1047,1047,1047,1047,1044,1044,1044,1044,1044,1047,1047,1047,1047,1050,1050,1050,1050,1047,1047,1047,1044,1044,1041,1041,1041,1041,1041,1041,1041,1041,1044,1044,1044,1044,1044,1044,1044,1041,1041,1041,1041,1041,1041,1041,1041,1041,1041,1041,1041,1041,1041,1038,1038,1038,1038,1038,1038,1038,1038,1034,1034,1034,1034,1034,1038,1041,1038,1038,1038,1038,1041,1038,1038,1038,1038,1038,1038,1034,1034,1034,1034,1034,1034,1034,1034,1034,1034,1034,1034,1034,1038,1038,1038,1034,1034,1031,1028,1028,1028,1028,1028,1025,1022,1016,1013,1010,1007,1004,1004,1004,1004,1004,1022,1028,1028,1031,1028,1028,1028,1025,1025,1025,1025,1025,1025,1028,951,948,948,948,948,946,946,946,946,948,948,948,948,948,948,1028,1028,1025,1025,1025,1025,1028,1025,1025,1025,1025,1025,1025,1025,1025,1025,1025,1025,1025,1025,1022,1022,1022,1019,1019,1016,1016,1016,1016,1016,1013,0,0,0,0,0,0,0,0,0,0,0,0,0,0,0,0,0,0,0,0,0,0,0,0,0,0,0,0,0,0,0,0,0,0,0,0
0,0,0,0,0,0,1097,1097,1097,1097,1097,1097,1097,1097,1097,1097,1097,1094,1094,1090,1090,1090,1090,1090,1087,1087,1090,1090,1090,1090,1090,1090,1090,1090,1090,1090,1094,1094,1090,1090,1090,1090,1090,1090,1090,1090,1090,1087,1087,1087,1087,1087,1087,1087,1087,1090,1090,1090,1090,1090,1090,1090,1090,1090,1087,1087,1087,1087,1087,1090,1090,1090,1090,1090,1090,1090,1087,1087,1087,1087,1087,1087,1087,1087,1087,1087,1084,1084,1080,1080,1084,1084,1084,1087,1019,1019,1019,1019,1019,1019,1016,1016,1016,1019,1019,1019,1019,1022,1025,1025,1025,1028,1031,1031,1031,1031,1031,1087,1084,1084,1084,1087,1084,1084,1084,1084,1084,1084,1084,1084,1084,1084,1084,1084,1084,1084,1084,1080,1080,1080,1080,1080,1080,1080,1080,1080,1080,1077,1077,1077,1077,1080,1080,1080,1080,1080,1080,1080,1080,1080,1080,1080,1080,1080,1080,1080,1080,1077,1077,1077,1077,1077,1077,1077,1073,1073,1073,1077,1077,1077,1077,1077,1077,1077,1077,1073,1073,1073,1073,1077,1077,1073,1073,1073,1073,1073,1073,1073,1073,1073,1073,1073,1073,1073,1073,1070,1070,1073,1073,1077,0,0,0,0,761,761,761,761,761,759,755,754,754,752,750,749,749,747,747,746,746,746,746,747,747,749,750,754,757,757,759,761,762,766,767,767,767,767,0,0,0,0,0,0,0,0,839,839,845,845,845,847,847,847,847,847,847,847,847,847,847,849,849,851,854,856,858,860,860,862,864,869,871,873,875,878,878,880,882,885,1060,1060,1060,1060,1060,1060,1060,1060,1060,1060,1060,1060,1060,1060,1057,1057,1060,1060,1057,1057,1060,1060,1060,1063,1063,1063,1063,1060,1060,1060,1060,1057,1057,1057,1057,1057,1057,1057,1063,1063,1063,1063,1060,1060,1060,1060,1060,1060,1060,1060,1057,1057,1057,1057,1057,1054,1054,1054,1057,1057,1057,1057,1057,1057,1057,1054,1054,1054,1054,1054,1054,1054,1054,1054,1054,1054,1054,1054,1054,1054,1054,1054,1054,1054,1054,1054,1054,1054,1054,1054,1054,1054,1054,1054,1054,1054,1054,1054,1054,1054,1054,1054,1054,1054,1054,1054,1054,1054,1050,1050,1050,1050,1050,1050,1047,1047,1050,1050,1050,1050,1050,1050,1050,1050,1050,1047,1047,1047,1047,1047,1047,1047,1047,1047,1047,1047,1044,1044,1044,1044,1047,1047,1047,1044,1044,1044,1044,1044,1044,1044,1044,1044,1044,1044,1047,1047,1047,1047,1047,1044,1044,1044,1041,1041,1041,1041,1041,1041,1041,1041,1041,1041,1041,1041,1041,1041,1041,1041,1041,1041,1038,1038,1038,1038,1038,1038,1038,1038,1038,1041,1038,1038,1038,1038,1038,1038,1034,1034,1034,1031,1031,1031,1031,1031,1031,1031,1031,1031,1034,1038,1038,1038,1038,1038,1034,1034,1034,1034,1034,1031,1031,1031,1031,1031,1031,1028,1028,1031,1031,1031,1031,1031,1038,1038,1038,1031,1031,1028,1028,1028,1028,1028,1025,1025,1022,1019,1013,1013,1007,1004,1004,1004,1004,1004,1031,1028,1028,1031,1028,1025,1025,1025,1025,1025,1025,1025,1025,1025,1025,946,946,948,946,946,948,946,946,946,948,948,948,948,948,1025,1025,1025,1025,1025,1025,1025,1025,1025,1025,1022,1022,1022,1022,1022,1022,1022,1022,1022,1022,1022,1022,1019,1019,1019,1016,1016,1016,1013,1013,1013,1013,0,0,0,0,0,0,0,0,0,0,0,0,0,0,0,0,0,0,0,0,0,0,0,0,0,0,0,0,0,0,0,0,0,0,0
0,0,0,0,0,0,1094,1094,1094,1094,1094,1094,1094,1094,1094,1094,1094,1090,1090,1090,1090,1090,1090,1090,1087,1087,1087,1087,1087,1087,1087,1087,1087,1087,1087,1087,1090,1090,1090,1090,1090,1090,1090,1090,1090,1090,1087,1087,1084,1084,1084,1084,1087,1087,1087,1087,1087,1087,1087,1087,1087,1087,1087,1087,1087,1087,1084,1084,1087,1087,1087,1087,1087,1087,1087,1087,1087,1087,1087,1087,1087,1087,1087,1084,1084,1084,1080,1080,1080,1080,1080,1080,1080,1084,1019,1019,1019,1019,1022,1019,1019,1019,1019,1019,1022,1022,1022,1022,1025,1025,1025,1028,1031,1031,1034,1031,1031,1084,1084,1084,1084,1084,1084,1084,1084,1084,1084,1084,1080,1080,1080,1077,1077,1077,1077,1080,1080,1077,1077,1080,1077,1077,1077,1077,1077,1077,1077,1077,1077,1077,1077,1077,1077,1077,1077,1077,1077,1077,1077,1077,1077,1077,1077,1077,1077,1077,1077,1077,1077,1077,1073,1073,1073,1073,1073,1073,1073,1073,1073,1073,1073,1073,1073,1073,1073,1073,1073,1073,1073,1073,1073,1070,1070,1070,1070,1070,1070,1073,1070,1070,1070,1070,1067,1067,1070,1067,1067,1067,1067,0,0,0,0,0,0,762,762,761,761,761,759,755,754,752,750,750,749,747,747,747,747,747,747,747,747,749,750,754,757,757,759,762,762,767,767,769,769,769,0,0,0,0,0,0,0,0,839,839,839,841,843,843,843,843,845,847,847,845,845,845,847,847,847,849,851,854,858,860,860,862,864,869,871,873,875,878,878,878,880,1060,1060,1060,1060,1060,1060,1060,1060,1060,1057,1057,1057,1057,1057,1057,1054,1054,1054,1054,1054,1054,1057,1057,1057,1057,1060,1057,1057,1057,1057,1057,1057,1054,1054,1054,1057,1057,1057,1057,1060,1060,1060,1060,1060,1060,1057,1057,1057,1057,1057,1057,1057,1054,1054,1054,1054,1054,1054,1054,1054,1054,1054,1054,1054,1054,1054,1054,1050,1050,1050,1050,1050,1050,1050,1050,1050,1050,1050,1050,1050,1050,1054,1054,1054,1050,1050,1050,1050,1050,1050,1047,1047,1050,1050,1050,1050,1050,1050,1050,1050,1050,1050,1050,1050,1050,1050,1050,1050,1050,1050,1050,1050,1047,1047,1047,1047,1047,1047,1047,1047,1047,1050,1050,1047,1047,1047,1047,1044,1044,1044,1044,1047,1047,1044,1044,1044,1044,1044,1041,1041,1041,1041,1041,1041,1041,1041,1041,1041,1041,1041,1041,1041,1041,1041,1041,1041,1044,1044,1044,1044,1041,1041,1041,1041,1041,1038,1038,1038,1038,1038,1038,1038,1038,1038,1038,1038,1038,1038,1038,1038,1038,1038,1038,1034,1034,1034,1034,1034,1034,1034,1034,1034,1034,1034,1034,1034,1034,1031,1028,1028,1028,1028,1028,1028,1028,1028,1028,1028,1031,1031,1031,1031,1031,1034,1031,1031,1031,1031,1031,1031,1031,1031,1028,1028,1028,1028,1028,1028,1028,1028,1028,1028,1028,1028,1028,1028,1028,1028,1028,1025,1025,1028,1025,1025,1022,1022,1019,1016,1013,1007,1004,1004,1004,1004,1004,0,0,0,0,1028,1025,1025,1022,1022,1022,1022,1022,1025,1025,1022,946,946,946,946,946,948,946,946,946,948,946,946,946,948,948,1022,1022,1022,1019,1019,1022,1022,1022,1022,1019,1019,1019,1019,1019,1019,1019,1019,1019,1022,1019,1019,1016,1016,1016,1016,1016,1016,1013,1013,1013,1010,1010,0,0,0,0,0,0,0,0,0,0,0,0,0,0,0,0,0,0,0,0,0,0,0,0,0,0,0,0,0,0,0,0,0,0
0,0,0,0,0,0,1090,1090,1094,1094,1094,1090,1090,1090,1090,1090,1090,1090,1087,1087,1087,1087,1087,1087,1087,1087,1087,1087,1087,1084,1084,1084,1084,1084,1084,1087,1087,1090,1090,1090,1090,1090,1090,1090,1087,1087,1087,1084,1084,1084,1084,1084,1084,1084,1084,1087,1087,1087,1087,1087,1084,1080,1080,1080,1084,1084,1084,1084,1084,1084,1084,1087,1084,1084,1087,1087,1087,1087,1087,1087,1084,1084,1084,1084,1080,1080,1077,1077,1077,1077,1077,1077,1077,1080,1019,1019,1019,1019,1022,1022,1019,1019,1019,1019,1022,1022,1022,1022,1025,1025,1025,1028,1031,1031,1034,1034,1034,1077,1077,1077,1077,1080,1080,1080,1080,1080,1080,1080,1077,1077,1077,1077,1077,1077,1073,1073,1077,1077,1077,1077,1077,1077,1077,1077,1077,1077,1077,1077,1073,1073,1073,1073,1073,1073,1073,1073,1073,1073,1077,1077,1077,1077,1077,1073,1073,1073,1073,1073,1073,1073,1073,1073,1073,1073,1070,1070,1070,1070,1070,1070,1070,1070,1073,1073,1070,1070,1070,1070,1070,1070,1070,1070,1070,1070,1070,1070,1070,1070,1067,1067,1067,1067,1067,1063,1063,1063,1063,1063,1063,0,0,0,0,0,0,766,762,762,762,761,761,755,754,752,752,750,749,749,747,747,747,747,747,747,749,749,752,755,757,759,761,762,764,767,767,769,769,771,774,0,0,0,0,0,0,835,835,837,839,841,843,843,843,843,843,843,843,843,843,843,845,845,845,847,849,851,858,860,862,864,867,869,871,873,875,878,878,878,880,1057,1057,1057,1057,1057,1057,1057,1057,1054,1054,1054,1054,1054,1054,1054,1050,1050,1050,1054,1054,1054,1054,1054,1057,1057,1057,1057,1054,1054,1054,1054,1054,1054,1054,1054,1054,1054,1054,1057,1057,1057,1057,1054,1054,1054,1057,1054,1054,1054,1054,1054,1054,1054,1054,1054,1050,1050,1050,1050,1050,1050,1050,1050,1050,1050,1050,1050,1050,1050,1050,1050,1050,1050,1047,1047,1050,1050,1050,1050,1050,1050,1050,1050,1050,1050,1047,1047,1047,1047,1047,1044,1044,1047,1047,1047,1047,1050,1047,1047,1047,1047,1047,1047,1047,1047,1047,1047,1047,1047,1047,1047,1047,1044,1044,1044,1044,1044,1044,1044,1044,1044,1047,1047,1044,1044,1044,1044,1041,1041,1041,1044,1044,1044,1041,1041,1041,1041,1041,1041,1041,1041,1041,1041,1041,1041,1041,1041,1038,1038,1038,1038,1038,1041,1041,1041,1041,1041,1041,1041,1041,1041,1041,1041,1038,1038,1038,1038,1038,1038,1038,1038,1038,1038,1038,1034,1034,1038,1038,1034,1034,1034,1034,1034,1034,1031,1031,1031,1031,1031,1031,1031,1031,1031,1031,1031,1031,1028,1028,1028,1028,1028,1028,1028,1028,1028,1028,1028,1028,1028,1028,1028,1028,1028,1028,1028,1028,1028,1028,1028,1031,1028,1028,1028,1028,1028,1025,1025,1025,1025,1028,1028,1025,1025,1028,1025,1025,1025,1025,1025,1025,1025,1025,1025,1022,1022,1019,1016,1016,1013,1010,1007,1004,1004,1004,0,0,0,0,0,1025,1022,1022,1022,1022,1019,1016,1016,1016,1016,1016,946,946,946,946,946,946,946,946,946,946,946,946,946,946,948,1019,1019,1019,1019,1019,1019,1019,1019,1016,1016,1016,1016,1016,1016,1016,1016,1016,1016,1019,1016,1016,1016,1016,1016,1016,1013,1013,1013,1013,1013,1010,1010,0,0,0,0,0,0,0,0,0,0,0,0,0,0,0,0,0,0,0,0,0,0,0,0,0,0,0,0,0,0,0,0,0,0
0,0,0,0,0,0,1090,1090,1090,1090,1090,1090,1090,1087,1087,1087,1087,1087,1087,1084,1084,1084,1084,1084,1084,1084,1084,1084,1084,1080,1080,1080,1080,1080,1080,1080,1087,1087,1087,1087,1087,1087,1087,1087,1084,1084,1084,1080,1080,1080,1080,1080,1080,1080,1080,1084,1084,1080,1080,1084,1080,1080,1080,1080,1080,1080,1077,1077,1077,1077,1080,1080,1080,1080,1084,1084,1084,1087,1087,1084,1084,1084,1080,1080,1077,1077,1077,1077,1077,1077,1077,1077,1077,1077,1077,1022,1022,1022,1022,1022,1019,1019,1019,1022,1022,1022,1022,1022,1025,1025,1025,1028,1031,1034,1034,1034,1038,1038,1073,1077,1077,1077,1077,1077,1077,1077,1077,1077,1073,1073,1073,1073,1073,1073,1073,1073,1073,1073,1073,1073,1073,1073,1077,1073,1073,1073,1073,1073,1073,1073,1073,1073,1070,1070,1067,1067,1070,1070,1073,1073,1073,1073,1073,1073,1073,1073,1073,1073,1073,1073,1073,1070,1070,1070,1067,1067,1067,1067,1067,1067,1067,1067,1067,1067,1067,1067,1067,1067,1067,1067,1067,1067,1067,1067,1067,1067,1067,1067,1063,1063,1063,1063,1063,1063,1063,1063,1060,1060,1057,1057,0,1050,0,0,766,766,764,762,762,762,762,759,755,754,752,750,750,749,749,747,747,747,747,749,749,750,754,755,757,759,761,762,767,767,767,769,769,773,774,774,0,0,833,833,833,833,833,837,837,839,841,841,841,841,841,841,841,841,841,841,843,843,843,845,849,851,858,860,862,867,867,871,871,873,875,878,878,878,878,1054,1054,1054,1054,1054,1054,1054,1054,1054,1050,1050,1050,1050,1050,1050,1050,1050,1050,1050,1050,1050,1054,1054,1054,1054,1054,1054,1054,1050,1050,1050,1050,1050,1050,1050,1050,1050,1050,1054,1054,1054,1054,1054,1054,1054,1050,1050,1050,1050,1054,1054,1054,1054,1050,1050,1050,1050,1047,1047,1047,1047,1047,1047,1050,1050,1050,1050,1047,1047,1047,1047,1047,1047,1044,1044,1047,1047,1047,1047,1047,1047,1047,1047,1047,1047,1047,1044,1044,1044,1044,1041,1041,1044,1044,1044,1044,1047,1044,1044,1044,1044,1044,1044,1044,1044,1044,1044,1047,1044,1044,1044,1044,1041,1041,1041,1041,1041,1041,1041,1041,1041,1044,1041,1041,1041,1041,1041,1041,1041,1038,1038,1041,1041,1041,1041,1038,1038,1038,1038,1038,1038,1038,1038,1038,1038,1038,1038,1038,1038,1038,1038,1038,1038,1038,1038,1038,1038,1038,1038,1038,1038,1038,1038,1038,1038,1034,1034,1034,1034,1034,1034,1034,1034,1034,1031,1031,1034,1034,1031,1031,1031,1031,1031,1031,1031,1028,1028,1028,1028,1028,1028,1028,1028,1028,1028,1028,1028,1028,1028,1028,1025,1025,1025,1025,1028,1028,1028,1028,1028,1025,1025,1025,1025,1025,1025,1025,1025,1025,1028,1028,1028,1028,1028,1028,1028,1025,1025,1025,1025,1025,1025,1025,1025,1025,1022,1022,1025,1025,1025,1022,1022,1025,1025,1022,1019,1019,1016,1016,1016,1013,1010,1010,0,0,0,0,0,0,0,1025,1022,1019,1019,1019,1016,1016,1016,1016,1016,1016,946,946,946,946,946,946,946,946,946,946,946,943,943,946,1016,1016,1016,1016,1016,1016,1016,1016,1016,1016,1016,1016,1016,1016,1016,1016,1016,1016,1016,1016,1016,1016,1013,1013,1013,1013,1013,1013,1013,1013,1013,1010,1010,0,0,0,0,0,0,0,0,0,0,0,0,0,0,0,0,0,0,0,0,0,0,0,0,0,0,0,0,0,0,0,0,0,0
0,0,0,0,0,1090,1090,1090,1090,1090,1087,1087,1087,1087,1087,1084,1084,1084,1084,1084,1084,1084,1084,1084,1084,1084,1084,1080,1080,1080,1080,1080,1080,1080,1080,1080,1084,1084,1087,1087,1087,1084,1084,1080,1080,1080,1080,1077,1077,1077,1077,1077,1077,1077,1077,1077,1077,1077,1077,1077,1077,1077,1077,1077,1077,1077,1077,1077,1077,1077,1077,1077,1077,1077,1080,1080,1084,1084,1084,1080,1080,1080,1077,1077,1077,1077,1077,1077,1073,1073,1073,1073,1073,1073,1073,1025,1025,1025,1025,1022,1022,1022,1022,1022,1022,1022,1022,1022,1025,1025,1025,1028,1031,1034,1034,1034,1038,1038,1070,1073,1073,1073,1073,1073,1073,1073,1073,1073,1070,1070,1070,1070,1073,1073,1070,1070,1073,1073,1070,1070,1070,1070,1070,1070,1070,1070,1073,1073,1073,1073,1073,1070,1067,1067,1063,1063,1067,1067,1070,1070,1070,1070,1070,1070,1070,1070,1070,1070,1070,1070,1070,1070,1070,1067,1067,1067,1063,1063,1063,1063,1063,1063,1063,1067,1063,1063,1063,1063,1063,1063,1063,1063,1063,1063,1063,1063,1063,1063,1063,1063,1063,1063,1060,1060,1060,1060,1060,1057,1057,1054,1050,1050,0,0,766,764,764,764,764,764,762,761,759,755,754,752,750,749,749,747,747,747,747,749,750,752,754,757,757,759,761,764,767,767,767,769,771,773,774,0,0,0,0,833,833,833,833,835,835,837,837,837,839,839,839,839,839,841,841,841,843,843,843,845,849,851,858,862,862,867,867,871,871,873,875,878,878,878,1047,1047,1050,1050,1050,1054,1054,1054,1054,1050,1050,1050,1050,1050,1050,1050,1050,1050,1050,1050,1047,1047,1050,1050,1050,1050,1050,1050,1050,1050,1050,1050,1050,1050,1050,1050,1050,1047,1047,1050,1050,1050,1050,1050,1050,1050,1050,1047,1047,1044,1044,1047,1050,1050,1050,1047,1047,1047,1044,1044,1044,1044,1044,1044,1044,1047,1047,1047,1047,1044,1044,1044,1044,1044,1044,1044,1044,1044,1044,1044,1044,1044,1044,1044,1044,1044,1044,1044,1041,1041,1041,1041,1041,1041,1041,1041,1041,1044,1044,1044,1044,1044,1041,1041,1041,1041,1041,1041,1041,1041,1041,1041,1041,1041,1041,1041,1041,1041,1041,1038,1038,1038,1041,1038,1038,1038,1038,1038,1038,1038,1038,1038,1038,1038,1038,1038,1038,1038,1038,1034,1034,1034,1034,1034,1034,1034,1034,1034,1034,1034,1034,1034,1034,1034,1034,1034,1034,1038,1034,1034,1034,1034,1034,1034,1034,1034,1034,1034,1034,1031,1031,1031,1031,1031,1031,1031,1031,1031,1031,1031,1031,1028,1028,1028,1028,1028,1028,1025,1025,1025,1025,1028,1028,1028,1028,1028,1028,1025,1025,1025,1025,1025,1025,1025,1025,1025,1025,1025,1025,1025,1022,1022,1025,1022,1022,1025,1025,1025,1025,1025,1025,1025,1025,1025,1025,1028,1022,1022,1022,1022,1022,1022,1022,1022,1022,1022,1022,1022,1022,1022,1022,1019,1019,1022,1019,1019,1019,1016,1016,1016,1013,1010,1010,0,0,0,0,0,0,0,0,1016,1013,1013,1016,1016,1013,1013,1013,1013,938,938,943,946,946,946,946,946,946,946,946,946,943,943,1016,1016,1016,1016,1016,1016,1016,1016,1016,1016,1013,1013,1013,1013,1013,1013,1016,1016,1013,1013,1013,1013,1010,1010,1010,1010,1013,1013,1013,1013,1013,1013,1010,1010,0,0,0,0,0,0,0,0,0,0,0,0,0,0,0,0,0,0,0,0,0,0,0,0,0,0,0,0,0,0,0,0,0,0
0,0,0,0,0,1090,1090,1090,1090,1087,1087,1087,1087,1084,1084,1084,1084,1084,1084,1077,1077,1077,1080,1080,1077,1077,1077,1080,1077,1077,1077,1077,1077,1077,1077,1077,1080,1080,1084,1084,1084,1080,1080,1080,1077,1077,1077,1077,1077,1073,1073,1073,1073,1073,1073,1073,1073,1073,1073,1073,1077,1073,1073,1073,1077,1077,1077,1077,1073,1073,1073,1073,1073,1073,1073,1073,1073,1077,1080,1077,1077,1077,1077,1077,1073,1073,1073,1073,1073,1073,1073,1073,1073,1070,1070,1067,1031,1031,1028,1025,1025,1022,1022,1022,1022,1022,1022,1025,1025,1025,1025,1028,1031,1034,1034,1034,1038,1038,1063,1067,1070,1070,1067,1067,1067,1067,1067,1067,1067,1067,1067,1067,1067,1070,1067,1067,1070,1070,1067,1067,1067,1067,1067,1067,1067,1067,1070,1070,1067,1067,1067,1067,1067,1063,1063,1063,1063,1063,1067,1067,1067,1067,1067,1067,1067,1067,1067,1067,1067,1067,1067,1067,1067,1063,1063,1063,1063,1063,1063,1060,1060,1063,1063,1063,1063,1063,1063,1063,1063,1063,1063,1060,1060,1060,1060,1060,1060,1060,1060,1060,1060,1060,1060,1060,1060,1057,1057,1057,1054,1050,1047,1047,0,0,0,764,764,764,764,764,762,761,759,757,755,754,752,749,749,749,749,749,749,749,750,752,755,757,757,759,761,764,767,767,769,771,773,774,774,774,0,835,835,835,833,833,833,835,835,835,835,835,837,837,837,839,839,839,841,841,843,843,843,845,849,854,858,862,862,864,867,871,873,873,875,878,878,1044,1044,1047,1047,1050,1050,1050,1050,1050,1050,1050,1050,1050,1050,1047,1047,1047,1047,1047,1047,1047,1047,1047,1050,1050,1050,1050,1050,1047,1047,1047,1047,1047,1044,1044,1047,1044,1044,1044,1044,1044,1044,1044,1044,1044,1044,1044,1044,1044,1044,1041,1041,1044,1044,1041,1041,1044,1044,1041,1041,1041,1041,1041,1041,1041,1041,1041,1044,1044,1044,1044,1044,1041,1041,1041,1041,1041,1041,1041,1041,1041,1041,1041,1041,1041,1041,1041,1041,1041,1041,1041,1038,1038,1038,1038,1038,1038,1041,1041,1041,1041,1041,1041,1041,1038,1038,1038,1038,1038,1038,1038,1038,1038,1038,1038,1038,1038,1038,1038,1038,1038,1038,1038,1038,1034,1034,1034,1034,1034,1038,1038,1034,1034,1038,1038,1038,1034,1034,1034,1034,1034,1034,1034,1034,1034,1034,1034,1031,1031,1031,1031,1031,1031,1031,1031,1031,1031,1034,1034,1031,1031,1034,1031,1031,1034,1031,1031,1031,1028,1028,1028,1028,1028,1028,1028,1028,1028,1028,1028,1028,1028,1028,1028,1025,1025,1025,1025,1025,1025,1025,1025,1025,1025,1025,1025,1025,1025,1025,1025,1025,1025,1025,1025,1022,1022,1022,1022,1022,1022,1022,1022,1019,1019,1022,1019,1019,1022,1022,1019,1019,1019,1019,1019,1016,1016,1016,1019,1019,1019,1019,1019,1019,1019,1019,1019,1022,1019,1019,1019,1019,1019,1016,1016,1016,1019,1016,1016,1016,1016,1016,1016,1013,1013,0,0,0,0,0,0,0,0,1016,1016,1013,1013,1013,1016,1013,1013,1013,1013,935,935,943,943,946,946,946,946,946,946,946,946,943,943,1013,1013,1013,1013,1016,1016,1016,1013,1013,1013,1013,1013,1013,1013,1013,1013,1013,1013,1010,1010,1010,1010,1007,1007,1007,1007,1010,1010,1010,1010,1010,1010,1010,1010,0,0,0,0,0,0,0,0,0,0,0,0,0,0,0,0,0,0,0,0,0,0,0,0,0,0,0,0,0,0,0,0,0,0
0,0,0,0,0,1087,1087,1087,1087,1084,1084,1084,1080,1080,1080,1080,1077,1077,1077,1077,1077,1077,1077,1077,1077,1077,1077,1077,1077,1077,1077,1077,1077,1077,1077,1077,1077,1077,1077,1077,1077,1077,1077,1077,1077,1073,1073,1073,1073,1073,1073,1070,1070,1070,1070,1070,1070,1070,1070,1070,1073,1073,1073,1073,1073,1073,1073,1073,1073,1073,1073,1070,1070,1070,1070,1070,1070,1073,1073,1073,1073,1073,1073,1073,1073,1073,1070,1070,1073,1073,1073,1073,1070,1067,1067,1067,1034,1034,1031,1028,1025,1022,1022,1022,1022,1022,1022,1025,1025,1025,1025,1028,1031,1034,1034,1034,1038,1038,1060,1067,1067,1067,1067,1067,1067,1063,1063,1067,1067,1063,1063,1063,1067,1063,1063,1063,1063,1063,1063,1063,1063,1063,1063,1063,1063,1063,1063,1063,1063,1063,1063,1063,1063,1063,1063,1063,1063,1063,1063,1063,1063,1063,1063,1067,1063,1063,1063,1063,1063,1063,1063,1063,1063,1063,1063,1063,1060,1060,1060,1060,1060,1060,1060,1060,1060,1060,1060,1060,1060,1060,1060,1060,1060,1060,1057,1057,1060,1057,1057,1057,1057,1060,1057,1057,1057,1054,1054,1054,1054,1050,1047,1047,1047,0,0,0,766,766,766,766,764,764,761,759,757,755,754,750,750,750,750,750,750,750,752,754,755,757,759,761,762,764,767,769,771,773,773,774,776,776,835,835,835,835,833,833,833,835,835,835,835,835,835,835,837,837,837,839,839,841,841,843,843,847,854,858,858,862,862,864,867,869,869,873,875,1044,1044,1044,1044,1044,1047,1047,1047,1047,1047,1047,1050,1050,1047,1047,1047,1047,1047,1047,1047,1047,1047,1047,1044,1044,1047,1047,1047,1047,1044,1044,1044,1044,1044,1044,1044,1044,1044,1044,1041,1041,1041,1041,1041,1041,1041,1041,1041,1041,1041,1041,1041,1041,1041,1041,1041,1041,1041,1041,1041,1041,1041,1038,1038,1038,1038,1038,1038,1041,1041,1041,1041,1041,1041,1041,1041,1041,1041,1038,1038,1038,1038,1038,1038,1038,1038,1038,1041,1041,1041,1041,1038,1038,1038,1034,1034,1034,1034,1038,1038,1038,1038,1038,1038,1038,1038,1038,1038,1034,1034,1034,1034,1034,1034,1034,1034,1034,1034,1034,1034,1038,1038,1034,1034,1034,1034,1034,1031,1031,1031,1034,1034,1034,1034,1034,1034,1034,1034,1031,1031,1031,1031,1031,1031,1031,1031,1031,1031,1031,1031,1028,1028,1028,1028,1028,1028,1028,1028,1028,1028,1028,1028,1028,1031,1031,1031,1031,1028,1028,1028,1028,1025,1025,1025,1025,1025,1025,1025,1025,1028,1025,1025,1025,1025,1025,1025,1025,1025,1025,1025,1025,1025,1025,1025,1025,1025,1022,1022,1022,1022,1022,1022,1022,1022,1022,1022,1019,1019,1019,1019,1019,1019,1019,1016,1016,1019,1019,1019,1019,1019,1019,1019,1016,1016,1016,1016,1016,1013,1013,1013,1013,1016,1016,1019,1019,1019,1019,1019,1019,1019,1016,1016,1016,1016,1016,1016,1016,1016,1016,1016,1016,1016,1016,1016,1016,0,0,0,0,0,0,0,0,1013,1013,1013,1013,1013,1013,1013,1013,1013,1016,935,935,943,943,946,946,946,946,946,946,946,946,946,1013,1013,1013,1013,1013,1013,1013,1013,1013,1013,1013,1013,1013,1010,1010,1013,1013,1013,1010,1007,1007,1007,1007,1007,1007,1007,1007,1007,1010,1010,1010,1010,1007,1007,1007,0,0,0,0,0,0,0,0,0,0,0,0,0,0,0,0,0,0,0,0,0,0,0,0,0,0,0,0,0,0,0,0,0,0
0,0,0,0,0,1080,1080,1080,1084,1080,1080,1077,1077,1077,1077,1077,1077,1077,1077,1077,1077,1073,1073,1077,1077,1077,1077,1077,1077,1077,1077,1073,1073,1073,1073,1073,1073,1073,1077,1077,1077,1077,1073,1073,1073,1073,1073,1070,1070,1070,1070,1067,1067,1067,1067,1067,1067,1067,1067,1070,1070,1070,1070,1070,1070,1070,1070,1070,1070,1070,1070,1070,1067,1067,1067,1067,1067,1067,1070,1073,1070,1070,1070,1070,1070,1070,1067,1067,1067,1067,1067,1067,1063,1063,1060,1054,1038,1034,1031,1028,1028,1025,1022,1022,1022,1022,1022,1025,1025,1025,1025,1028,1031,1034,1034,1034,1038,1041,1060,1063,1063,1063,1063,1063,1063,1063,1063,1063,1063,1063,1063,1063,1063,1063,1063,1063,1060,1060,1063,1060,1060,1060,1060,1060,1060,1060,1060,1060,1060,1060,1060,1060,1060,1060,1060,1060,1060,1060,1060,1060,1063,1063,1063,1063,1063,1063,1060,1060,1060,1060,1060,1060,1063,1060,1060,1060,1060,1060,1057,1057,1057,1057,1057,1057,1057,1060,1060,1060,1060,1060,1060,1057,1057,1057,1054,1054,1057,1054,1054,1057,1054,1054,1054,1054,1054,1054,1050,1050,1050,1050,1047,1047,1047,0,0,766,0,766,766,766,764,764,762,761,759,757,754,752,750,750,750,750,752,752,752,754,755,757,759,761,762,767,767,771,771,773,774,776,776,778,835,835,833,833,833,833,833,833,833,833,833,833,833,835,835,835,837,839,839,841,841,843,845,851,854,858,860,860,862,864,867,869,869,1041,1041,1041,1041,1041,1041,1041,1041,1044,1044,1044,1044,1044,1047,1047,1047,1047,1047,1047,1044,1044,1044,1044,1044,1044,1041,1041,1047,1047,1047,1044,1044,1044,1044,1041,1041,1041,1041,1041,1041,1041,1041,1041,1041,1038,1038,1038,1038,1038,1038,1038,1038,1038,1038,1038,1038,1041,1041,1041,1041,1041,1041,1038,1038,1038,1038,1038,1038,1038,1038,1038,1038,1038,1041,1041,1038,1038,1038,1038,1038,1038,1038,1038,1038,1038,1034,1034,1034,1034,1038,1038,1038,1038,1034,1034,1034,1031,1031,1031,1031,1031,1031,1034,1034,1034,1034,1034,1034,1034,1031,1031,1031,1031,1031,1031,1031,1031,1031,1034,1034,1034,1031,1031,1031,1031,1031,1031,1031,1031,1031,1031,1031,1031,1034,1031,1031,1031,1031,1031,1031,1031,1028,1028,1028,1028,1028,1028,1028,1028,1028,1028,1028,1028,1028,1028,1028,1028,1025,1025,1025,1025,1025,1025,1025,1025,1028,1028,1028,1028,1025,1025,1025,1025,1025,1022,1022,1022,1022,1022,1022,1022,1025,1025,1025,1025,1025,1025,1025,1025,1025,1025,1025,1022,1022,1022,1022,1022,1022,1022,1022,1022,1022,1019,1019,1022,1022,1019,1019,1019,1019,1019,1016,1016,1016,1016,1016,1016,1016,1016,1016,1016,1016,1016,1016,1016,1016,1013,1013,1013,1013,1013,1013,1013,1013,1013,1013,1013,1013,1013,1016,1016,1016,1016,1016,1016,1016,1013,1013,1013,1013,1013,1013,1013,1013,1013,1013,0,0,0,0,0,0,0,0,995,995,995,1004,1007,1010,1013,1013,1013,1013,1013,938,938,946,946,946,946,946,946,946,946,946,946,946,1010,1007,1007,1010,1010,1010,1013,1013,1010,1010,1013,1010,1010,1010,1010,1010,1010,1013,1007,1007,1007,1004,1004,1004,1004,1004,1004,1004,1007,1007,1007,1007,1004,1004,1004,0,0,0,0,0,0,0,0,0,0,0,0,0,0,0,0,0,0,0,0,0,0,0,0,0,0,0,0,0,0,0,0,0,0
0,0,0,0,0,1077,1077,1077,1077,1077,1077,1073,1073,1073,1073,1073,1073,1073,1073,1073,1073,1073,1073,1073,1073,1073,1073,1073,1073,1073,1073,1073,1073,1073,1073,1073,1073,1073,1070,1070,1070,1073,1070,1070,1070,1070,1070,1070,1067,1067,1067,1067,1067,1063,1063,1063,1063,1063,1067,1067,1067,1070,1067,1067,1067,1067,1067,1070,1067,1067,1067,1067,1067,1067,1063,1063,1063,1067,1067,1070,1067,1067,1067,1067,1063,1063,1063,1063,1063,1063,1063,1063,1063,1060,1057,1054,1038,1038,1034,1031,1028,1025,1022,1022,1022,1022,1022,1025,1025,1025,1025,1028,1034,1034,1034,1038,1038,1044,1057,1060,1063,1063,1063,1063,1063,1060,1060,1060,1060,1060,1060,1060,1060,1060,1060,1057,1057,1057,1060,1060,1060,1057,1057,1057,1057,1057,1057,1057,1057,1057,1057,1060,1060,1060,1060,1060,1060,1060,1060,1060,1060,1060,1060,1060,1060,1060,1060,1060,1060,1060,1060,1060,1060,1060,1060,1060,1057,1057,1054,1054,1054,1054,1054,1054,1054,1057,1057,1057,1057,1057,1057,1054,1054,1054,1054,1050,1050,1054,1054,1054,1054,1054,1054,1050,1050,1050,1050,1050,1050,1047,1047,1047,1047,0,0,0,0,766,766,766,764,764,762,761,759,759,755,754,754,754,752,752,752,752,754,755,757,757,759,762,764,767,767,771,771,773,774,776,778,778,833,833,833,831,831,831,831,831,831,829,829,831,831,833,833,833,835,837,839,841,843,845,847,851,856,858,858,860,860,862,864,867,1038,1038,1038,1038,1038,1041,1038,1038,1038,1038,1041,1041,1041,1041,1044,1044,1044,1044,1044,1044,1041,1041,1041,1041,1041,1041,1038,1038,1044,1044,1044,1041,1041,1041,1041,1041,1041,1038,1038,1041,1038,1038,1038,1038,1038,1038,1038,1034,1034,1034,1034,1034,1034,1034,1034,1038,1038,1038,1038,1038,1038,1038,1038,1038,1038,1038,1038,1034,1034,1034,1034,1038,1034,1034,1038,1038,1038,1038,1038,1038,1038,1034,1034,1034,1034,1031,1031,1031,1031,1031,1034,1034,1034,1034,1034,1034,1031,1031,1031,1031,1031,1031,1031,1031,1031,1031,1031,1031,1031,1031,1031,1028,1028,1028,1028,1031,1028,1028,1028,1031,1031,1031,1028,1028,1028,1028,1028,1028,1028,1028,1028,1028,1028,1028,1028,1028,1028,1028,1028,1028,1028,1028,1028,1028,1028,1028,1028,1028,1028,1025,1025,1025,1025,1025,1025,1025,1025,1022,1022,1022,1022,1022,1022,1022,1022,1022,1025,1025,1022,1022,1025,1022,1022,1022,1022,1022,1022,1022,1022,1022,1019,1019,1019,1019,1019,1022,1022,1022,1022,1022,1022,1022,1022,1022,1019,1019,1019,1019,1019,1019,1019,1019,1019,1016,1016,1019,1019,1016,1016,1016,1016,1016,1016,1016,1013,1013,1013,1013,1013,1013,1013,1013,1013,1013,1013,1013,1013,1013,1013,1010,1010,1010,1010,1010,1010,1010,1013,1010,1010,1013,1013,1013,1013,1013,1013,1013,1013,1013,1013,1013,1013,1013,1013,1010,1010,1010,1010,0,0,0,0,0,0,0,0,995,995,995,1001,1004,1007,1010,1010,1013,1013,1013,943,943,946,946,946,946,946,946,946,946,943,943,1004,1004,1004,1004,1007,1007,1007,1010,1007,1007,1007,1007,1007,1010,1007,1007,1007,1007,1007,1004,1004,1004,1004,1004,1004,1001,1001,1001,1001,1001,1004,1004,1004,1001,1001,1001,0,0,0,0,0,0,0,0,0,0,0,0,0,0,0,0,0,0,0,0,0,0,0,0,0,0,0,0,0,0,0,0,0,0
0,0,0,0,0,1077,1077,1073,1073,1073,1073,1073,1070,1067,1067,1070,1070,1070,1070,1070,1070,1070,1070,1070,1070,1070,1073,1073,1073,1073,1073,1073,1073,1070,1070,1070,1070,1070,1067,1067,1067,1067,1067,1067,1067,1067,1067,1067,1067,1067,1067,1063,1063,1063,1063,1063,1063,1063,1063,1063,1063,1067,1067,1067,1067,1067,1067,1067,1067,1067,1067,1063,1063,1063,1063,1063,1063,1063,1063,1063,1063,1063,1063,1063,1063,1063,1060,1060,1063,1060,1060,1063,1060,1060,1057,1054,1047,1041,1038,1034,1028,1025,1025,1025,1025,1025,1025,1025,1025,1025,1028,1031,1034,1034,1038,1038,1041,1047,1054,1057,1060,1060,1060,1060,1060,1057,1057,1060,1060,1057,1057,1057,1057,1057,1057,1054,1054,1054,1057,1057,1057,1057,1057,1054,1054,1054,1054,1054,1054,1054,1054,1054,1054,1057,1057,1057,1057,1057,1057,1057,1057,1057,1057,1054,1054,1057,1057,1054,1054,1054,1057,1057,1057,1057,1057,1057,1054,1054,1050,1050,1050,1050,1050,1050,1050,1050,1054,1054,1050,1050,1050,1050,1050,1050,1050,1050,1050,1050,1050,1050,1050,1050,1050,1050,1050,1050,1047,1047,1047,1047,1044,1044,0,0,0,0,0,0,767,766,764,764,764,761,761,759,757,755,755,755,754,754,754,754,755,755,759,759,761,764,764,767,767,771,773,774,776,778,778,778,831,831,831,829,829,829,829,829,829,829,829,829,829,833,833,833,835,837,837,839,843,845,851,856,856,858,858,860,860,860,862,867,1034,1034,1034,1038,1038,1038,1038,1038,1038,1038,1038,1038,1034,1034,1041,1041,1041,1038,1038,1038,1038,1034,1034,1034,1038,1038,1038,1038,1041,1041,1041,1041,1038,1038,1038,1038,1038,1038,1038,1038,1038,1038,1038,1038,1038,1034,1034,1034,1034,1034,1034,1034,1034,1034,1034,1034,1034,1034,1034,1034,1038,1038,1034,1034,1034,1034,1034,1034,1034,1034,1034,1031,1031,1031,1034,1034,1034,1034,1034,1034,1034,1031,1031,1031,1031,1031,1028,1028,1028,1031,1031,1031,1031,1031,1031,1031,1028,1028,1028,1028,1028,1028,1028,1028,1028,1028,1028,1028,1028,1028,1028,1028,1028,1028,1028,1028,1028,1028,1028,1028,1028,1028,1028,1028,1028,1028,1028,1028,1028,1025,1025,1025,1025,1025,1025,1028,1025,1025,1025,1028,1028,1028,1025,1025,1025,1025,1025,1025,1025,1025,1025,1022,1022,1022,1022,1022,1019,1019,1019,1019,1019,1019,1019,1019,1022,1022,1022,1019,1019,1019,1022,1019,1019,1019,1019,1019,1019,1019,1019,1019,1019,1016,1016,1016,1016,1016,1016,1016,1019,1019,1019,1019,1019,1019,1016,1016,1016,1016,1016,1016,1016,1016,1016,1016,1016,1016,1016,1016,1013,1013,1013,1013,1013,1013,1013,1013,1013,1010,1010,1010,1010,1010,1013,1013,1013,1013,1013,1010,1010,1010,1010,1007,1007,1007,1007,1007,1010,1007,1007,1010,1010,1010,1010,1010,1010,1010,1013,1010,1010,1010,1010,1010,1010,1007,1004,1004,1001,1001,0,0,0,0,0,0,0,992,992,992,998,998,1001,1010,1010,1013,1013,1013,946,946,946,948,948,948,948,948,946,946,943,943,1001,1001,1001,1001,1004,1004,1004,1007,1007,1007,1007,1004,1004,1004,1004,1004,1004,1004,1004,1004,1004,1004,1001,1001,1001,1001,1001,1001,1001,1001,1001,1001,1001,1001,998,998,0,0,0,0,0,0,0,0,0,0,0,0,0,0,0,0,0,0,0,0,0,0,0,0,0,0,0,0,0,0,0,0,0,0
0,0,0,0,0,1077,1073,1073,1073,1073,1073,1070,1070,1067,1067,1067,1067,1063,1063,1067,1067,1063,1063,1067,1067,1067,1067,1070,1070,1070,1070,1070,1070,1070,1070,1070,1070,1070,1067,1067,1067,1067,1063,1063,1063,1063,1063,1063,1063,1063,1063,1063,1063,1063,1060,1060,1060,1060,1060,1060,1060,1063,1063,1063,1063,1063,1063,1063,1063,1063,1063,1063,1063,1063,1063,1060,1060,1060,1060,1060,1060,1060,1060,1060,1060,1060,1060,1060,1060,1060,1060,1060,1060,1060,1054,1054,1047,1044,1041,1038,1034,1028,1025,1025,1025,1025,1025,1025,1025,1028,1031,1031,1034,1034,1038,1041,1044,1047,1050,1054,1057,1060,1060,1060,1057,1057,1057,1057,1057,1054,1054,1054,1054,1057,1054,1054,1054,1054,1057,1057,1057,1054,1054,1054,1054,1050,1050,1050,1050,1050,1050,1054,1054,1054,1054,1054,1054,1054,1054,1054,1054,1054,1054,1050,1050,1050,1050,1050,1050,1050,1054,1054,1054,1054,1054,1054,1054,1050,1050,1050,1050,1050,1050,1050,1047,1047,1047,1050,1047,1047,1047,1050,1050,1050,1050,1050,1050,1050,1050,1050,1050,1050,1050,1047,1047,1047,1047,1047,1044,1044,1041,1041,0,0,0,0,0,0,767,766,766,766,764,762,761,759,759,757,757,755,755,754,754,754,755,755,759,759,762,764,766,767,769,771,773,774,776,778,778,778,829,829,829,827,827,827,827,827,827,827,827,827,829,831,831,833,835,837,837,839,845,849,851,856,858,858,858,858,860,860,862,862,1034,1034,1034,1034,1034,1034,1034,1034,1034,1034,1034,1034,1034,1031,1028,1028,1034,1034,1034,1031,1031,1031,1031,1031,1034,1034,1034,1034,1038,1038,1038,1038,1038,1038,1038,1038,1038,1038,1038,1038,1038,1034,1034,1034,1034,1034,1034,1031,1031,1028,1028,1031,1031,1031,1031,1031,1031,1034,1034,1034,1034,1034,1031,1031,1031,1031,1031,1028,1028,1031,1031,1028,1028,1028,1028,1028,1028,1031,1031,1031,1031,1028,1028,1028,1028,1028,1028,1028,1028,1028,1028,1028,1028,1028,1028,1028,1028,1028,1028,1028,1028,1025,1025,1025,1025,1025,1025,1028,1028,1028,1028,1028,1025,1025,1025,1025,1025,1025,1025,1025,1025,1028,1028,1028,1028,1025,1025,1025,1025,1025,1025,1022,1022,1022,1022,1025,1025,1025,1025,1025,1025,1025,1025,1025,1022,1022,1022,1022,1022,1019,1019,1019,1019,1019,1019,1019,1019,1016,1016,1016,1016,1016,1016,1016,1019,1019,1019,1019,1016,1016,1019,1019,1019,1016,1016,1016,1016,1016,1016,1016,1016,1016,1016,1013,1013,1013,1013,1013,1016,1016,1016,1016,1016,1016,1013,1013,1013,1013,1013,1013,1013,1013,1013,1013,1013,1013,1013,1013,1013,1013,1013,1013,1013,1013,1010,1010,1010,1007,1007,1007,1007,1007,1010,1010,1010,1010,1010,1010,1010,1010,1007,1007,1007,1007,1007,1004,1004,1004,1004,1007,1007,1004,1004,1004,1007,1007,1010,1010,1007,1007,1010,1007,1007,1004,1004,1001,998,998,0,0,0,0,0,0,0,992,992,992,992,995,995,1001,1010,1010,1013,935,935,938,946,946,946,946,946,946,948,948,992,992,992,995,1001,1001,1004,1001,1001,1004,1004,1004,1004,1001,1001,1001,1001,1001,1001,1001,1001,1001,1001,1001,1001,1001,1001,998,998,998,998,998,998,998,998,998,998,998,0,0,0,0,0,0,0,0,0,0,0,0,0,0,0,0,0,0,0,0,0,0,0,0,0,0,0,0,0,0,0,0,0,0
0,0,0,0,0,1073,1073,1073,1070,1070,1070,1067,1063,1063,1063,1063,1063,1063,1063,1063,1063,1063,1063,1063,1063,1063,1063,1067,1067,1067,1067,1067,1067,1067,1067,1067,1067,1067,1063,1063,1063,1063,1063,1063,1063,1063,1063,1063,1063,1063,1063,1063,1060,1060,1060,1060,1060,1060,1060,1060,1060,1060,1060,1060,1060,1060,1060,1060,1060,1060,1060,1060,1060,1060,1060,1060,1060,1060,1060,1060,1060,1060,1060,1060,1060,1060,1057,1057,1060,1057,1057,1057,1057,1057,1054,1050,1050,1044,1041,1038,1034,1028,1028,1025,1025,1025,1025,1025,1028,1028,1031,1034,1038,1038,1038,1041,1044,1047,1050,1050,1054,1054,1057,1057,1054,1054,1054,1054,1054,1054,1054,1054,1054,1054,1054,1054,1054,1054,1054,1054,1054,1054,1050,1050,1050,1050,1050,1050,1050,1050,1050,1050,1050,1050,1050,1050,1050,1050,1050,1050,1050,1050,1047,1047,1047,1047,1047,1047,1047,1047,1047,1047,1050,1050,1050,1050,1050,1047,1047,1047,1047,1047,1047,1047,1047,1047,1047,1047,1047,1047,1047,1047,1047,1047,1047,1047,1047,1047,1047,1047,1047,1047,1047,1047,1047,1047,1044,1044,1041,1041,1041,1041,0,0,0,0,0,774,771,769,767,767,766,762,762,761,759,757,757,757,755,755,754,754,755,755,759,761,762,766,767,767,769,771,773,776,776,780,780,827,827,827,827,825,825,825,825,825,825,825,825,827,827,829,831,833,833,837,837,839,847,851,851,854,856,858,858,858,860,860,862,1031,1031,1034,1034,1034,1034,1034,1034,1034,1031,1031,1031,1031,1031,1028,1028,1028,1028,1028,1028,1028,1028,1031,1028,1028,1031,1034,1034,1034,1034,1034,1034,1034,1034,1034,1034,1034,1034,1034,1034,1034,1034,1031,1031,1031,1031,1031,1031,1028,1028,1028,1028,1028,1028,1028,1028,1028,1028,1031,1031,1031,1031,1031,1028,1028,1028,1028,1028,1028,1028,1028,1028,1028,1028,1028,1028,1028,1025,1025,1025,1025,1028,1028,1028,1028,1028,1028,1025,1025,1025,1025,1025,1025,1025,1025,1025,1025,1025,1025,1025,1025,1025,1025,1025,1025,1025,1025,1025,1025,1025,1025,1025,1025,1025,1025,1022,1022,1022,1022,1025,1025,1025,1025,1025,1025,1025,1025,1025,1025,1022,1022,1022,1019,1019,1019,1019,1019,1019,1019,1022,1022,1022,1022,1022,1022,1019,1016,1016,1019,1019,1016,1016,1016,1016,1016,1016,1016,1016,1016,1016,1016,1016,1016,1016,1016,1016,1016,1016,1016,1016,1016,1016,1016,1016,1016,1016,1016,1016,1016,1016,1016,1013,1013,1013,1013,1013,1013,1013,1013,1013,1013,1010,1010,1010,1013,1010,1010,1007,1007,1007,1010,1010,1010,1010,1010,1010,1010,1010,1010,1010,1010,1010,1010,1010,1010,1010,1007,1007,1007,1004,1004,1004,1004,1007,1007,1007,1010,1010,1007,1007,1007,1007,1007,1004,1004,1004,1004,1004,1004,1004,1004,1004,1004,1004,1004,1004,1004,1004,1007,1007,1007,1007,1004,1004,1004,1001,1001,998,995,995,0,0,0,0,0,0,989,989,989,992,992,992,995,1001,1007,1010,935,935,938,946,946,946,946,946,946,992,992,989,989,989,992,1001,1001,1001,1001,1001,998,998,998,998,1001,1001,1001,1001,1001,998,998,1001,998,998,998,998,998,998,998,998,998,995,995,995,995,995,995,995,995,0,0,0,0,0,0,0,0,0,0,0,0,0,0,0,0,0,0,0,0,0,0,0,0,0,0,0,0,0,0,0,0,0,0
0,0,0,0,0,1073,1070,1070,1070,1067,1067,1063,1063,1063,1063,1063,1060,1060,1060,1063,1063,1060,1060,1060,1060,1060,1060,1060,1063,1063,1063,1063,1063,1063,1063,1063,1063,1063,1063,1063,1063,1063,1063,1063,1063,1063,1063,1063,1060,1060,1060,1060,1060,1060,1060,1060,1057,1057,1057,1057,1057,1057,1057,1060,1060,1060,1060,1057,1057,1057,1060,1060,1060,1060,1060,1060,1060,1060,1060,1060,1057,1057,1057,1057,1057,1057,1057,1057,1057,1054,1054,1054,1054,1054,1050,1050,1050,1047,1044,1038,1038,1034,1028,1028,1028,1028,1028,1028,1028,1031,1034,1034,1038,1038,1038,1041,1044,1047,1050,1050,1050,1050,1050,1050,1050,1050,1050,1050,1050,1054,1050,1050,1050,1050,1050,1050,1050,1050,1050,1050,1050,1050,1050,1050,1050,1050,1050,1050,1050,1050,1050,1050,1050,1047,1047,1047,1047,1047,1047,1047,1047,1047,1047,1044,1044,1044,1044,1044,1044,1044,1044,1044,1044,1044,1044,1044,1047,1047,1047,1047,1047,1047,1047,1044,1044,1044,1044,1044,1044,1044,1044,1044,1044,1044,1044,1044,1044,1044,1044,1044,1044,1044,1044,1044,1044,1044,1041,1041,1041,1041,1041,1041,0,0,0,0,0,773,773,771,769,769,766,764,762,761,761,759,759,757,757,755,755,755,755,757,759,761,764,766,767,767,769,771,773,776,776,778,780,825,825,825,825,823,823,823,823,823,823,825,825,825,827,829,831,831,833,835,835,841,849,851,854,854,856,858,858,858,860,1028,1028,1028,1031,1031,1031,1031,1031,1031,1031,1031,1028,1028,1031,1031,1028,1028,1025,1025,1025,1025,1025,1025,1025,1028,1028,1028,1028,1028,1028,1028,1031,1031,1031,1031,1031,1031,1031,1034,1031,1031,1031,1031,1031,1031,1031,1028,1028,1028,1028,1028,1028,1025,1025,1025,1025,1025,1025,1025,1025,1028,1028,1028,1025,1025,1025,1025,1025,1025,1025,1025,1025,1025,1028,1028,1028,1025,1025,1025,1025,1025,1022,1022,1022,1022,1022,1025,1025,1025,1025,1025,1025,1025,1025,1025,1025,1025,1025,1025,1025,1025,1022,1022,1022,1022,1022,1022,1022,1025,1025,1025,1025,1022,1022,1022,1022,1022,1022,1019,1019,1022,1022,1022,1022,1022,1025,1025,1025,1025,1025,1022,1022,1022,1019,1019,1016,1016,1016,1016,1016,1016,1016,1016,1016,1019,1019,1019,1016,1016,1016,1016,1016,1016,1016,1016,1016,1016,1016,1016,1016,1016,1013,1013,1013,1013,1013,1013,1013,1013,1013,1013,1013,1013,1013,1013,1013,1013,1013,1013,1016,1013,1013,1013,1013,1010,1010,1010,1010,1010,1007,1007,1007,1007,1007,1007,1007,1004,1004,1007,1007,1007,1007,1007,1007,1007,1010,1010,1010,1007,1007,1010,1010,1010,1010,1007,1007,1010,1007,1004,1004,1004,1004,1004,1004,1004,1007,1004,1004,1007,1007,1007,1004,1004,1004,1004,1004,1004,1004,1001,1001,1001,1001,1001,1001,1001,1001,1001,1001,1001,998,998,1001,1004,1004,1004,1004,1004,1001,1001,998,992,992,0,0,0,0,0,0,987,987,989,989,989,992,992,992,995,995,935,935,943,946,946,946,946,946,989,989,992,989,989,989,992,995,995,998,998,998,998,998,995,995,995,995,998,998,998,995,995,998,995,995,998,998,998,995,995,995,995,992,992,992,992,992,992,992,992,0,0,0,0,0,0,0,0,0,0,0,0,0,0,0,0,0,0,0,0,0,0,0,0,0,0,0,0,0,0,0,0,0,0
0,0,0,0,0,1070,1070,1067,1063,1063,1063,1063,1063,1060,1060,1060,1060,1060,1060,1060,1060,1060,1057,1057,1057,1057,1054,1054,1057,1057,1060,1060,1063,1063,1063,1063,1063,1063,1063,1060,1060,1060,1060,1060,1060,1060,1060,1060,1060,1060,1060,1060,1057,1057,1057,1057,1057,1057,1054,1054,1057,1057,1057,1057,1057,1057,1057,1054,1054,1054,1057,1057,1060,1060,1060,1060,1057,1057,1057,1057,1057,1057,1054,1054,1057,1057,1054,1054,1054,1054,1050,1050,1054,1054,1050,1050,1050,1047,1044,1044,1038,1034,1028,1028,1028,1028,1028,1031,1031,1031,1034,1034,1038,1038,1041,1044,1044,1047,1047,1047,1050,1050,1050,1050,1047,1047,1050,1050,1050,1050,1050,1050,1050,1050,1050,1050,1050,1050,1050,1050,1047,1047,1047,1047,1047,1047,1047,1047,1047,1047,1047,1047,1047,1047,1047,1047,1047,1044,1044,1044,1044,1044,1044,1044,1044,1041,1041,1044,1041,1041,1041,1041,1041,1044,1041,1041,1044,1044,1044,1044,1044,1044,1044,1044,1044,1044,1044,1044,1044,1041,1041,1041,1041,1041,1041,1041,1041,1041,1041,1041,1041,1041,1041,1041,1041,1041,1038,1038,1038,1038,1038,1038,0,0,0,0,774,773,773,771,771,771,769,766,764,762,761,759,759,759,759,757,757,757,757,757,759,761,764,766,767,769,771,771,776,776,778,778,780,823,821,821,821,821,821,821,821,821,821,823,823,825,827,829,831,831,833,835,835,847,849,851,851,851,854,856,856,858,1025,1025,1025,1025,1028,1028,1028,1028,1028,1028,1028,1028,1025,1025,1028,1028,1028,1025,1025,1025,1025,1025,1025,1025,1025,1025,1022,1022,1025,1025,1025,1025,1031,1031,1031,1028,1028,1028,1028,1028,1028,1028,1028,1028,1028,1028,1028,1028,1025,1025,1025,1025,1025,1022,1022,1025,1025,1025,1025,1025,1025,1025,1025,1025,1025,1025,1022,1022,1022,1022,1022,1022,1022,1025,1025,1025,1025,1025,1025,1025,1025,1022,1022,1022,1022,1022,1022,1022,1022,1022,1022,1025,1025,1022,1022,1022,1022,1022,1022,1022,1022,1022,1019,1019,1019,1019,1022,1019,1019,1022,1022,1022,1022,1022,1022,1019,1019,1019,1019,1019,1019,1019,1019,1019,1019,1019,1022,1022,1022,1022,1022,1022,1019,1019,1016,1016,1016,1013,1013,1013,1013,1013,1013,1013,1013,1013,1016,1016,1016,1013,1013,1013,1013,1013,1013,1013,1013,1013,1013,1013,1013,1013,1013,1013,1013,1013,1013,1010,1010,1010,1010,1013,1010,1010,1010,1010,1010,1010,1010,1010,1010,1010,1010,1010,1010,1007,1007,1007,1007,1007,1007,1004,1004,1004,1004,1004,1004,1004,1004,1004,1004,1004,1004,1004,1004,1004,1007,1007,1007,1007,1007,1007,1007,1004,1004,1004,1004,1004,1004,1004,1004,1004,1004,1004,1004,1004,1004,1001,1001,1001,1004,1004,1004,1004,1004,1004,1001,1001,1001,1001,1001,1001,1001,1001,1001,1001,1001,1001,998,998,995,995,998,998,998,998,1001,1001,1001,1001,998,992,989,989,0,0,0,0,0,987,987,989,989,989,989,989,992,992,992,992,946,946,946,948,946,946,992,989,989,992,989,989,992,992,992,992,995,995,995,995,995,995,995,995,995,995,995,992,992,995,995,995,995,995,995,995,992,992,992,992,992,992,989,989,989,989,989,989,0,0,0,0,0,0,0,0,0,0,0,0,0,0,0,0,0,0,0,0,0,0,0,0,0,0,0,0,0,0,0,0,0,0
0,0,0,0,0,1063,1063,1063,1063,1060,1060,1060,1060,1060,1060,1060,1057,1057,1057,1057,1057,1057,1057,1057,1057,1057,1054,1054,1054,1057,1057,1057,1057,1060,1060,1060,1060,1057,1057,1057,1057,1057,1057,1057,1057,1060,1060,1060,1057,1057,1057,1057,1057,1054,1054,1054,1054,1054,1050,1050,1050,1054,1054,1054,1057,1054,1054,1054,1054,1054,1054,1054,1057,1057,1057,1057,1057,1054,1054,1054,1054,1054,1050,1050,1054,1054,1047,1047,1050,1050,1050,1050,1050,1050,1050,1050,1047,1047,1044,1044,1038,1034,1034,1028,1028,1028,1028,1031,1031,1034,1034,1034,1038,1038,1041,1044,1044,1047,1047,1047,1047,1047,1047,1047,1047,1047,1047,1047,1047,1047,1050,1047,1047,1050,1050,1050,1050,1047,1047,1047,1047,1047,1047,1047,1044,1044,1044,1047,1047,1047,1044,1044,1044,1044,1044,1044,1044,1041,1041,1041,1041,1041,1041,1041,1041,1041,1041,1041,1041,1038,1038,1038,1041,1041,1038,1038,1041,1041,1041,1041,1041,1041,1041,1041,1041,1041,1041,1041,1041,1038,1038,1041,1038,1038,1038,1038,1038,1038,1038,1038,1038,1038,1038,1038,1038,1038,1038,1038,1034,1034,1034,1034,1038,0,0,0,774,774,773,773,773,773,771,769,766,764,762,761,761,759,759,759,759,759,759,759,759,761,764,767,767,769,771,773,776,776,778,778,780,821,819,819,819,819,819,819,819,819,821,821,821,825,827,829,831,831,833,835,837,845,849,849,851,851,854,856,856,1025,1025,1025,1025,1025,1025,1025,1025,1025,1025,1025,1025,1025,1025,1025,1025,1025,1025,1025,1022,1022,1022,1022,1025,1022,1022,1022,1022,1022,1022,1022,1022,1022,1025,1025,1028,1028,1025,1025,1025,1025,1025,1025,1025,1025,1025,1025,1025,1025,1025,1022,1022,1022,1022,1019,1019,1022,1022,1025,1025,1022,1022,1025,1022,1022,1022,1022,1019,1019,1019,1019,1019,1019,1022,1022,1022,1022,1022,1022,1022,1022,1022,1019,1019,1019,1019,1019,1019,1019,1019,1019,1019,1022,1022,1022,1022,1022,1022,1019,1019,1019,1019,1019,1019,1019,1019,1019,1019,1019,1019,1019,1019,1019,1019,1019,1019,1016,1016,1016,1016,1016,1016,1016,1016,1016,1016,1016,1019,1019,1022,1019,1019,1016,1016,1016,1013,1013,1013,1013,1013,1013,1010,1010,1010,1010,1010,1010,1013,1013,1013,1013,1013,1013,1013,1013,1013,1013,1010,1010,1013,1013,1013,1013,1013,1013,1013,1013,1010,1007,1007,1007,1007,1007,1007,1007,1007,1007,1007,1007,1007,1007,1007,1007,1007,1007,1007,1004,1004,1004,1004,1007,1004,1004,1004,1004,1004,1004,1001,1001,1001,1001,1001,1001,1001,1001,1001,1004,1004,1004,1004,1004,1004,1004,1004,1004,1004,1004,1004,1001,1001,1001,1001,1001,1001,1001,1001,1001,998,998,998,998,1001,1001,1001,1001,1001,1001,1001,1001,1001,998,998,998,998,998,998,998,998,998,995,995,992,992,995,995,995,995,995,998,998,998,998,992,989,987,987,0,0,0,0,989,989,989,989,989,989,987,987,989,989,989,989,946,946,948,989,989,989,992,992,992,989,989,989,989,989,989,992,992,992,992,992,992,992,992,992,992,992,992,992,992,992,992,992,992,992,992,992,992,992,992,989,989,987,987,989,987,987,987,0,0,0,0,0,0,0,0,0,0,0,0,0,0,0,0,0,0,0,0,0,0,0,0,0,0,0,0,0,0,0,0,0,0
0,0,0,0,0,1057,1057,1063,1060,1060,1060,1057,1057,1057,1057,1057,1057,1054,1054,1054,1054,1054,1054,1054,1054,1054,1050,1050,1054,1054,1054,1054,1054,1057,1054,1054,1050,1050,1050,1050,1054,1054,1054,1054,1054,1054,1057,1057,1054,1054,1054,1054,1054,1050,1050,1050,1050,1050,1050,1047,1047,1050,1050,1050,1050,1050,1050,1050,1050,1050,1050,1050,1050,1050,1050,1054,1054,1050,1050,1050,1050,1050,1050,1050,1047,1044,1044,1044,1044,1047,1044,1044,1047,1047,1047,1047,1044,1044,1044,1041,1041,1038,1034,1034,1031,1031,1031,1031,1031,1034,1034,1038,1038,1038,1041,1041,1044,1047,1047,1047,1047,1047,1047,1047,1047,1047,1047,1047,1047,1047,1047,1047,1047,1047,1047,1047,1047,1047,1044,1044,1044,1041,1041,1044,1041,1041,1041,1044,1044,1044,1044,1041,1041,1041,1041,1041,1041,1041,1038,1038,1038,1038,1038,1038,1038,1038,1038,1038,1038,1038,1038,1038,1038,1038,1038,1038,1038,1038,1038,1038,1038,1038,1038,1038,1038,1038,1038,1038,1038,1038,1038,1038,1038,1038,1038,1038,1038,1038,1038,1038,1038,1038,1038,1038,1034,1034,1034,1034,1034,1034,1034,1034,1034,0,0,0,0,774,774,774,773,773,773,771,767,766,764,762,761,759,759,759,759,759,759,759,759,761,764,767,767,769,771,773,776,776,778,778,781,783,817,817,817,817,817,819,819,819,819,819,821,823,827,829,831,833,833,837,839,843,847,849,851,851,854,854,1025,1025,1025,1025,1025,1025,1025,1025,1025,1025,1025,1022,1022,1022,1022,1022,1022,1022,1022,1022,1022,1022,1022,1022,1022,1022,1022,1022,1019,1019,1022,1022,1022,1022,1025,1025,1025,1022,1022,1022,1025,1025,1025,1022,1022,1022,1025,1025,1025,1025,1022,1019,1019,1019,1019,1019,1019,1019,1022,1022,1022,1019,1019,1022,1022,1022,1019,1019,1019,1019,1016,1016,1016,1019,1019,1019,1019,1022,1022,1022,1019,1019,1019,1016,1016,1016,1016,1016,1016,1016,1016,1016,1016,1019,1019,1019,1019,1019,1019,1019,1019,1016,1016,1016,1016,1016,1016,1016,1016,1016,1016,1016,1016,1016,1016,1016,1016,1016,1016,1013,1013,1013,1013,1013,1013,1013,1013,1013,1013,1016,1016,1016,1016,1016,1013,1013,1013,1013,1013,1010,1010,1010,1010,1010,1007,1007,1010,1010,1010,1010,1010,1010,1010,1010,1010,1013,1010,1010,1010,1010,1010,1010,1010,1010,1010,1010,1007,1007,1007,1007,1004,1004,1004,1004,1004,1004,1004,1004,1004,1004,1004,1004,1004,1004,1004,1004,1004,1004,1004,1004,1004,1004,1004,1004,1004,1001,1001,1001,1001,1001,1001,1001,1001,1001,1001,1001,1001,1001,1001,1001,1004,1004,1004,1001,1001,1001,1001,1001,1001,1001,998,998,998,998,998,998,995,995,995,992,992,995,995,998,998,998,1001,1001,998,998,998,998,998,998,998,998,998,998,995,995,992,992,992,992,992,992,992,992,992,992,992,992,995,992,992,987,987,0,0,0,0,0,0,989,989,989,987,987,987,987,987,987,984,984,987,989,989,989,989,989,989,989,989,989,989,989,989,989,989,989,989,989,989,992,992,992,992,992,992,989,989,989,989,989,989,989,989,989,989,989,989,992,989,987,984,984,987,984,984,984,0,0,0,0,0,0,0,0,0,0,0,0,0,0,0,0,0,0,0,0,0,0,0,0,0,0,0,0,0,0,0,0,0,0
0,0,0,0,0,1054,1054,1060,1057,1057,1057,1057,1057,1054,1054,1054,1054,1054,1054,1054,1050,1050,1050,1050,1050,1050,1050,1050,1050,1050,1050,1054,1054,1054,1050,1050,1047,1047,1047,1047,1047,1047,1047,1047,1050,1050,1050,1054,1050,1050,1050,1050,1050,1047,1047,1050,1047,1047,1047,1047,1047,1047,1047,1047,1047,1050,1050,1050,1050,1050,1050,1050,1047,1047,1047,1050,1050,1050,1050,1050,1050,1047,1047,1047,1044,1041,1041,1041,1041,1044,1044,1044,1044,1044,1044,1044,1041,1041,1041,1041,1038,1038,1034,1034,1034,1034,1034,1034,1034,1034,1038,1038,1038,1038,1038,1038,1041,1041,1041,1044,1044,1044,1044,1044,1044,1044,1044,1044,1044,1047,1047,1047,1047,1047,1047,1047,1047,1044,1044,1038,1038,1038,1038,1038,1038,1038,1038,1041,1041,1041,1038,1038,1038,1038,1038,1038,1038,1038,1038,1038,1038,1038,1038,1038,1038,1034,1034,1038,1038,1034,1034,1038,1038,1038,1034,1034,1038,1034,1034,1034,1034,1034,1034,1034,1034,1038,1034,1034,1034,1034,1034,1034,1034,1034,1034,1034,1034,1034,1034,1034,1034,1034,1034,1034,1034,1034,1034,1034,1031,1031,1031,1031,1031,0,0,0,0,774,774,774,774,774,773,771,767,767,766,764,762,761,759,759,759,759,759,759,759,761,764,767,769,771,773,774,776,778,778,778,781,783,813,813,817,817,817,817,819,819,819,819,819,821,827,831,833,833,835,839,841,843,847,849,849,851,854,1022,1022,1022,1022,1022,1025,1025,1025,1025,1022,1022,1022,1022,1022,1022,1022,1019,1019,1019,1019,1019,1019,1019,1019,1019,1019,1019,1019,1019,1016,1016,1019,1019,1019,1019,1019,1019,1019,1019,1019,1019,1019,1019,1022,1022,1022,1022,1022,1022,1022,1022,1019,1016,1016,1016,1019,1016,1016,1016,1019,1022,1019,1016,1016,1019,1019,1019,1016,1016,1016,1016,1016,1016,1016,1016,1016,1016,1019,1019,1019,1019,1019,1016,1016,1016,1016,1016,1016,1013,1013,1013,1013,1013,1013,1016,1016,1016,1016,1016,1016,1013,1013,1013,1016,1013,1013,1013,1013,1013,1016,1016,1016,1016,1016,1016,1016,1016,1013,1013,1013,1013,1013,1010,1010,1010,1010,1010,1010,1010,1013,1010,1010,1010,1010,1013,1010,1010,1010,1010,1010,1010,1007,1007,1007,1007,1007,1007,1007,1007,1007,1007,1007,1007,1007,1007,1007,1007,1007,1007,1007,1007,1007,1007,1007,1007,1007,1007,1004,1004,1004,1004,1004,1004,1004,1004,1004,1004,1004,1004,1004,1004,1001,1001,1001,1001,1001,1001,1001,1001,1001,1001,1001,1004,1001,1001,1001,1001,1001,1001,1001,998,998,998,998,998,998,998,998,998,998,998,998,998,998,1001,1001,1001,1001,1001,998,998,995,995,995,992,992,992,992,992,992,992,992,992,992,992,992,995,995,998,995,995,995,992,992,995,995,995,995,995,995,992,992,992,992,992,992,992,992,992,992,992,992,992,992,989,989,989,987,987,0,0,0,981,981,981,989,989,987,987,987,987,987,984,984,984,987,987,987,989,989,989,989,989,989,989,989,987,987,987,987,987,987,989,989,989,989,989,989,989,989,989,989,989,989,989,987,987,989,989,989,989,989,989,989,984,981,981,984,984,981,981,0,0,0,0,0,0,0,0,0,0,0,0,0,0,0,0,0,0,0,0,0,0,0,0,0,0,0,0,0,0,0,0,0,0
0,0,0,0,0,1054,1054,1054,1054,1054,1050,1050,1050,1050,1050,1050,1050,1050,1050,1050,1050,1050,1047,1047,1047,1047,1047,1047,1047,1047,1050,1050,1050,1050,1047,1047,1047,1047,1047,1047,1047,1047,1044,1044,1044,1044,1044,1047,1047,1047,1047,1047,1047,1047,1047,1047,1047,1047,1047,1044,1044,1044,1047,1047,1047,1047,1047,1047,1047,1047,1047,1047,1047,1044,1044,1044,1044,1047,1047,1044,1044,1044,1041,1041,1041,1038,1038,1038,1038,1041,1041,1041,1041,1044,1041,1041,1041,1041,1041,1038,1038,1038,1034,1034,1034,1034,1034,1034,1034,1034,1038,1038,1038,1038,1038,1038,1038,1041,1041,1041,1041,1038,1038,1041,1041,1044,1041,1041,1041,1044,1044,1044,1044,1041,1041,1044,1044,1041,1041,1038,1038,1038,1038,1038,1038,1038,1038,1038,1038,1038,1038,1038,1038,1038,1038,1038,1038,1038,1038,1038,1038,1034,1034,1034,1034,1034,1034,1034,1034,1034,1034,1034,1034,1034,1034,1034,1034,1031,1031,1031,1034,1034,1031,1031,1034,1034,1034,1031,1031,1031,1031,1031,1031,1031,1031,1034,1034,1034,1034,1034,1031,1031,1031,1031,1031,1031,1031,1028,1028,1028,1028,1028,1028,0,0,0,0,0,774,774,774,774,774,771,769,767,767,766,762,761,761,759,759,759,759,759,761,762,767,767,769,771,773,774,776,778,778,780,815,815,813,813,813,813,815,815,817,819,819,819,819,821,829,831,833,835,837,841,841,843,847,847,849,851,1019,1019,1019,1022,1022,1022,1022,1022,1022,1022,1022,1022,1019,1019,1019,1019,1019,1016,1016,1016,1016,1016,1016,1016,1016,1016,1016,1016,1016,1016,1016,1016,1016,1016,1016,1016,1016,1016,1016,1016,1016,1016,1016,1016,1016,1016,1016,1016,1019,1019,1019,1016,1016,1016,1016,1016,1016,1016,1016,1016,1016,1016,1016,1016,1016,1016,1016,1016,1016,1016,1013,1013,1016,1016,1016,1016,1016,1016,1016,1016,1016,1016,1016,1016,1016,1013,1013,1013,1013,1010,1010,1010,1010,1013,1013,1013,1013,1013,1013,1013,1013,1013,1013,1010,1010,1010,1010,1013,1013,1013,1013,1013,1013,1013,1013,1013,1013,1013,1013,1013,1013,1013,1010,1010,1010,1010,1007,1007,1007,1007,1007,1007,1007,1007,1007,1007,1007,1007,1007,1007,1007,1007,1007,1007,1004,1004,1004,1004,1004,1004,1004,1004,1004,1004,1004,1004,1004,1004,1004,1004,1004,1004,1004,1004,1004,1004,1004,1004,1004,1004,1004,1004,1004,1001,1001,1001,1001,1001,1001,1001,1001,1001,1001,1001,998,998,998,1001,998,998,998,998,1001,1001,998,998,998,998,998,998,998,998,998,998,995,995,998,998,995,995,995,995,995,995,995,995,995,995,998,998,995,992,992,992,992,992,992,992,992,992,992,989,989,989,989,989,989,992,992,992,992,992,992,992,992,992,992,992,992,992,992,992,989,989,989,989,989,989,989,989,989,989,989,989,989,989,987,987,987,987,0,981,975,981,981,981,984,984,987,984,984,984,984,984,984,984,984,987,987,987,987,989,989,989,989,989,987,987,987,987,987,987,987,987,987,987,987,987,987,987,987,987,987,987,987,987,987,987,984,984,984,984,984,984,984,981,981,981,981,984,981,981,0,0,0,0,0,0,0,0,0,0,0,0,0,0,0,0,0,0,0,0,0,0,0,0,0,0,0,0,0,0,0,0,0,0
0,0,0,0,0,1054,1054,1054,1050,1050,1050,1050,1050,1047,1047,1050,1047,1047,1047,1047,1047,1047,1047,1047,1047,1047,1047,1047,1044,1044,1044,1044,1044,1047,1047,1047,1047,1047,1044,1044,1044,1044,1044,1041,1041,1041,1038,1038,1041,1041,1041,1041,1047,1044,1044,1044,1044,1044,1044,1041,1041,1044,1044,1044,1044,1044,1047,1047,1047,1044,1044,1044,1044,1041,1041,1038,1038,1041,1041,1041,1041,1038,1038,1038,1038,1038,1038,1038,1038,1041,1041,1041,1041,1041,1041,1041,1038,1038,1038,1038,1038,1034,1034,1034,1034,1034,1034,1034,1034,1034,1034,1034,1034,1038,1038,1038,1038,1038,1038,1038,1038,1038,1038,1038,1038,1038,1038,1041,1038,1038,1041,1041,1041,1038,1038,1038,1038,1038,1038,1034,1034,1034,1034,1034,1034,1034,1034,1034,1034,1034,1034,1034,1034,1034,1034,1034,1038,1034,1034,1034,1034,1034,1034,1034,1034,1034,1034,1034,1034,1034,1034,1034,1034,1034,1031,1031,1031,1031,1028,1028,1031,1031,1028,1028,1031,1031,1031,1031,1028,1028,1028,1028,1028,1028,1028,1028,1028,1031,1031,1031,1031,1031,1028,1028,1028,1028,1028,1028,1025,1025,1025,1025,1022,1022,0,0,0,0,774,774,774,774,774,773,771,769,767,766,764,762,761,761,761,761,761,761,761,762,767,767,769,771,773,774,778,778,778,780,811,811,811,811,811,811,813,815,817,817,819,819,819,823,829,833,835,835,837,841,843,843,847,847,849,1013,1016,1019,1019,1019,1022,1022,1022,1022,1019,1019,1019,1019,1019,1016,1016,1016,1016,1013,1013,1013,1013,1013,1013,1013,1013,1016,1013,1013,1013,1013,1013,1013,1013,1013,1013,1013,1016,1016,1016,1016,1016,1016,1016,1016,1016,1016,1016,1016,1016,1013,1013,1016,1013,1013,1013,1013,1016,1013,1013,1016,1016,1016,1016,1013,1013,1013,1013,1013,1013,1013,1013,1013,1013,1013,1013,1013,1013,1013,1013,1013,1013,1013,1013,1013,1013,1010,1010,1010,1010,1010,1010,1010,1010,1010,1010,1010,1010,1010,1010,1013,1010,1010,1010,1010,1010,1007,1007,1007,1007,1010,1010,1010,1010,1010,1010,1010,1010,1010,1010,1010,1010,1010,1010,1010,1007,1007,1007,1004,1004,1004,1004,1004,1004,1004,1004,1004,1004,1004,1004,1004,1004,1004,1004,1004,1004,1004,1004,1004,1004,1004,1004,1004,1004,1001,1001,1001,1001,1001,1001,1001,1001,1001,1001,1001,1001,1001,1004,1001,1001,1001,1001,1001,1001,1001,1001,1001,1001,1001,1001,1001,1001,1001,998,998,995,995,995,998,998,998,998,998,998,998,998,995,995,995,995,995,992,992,992,992,992,992,992,992,992,992,992,992,992,992,992,992,992,992,992,992,992,992,989,989,989,989,989,989,989,989,989,989,989,989,989,989,989,989,989,989,989,989,989,989,989,989,989,989,992,992,989,989,989,989,989,989,989,989,989,989,989,989,987,987,989,987,987,987,987,984,984,981,975,975,978,981,984,984,987,984,984,984,984,981,981,981,981,984,984,984,984,984,987,987,987,987,987,984,984,984,984,984,984,984,984,984,984,984,984,984,987,984,984,984,984,984,984,984,981,981,981,981,981,981,981,981,981,981,981,981,981,981,0,0,0,0,0,0,0,0,0,0,0,0,0,0,0,0,0,0,0,0,0,0,0,0,0,0,0,0,0,0,0,0,0,0
0,0,0,0,0,1054,1054,1050,1050,1050,1050,1050,1047,1047,1047,1047,1044,1044,1047,1047,1044,1044,1044,1044,1047,1047,1047,1044,1044,1044,1044,1044,1044,1044,1044,1044,1044,1044,1044,1044,1044,1044,1041,1038,1038,1038,1034,1034,1038,1038,1038,1038,1041,1041,1041,1041,1041,1041,1044,1041,1041,1041,1044,1041,1041,1044,1044,1044,1044,1041,1041,1041,1041,1038,1038,1038,1038,1038,1038,1038,1038,1038,1038,1038,1034,1034,1038,1038,1038,1038,1038,1038,1038,1038,1038,1038,1038,1038,1038,1034,1034,1034,1034,1034,1031,1031,1031,1031,1031,1034,1034,1034,1034,1034,1038,1038,1038,1038,1038,1038,1038,1034,1034,1034,1034,1038,1038,1034,1034,1034,1034,1034,1034,1034,1034,1034,1034,1034,1034,1031,1031,1031,1031,1034,1034,1034,1034,1034,1031,1031,1031,1031,1031,1031,1031,1031,1034,1034,1034,1034,1031,1031,1031,1031,1031,1031,1031,1031,1031,1031,1031,1034,1031,1031,1031,1028,1028,1028,1028,1028,1028,1028,1028,1028,1028,1028,1028,1028,1025,1025,1028,1028,1028,1028,1028,1028,1028,1028,1025,1025,1025,1028,1028,1025,1025,1025,1025,1025,1025,1025,1025,1025,1022,1022,0,1022,0,0,776,776,776,774,774,773,771,769,769,767,766,764,762,762,761,761,761,761,762,764,767,767,769,771,774,776,778,778,780,781,809,809,809,809,811,811,811,813,817,817,819,819,821,825,831,833,835,835,837,841,843,843,1010,1010,1010,1013,1013,1016,1019,1019,1019,1019,1019,1019,1016,1016,1019,1016,1016,1016,1013,1013,1013,1013,1013,1013,1013,1013,1013,1013,1013,1013,1013,1013,1013,1013,1013,1013,1013,1010,1010,1013,1013,1013,1013,1013,1013,1013,1013,1013,1013,1013,1013,1013,1013,1013,1010,1010,1010,1013,1013,1013,1013,1013,1013,1013,1013,1013,1013,1013,1010,1010,1010,1010,1010,1010,1010,1010,1010,1010,1010,1010,1010,1010,1010,1010,1010,1010,1010,1010,1010,1007,1007,1007,1007,1007,1007,1007,1007,1007,1007,1007,1007,1007,1007,1007,1004,1004,1004,1004,1004,1004,1004,1004,1004,1004,1004,1004,1007,1007,1007,1007,1007,1007,1010,1007,1007,1007,1007,1004,1004,1004,1004,1004,1004,1004,1004,1004,1004,1004,1001,1001,1004,1004,1004,1004,1004,1004,1004,1004,1004,1004,1004,1004,1001,1001,1001,1001,1001,1001,1001,998,998,1001,1001,1001,1001,1001,1001,1001,998,998,998,998,1001,1001,1001,1001,1001,998,998,998,998,998,998,998,998,998,998,995,995,995,995,995,995,995,995,995,995,995,995,995,992,992,992,992,992,992,989,989,989,989,989,989,989,989,989,989,989,989,989,989,989,989,992,989,989,989,989,989,989,989,989,989,989,989,989,989,989,989,989,987,987,987,987,987,989,989,989,989,987,987,989,989,989,989,989,989,989,989,989,989,989,989,989,989,987,987,984,984,984,984,984,984,984,981,981,981,975,975,978,981,981,984,984,984,984,984,981,981,978,978,978,981,981,981,981,981,984,987,987,984,984,981,981,981,981,981,981,981,981,981,981,981,981,981,984,981,981,981,981,981,981,981,981,981,981,978,978,978,978,978,978,978,981,978,978,981,0,0,0,0,0,0,0,0,0,0,0,0,0,0,0,0,0,0,0,0,0,0,0,0,0,0,0,0,0,0,0,0,0,0
0,0,0,0,0,1050,1050,1047,1047,1050,1047,1047,1044,1044,1044,1044,1041,1041,1041,1041,1041,1041,1044,1044,1044,1044,1044,1044,1041,1041,1041,1038,1038,1041,1041,1041,1041,1041,1041,1041,1041,1041,1038,1038,1038,1038,1034,1034,1038,1038,1038,1038,1038,1041,1041,1038,1038,1038,1038,1038,1038,1038,1041,1041,1041,1041,1044,1044,1041,1038,1038,1038,1038,1038,1034,1034,1034,1034,1038,1038,1038,1034,1034,1034,1034,1034,1038,1034,1034,1038,1038,1038,1038,1038,1038,1038,1034,1034,1034,1034,1034,1031,1031,1031,1031,1031,1031,1031,1031,1031,1034,1034,1034,1034,1034,1034,1034,1034,1034,1034,1034,1034,1034,1034,1034,1034,1034,1031,1031,1031,1031,1031,1031,1031,1031,1034,1034,1034,1031,1031,1031,1031,1031,1031,1031,1034,1034,1031,1031,1031,1028,1028,1028,1028,1031,1031,1031,1031,1031,1031,1028,1028,1028,1028,1028,1028,1028,1028,1028,1028,1028,1028,1028,1028,1028,1028,1028,1025,1025,1025,1025,1025,1025,1025,1025,1025,1025,1025,1022,1022,1022,1022,1025,1025,1025,1025,1025,1025,1025,1025,1022,1022,1022,1022,1022,1025,1025,1025,1025,1025,1022,1022,1022,1022,1022,1022,0,778,0,778,776,776,774,773,771,771,771,769,767,766,762,762,761,761,761,762,762,766,767,769,771,771,774,776,778,778,780,780,807,807,807,809,809,811,811,813,817,819,821,821,821,825,829,833,835,837,837,841,843,843,1010,1010,1010,1013,1013,1016,1016,1016,1016,1016,1016,1013,1013,1013,1013,1013,1013,1013,1013,1013,1010,1010,1010,1010,1010,1010,1010,1013,1013,1013,1010,1010,1010,1010,1010,1010,1010,1010,1010,1010,1010,1010,1010,1010,1010,1010,1010,1010,1010,1010,1010,1013,1013,1010,1010,1007,1007,1010,1010,1007,1007,1010,1010,1010,1007,1007,1007,1007,1007,1007,1007,1007,1007,1007,1007,1007,1010,1010,1007,1007,1007,1010,1010,1007,1007,1007,1007,1007,1007,1004,1004,1004,1004,1004,1004,1004,1004,1004,1004,1004,1004,1004,1004,1004,1004,1004,1004,1004,1001,1001,1001,1001,1001,1001,1001,1001,1001,1001,1001,1004,1004,1004,1004,1004,1004,1004,1004,1001,1001,1001,1001,1001,1001,1001,1001,1001,1001,1001,1001,1001,1001,1001,1001,1001,1001,1001,1001,1001,1001,1001,1001,1001,1001,1001,1001,1001,1001,1001,998,998,998,998,998,998,998,998,998,998,998,995,995,995,995,995,995,998,998,998,998,998,998,995,995,998,998,995,995,995,992,992,992,992,992,992,992,995,995,992,992,992,992,992,992,989,989,989,989,989,989,989,989,989,989,989,989,989,989,987,987,989,989,989,989,989,987,987,987,987,987,987,989,989,989,989,989,989,989,989,987,984,984,984,984,984,987,987,987,987,987,987,987,987,987,987,987,987,987,987,987,987,989,989,989,987,987,984,984,981,981,984,981,981,981,981,981,981,978,978,978,978,978,981,984,984,984,981,981,978,978,978,978,981,978,978,978,981,981,981,981,981,981,981,981,981,978,978,978,978,978,978,978,975,975,978,978,978,981,981,981,978,978,978,978,978,978,975,975,975,975,975,975,978,978,978,978,0,0,0,0,0,0,0,0,0,0,0,0,0,0,0,0,0,0,0,0,0,0,0,0,0,0,0,0,0,0,0,0,0,0,0
0,0,0,0,0,1050,1047,1044,1044,1047,1044,1044,1044,1041,1041,1041,1041,1041,1041,1041,1038,1038,1041,1041,1041,1041,1041,1041,1041,1038,1038,1038,1038,1038,1038,1038,1038,1038,1041,1041,1041,1041,1038,1038,1038,1034,1034,1034,1034,1034,1034,1034,1038,1038,1038,1038,1038,1038,1038,1034,1034,1034,1034,1034,1038,1038,1041,1041,1038,1038,1038,1034,1034,1034,1034,1031,1031,1034,1034,1034,1034,1034,1034,1034,1034,1034,1034,1034,1034,1034,1034,1034,1038,1038,1038,1038,1034,1034,1034,1034,1034,1031,1031,1031,1028,1028,1028,1028,1028,1028,1031,1031,1031,1031,1031,1031,1031,1031,1028,1028,1031,1031,1031,1031,1031,1031,1031,1028,1028,1025,1025,1028,1028,1028,1025,1025,1025,1028,1028,1028,1028,1028,1028,1028,1031,1031,1031,1028,1028,1028,1028,1028,1028,1028,1028,1028,1028,1028,1028,1025,1025,1025,1025,1022,1022,1025,1022,1022,1022,1022,1022,1025,1025,1025,1025,1025,1025,1025,1025,1025,1025,1025,1022,1022,1022,1022,1022,1022,1022,1022,1022,1022,1022,1022,1022,1022,1022,1022,1025,1025,1022,1022,1022,1022,1022,1022,1022,1025,1022,1022,1022,1022,1019,1019,1019,0,0,0,0,780,780,776,774,774,773,773,771,771,769,767,766,764,762,762,762,764,764,767,767,769,771,773,774,776,778,778,780,802,802,802,803,807,809,809,811,815,817,819,821,821,823,827,829,833,835,837,837,841,841,1004,1004,1004,1004,1010,1013,1013,1013,1013,1013,1013,1013,1010,1010,1010,1010,1010,1010,1010,1010,1010,1010,1010,1010,1010,1010,1007,1007,1010,1010,1010,1010,1010,1010,1010,1010,1007,1007,1007,1007,1007,1007,1010,1007,1007,1007,1007,1007,1007,1007,1007,1007,1010,1010,1010,1007,1007,1007,1007,1007,1004,1004,1004,1004,1007,1007,1007,1007,1007,1004,1004,1004,1004,1004,1004,1004,1007,1007,1007,1004,1004,1007,1007,1007,1004,1004,1004,1004,1004,1004,1004,1004,1004,1004,1004,1004,1004,1004,1004,1004,1004,1004,1004,1004,1001,1001,1001,1001,1001,1001,1001,1001,1001,1001,1001,1001,1001,1001,1001,1001,998,998,998,998,1004,1001,1001,1001,1001,1001,1001,1001,1001,998,998,998,998,998,1001,998,998,1001,998,998,998,998,998,995,995,998,998,998,998,998,998,998,998,998,998,995,995,995,995,995,995,995,995,995,995,995,995,992,992,992,992,992,992,992,992,995,995,992,992,995,995,995,992,992,992,992,992,992,992,992,992,992,992,992,992,992,992,992,989,989,989,989,989,987,987,987,987,987,987,987,987,987,987,987,987,987,987,987,987,987,987,987,984,984,984,984,984,984,987,987,989,989,987,987,987,987,984,984,984,984,984,984,984,984,984,984,984,981,981,981,981,981,981,981,984,984,987,987,987,987,981,981,981,981,981,981,981,981,981,981,981,981,978,978,978,978,978,978,978,978,981,978,978,978,978,978,978,978,978,978,978,978,978,978,978,978,978,978,978,978,978,975,975,973,973,973,975,975,975,975,975,975,975,978,978,975,973,973,973,975,975,975,973,973,973,973,973,970,970,970,973,975,0,0,0,0,0,0,0,0,0,0,0,0,0,0,0,0,0,0,0,0,0,0,0,0,0,0,0,0,0,0,0,0,0,0,0
0,0,0,0,1047,1047,1044,1044,1034,1034,1041,1041,1041,1038,1038,1038,1038,1038,1038,1038,1038,1038,1038,1038,1041,1041,1041,1041,1038,1038,1038,1034,1034,1034,1034,1034,1038,1038,1038,1038,1038,1038,1034,1034,1034,1034,1031,1031,1031,1031,1031,1031,1034,1034,1034,1034,1034,1034,1034,1028,1028,1028,1028,1031,1031,1031,1034,1038,1038,1034,1034,1034,1034,1034,1031,1031,1031,1031,1031,1031,1031,1031,1031,1031,1031,1031,1031,1031,1031,1031,1031,1031,1034,1034,1034,1034,1034,1034,1034,1031,1031,1031,1028,1028,1028,1028,1028,1028,1028,1028,1028,1028,1028,1028,1028,1028,1028,1028,1028,1028,1028,1028,1028,1028,1028,1028,1028,1028,1025,1025,1025,1025,1025,1025,1022,1022,1022,1025,1025,1025,1025,1025,1025,1028,1028,1028,1028,1025,1025,1025,1025,1025,1025,1025,1025,1025,1025,1025,1025,1022,1022,1022,1022,1019,1019,1022,1019,1019,1019,1019,1019,1019,1019,1022,1022,1022,1022,1022,1022,1022,1019,1019,1019,1019,1019,1019,1019,1019,1019,1019,1019,1019,1019,1019,1019,1019,1019,1019,1022,1022,1019,1019,1019,1019,1019,1022,1022,1022,1019,1019,1022,1019,1019,1016,1016,1016,0,0,0,780,780,778,776,774,773,773,773,771,771,769,767,766,764,764,764,766,766,767,769,769,771,773,774,776,780,780,783,789,789,800,802,807,807,809,811,815,817,819,821,823,825,827,829,833,833,835,837,841,841,1004,1004,1004,1004,1007,1007,1007,1010,1010,1010,1007,1007,1007,1007,1007,1007,1010,1010,1010,1010,1007,1007,1007,1007,1007,1007,1007,1007,1007,1007,1007,1007,1007,1007,1007,1007,1004,1004,1004,1004,1007,1007,1007,1007,1004,1004,1004,1004,1007,1004,1004,1004,1007,1007,1007,1004,1004,1004,1004,1004,1004,1004,1004,1004,1004,1004,1004,1004,1004,1004,1004,1004,1004,1004,1004,1004,1004,1004,1004,1004,1004,1004,1004,1004,1004,1004,1004,1004,1004,1004,1001,1001,1001,1001,1001,1001,1001,1001,1001,1001,1001,1001,1001,1001,1001,1001,1001,998,998,998,998,998,998,998,998,998,998,998,998,998,998,998,995,995,998,998,998,1001,998,998,998,998,998,995,995,998,998,998,998,998,998,998,998,998,998,995,995,995,995,995,995,995,995,995,995,995,998,995,995,995,995,995,995,992,992,992,992,992,992,992,992,992,989,989,989,989,989,989,989,989,989,989,992,992,992,992,992,989,989,989,989,989,989,989,989,989,989,989,989,989,989,989,989,989,987,987,987,984,984,984,984,984,984,984,984,984,984,984,984,984,984,984,984,984,984,984,981,981,981,981,981,981,984,984,984,984,987,984,984,984,981,981,981,981,981,984,984,984,981,981,981,981,981,981,981,981,981,981,981,981,984,984,987,984,981,981,981,978,978,978,978,978,978,978,978,978,978,978,978,978,973,973,973,973,973,970,970,973,973,973,973,973,973,973,973,973,973,973,973,975,975,975,975,975,973,973,973,970,970,967,967,970,970,970,970,970,973,973,975,970,970,970,970,970,970,970,970,970,970,970,970,967,967,967,967,967,0,0,0,0,0,0,0,0,0,0,0,0,0,0,0,0,0,0,0,0,0,0,0,0,0,0,0,0,0,0,0,0,0,0,0
0,0,0,0,1044,1041,1038,1038,1034,1034,1038,1038,1038,1038,1038,1038,1038,1038,1038,1034,1034,1034,1034,1034,1038,1038,1038,1038,1038,1034,1034,1034,1034,1031,1031,1034,1034,1034,1034,1034,1034,1034,1031,1031,1031,1028,1028,1028,1028,1028,1031,1031,1031,1031,1031,1031,1028,1028,1028,1025,1025,1025,1025,1028,1028,1028,1028,1031,1034,1031,1031,1031,1031,1031,1028,1028,1028,1028,1028,1028,1028,1031,1031,1031,1031,1031,1031,1028,1028,1031,1031,1031,1031,1031,1031,1031,1031,1031,1031,1028,1028,1028,1025,1025,1025,1025,1025,1025,1025,1025,1025,1025,1025,1025,1025,1025,1025,1025,1025,1025,1025,1025,1025,1025,1025,1025,1025,1025,1022,1022,1022,1022,1022,1022,1022,1022,1022,1022,1022,1022,1022,1022,1022,1022,1022,1022,1025,1025,1025,1025,1022,1022,1025,1025,1025,1025,1022,1022,1022,1022,1022,1019,1019,1019,1019,1019,1019,1019,1019,1016,1016,1016,1016,1019,1019,1019,1019,1019,1019,1019,1016,1016,1019,1016,1016,1016,1016,1016,1016,1016,1016,1016,1016,1016,1016,1016,1016,1016,1016,1016,1016,1016,1019,1019,1019,1019,1019,1019,1016,1016,1016,1013,1013,1013,1013,1016,0,0,0,780,780,778,776,774,774,773,773,771,771,769,767,767,766,766,766,766,767,767,769,769,771,774,774,776,781,781,785,787,789,800,802,805,807,809,811,815,817,819,823,823,825,827,829,831,833,835,837,1004,1004,1004,1004,1004,1004,1004,1004,1004,1004,1004,1004,1004,1004,1004,1004,1004,1004,1004,1004,1004,1004,1004,1004,1004,1004,1004,1004,1004,1004,1004,1004,1004,1004,1004,1004,1004,1001,1001,1001,1001,1001,1004,1004,1004,1004,1004,1004,1004,1004,1004,1004,1004,1004,1004,1004,1004,1004,1001,1001,1004,1004,1004,1001,1001,1001,1001,1001,1001,1001,1001,1001,1001,1001,1001,1001,1001,1001,1001,1001,1001,1001,1001,1001,1001,1001,1001,1001,1001,1001,1004,1001,1001,1001,1001,1001,1001,1001,1001,998,998,1001,1001,1001,1001,1001,1001,1001,998,998,998,995,995,995,995,995,995,995,995,995,995,995,995,995,992,992,995,995,995,992,992,995,995,995,995,995,995,995,995,995,995,995,995,995,995,995,992,992,992,992,992,992,992,992,992,992,992,992,992,992,992,992,992,992,992,989,989,989,989,989,989,989,989,989,989,987,987,987,987,987,987,989,987,984,984,984,989,989,989,987,987,989,989,987,987,987,987,989,989,989,989,989,989,989,989,987,987,987,987,984,984,984,984,981,981,981,984,984,984,981,981,981,981,981,981,981,981,981,981,981,981,978,978,978,981,981,981,981,981,981,984,981,981,981,981,981,981,981,981,981,981,981,981,978,978,978,978,978,978,978,978,978,981,978,978,981,981,981,981,978,978,978,978,978,978,978,973,973,973,973,973,973,970,970,970,970,970,970,970,970,970,970,970,970,970,970,970,970,970,970,970,970,973,973,973,970,970,970,970,967,967,967,967,967,967,967,967,967,964,964,959,959,964,964,964,964,964,967,967,967,967,967,967,964,964,964,959,959,0,0,0,0,0,0,0,0,0,0,0,0,0,0,0,0,0,0,0,0,0,0,0,0,0,0,0,0,0,0,0,0,0,0,0
0,0,0,0,1038,1038,1038,1038,1034,1034,1034,1034,1034,1034,1034,1034,1034,1034,1034,1034,1034,1034,1034,1034,1034,1034,1038,1038,1034,1034,1034,1031,1031,1031,1031,1028,1028,1028,1028,1031,1031,1025,1025,1028,1028,1025,1025,1025,1025,1025,1025,1025,1028,1028,1028,1031,1028,1028,1025,1025,1025,1025,1025,1025,1025,1025,1025,1028,1028,1028,1028,1025,1025,1025,1025,1025,1025,1025,1025,1025,1025,1028,1028,1028,1028,1028,1028,1028,1028,1028,1028,1028,1028,1028,1028,1028,1025,1025,1025,1025,1025,1025,1025,1025,1025,1025,1025,1025,1022,1022,1022,1022,1022,1022,1022,1022,1022,1022,1025,1025,1025,1025,1025,1025,1025,1022,1022,1022,1022,1022,1022,1019,1019,1019,1019,1019,1019,1022,1022,1022,1019,1019,1019,1019,1019,1019,1019,1019,1019,1019,1022,1022,1022,1022,1022,1022,1019,1019,1019,1019,1019,1016,1016,1016,1016,1019,1016,1016,1016,1016,1016,1016,1016,1016,1016,1016,1016,1016,1016,1016,1016,1016,1016,1016,1013,1013,1013,1013,1013,1013,1013,1013,1013,1013,1013,1013,1013,1013,1013,1013,1013,1013,1016,1013,1013,1016,1016,1013,1013,1013,1010,1010,1010,1010,1010,1016,0,0,0,781,780,778,776,776,774,774,773,773,773,771,769,767,766,766,766,767,767,767,769,771,773,774,776,776,780,781,787,787,789,796,800,803,807,809,811,815,819,821,823,823,825,827,829,831,833,835,1001,1001,1001,1001,1001,1004,1004,1004,1001,1001,1001,1001,1001,1001,1001,1001,1001,1004,1004,1004,1004,1004,1001,1001,1001,1001,1001,1001,1001,1001,1001,1001,1001,1001,1001,1001,1001,1001,998,998,998,998,998,1004,1004,1004,1004,1001,1001,1001,1001,1001,1001,1001,1001,1001,1001,1001,1001,1001,1001,1001,1001,1001,1001,998,998,998,998,998,998,998,995,995,998,998,998,1001,1001,1001,1001,1001,1001,1001,1001,1001,1001,1001,1001,1001,1001,1001,1001,998,998,998,998,998,998,998,998,998,998,998,998,998,998,998,998,998,995,992,992,992,992,992,992,992,992,992,992,992,992,992,992,992,992,992,992,992,992,992,992,992,992,992,992,992,992,992,992,992,992,992,992,992,992,992,992,992,992,989,989,989,989,989,989,989,989,989,989,989,989,989,989,987,987,987,987,987,987,987,987,987,987,987,987,987,984,984,984,987,987,984,984,984,981,981,981,981,984,984,984,987,984,984,984,987,987,987,987,987,987,987,987,987,987,984,984,984,984,984,984,981,981,981,981,981,981,981,981,981,981,981,978,978,978,978,978,978,978,978,978,978,978,978,975,975,975,978,978,978,978,981,981,981,978,978,978,978,978,978,978,978,978,978,978,978,975,975,975,975,975,978,975,975,978,978,978,978,975,975,975,975,978,978,978,973,973,973,973,973,973,970,970,970,970,970,967,967,967,967,967,967,967,967,967,967,967,967,967,967,967,970,970,970,967,967,967,967,967,967,967,967,967,967,964,964,964,962,962,959,959,962,962,962,962,964,964,964,964,964,964,964,964,962,962,959,959,0,0,0,0,0,0,0,0,0,0,0,0,0,0,0,0,0,0,0,0,0,0,0,0,0,0,0,0,0,0,0,0,0,0,0
0,0,0,0,1034,1034,1034,1034,1034,1034,1034,1034,1034,1034,1034,1031,1031,1031,1031,1031,1031,1031,1031,1031,1031,1031,1034,1034,1031,1031,1031,1028,1028,1028,1028,1028,1028,1025,1025,1025,1025,1025,1025,1025,1025,1025,1025,1022,1022,1022,1022,1022,1025,1025,1025,1028,1025,1025,1025,1025,1025,1022,1022,1022,1022,1022,1025,1025,1025,1025,1025,1022,1022,1022,1022,1019,1019,1019,1019,1022,1025,1025,1025,1025,1025,1025,1025,1025,1025,1025,1025,1025,1025,1025,1025,1025,1022,1022,1022,1022,1022,1022,1022,1022,1022,1022,1022,1022,1022,1022,1022,1022,1022,1019,1019,1019,1022,1022,1022,1022,1022,1022,1022,1022,1022,1022,1022,1022,1022,1019,1019,1016,1016,1016,1016,1016,1016,1019,1019,1019,1019,1019,1019,1016,1016,1016,1016,1016,1016,1016,1016,1016,1016,1019,1019,1019,1019,1019,1019,1016,1016,1016,1016,1013,1013,1016,1016,1016,1016,1013,1013,1013,1013,1013,1013,1013,1013,1013,1013,1013,1013,1013,1013,1013,1013,1013,1013,1013,1013,1013,1013,1013,1013,1013,1013,1013,1013,1013,1013,1013,1013,1013,1013,1013,1010,1010,1010,1010,1010,1010,1007,1004,1004,1004,1007,1007,1004,0,781,781,781,780,780,778,776,774,774,773,773,771,771,767,767,767,767,767,767,767,769,771,773,776,776,778,780,783,787,787,790,792,800,803,807,809,811,815,819,821,821,823,825,827,829,831,833,998,998,998,998,1001,1001,1001,1001,1001,1001,1001,1001,1001,1001,1001,1001,1001,1001,1001,1001,1001,1001,1001,1001,1001,1001,1001,1001,1001,1001,1001,1001,1001,1001,1001,998,998,998,998,998,995,995,998,998,1001,1001,1001,1001,1001,1001,1001,1001,1001,1001,1001,1001,1001,1001,1001,998,998,998,998,998,998,998,995,995,995,995,995,995,992,992,995,995,995,995,995,995,995,998,998,995,995,995,995,995,995,998,998,998,998,998,995,995,995,995,995,995,995,995,995,995,995,995,995,995,995,995,992,992,992,992,992,992,992,992,992,992,992,992,992,992,992,992,989,989,989,989,992,989,989,989,992,989,989,989,989,989,989,989,989,989,992,992,989,989,989,989,989,989,989,989,989,987,987,987,987,984,984,987,987,987,984,984,984,984,984,984,984,984,984,984,984,984,984,984,984,981,981,981,981,981,981,981,981,981,981,981,981,981,981,981,981,984,981,981,984,984,987,987,984,984,984,984,984,984,981,981,981,981,981,981,981,981,981,981,981,981,981,981,978,978,978,978,978,978,978,978,978,978,975,975,975,975,975,975,975,975,975,975,975,975,975,975,975,975,975,978,975,973,973,975,975,975,975,975,975,975,975,973,973,973,975,973,973,975,975,975,975,970,970,970,970,970,973,973,973,970,970,970,973,970,970,970,970,970,970,967,967,967,967,967,967,964,964,964,964,964,964,967,967,967,967,967,967,967,967,964,964,964,964,964,964,964,964,964,964,964,962,959,959,959,962,962,962,962,962,962,964,962,962,962,962,962,962,959,959,959,0,0,0,0,0,0,0,0,0,0,0,0,0,0,0,0,0,0,0,0,0,0,0,0,0,0,0,0,0,0,0,0,0,0,0
