0,0,0,0,0,0,0,1177,1177,1181,1181,1181,1181,1181,1181,1181,1177,1177,1177,1177,1177,1177,1177,1177,1177,1177,1177,1177,1173,1173,1173,1173,1173,1177,1177,1177,1181,1181,1181,1181,1181,1181,1177,1177,1177,1177,1173,1173,1173,1177,1177,1177,1177,1181,1181,1181,1181,1181,1181,1181,1177,1177,1177,1177,1177,1177,1177,1177,1177,1181,1181,1181,1181,1181,1181,1181,1181,1181,1181,1181,1181,1181,1181,1181,1181,1181,1181,1181,1177,1177,1177,1181,1181,1181,1181,1181,1181,1181,1185,1181,1181,1181,1181,1181,1181,1177,1177,1173,1173,1177,1173,1165,1013,1013,1010,1007,1001,998,998,995,995,995,995,995,998,998,998,1001,1001,1001,1001,1004,1007,1010,1013,1013,1016,1181,1181,1181,1181,1181,1181,1181,1181,1181,1181,1181,1181,1181,1181,1181,1177,1177,1181,1181,1181,1181,1181,1181,1181,1181,1181,1181,1181,1181,1181,1181,1181,1181,1181,1181,1181,1181,1181,1181,1177,1177,1181,1181,1181,1181,1181,1181,1185,1185,1181,1181,1181,1181,1181,1181,1181,1181,1181,1181,1181,1181,1181,1181,1181,1181,1181,1181,1181,1181,1181,1185,1181,1181,1185,1185,1185,1181,1181,1181,1181,1181,1181,1181,1181,1181,1181,1181,1181,1181,1185,0,0,0,0,0,0,0,0,0,0,734,733,731,728,727,727,725,723,722,720,719,717,716,716,716,716,716,716,716,716,717,720,720,725,727,728,730,731,733,734,734,736,0,0,0,0,0,0,0,1181,1181,1181,1181,1181,1181,1181,1181,998,998,992,989,989,987,987,987,984,981,978,978,975,975,973,970,967,967,964,964,964,964,962,959,959,959,959,956,956,956,956,956,956,954,954,951,951,951,951,948,948,948,948,948,948,948,1202,1202,1202,1202,954,954,951,951,954,954,954,954,954,954,954,954,956,956,956,956,956,959,959,964,967,970,973,978,981,984,987,989,995,998,998,1185,1185,1185,1185,1185,1185,1185,1181,1181,1181,1181,1108,1108,1108,1105,1105,1101,1097,1097,1094,1094,1094,1094,1094,1094,1094,1097,1101,1101,1105,1189,1185,1185,1185,1185,1185,1185,1185,1185,1185,1185,1185,1185,1185,1185,1185,1185,1185,1185,1185,1185,1185,1185,1185,1185,1185,1185,1185,1185,1185,1185,1185,1185,1181,1181,1181,1181,1181,1185,1181,1181,1185,1185,1185,1185,1185,1185,1185,1185,1185,1185,1181,1181,1181,1185,1185,1181,1181,1181,1181,1181,1181,1181,1185,1181,1181,1181,1181,1181,1181,1181,1181,1181,1181,1181,1181,1181,1181,1181,1181,1181,1181,1181,1181,1181,1181,1181,1181,1177,1177,1173,1173,1169,1169,1169,1169,1169,1169,1169,1173,1173,1173,1173,1173,1173,1173,1169,1169,1169,1173,1173,1177,1173,1173,1173,1173,1173,1173,1173,1173,1173,1173,1173,1173,1169,1169,1169,1169,1169,1169,1169,1169,1169,1165,1165,1165,1165,1165,1165,1165,1165,1165,1165,1165,1165,1165,1165,1165,1165,1165,1165,1165,1165,1169,1169,1169,1169,1169,1173,1173,1173,1181,1181,1177,1177,1177,1177,1177,1181,1181,1181,1181,1181,1181,1181,1177,1177,1177,1177,1177,1177,1177,1181,1177,1177,1177,1177,1181,1070,1070,1067,1063,1060,1057,1057,1054,1050,1047,1044,1041,1038,1034,1031,1028,1025,1025,1022,1022,1022,1016,1016,0,0,0,0,0,0,0,0,0,0,0,0,0,0,0,0,0,0,0,0,0,0,0,0,0,0,0,0,0,0,0,0,0,0
0,0,0,0,0,0,0,1177,1177,1181,1177,1177,1177,1177,1177,1177,1177,1177,1177,1177,1177,1177,1177,1177,1177,1177,1173,1173,1173,1173,1169,1169,1169,1173,1173,1177,1177,1177,1177,1177,1177,1177,1177,1177,1177,1173,1173,1173,1173,1177,1177,1177,1177,1177,1177,1177,1177,1177,1177,1177,1177,1177,1177,1177,1173,1173,1173,1173,1173,1173,1173,1173,1177,1177,1177,1177,1177,1181,1181,1181,1181,1181,1181,1181,1177,1177,1177,1177,1177,1177,1177,1177,1177,1177,1177,1177,1177,1181,1181,1177,1177,1181,1181,1177,1177,1177,1177,1173,1173,1173,1169,1165,1013,1010,1010,1007,1001,1001,998,998,995,995,995,998,998,998,998,1001,1001,1001,1001,1004,1007,1010,1013,1016,1016,1177,1177,1177,1177,1181,1181,1177,1177,1177,1177,1177,1177,1177,1177,1177,1177,1177,1177,1177,1177,1177,1181,1177,1177,1177,1177,1177,1177,1177,1177,1181,1177,1177,1177,1177,1177,1177,1177,1177,1177,1177,1177,1181,1181,1181,1181,1181,1181,1181,1181,1181,1181,1181,1181,1181,1181,1181,1181,1181,1181,1181,1181,1177,1177,1177,1177,1177,1177,1177,1177,1177,1177,1181,1181,1181,1181,1177,1177,1177,1177,1177,1177,1173,1173,1177,1177,1177,1177,1177,0,0,0,0,0,0,0,0,0,0,741,734,733,733,731,728,727,727,725,723,722,720,719,717,716,716,716,716,716,716,717,719,720,725,725,727,728,730,731,733,734,734,736,736,0,0,0,0,0,0,1181,1181,1181,1181,1181,1181,1181,1177,1177,998,992,989,989,987,987,987,984,981,978,978,975,975,973,973,970,967,967,964,964,964,962,959,959,959,959,956,956,956,956,954,954,954,951,951,948,948,948,948,948,948,946,946,946,946,946,946,1202,951,951,954,951,951,951,951,954,954,951,951,954,954,954,956,956,956,956,959,959,964,964,970,973,981,987,987,989,989,995,998,998,1181,1181,1185,1185,1185,1181,1181,1181,1181,1181,1112,1108,1108,1108,1108,1105,1101,1101,1097,1097,1097,1094,1094,1094,1094,1097,1101,1101,1105,1105,1105,1185,1185,1185,1185,1181,1181,1181,1181,1181,1181,1181,1185,1185,1181,1181,1181,1181,1181,1181,1181,1181,1185,1185,1181,1181,1181,1181,1181,1181,1181,1181,1177,1177,1181,1181,1181,1181,1181,1181,1181,1181,1181,1181,1181,1181,1181,1181,1181,1181,1181,1181,1181,1181,1181,1181,1181,1181,1181,1181,1181,1181,1181,1181,1181,1177,1177,1181,1181,1177,1177,1181,1181,1181,1177,1177,1177,1177,1173,1173,1177,1177,1177,1177,1177,1177,1177,1177,1173,1173,1169,1169,1169,1169,1169,1169,1169,1169,1169,1173,1173,1173,1173,1169,1169,1169,1169,1169,1169,1169,1173,1173,1173,1173,1173,1173,1169,1169,1169,1169,1169,1169,1169,1169,1169,1165,1165,1169,1169,1169,1169,1169,1169,1165,1165,1165,1165,1165,1165,1165,1165,1165,1165,1165,1161,1161,1165,1165,1165,1165,1165,1165,1165,1169,1169,1169,1169,1169,1169,1173,1169,1169,1177,1169,1169,1177,1173,1173,1177,1177,1177,1177,1177,1177,1177,1173,1173,1173,1173,1173,1173,1173,1177,1173,1173,1173,1173,1169,1169,1070,1067,1063,1060,1057,1054,1050,1047,1044,1041,1038,1038,1031,1028,1025,1025,1022,1022,1019,1019,1016,1016,0,0,0,0,0,0,0,0,0,0,0,0,0,0,0,0,0,0,0,0,0,0,0,0,0,0,0,0,0,0,0,0,0,0
0,0,0,0,0,0,0,1173,1173,1177,1177,1177,1177,1173,1173,1173,1173,1173,1173,1177,1177,1177,1177,1177,1177,1173,1169,1169,1169,1169,1169,1169,1169,1169,1173,1173,1173,1173,1177,1177,1173,1173,1173,1173,1169,1165,1165,1169,1173,1173,1173,1173,1173,1173,1173,1173,1173,1173,1173,1173,1173,1173,1173,1173,1169,1169,1169,1169,1169,1165,1165,1169,1169,1173,1177,1177,1177,1177,1177,1177,1177,1177,1177,1177,1177,1173,1173,1173,1173,1173,1173,1173,1173,1173,1173,1173,1177,1177,1177,1177,1177,1177,1177,1177,1177,1177,1173,1173,1173,1169,1169,1165,1013,1010,1010,1007,1004,1001,998,998,998,998,998,998,998,998,1001,1001,1001,1004,1004,1007,1007,1010,1013,1013,1016,1177,1177,1177,1177,1177,1177,1177,1177,1177,1177,1177,1177,1177,1173,1173,1173,1173,1173,1173,1177,1177,1177,1177,1177,1177,1177,1177,1177,1177,1177,1177,1177,1177,1177,1173,1173,1173,1173,1169,1169,1173,1173,1177,1177,1177,1177,1177,1177,1177,1177,1177,1177,1177,1177,1177,1177,1177,1177,1177,1177,1177,1177,1177,1177,1177,1177,1177,1177,1177,1177,1177,1177,1177,1177,1177,1177,1177,1177,1173,1173,1173,1173,1173,1173,1173,1173,1173,1173,1173,0,0,0,0,0,0,0,0,0,0,741,738,734,733,731,728,727,727,725,723,722,720,719,717,716,716,716,716,716,716,717,720,720,725,727,727,728,731,733,734,734,736,734,734,0,0,0,0,0,0,0,1181,1181,1177,1177,1177,1177,1177,1173,1173,1169,989,989,989,987,987,984,981,978,978,978,975,975,973,973,967,967,964,964,964,962,959,959,959,956,956,956,954,954,951,951,951,948,948,948,948,948,948,948,946,946,943,943,943,943,943,943,946,946,948,948,948,948,948,948,951,951,951,951,951,954,956,956,956,956,959,959,964,964,970,973,981,987,987,989,989,995,1173,1173,1177,1177,1181,1181,1181,1181,1177,1177,1177,1177,1112,1112,1112,1112,1108,1105,1105,1101,1101,1097,1097,1094,1094,1094,1097,1097,1101,1101,1105,1105,1105,1181,1181,1181,1181,1181,1181,1181,1177,1177,1177,1177,1181,1181,1177,1177,1177,1181,1177,1177,1177,1177,1181,1181,1181,1181,1181,1181,1177,1177,1177,1177,1173,1173,1173,1173,1177,1177,1177,1177,1177,1177,1181,1177,1177,1177,1177,1177,1181,1181,1181,1177,1177,1177,1177,1177,1177,1177,1177,1177,1177,1177,1177,1177,1177,1173,1173,1173,1173,1173,1173,1173,1177,1177,1173,1173,1173,1173,1173,1173,1173,1173,1173,1173,1173,1173,1173,1173,1169,1169,1169,1169,1169,1169,1169,1169,1169,1169,1169,1169,1169,1169,1169,1169,1169,1169,1169,1169,1169,1169,1169,1169,1169,1169,1169,1169,1169,1169,1169,1169,1165,1165,1165,1165,1165,1165,1165,1165,1165,1165,1165,1165,1165,1165,1165,1165,1165,1165,1165,1165,1165,1165,1165,1165,1161,1161,1165,1165,1165,1165,1165,1165,1165,1169,1169,1169,1169,1169,1169,1169,1169,1169,1169,1169,1169,1169,1169,1169,1173,1173,1169,1169,1169,1169,1169,1169,1169,1169,1169,1169,1169,1169,1169,1169,1169,1173,1169,1169,1165,1070,1067,1063,1057,1054,1054,1050,1044,1041,1041,1038,1034,1031,1028,1025,1022,1022,1022,1019,1019,1016,1016,0,0,0,0,0,0,0,0,0,0,0,0,0,0,0,0,0,0,0,0,0,0,0,0,0,0,0,0,0,0,0,0,0,0
0,0,0,0,0,0,1173,1173,1173,1173,1169,1169,1169,1169,1169,1169,1169,1173,1173,1173,1173,1173,1173,1173,1169,1169,1169,1165,1165,1165,1165,1165,1165,1169,1169,1169,1173,1173,1173,1173,1173,1169,1169,1169,1165,1165,1165,1165,1169,1169,1169,1169,1169,1169,1165,1165,1165,1165,1169,1169,1169,1169,1169,1169,1169,1165,1165,1165,1165,1165,1165,1165,1165,1169,1169,1173,1173,1177,1177,1177,1177,1177,1177,1173,1173,1173,1173,1169,1169,1169,1169,1169,1169,1169,1169,1169,1173,1173,1173,1173,1173,1173,1173,1173,1173,1173,1173,1169,1169,1165,1165,1165,1010,1010,1010,1007,1004,1001,1001,998,998,998,998,998,998,998,1001,1001,1004,1004,1007,1007,1010,1010,1013,1013,1016,1016,1177,1173,1173,1173,1173,1173,1173,1173,1173,1173,1173,1173,1169,1169,1169,1169,1169,1169,1173,1173,1173,1173,1173,1173,1173,1173,1173,1173,1173,1177,1177,1173,1173,1173,1173,1169,1169,1169,1169,1169,1169,1173,1173,1173,1177,1177,1177,1173,1173,1173,1173,1173,1173,1173,1173,1173,1173,1173,1173,1173,1173,1173,1173,1173,1173,1173,1173,1173,1173,1173,1173,1173,1173,1173,1173,1173,1173,1173,1173,1173,1169,1169,1169,1169,1169,1169,1169,1165,1165,0,0,0,0,0,0,0,0,0,741,738,734,733,731,728,728,727,725,723,723,722,720,719,717,716,716,716,716,716,717,722,722,727,727,728,730,731,733,734,734,736,734,734,0,0,0,0,0,0,1177,1177,1173,1173,1173,1177,1173,1173,1173,1169,1165,1165,1165,989,987,987,984,981,978,978,978,975,975,973,973,967,967,967,964,964,962,959,959,959,956,956,956,954,954,951,951,948,948,948,948,946,946,946,946,946,943,940,940,940,940,940,940,940,943,943,943,946,946,946,946,948,948,948,948,948,951,954,956,956,956,959,962,964,967,973,975,981,984,984,987,989,1169,1169,1169,1173,1173,1177,1177,1177,1177,1177,1173,1173,1173,1119,1115,1115,1112,1108,1105,1105,1105,1101,1101,1097,1097,1097,1097,1097,1097,1101,1105,1105,1105,1105,1177,1177,1177,1177,1177,1177,1177,1177,1173,1173,1173,1177,1177,1177,1177,1177,1177,1177,1173,1173,1173,1177,1177,1177,1177,1173,1173,1173,1173,1173,1173,1169,1169,1169,1169,1173,1173,1173,1173,1173,1177,1177,1177,1177,1177,1177,1177,1177,1177,1177,1177,1177,1177,1173,1173,1173,1173,1173,1173,1173,1169,1169,1173,1173,1173,1173,1173,1173,1173,1173,1173,1173,1173,1173,1173,1169,1169,1169,1169,1169,1169,1169,1169,1169,1169,1169,1169,1169,1169,1169,1165,1165,1165,1165,1165,1165,1169,1169,1169,1165,1165,1165,1165,1165,1165,1165,1165,1165,1169,1169,1165,1165,1165,1165,1161,1161,1169,1165,1165,1165,1165,1161,1161,1165,1161,1161,1165,1165,1165,1165,1165,1165,1165,1165,1165,1165,1165,1165,1165,1165,1165,1165,1165,1165,1165,1165,1165,1165,1165,1165,1165,1165,1169,1169,1169,1165,1165,1165,1169,1165,1165,1169,1165,1165,1169,1169,1165,1165,1165,1169,1169,1165,1165,1169,1169,1169,1169,1169,1169,1169,1169,1169,1169,1169,1169,1165,1161,1161,1073,1063,1060,1057,1054,1050,1047,1044,1041,1038,1034,1031,1028,1025,1025,1022,1022,1022,1019,1019,1016,1016,0,0,0,0,0,0,0,0,0,0,0,0,0,0,0,0,0,0,0,0,0,0,0,0,0,0,0,0,0,0,0,0,0,0
0,0,0,0,0,0,1169,1169,1169,1169,1169,1169,1169,1165,1165,1169,1169,1169,1169,1169,1169,1169,1169,1165,1165,1165,1165,1165,1165,1165,1165,1165,1165,1165,1165,1169,1169,1169,1173,1173,1169,1165,1165,1165,1165,1165,1165,1165,1165,1165,1165,1165,1165,1165,1165,1165,1165,1165,1165,1165,1165,1165,1165,1165,1165,1165,1165,1165,1165,1165,1165,1165,1165,1165,1165,1165,1165,1169,1169,1173,1173,1173,1169,1169,1169,1169,1169,1169,1169,1169,1169,1169,1165,1165,1165,1165,1169,1169,1169,1169,1169,1169,1169,1169,1165,1165,1165,1165,1165,1165,1165,1010,1010,1010,1010,1007,1004,1001,1001,998,998,998,998,998,998,1001,1001,1001,1004,1007,1007,1007,1010,1010,1013,1013,1013,1013,1169,1169,1169,1169,1169,1169,1169,1169,1169,1169,1169,1165,1165,1165,1165,1165,1165,1169,1169,1169,1169,1169,1169,1169,1169,1169,1169,1169,1169,1169,1169,1173,1169,1169,1169,1169,1165,1165,1165,1165,1165,1169,1169,1169,1173,1173,1173,1173,1173,1173,1173,1169,1169,1169,1169,1169,1169,1169,1169,1169,1169,1169,1169,1169,1169,1169,1169,1169,1169,1169,1169,1169,1169,1169,1169,1169,1169,1169,1169,1169,1169,1169,1169,1169,1165,1165,1165,1165,1165,1165,0,0,0,0,0,0,0,0,741,739,736,733,733,731,728,727,727,725,723,722,720,719,717,717,716,716,716,717,717,723,727,727,728,728,730,733,734,736,736,736,738,738,0,0,0,0,0,0,1177,1169,1169,1169,1169,1165,1165,1165,1169,1169,1165,1165,1165,1161,1161,1161,984,981,978,978,978,978,975,975,973,970,967,967,964,964,962,962,962,959,956,956,954,954,951,951,948,948,948,948,946,946,946,946,946,943,940,940,938,938,938,938,938,938,938,940,940,940,940,940,940,943,946,946,948,948,951,954,956,956,959,959,964,964,967,975,978,981,984,984,987,1165,1165,1165,1165,1169,1169,1173,1173,1177,1177,1173,1173,1169,1169,1119,1115,1115,1112,1108,1105,1105,1105,1101,1101,1101,1097,1097,1097,1097,1101,1105,1105,1108,1108,1108,1173,1173,1173,1173,1173,1169,1169,1169,1169,1169,1169,1173,1173,1173,1173,1173,1173,1173,1173,1173,1173,1173,1173,1173,1173,1173,1173,1173,1173,1169,1169,1169,1169,1169,1169,1169,1169,1169,1169,1169,1173,1173,1173,1173,1173,1173,1177,1173,1173,1173,1173,1173,1173,1169,1169,1169,1169,1169,1169,1169,1169,1169,1169,1169,1169,1169,1169,1169,1169,1169,1169,1169,1169,1169,1169,1169,1169,1169,1169,1169,1169,1169,1169,1169,1169,1169,1165,1165,1165,1165,1165,1165,1165,1165,1165,1165,1165,1165,1165,1165,1165,1165,1165,1165,1165,1165,1165,1165,1169,1165,1161,1161,1165,1161,1157,1157,1161,1161,1161,1161,1161,1161,1161,1161,1161,1161,1165,1165,1165,1165,1161,1161,1161,1161,1165,1165,1165,1165,1165,1165,1165,1165,1161,1161,1161,1165,1165,1165,1165,1165,1165,1165,1169,1165,1165,1165,1165,1165,1165,1165,1165,1169,1165,1165,1165,1165,1165,1165,1165,1165,1165,1165,1165,1165,1169,1169,1169,1169,1169,1165,1165,1165,1165,1165,1165,1165,1161,1161,1063,1063,1060,1057,1054,1047,1044,1041,1038,1038,1031,1031,1025,1025,1025,1022,1022,1022,918,918,1016,1016,0,0,0,0,0,0,0,0,0,0,0,0,0,0,0,0,0,0,0,0,0,0,0,0,0,0,0,0,0,0,0,0,0,0
0,0,0,0,0,0,1165,1165,1165,1165,1165,1165,1165,1165,1165,1165,1165,1165,1165,1165,1169,1165,1165,1165,1165,1165,1161,1161,1161,1161,1161,1161,1161,1161,1161,1161,1161,1161,1165,1169,1165,1165,1165,1165,1165,1161,1161,1165,1165,1165,1165,1161,1161,1161,1161,1161,1161,1161,1161,1161,1161,1161,1165,1165,1165,1165,1165,1165,1165,1161,1161,1161,1161,1161,1161,1161,1161,1165,1165,1165,1165,1165,1165,1165,1165,1165,1165,1165,1165,1165,1165,1165,1165,1165,1165,1165,1165,1165,1165,1165,1165,1165,1165,1165,1165,1165,1165,1165,1165,1161,1161,1010,1010,1010,1010,1007,1004,1001,1001,998,998,998,998,998,998,1001,1001,1004,1004,1007,1010,1010,1010,1010,1013,1013,1013,1013,1165,1165,1165,1165,1165,1165,1165,1165,1165,1165,1165,1165,1165,1165,1165,1165,1165,1165,1165,1165,1165,1165,1169,1169,1169,1165,1165,1165,1165,1165,1165,1165,1169,1169,1169,1165,1165,1165,1165,1165,1165,1165,1165,1165,1169,1169,1169,1169,1169,1169,1169,1169,1169,1169,1169,1169,1165,1165,1169,1165,1165,1165,1165,1165,1165,1165,1165,1165,1165,1165,1165,1165,1165,1165,1165,1165,1165,1165,1165,1169,1165,1165,1165,1165,1165,1165,1165,1165,1165,1165,0,0,0,0,0,0,0,0,0,0,0,734,733,731,728,727,727,725,723,722,720,720,719,717,716,716,716,717,717,722,727,728,728,728,731,733,734,736,736,738,738,738,0,0,0,0,0,0,0,1169,1165,1165,1165,1165,1165,1165,1165,1165,1165,1165,1161,1161,1161,1161,1161,1157,981,978,978,978,978,975,973,970,967,967,964,964,962,962,962,959,956,956,954,954,951,948,948,948,948,946,946,946,943,943,943,940,938,938,938,938,935,935,935,935,935,938,938,938,938,938,938,940,943,943,946,946,948,954,956,956,959,959,964,964,967,973,978,981,984,984,1153,1157,1161,1165,1165,1169,1169,1169,1169,1173,1173,1169,1169,1169,1169,1119,1115,1115,1112,1108,1108,1105,1105,1101,1101,1101,1097,1097,1097,1097,1101,1105,1105,1108,1108,1108,1173,1169,1169,1169,1169,1169,1169,1169,1165,1165,1169,1169,1169,1169,1169,1169,1169,1173,1169,1169,1169,1169,1169,1169,1169,1169,1169,1169,1169,1169,1169,1169,1169,1169,1169,1169,1169,1169,1169,1169,1169,1169,1169,1169,1169,1169,1169,1169,1169,1169,1169,1169,1169,1169,1165,1165,1165,1165,1165,1165,1165,1165,1165,1165,1165,1165,1165,1165,1169,1169,1169,1169,1169,1169,1169,1165,1165,1165,1165,1165,1165,1165,1165,1165,1165,1165,1165,1165,1165,1165,1165,1165,1165,1165,1165,1161,1161,1165,1165,1161,1161,1161,1161,1161,1161,1161,1161,1161,1157,1157,1157,1157,1157,1157,1157,1157,1157,1157,1157,1157,1153,1153,1161,1161,1161,1161,1161,1161,1161,1161,1161,1161,1161,1161,1165,1165,1161,1161,1161,1161,1161,1161,1161,1157,1157,1165,1165,1157,1157,1165,1165,1165,1165,1165,1165,1161,1161,1161,1161,1161,1161,1165,1165,1165,1165,1165,1165,1165,1161,1161,1161,1161,1161,1161,1165,1165,1165,1165,1165,1165,1165,1165,1165,1161,1161,1161,1161,1161,1057,1057,1057,1054,1050,1044,1041,1038,1038,1034,1031,1031,1025,1025,1025,1022,1022,1022,918,918,1022,0,0,0,0,0,0,0,0,0,0,0,0,0,0,0,0,0,0,0,0,0,0,0,0,0,0,0,0,0,0,0,0,0,0,0
0,0,0,0,0,0,1161,1161,1161,1161,1161,1161,1161,1161,1161,1161,1161,1161,1161,1165,1165,1165,1161,1161,1161,1161,1161,1161,1161,1161,1161,1161,1161,1161,1161,1161,1157,1157,1161,1161,1161,1161,1161,1161,1161,1157,1157,1161,1161,1157,1157,1157,1157,1157,1153,1153,1157,1157,1161,1161,1161,1161,1161,1161,1161,1161,1161,1161,1161,1161,1161,1161,1157,1157,1157,1157,1161,1161,1161,1161,1161,1161,1161,1161,1157,1157,1161,1165,1165,1165,1165,1165,1165,1161,1161,1161,1161,1161,1161,1161,1161,1161,1161,1161,1161,1161,1161,1161,1161,1161,1161,1161,1013,1010,1010,1007,1004,1001,1001,998,998,998,998,998,998,1001,1001,1004,1004,1007,1010,1010,1010,1010,1013,1013,1013,1013,1161,1161,1161,1161,1161,1161,1161,1161,1161,1161,1161,1161,1161,1161,1161,1161,1161,1161,1161,1161,1165,1165,1165,1165,1165,1165,1165,1165,1165,1165,1165,1165,1165,1165,1165,1165,1165,1161,1161,1161,1161,1161,1161,1165,1165,1165,1165,1165,1165,1165,1165,1165,1165,1165,1165,1165,1165,1165,1165,1165,1165,1165,1161,1161,1161,1161,1161,1161,1161,1161,1161,1161,1161,1165,1165,1165,1165,1161,1161,1165,1165,1165,1165,1165,1161,1161,1161,1161,1165,1165,0,0,0,0,0,0,0,0,0,0,0,734,733,733,728,728,727,727,725,723,722,720,720,717,717,717,717,717,722,722,727,728,728,730,733,734,734,738,738,738,738,738,0,0,0,0,0,0,1165,1165,1165,1161,1161,1161,1161,1161,1161,1161,1161,1161,1161,1161,1161,1161,1161,1161,1157,1157,978,978,978,975,973,970,970,967,967,964,964,962,962,959,959,956,954,951,951,948,948,948,946,946,946,943,943,940,940,938,938,935,935,935,935,935,935,933,933,935,935,935,935,938,938,938,943,943,946,946,948,954,956,956,959,962,964,964,967,970,1149,1149,1149,1149,1153,1157,1157,1161,1165,1165,1165,1165,1165,1169,1169,1165,1165,1165,1165,1123,1119,1119,1115,1112,1108,1108,1105,1105,1101,1101,1101,1101,1101,1101,1105,1105,1108,1108,1112,1112,1165,1165,1165,1165,1169,1165,1165,1165,1165,1165,1165,1165,1165,1165,1165,1169,1169,1169,1169,1169,1169,1169,1169,1165,1165,1165,1165,1165,1165,1165,1165,1165,1165,1165,1165,1165,1165,1165,1165,1165,1165,1165,1165,1165,1165,1165,1165,1165,1165,1165,1165,1165,1165,1165,1165,1165,1161,1161,1165,1165,1165,1165,1165,1161,1161,1161,1161,1161,1161,1161,1165,1165,1165,1165,1165,1165,1165,1161,1161,1161,1161,1161,1161,1161,1161,1161,1161,1161,1161,1161,1161,1161,1161,1161,1161,1161,1161,1161,1161,1157,1157,1157,1157,1157,1157,1157,1157,1157,1157,1153,1153,1153,1153,1153,1153,1153,1153,1157,1157,1157,1153,1153,1153,1153,1157,1157,1161,1161,1161,1157,1157,1157,1157,1157,1161,1161,1161,1161,1161,1161,1161,1161,1157,1157,1157,1157,1157,1153,1153,1153,1153,1157,1157,1157,1157,1157,1157,1157,1157,1157,1157,1157,1161,1161,1161,1161,1161,1161,1161,1157,1157,1157,1157,1157,1157,1157,1165,1165,1165,1161,1161,1161,1161,1161,1157,1157,1165,1165,1054,1054,1054,1050,1047,1044,1041,1038,1034,1034,1028,1028,1025,1025,1025,1022,1022,1022,918,918,1025,0,0,0,0,0,0,0,0,0,0,0,0,0,0,0,0,0,0,0,0,0,0,0,0,0,0,0,0,0,0,0,0,0,0,0
0,0,0,0,0,0,1157,1157,1157,1153,1149,1149,1153,1157,1157,1157,1161,1157,1157,1161,1161,1161,1161,1161,1161,1157,1157,1157,1157,1157,1157,1157,1157,1157,1157,1157,1153,1153,1153,1153,1153,1153,1157,1157,1157,1153,1153,1153,1153,1153,1153,1153,1153,1153,1153,1153,1157,1157,1157,1157,1157,1157,1157,1157,1157,1161,1161,1161,1161,1157,1157,1157,1157,1157,1157,1157,1157,1157,1157,1157,1157,1157,1157,1157,1157,1157,1157,1157,1157,1157,1161,1161,1161,1161,1161,1161,1161,1157,1157,1153,1153,1157,1157,1157,1157,1157,1157,1157,1157,1157,1157,1157,1013,1010,1010,1007,1004,1001,1001,998,998,998,998,998,998,1001,1001,1004,1004,1007,1010,1010,1010,1010,1013,1013,1013,1013,1157,1157,1157,1153,1153,1153,1153,1153,1153,1157,1157,1157,1161,1161,1161,1161,1161,1161,1161,1161,1161,1161,1161,1161,1161,1161,1161,1161,1161,1161,1161,1165,1165,1165,1165,1161,1161,1161,1157,1157,1157,1157,1157,1161,1161,1161,1161,1165,1161,1161,1161,1161,1161,1161,1161,1161,1161,1161,1161,1161,1161,1161,1157,1157,1157,1157,1157,1157,1157,1157,1161,1161,1161,1161,1161,1161,1161,1161,1161,1161,1161,1161,1161,1161,1161,1161,1161,1161,1161,1161,0,0,0,0,0,0,0,0,0,0,0,736,734,733,731,728,727,727,725,723,722,720,720,717,717,717,717,719,720,722,727,728,728,730,733,734,736,738,738,739,739,739,0,0,0,0,0,0,1161,1157,1157,1157,1157,1161,1161,1161,1161,1161,1161,1161,1161,1161,1161,1161,1157,1157,1157,1153,1149,978,978,978,973,970,970,967,967,964,964,964,962,959,959,956,956,951,951,948,948,948,946,946,943,943,940,940,938,935,935,933,933,933,930,930,933,930,930,933,933,933,933,935,935,938,940,943,946,946,948,954,956,959,962,962,964,967,967,970,1149,1149,1149,1153,1153,1153,1157,1157,1161,1157,1157,1157,1161,1165,1165,1165,1161,1161,1161,1123,1119,1119,1115,1112,1108,1108,1105,1105,1105,1101,1101,1101,1101,1101,1105,1105,1108,1108,1112,1112,1165,1161,1161,1165,1165,1165,1165,1165,1161,1161,1161,1161,1161,1161,1161,1161,1161,1165,1165,1165,1165,1165,1165,1165,1165,1165,1165,1165,1165,1165,1165,1165,1165,1161,1161,1161,1161,1161,1161,1161,1161,1161,1161,1161,1157,1157,1161,1161,1161,1161,1161,1161,1161,1161,1161,1161,1161,1161,1161,1161,1161,1161,1161,1157,1157,1157,1153,1153,1157,1157,1157,1157,1157,1161,1161,1161,1161,1161,1157,1157,1161,1161,1157,1157,1157,1157,1157,1157,1157,1157,1161,1161,1161,1161,1161,1157,1157,1157,1157,1153,1153,1153,1153,1153,1153,1153,1153,1153,1153,1153,1153,1153,1153,1149,1149,1149,1149,1153,1153,1153,1149,1149,1149,1153,1153,1153,1153,1157,1157,1153,1153,1153,1153,1153,1157,1157,1157,1157,1157,1157,1157,1157,1153,1153,1153,1153,1153,1153,1153,1153,1153,1153,1153,1153,1153,1157,1157,1157,1157,1153,1153,1153,1153,1157,1161,1161,1161,1157,1157,1157,1157,1153,1153,1153,1153,1153,1153,1157,1157,1157,1157,1157,1157,1157,1153,1153,1165,1165,1050,1050,1050,1047,1044,1041,1038,1038,1034,1034,1028,1028,1025,1025,1025,1022,1022,918,915,915,0,0,0,0,0,0,0,0,0,0,0,0,0,0,0,0,0,0,0,0,0,0,0,0,0,0,0,0,0,0,0,0,0,0,0,0
0,0,0,0,0,0,1157,1153,1153,1153,1149,1149,1149,1149,1149,1149,1153,1153,1153,1157,1157,1157,1153,1153,1157,1153,1153,1153,1153,1153,1153,1153,1153,1153,1153,1153,1149,1149,1153,1149,1149,1149,1149,1149,1153,1153,1153,1153,1153,1153,1153,1153,1153,1153,1153,1153,1153,1153,1153,1153,1153,1153,1153,1153,1153,1157,1157,1157,1157,1157,1157,1157,1157,1153,1153,1153,1149,1149,1149,1149,1149,1153,1153,1153,1153,1153,1153,1153,1153,1157,1157,1157,1157,1157,1157,1157,1157,1157,1157,1153,1153,1153,1153,1153,1153,1153,1153,1153,1153,1153,1153,1153,1013,1013,1010,1010,1007,1004,1001,1001,1001,1001,1001,1001,1001,1001,1001,1004,1007,1007,1010,1010,1010,1013,1013,1013,1013,1013,1153,1153,1153,1153,1153,1149,1149,1149,1149,1149,1149,1149,1153,1153,1153,1157,1157,1157,1157,1157,1157,1157,1157,1157,1157,1153,1153,1153,1157,1157,1157,1161,1161,1161,1161,1161,1157,1157,1157,1153,1153,1153,1153,1157,1157,1157,1157,1161,1157,1157,1157,1157,1157,1161,1161,1161,1161,1161,1161,1161,1157,1157,1157,1157,1153,1153,1153,1153,1153,1153,1157,1157,1157,1157,1157,1157,1157,1157,1157,1161,1161,1161,1161,1161,1157,1157,1157,1157,1161,1161,0,0,0,0,0,0,0,0,0,0,739,738,736,734,731,728,728,727,725,723,722,722,720,719,719,719,720,720,720,727,727,728,730,730,734,734,736,738,739,739,739,741,0,0,0,0,0,0,1157,1157,1157,1157,1157,1157,1157,1157,1157,1157,1157,1157,1157,1157,1157,1157,1153,1149,1149,1149,1149,1145,1145,978,973,970,970,967,967,964,964,964,964,962,959,956,956,954,951,948,948,946,946,946,943,943,940,938,935,933,933,933,933,930,930,930,930,930,930,930,930,930,933,935,935,935,940,943,946,948,951,954,956,959,962,964,964,967,967,1145,1149,1149,1149,1153,1153,1153,1153,1157,1157,1157,1157,1157,1157,1161,1161,1161,1157,1157,1153,1123,1119,1119,1115,1112,1112,1108,1108,1105,1105,1105,1101,1101,1101,1101,1105,1108,1108,1112,1119,1119,1153,1153,1157,1161,1161,1161,1161,1161,1161,1157,1157,1157,1157,1161,1157,1157,1157,1157,1157,1161,1161,1161,1161,1161,1161,1161,1161,1161,1161,1161,1161,1161,1161,1161,1161,1161,1157,1157,1157,1157,1157,1157,1157,1157,1157,1157,1157,1161,1161,1157,1157,1157,1157,1157,1157,1157,1157,1157,1157,1157,1157,1157,1157,1153,1153,1153,1153,1153,1153,1153,1153,1153,1153,1153,1153,1157,1157,1153,1153,1153,1153,1153,1153,1153,1153,1153,1153,1153,1153,1153,1153,1153,1153,1153,1153,1153,1153,1153,1153,1149,1149,1149,1149,1149,1149,1149,1149,1153,1153,1149,1149,1149,1149,1149,1149,1149,1149,1149,1149,1149,1149,1149,1149,1149,1149,1149,1149,1149,1149,1153,1153,1153,1153,1153,1153,1153,1153,1153,1153,1153,1153,1149,1149,1153,1153,1153,1153,1153,1153,1153,1153,1153,1153,1153,1153,1153,1153,1153,1153,1153,1153,1153,1153,1153,1153,1157,1157,1153,1153,1153,1153,1153,1153,1153,1153,1153,1153,1153,1153,1153,1153,1153,1153,1153,1149,1149,1149,1050,1050,1047,1047,1044,1044,1041,1038,1034,1031,1031,1028,1025,1025,1025,1025,1022,913,913,915,915,0,0,0,0,0,0,0,0,0,0,0,0,0,0,0,0,0,0,0,0,0,0,0,0,0,0,0,0,0,0,0,0,0,0,0,0
0,0,0,0,0,0,1153,1149,1149,1149,1149,1149,1149,1149,1149,1149,1149,1149,1149,1149,1149,1149,1153,1153,1153,1149,1149,1149,1149,1149,1149,1149,1149,1149,1149,1149,1149,1149,1149,1149,1149,1149,1149,1149,1149,1149,1149,1149,1149,1149,1149,1149,1149,1149,1149,1149,1153,1153,1149,1149,1153,1153,1153,1149,1149,1153,1153,1153,1153,1153,1153,1153,1153,1149,1149,1149,1149,1149,1149,1149,1149,1149,1149,1149,1149,1149,1149,1153,1153,1153,1153,1153,1153,1149,1149,1153,1149,1149,1149,1149,1149,1149,1149,1149,1149,1149,1149,1149,1149,1149,1149,1149,1013,1013,1010,1010,1010,1007,1004,1001,1001,1001,1001,1001,1001,1001,1004,1004,1004,1007,1010,1010,1010,1013,1013,1016,1013,1013,1153,1153,1153,1149,1149,1149,1149,1149,1149,1149,1149,1149,1149,1153,1149,1149,1153,1153,1153,1153,1153,1153,1153,1153,1149,1149,1149,1149,1149,1153,1153,1153,1157,1157,1157,1157,1157,1153,1153,1153,1149,1149,1149,1153,1153,1153,1153,1157,1153,1153,1153,1153,1153,1157,1157,1157,1157,1157,1157,1157,1157,1153,1153,1153,1153,1153,1153,1153,1153,1153,1153,1153,1153,1153,1153,1153,1153,1157,1157,1157,1153,1153,1157,1157,1153,1153,1153,1153,1157,0,0,0,0,0,0,0,0,0,0,0,739,738,736,736,733,730,728,727,725,723,722,722,720,720,720,720,720,720,722,727,728,730,730,730,734,734,736,738,739,739,741,741,0,0,0,0,0,0,1157,1153,1153,1153,1153,1153,1153,1153,1153,1153,1153,1153,1153,1153,1153,1153,1149,1149,1149,1149,1145,1145,1145,1145,973,970,970,967,967,964,964,964,964,964,962,959,956,956,954,951,948,946,946,943,943,940,938,935,933,930,930,930,930,928,928,928,928,928,928,928,928,928,930,933,933,935,940,943,946,948,951,954,956,959,962,964,964,967,967,1145,1149,1149,1149,1153,1153,1153,1153,1153,1153,1153,1153,1153,1157,1157,1157,1157,1153,1153,1153,1145,1123,1119,1119,1115,1112,1108,1108,1105,1105,1105,1105,1105,1105,1105,1108,1108,1108,1112,1123,1123,1126,1149,1149,1153,1157,1157,1157,1157,1157,1157,1157,1157,1157,1157,1153,1153,1153,1153,1157,1157,1157,1157,1157,1157,1157,1161,1157,1157,1157,1157,1157,1157,1157,1157,1157,1157,1153,1153,1153,1153,1153,1153,1153,1153,1153,1153,1157,1157,1157,1157,1153,1153,1153,1153,1153,1153,1153,1153,1153,1153,1153,1153,1153,1153,1153,1153,1149,1149,1149,1149,1153,1153,1153,1153,1153,1149,1149,1149,1149,1149,1149,1149,1149,1149,1149,1153,1149,1149,1153,1153,1153,1153,1153,1153,1153,1153,1153,1149,1149,1149,1145,1145,1145,1145,1145,1149,1149,1149,1149,1149,1149,1149,1149,1149,1149,1149,1145,1145,1145,1145,1145,1145,1145,1145,1145,1145,1145,1145,1149,1149,1149,1149,1149,1149,1149,1149,1149,1149,1149,1149,1149,1145,1145,1149,1149,1149,1149,1149,1149,1149,1149,1149,1149,1149,1149,1153,1149,1149,1153,1153,1149,1149,1149,1149,1149,1149,1153,1149,1149,1149,1149,1149,1153,1153,1153,1149,1149,1149,1149,1149,1149,1149,1149,1149,1149,1149,1149,1047,1047,1044,1044,1041,1041,1038,1038,1034,1031,1031,1028,1025,1025,1025,1025,1025,906,906,913,913,0,0,0,0,0,0,0,0,0,0,0,0,0,0,0,0,0,0,0,0,0,0,0,0,0,0,0,0,0,0,0,0,0,0,0,0
0,0,0,0,0,0,1149,1149,1149,1149,1145,1145,1145,1145,1145,1145,1145,1145,1145,1145,1145,1145,1145,1145,1145,1149,1149,1149,1149,1149,1149,1149,1145,1145,1145,1145,1145,1145,1145,1145,1145,1145,1145,1145,1145,1145,1145,1145,1145,1149,1149,1149,1149,1149,1149,1149,1149,1149,1149,1149,1149,1149,1149,1145,1145,1149,1149,1149,1149,1149,1149,1149,1149,1149,1149,1149,1149,1149,1145,1145,1145,1149,1149,1145,1145,1145,1149,1149,1149,1149,1149,1149,1149,1149,1149,1149,1149,1149,1149,1149,1149,1149,1149,1149,1149,1149,1149,1149,1149,1149,1145,1145,1013,1013,1013,1010,1010,1010,1007,1004,1004,1004,1001,1001,1001,1001,1004,1004,1004,1007,1010,1010,1013,1013,1016,1016,1016,1016,1153,1149,1149,1149,1149,1149,1149,1149,1149,1149,1149,1149,1149,1149,1149,1149,1149,1149,1149,1149,1149,1149,1149,1149,1149,1149,1149,1149,1149,1149,1149,1149,1149,1149,1149,1153,1149,1149,1149,1149,1149,1149,1149,1149,1149,1149,1149,1153,1149,1149,1149,1149,1149,1153,1153,1153,1153,1153,1153,1153,1153,1149,1149,1149,1149,1149,1149,1149,1149,1149,1149,1149,1149,1149,1149,1149,1149,1149,1149,1153,1149,1149,1149,1149,1149,1149,1145,1145,1149,0,0,0,0,0,0,0,0,0,0,741,739,738,738,738,734,731,731,728,727,723,722,722,722,720,720,720,720,722,722,727,728,730,730,733,734,734,736,739,739,739,741,741,742,0,0,0,0,0,1157,1149,1149,1149,1149,1149,1149,1149,1149,1149,1149,1149,1149,1149,1149,1149,1145,1145,1145,1145,1145,1145,1145,1145,1145,970,970,967,967,967,964,964,964,964,962,962,956,956,954,951,948,948,946,943,943,938,935,933,930,928,928,928,928,925,925,925,925,925,925,925,925,925,928,930,930,935,940,943,946,948,951,954,956,956,964,964,964,1141,1141,1149,1149,1149,1149,1149,1149,1149,1153,1153,1153,1153,1153,1153,1153,1153,1153,1153,1153,1153,1149,1145,1123,1119,1119,1115,1112,1112,1108,1108,1105,1105,1105,1105,1105,1108,1108,1108,1112,1115,1123,1126,1126,1145,1149,1153,1153,1157,1157,1157,1157,1153,1153,1153,1153,1153,1153,1153,1149,1149,1153,1153,1153,1153,1153,1153,1153,1153,1153,1153,1153,1153,1153,1153,1153,1153,1153,1153,1153,1153,1153,1153,1153,1153,1153,1153,1153,1153,1153,1153,1153,1153,1153,1153,1153,1153,1153,1153,1153,1153,1153,1153,1149,1149,1149,1149,1149,1149,1149,1149,1149,1149,1149,1149,1149,1149,1149,1145,1145,1145,1145,1145,1145,1145,1145,1145,1145,1149,1149,1149,1149,1149,1149,1149,1149,1149,1149,1149,1149,1149,1149,1145,1145,1145,1145,1145,1145,1145,1145,1145,1149,1149,1145,1145,1145,1145,1145,1145,1145,1145,1145,1141,1141,1141,1145,1145,1145,1145,1141,1141,1145,1145,1145,1145,1145,1145,1145,1149,1145,1145,1149,1149,1145,1145,1145,1145,1145,1149,1149,1149,1149,1149,1149,1149,1149,1149,1149,1149,1149,1149,1149,1149,1149,1149,1149,1149,1145,1145,1145,1145,1145,1145,1141,1141,1145,1149,1149,1149,1149,1149,1149,1149,1145,1145,1145,1145,1145,1141,1141,1044,1044,1041,1041,1041,1041,1038,1038,1034,1031,1031,1028,1025,1025,1025,1025,908,906,906,913,913,0,0,0,0,0,0,0,0,0,0,0,0,0,0,0,0,0,0,0,0,0,0,0,0,0,0,0,0,0,0,0,0,0,0,0,0
0,0,0,0,0,0,1145,1145,1145,1145,1145,1145,1145,1145,1141,1141,1141,1145,1145,1145,1145,1145,1145,1145,1141,1141,1141,1141,1141,1145,1145,1145,1145,1145,1145,1145,1145,1145,1141,1141,1145,1145,1145,1145,1145,1145,1145,1145,1145,1145,1145,1145,1145,1145,1145,1145,1145,1145,1145,1145,1145,1145,1145,1141,1141,1141,1141,1145,1145,1145,1145,1149,1149,1149,1145,1145,1145,1145,1145,1145,1145,1145,1145,1145,1145,1145,1145,1145,1145,1145,1145,1145,1145,1145,1145,1145,1145,1145,1145,1145,1145,1145,1145,1145,1145,1145,1145,1145,1145,1145,1145,1145,1145,1013,1013,1013,1013,1010,1010,1007,1007,1004,1001,1001,1001,1001,1004,1004,1007,1007,1010,1013,1013,1013,1016,1016,1016,1016,1149,1149,1149,1149,1149,1145,1145,1149,1149,1145,1145,1145,1145,1145,1145,1145,1145,1145,1145,1145,1145,1145,1145,1145,1145,1145,1145,1145,1145,1145,1145,1145,1145,1145,1145,1145,1145,1145,1145,1145,1145,1145,1145,1145,1145,1149,1149,1149,1149,1149,1149,1145,1145,1149,1149,1149,1149,1149,1149,1149,1149,1149,1145,1145,1149,1149,1149,1149,1149,1149,1149,1149,1149,1145,1145,1145,1145,1145,1145,1149,1149,1145,1145,1145,1145,1145,1141,1138,1138,0,0,0,0,0,0,0,0,0,0,739,739,739,738,736,734,733,733,730,727,725,723,722,722,722,722,722,722,722,725,727,728,730,730,733,734,734,736,739,739,739,741,741,742,0,0,0,0,0,0,1149,1149,1149,1149,1149,1149,1145,1145,1149,1149,1145,1145,1145,1145,1145,1145,1145,1145,1145,1145,1145,1145,1145,1145,1145,1145,967,967,967,964,964,964,964,962,959,956,956,956,954,951,948,946,946,943,938,933,928,925,925,925,925,925,925,923,923,925,925,925,923,923,925,925,928,930,935,940,943,946,948,951,954,956,956,1138,1138,1138,1138,1138,1145,1149,1149,1149,1149,1149,1149,1149,1149,1149,1149,1149,1153,1153,1153,1153,1153,1153,1149,1149,1145,1134,1123,1119,1119,1115,1112,1112,1108,1108,1105,1105,1105,1105,1108,1108,1108,1112,1115,1123,1126,1134,1141,1149,1149,1149,1153,1153,1153,1153,1153,1153,1153,1153,1153,1149,1149,1149,1149,1149,1149,1149,1149,1149,1149,1149,1149,1149,1149,1149,1149,1153,1153,1149,1149,1149,1149,1149,1149,1149,1149,1149,1149,1149,1149,1149,1149,1149,1149,1149,1149,1149,1149,1149,1149,1149,1149,1149,1149,1149,1149,1149,1149,1149,1149,1145,1145,1145,1145,1145,1145,1145,1145,1145,1141,1141,1141,1141,1141,1141,1138,1138,1141,1141,1145,1145,1145,1145,1145,1145,1145,1145,1145,1145,1145,1145,1145,1145,1145,1145,1145,1141,1141,1141,1141,1141,1145,1141,1141,1145,1145,1141,1141,1141,1141,1141,1141,1141,1141,1141,1141,1141,1141,1141,1141,1141,1141,1138,1138,1138,1138,1138,1138,1138,1141,1141,1141,1145,1145,1145,1145,1141,1141,1141,1141,1141,1145,1145,1145,1145,1145,1145,1145,1145,1145,1145,1145,1145,1145,1149,1145,1145,1145,1145,1145,1141,1141,1141,1141,1141,1138,1138,1141,1141,1145,1145,1145,1149,1145,1145,1145,1145,1145,1141,1141,1141,1138,1138,1041,1041,1041,1041,1041,1038,1038,1034,1031,1031,1031,1028,1028,1028,1025,1025,908,908,910,913,913,0,0,0,0,0,0,0,0,0,0,0,0,0,0,0,0,0,0,0,0,0,0,0,0,0,0,0,0,0,0,0,0,0,0,0,0
0,0,0,0,0,0,1141,1141,1141,1141,1141,1141,1141,1141,1141,1141,1141,1141,1141,1141,1141,1141,1141,1141,1138,1138,1138,1138,1138,1134,1134,1134,1141,1138,1138,1141,1141,1138,1138,1138,1141,1141,1141,1141,1141,1141,1141,1141,1141,1145,1145,1145,1145,1145,1145,1145,1145,1145,1145,1141,1141,1141,1141,1141,1138,1138,1138,1138,1141,1145,1145,1145,1145,1145,1145,1145,1145,1145,1141,1141,1141,1141,1145,1141,1141,1141,1141,1141,1141,1141,1145,1145,1145,1145,1145,1145,1145,1145,1145,1145,1145,1145,1145,1145,1141,1141,1141,1141,1141,1141,1141,1141,1145,1016,1013,1013,1013,1013,1013,1010,1010,1007,1004,1001,1001,1004,1004,1004,1007,1007,1010,1013,1013,1016,1019,1019,1019,1019,1145,1145,1145,1145,1145,1145,1145,1145,1145,1145,1145,1145,1145,1145,1145,1145,1145,1141,1141,1141,1141,1141,1141,1141,1141,1141,1141,1141,1138,1138,1138,1141,1141,1141,1141,1141,1145,1145,1141,1141,1141,1141,1141,1145,1145,1145,1145,1145,1145,1145,1145,1145,1145,1145,1145,1145,1145,1145,1145,1145,1145,1145,1145,1145,1145,1145,1145,1145,1145,1145,1145,1145,1145,1145,1145,1145,1145,1141,1141,1145,1145,1145,1141,1141,1141,1141,1138,1138,1138,0,0,0,0,0,0,0,0,0,0,739,739,739,738,736,734,733,733,731,728,727,725,723,722,722,722,722,722,723,725,727,728,731,731,733,734,736,736,739,739,741,741,742,742,0,0,0,0,0,0,1145,1145,1145,1145,1145,1145,1145,1145,1145,1145,1145,1141,1141,1145,1145,1145,1145,1141,1141,1145,1145,1145,1145,1145,1141,1141,1141,1141,967,964,964,964,964,962,959,956,956,956,954,951,948,948,946,943,923,920,920,923,923,923,923,923,923,923,923,923,923,923,920,920,923,923,928,935,935,943,943,946,948,951,954,954,954,1138,1138,1138,1138,1138,1145,1145,1145,1145,1145,1145,1145,1149,1149,1149,1149,1149,1149,1149,1149,1149,1149,1149,1149,1145,1141,1134,1123,1123,1119,1115,1115,1112,1112,1108,1108,1108,1108,1108,1108,1108,1112,1112,1123,1126,1126,1134,1138,1145,1149,1149,1149,1149,1149,1149,1149,1149,1149,1149,1149,1149,1149,1145,1145,1145,1145,1145,1145,1141,1141,1145,1145,1145,1149,1145,1145,1145,1149,1149,1149,1149,1149,1149,1149,1149,1149,1149,1149,1149,1149,1149,1145,1145,1145,1145,1145,1145,1145,1145,1145,1145,1145,1145,1145,1145,1145,1145,1145,1145,1145,1145,1141,1141,1141,1141,1141,1141,1141,1141,1141,1141,1138,1138,1138,1138,1138,1138,1138,1138,1138,1138,1141,1141,1141,1141,1141,1141,1141,1141,1141,1141,1141,1141,1141,1141,1141,1141,1141,1141,1141,1141,1141,1138,1138,1138,1138,1138,1138,1138,1138,1138,1138,1138,1138,1138,1138,1138,1138,1138,1138,1138,1138,1138,1138,1138,1138,1138,1138,1138,1138,1138,1138,1141,1141,1141,1141,1141,1138,1138,1138,1138,1138,1145,1145,1141,1141,1141,1145,1141,1141,1141,1141,1141,1141,1145,1145,1145,1141,1141,1141,1138,1138,1138,1138,1138,1138,1138,1138,1138,1141,1141,1141,1141,1141,1141,1141,1141,1141,1141,1138,1138,1134,1134,1041,1038,1038,1038,1038,1038,1034,1034,1031,1028,1028,1025,1025,1028,1025,1025,908,908,910,913,913,0,0,0,0,0,0,0,0,0,0,0,0,0,0,0,0,0,0,0,0,0,0,0,0,0,0,0,0,0,0,0,0,0,0,0,0
0,0,0,0,0,0,1138,1138,1138,1141,1141,1141,1138,1138,1138,1138,1138,1138,1138,1138,1138,1138,1138,1138,1134,1134,1134,1138,1138,1134,1134,1134,1130,1130,1134,1134,1134,1134,1134,1134,1138,1138,1138,1138,1138,1141,1141,1141,1141,1141,1141,1141,1141,1141,1138,1138,1138,1138,1138,1138,1138,1138,1138,1138,1138,1134,1134,1138,1138,1138,1141,1141,1141,1141,1145,1145,1145,1141,1141,1141,1141,1141,1141,1141,1138,1138,1138,1138,1138,1138,1141,1141,1141,1145,1145,1145,1141,1141,1141,1141,1141,1141,1141,1141,1138,1138,1138,1138,1138,1138,1138,1138,1138,1022,1016,1016,1016,1013,1013,1013,1010,1010,1007,1004,1004,1004,1004,1007,1007,1010,1010,1013,1016,1019,1019,1022,1022,1022,1022,1145,1145,1145,1141,1141,1141,1141,1141,1145,1141,1141,1141,1141,1141,1141,1141,1141,1138,1138,1138,1138,1141,1138,1138,1141,1138,1138,1138,1138,1138,1138,1138,1138,1138,1138,1138,1141,1141,1138,1138,1138,1138,1138,1138,1138,1141,1141,1141,1141,1141,1141,1141,1138,1138,1141,1141,1141,1141,1141,1141,1141,1141,1141,1141,1145,1141,1141,1145,1145,1145,1141,1141,1141,1141,1141,1141,1141,1141,1141,1141,1141,1141,1138,1138,1138,1134,1134,1134,1134,0,0,0,0,0,0,0,0,0,739,739,739,738,738,736,734,733,731,730,728,727,725,723,723,723,723,723,723,725,727,728,731,731,733,734,736,738,739,741,741,741,742,742,0,0,0,0,0,1145,1145,1141,1141,1141,1141,1141,1141,1141,1138,1138,1141,1138,1138,1141,1141,1141,1141,1138,1138,1141,1141,1141,1141,1141,1141,1138,1138,1138,1138,1138,967,967,964,962,962,956,956,956,954,951,951,948,946,915,915,915,915,918,918,920,920,920,920,920,920,920,920,920,920,920,923,923,925,935,935,943,946,948,951,951,954,954,954,1138,1138,1138,1138,1138,1141,1145,1145,1145,1145,1145,1145,1145,1145,1145,1145,1149,1149,1149,1149,1149,1149,1149,1145,1145,1141,1138,1123,1123,1119,1119,1115,1115,1112,1112,1108,1108,1108,1108,1108,1108,1112,1115,1123,1126,1126,1134,1138,1141,1145,1149,1149,1145,1145,1149,1149,1149,1145,1145,1145,1145,1145,1141,1141,1141,1141,1141,1141,1141,1141,1141,1141,1141,1141,1141,1141,1145,1145,1141,1141,1145,1145,1145,1145,1145,1145,1145,1145,1145,1145,1145,1141,1141,1141,1141,1141,1141,1141,1141,1141,1141,1141,1141,1141,1141,1141,1141,1141,1141,1141,1141,1138,1138,1138,1138,1138,1138,1138,1138,1138,1138,1138,1138,1138,1138,1138,1138,1138,1138,1138,1138,1138,1138,1138,1138,1138,1141,1138,1138,1138,1138,1138,1138,1138,1138,1138,1138,1138,1138,1138,1138,1138,1134,1134,1138,1138,1138,1138,1138,1138,1138,1138,1138,1138,1138,1138,1138,1138,1138,1138,1138,1138,1134,1134,1134,1134,1134,1134,1134,1134,1134,1138,1138,1138,1138,1138,1134,1134,1138,1138,1138,1138,1138,1138,1138,1138,1138,1138,1138,1138,1138,1138,1138,1138,1141,1138,1138,1138,1138,1138,1138,1138,1138,1138,1138,1138,1138,1138,1138,1138,1138,1138,1138,1138,1138,1141,1138,1138,1138,1138,1134,1130,1130,1038,1038,1038,1038,1038,1034,1034,1031,1031,1028,948,948,948,1028,1028,1028,910,910,910,913,913,0,0,0,0,0,0,0,0,0,0,0,0,0,0,0,0,0,0,0,0,0,0,0,0,0,0,0,0,0,0,0,0,0,0,0,0
0,0,0,0,0,0,1138,1138,1138,1138,1138,1138,1138,1138,1134,1134,1134,1134,1134,1134,1134,1134,1134,1134,1134,1134,1134,1134,1134,1134,1134,1134,1130,1130,1130,1130,1130,1130,1130,1130,1130,1134,1134,1134,1134,1138,1138,1138,1138,1138,1138,1138,1134,1134,1134,1134,1134,1134,1134,1134,1134,1134,1134,1134,1134,1134,1134,1134,1134,1134,1134,1138,1138,1141,1141,1141,1141,1141,1138,1138,1138,1138,1138,1134,1134,1134,1134,1134,1134,1134,1134,1134,1138,1138,1138,1138,1138,1138,1138,1138,1134,1134,1138,1138,1134,1134,1138,1138,1138,1138,1134,1134,1134,1022,1019,1019,1016,1016,1013,1013,1010,1010,1007,1004,1004,1004,1007,1007,1007,1010,1013,1016,1016,1019,1022,1022,1022,1022,1022,1138,1138,1138,1141,1138,1138,1138,1138,1141,1141,1141,1141,1138,1138,1138,1138,1138,1134,1134,1134,1134,1138,1138,1138,1138,1138,1138,1134,1134,1134,1134,1134,1134,1134,1134,1138,1138,1138,1138,1138,1138,1138,1134,1134,1134,1134,1134,1134,1134,1138,1138,1138,1134,1134,1138,1138,1138,1138,1138,1138,1138,1138,1141,1141,1141,1141,1141,1141,1141,1141,1138,1138,1138,1138,1138,1138,1138,1138,1138,1138,1138,1138,1138,1138,1134,1134,1134,1130,1130,0,0,0,0,0,0,0,0,0,741,741,739,739,738,736,734,734,733,731,730,728,727,725,723,723,723,723,725,725,727,728,730,733,733,734,736,738,739,741,741,741,742,744,0,0,0,0,0,1145,1141,1141,1141,1141,1138,1138,1138,1138,1138,1138,1138,1138,1138,1138,1138,1138,1138,1138,1138,1138,1138,1138,1138,1138,1138,1134,1134,1134,1134,1134,1134,967,964,962,959,959,956,956,954,954,908,908,910,910,910,913,913,915,915,918,918,918,918,918,918,918,920,920,920,920,923,923,925,935,935,943,946,948,951,951,954,954,1138,1138,1138,1138,1138,1138,1141,1141,1141,1141,1141,1141,1141,1141,1141,1141,1141,1145,1145,1145,1145,1145,1145,1141,1141,1138,1138,1138,1126,1123,1123,1119,1119,1115,1115,1112,1112,1112,1112,1112,1112,1112,1112,1115,1123,1126,1126,1134,1138,1141,1141,1145,1145,1145,1145,1145,1145,1145,1145,1141,1141,1141,1141,1141,1141,1141,1141,1138,1138,1138,1138,1138,1141,1141,1141,1141,1141,1141,1141,1141,1141,1141,1138,1138,1141,1141,1141,1141,1141,1141,1141,1141,1141,1138,1138,1138,1138,1138,1138,1138,1138,1138,1138,1138,1138,1138,1138,1138,1138,1138,1138,1138,1138,1138,1138,1138,1138,1138,1138,1138,1138,1138,1138,1138,1138,1138,1138,1138,1138,1138,1138,1138,1138,1138,1138,1138,1138,1138,1138,1138,1138,1138,1134,1134,1134,1134,1138,1134,1134,1134,1134,1134,1134,1130,1130,1134,1134,1134,1134,1134,1134,1138,1134,1134,1138,1138,1138,1134,1134,1138,1138,1134,1134,1134,1134,1134,1130,1130,1130,1134,1134,1134,1134,1134,1134,1134,1134,1134,1134,1134,1134,1134,1134,1134,1134,1134,1134,1134,1134,1134,1134,1134,1134,1134,1134,1138,1138,1134,1134,1134,1134,1134,1134,1134,1134,1134,1134,1134,1130,1130,1134,1134,1134,1134,1134,1138,1138,1138,1138,1138,1134,1134,1130,1126,1038,1038,1038,1034,1034,1034,1031,1031,1031,1028,948,948,948,948,1025,1025,910,910,910,913,913,0,0,0,0,0,0,0,0,0,0,0,0,0,0,0,0,0,0,0,0,0,0,0,0,0,0,0,0,0,0,0,0,0,0,0,0
0,0,0,0,0,0,1134,1134,1134,1134,1134,1134,1134,1134,1134,1130,1130,1130,1130,1130,1130,1130,1130,1130,1130,1130,1130,1130,1130,1134,1134,1134,1130,1130,1126,1126,1126,1126,1126,1126,1126,1126,1126,1126,1126,1134,1134,1134,1134,1134,1134,1134,1134,1134,1134,1134,1130,1130,1130,1130,1130,1130,1134,1134,1134,1134,1134,1134,1134,1134,1134,1134,1134,1138,1138,1138,1141,1138,1134,1134,1134,1134,1134,1130,1130,1130,1130,1130,1130,1130,1130,1130,1130,1130,1130,1130,1130,1130,1130,1134,1134,1134,1134,1134,1134,1134,1134,1134,1134,1134,1134,1134,1130,1126,1019,1019,1019,1016,1013,1013,1010,1010,1007,1007,1004,1004,1007,1007,1010,1010,1013,1016,1019,1019,1022,1022,1022,1022,1022,1025,1138,1134,1134,1134,1134,1134,1134,1138,1138,1138,1138,1134,1134,1134,1134,1134,1134,1134,1134,1134,1134,1134,1134,1134,1134,1134,1134,1134,1134,1134,1134,1134,1134,1134,1134,1134,1134,1134,1134,1134,1134,1134,1134,1134,1134,1134,1134,1134,1130,1130,1134,1134,1134,1134,1134,1134,1134,1134,1134,1134,1134,1134,1134,1138,1134,1134,1138,1138,1134,1134,1134,1134,1134,1134,1134,1134,1134,1134,1134,1134,1134,1134,1134,1134,1130,1130,1130,1130,1130,0,0,0,0,0,0,0,0,741,741,741,739,738,736,734,734,733,731,730,728,727,727,725,725,725,725,725,727,728,730,730,733,734,736,736,739,741,741,742,742,744,744,0,0,0,0,0,0,1138,1138,1138,1138,1138,1138,1138,1138,1134,1134,1134,1134,1134,1134,1134,1134,1134,1134,1134,1134,1134,1134,1134,1134,1134,1134,1134,1134,1134,1134,1134,1134,1134,1134,959,959,959,906,906,906,908,908,908,908,910,910,913,913,913,915,915,915,915,915,915,918,918,920,920,920,923,923,925,935,935,943,946,948,951,951,954,1134,1134,1134,1138,1138,1138,1138,1138,1138,1138,1138,1138,1138,1138,1138,1138,1138,1138,1138,1138,1141,1141,1141,1138,1138,1138,1138,1138,1134,1126,1123,1123,1119,1119,1119,1115,1115,1115,1112,1112,1112,1112,1112,1115,1119,1126,1126,1126,1134,1138,1138,1138,1141,1141,1138,1138,1141,1141,1141,1138,1138,1138,1138,1138,1138,1138,1138,1138,1138,1138,1138,1138,1138,1138,1138,1138,1138,1138,1138,1138,1138,1138,1138,1138,1138,1138,1138,1138,1138,1138,1138,1138,1138,1138,1138,1138,1138,1138,1138,1138,1138,1138,1138,1138,1138,1134,1134,1134,1134,1134,1138,1134,1134,1134,1134,1134,1134,1134,1134,1134,1134,1134,1134,1134,1134,1134,1134,1134,1134,1134,1134,1134,1134,1134,1134,1134,1134,1134,1134,1134,1134,1134,1134,1134,1134,1130,1130,1134,1130,1130,1130,1130,1130,1130,1130,1130,1130,1130,1130,1130,1130,1130,1134,1134,1134,1134,1134,1134,1134,1134,1134,1134,1134,1134,1134,1130,1130,1130,1130,1130,1130,1130,1130,1130,1130,1130,1134,1134,1130,1130,1130,1130,1130,1130,1130,1130,1130,1130,1130,1130,1130,1130,1130,1130,1130,1134,1134,1134,1130,1130,1130,1134,1134,1134,1134,1134,1134,1130,1130,1126,1126,1130,1126,1126,1130,1130,1134,1134,1134,1134,1134,1134,1130,1126,1126,1126,1034,1034,1031,1031,1031,1031,946,946,946,948,948,948,948,948,1025,910,910,910,910,910,0,0,0,0,0,0,0,0,0,0,0,0,0,0,0,0,0,0,0,0,0,0,0,0,0,0,0,0,0,0,0,0,0,0,0,0
0,0,0,0,0,0,1130,1130,1130,1130,1130,1130,1130,1134,1130,1130,1130,1130,1130,1126,1126,1126,1123,1123,1126,1126,1126,1126,1126,1126,1126,1126,1130,1130,1126,1126,1126,1126,1126,1123,1123,1123,1123,1123,1123,1123,1123,1126,1126,1130,1130,1130,1130,1130,1130,1130,1130,1126,1126,1126,1130,1130,1130,1130,1130,1130,1130,1130,1130,1130,1130,1130,1134,1134,1134,1134,1134,1130,1130,1126,1126,1126,1126,1126,1126,1126,1126,1126,1130,1126,1126,1126,1126,1126,1126,1126,1126,1126,1126,1130,1130,1130,1130,1130,1130,1130,1134,1134,1130,1130,1130,1130,1126,1126,1019,1019,1019,1016,1013,1013,1010,1010,1007,1007,1004,1004,1007,1010,1010,1013,1016,1016,1019,1019,1022,1025,1025,1025,1025,1025,1134,1134,1134,1134,1134,1134,1134,1134,1134,1134,1134,1134,1134,1134,1134,1134,1134,1134,1134,1134,1134,1134,1134,1134,1134,1134,1134,1130,1130,1134,1134,1134,1134,1130,1130,1134,1130,1130,1130,1130,1130,1130,1130,1130,1130,1130,1130,1130,1130,1130,1130,1130,1130,1130,1134,1134,1134,1134,1134,1134,1134,1130,1130,1134,1134,1134,1134,1134,1134,1134,1134,1134,1134,1134,1134,1134,1134,1134,1134,1134,1134,1134,1134,1134,1130,1130,1130,1130,1130,0,0,0,0,0,0,0,0,741,739,739,739,738,738,736,734,733,731,730,728,728,727,725,725,725,725,727,727,728,730,730,733,734,736,736,739,741,742,742,742,744,744,0,0,0,0,0,0,1138,1134,1134,1134,1134,1134,1134,1134,1134,1134,1134,1134,1134,1134,1130,1130,1130,1130,1130,1130,1130,1130,1130,1130,1130,1130,1130,1130,1130,1134,1134,1134,1134,1134,1138,959,959,906,906,906,906,906,908,908,908,910,910,910,910,913,913,913,913,913,915,915,918,920,920,920,923,923,935,935,935,940,946,948,948,951,1134,1134,1134,1134,1138,1138,1138,1138,1138,1138,1138,1134,1134,1134,1134,1134,1134,1134,1134,1134,1134,1138,1138,1138,1138,1138,1134,1134,1134,1126,1126,1123,1123,1119,1119,1119,1119,1119,1115,1115,1115,1115,1115,1115,1115,1123,1126,1126,1126,1134,1134,1134,1134,1134,1134,1134,1134,1138,1138,1138,1138,1138,1138,1138,1134,1134,1134,1134,1138,1138,1134,1134,1134,1134,1134,1134,1134,1134,1134,1134,1134,1134,1134,1134,1134,1134,1134,1134,1134,1134,1134,1134,1138,1138,1134,1134,1134,1134,1134,1134,1134,1134,1134,1134,1134,1134,1134,1134,1134,1134,1134,1134,1134,1134,1134,1134,1134,1134,1130,1130,1130,1134,1134,1134,1130,1130,1130,1130,1130,1130,1134,1134,1134,1134,1130,1130,1134,1134,1130,1130,1130,1130,1130,1130,1126,1126,1126,1126,1130,1130,1126,1126,1130,1130,1126,1126,1126,1126,1126,1126,1126,1126,1126,1126,1126,1126,1130,1130,1130,1130,1130,1130,1130,1130,1130,1130,1126,1126,1130,1130,1130,1130,1130,1126,1126,1126,1126,1126,1126,1126,1126,1130,1126,1126,1126,1126,1126,1126,1126,1130,1130,1130,1130,1130,1130,1130,1130,1126,1126,1126,1126,1126,1126,1126,1126,1130,1130,1130,1130,1130,1126,1126,1126,1126,1126,1126,1126,1130,1130,1134,1130,1130,1130,1130,1123,1123,1126,1034,1034,1031,1031,951,948,946,946,946,948,948,948,948,948,910,910,910,910,910,910,0,0,0,0,0,0,0,0,0,0,0,0,0,0,0,0,0,0,0,0,0,0,0,0,0,0,0,0,0,0,0,0,0,0,0,0
0,0,0,0,0,0,1130,1130,1130,1130,1130,1130,1130,1130,1130,1126,1126,1126,1123,1123,1123,1123,1123,1123,1123,1123,1123,1123,1123,1123,1123,1126,1126,1126,1123,1123,1123,1123,1123,1119,1119,1119,1119,1119,1119,1119,1119,1123,1123,1126,1126,1126,1126,1126,1126,1126,1126,1123,1123,1123,1126,1126,1126,1126,1130,1130,1130,1130,1130,1130,1130,1130,1130,1126,1126,1126,1126,1126,1123,1123,1123,1123,1123,1123,1123,1123,1126,1126,1130,1126,1126,1126,1123,1123,1123,1123,1123,1123,1123,1126,1126,1126,1126,1126,1130,1130,1130,1130,1130,1130,1130,1126,1126,1126,1123,1022,1022,1019,1016,1013,1010,1010,1010,1007,1007,1007,1010,1010,1010,1013,1016,1016,1019,1019,1022,1025,1025,1025,1025,1025,1130,1130,1130,1130,1130,1130,1130,1130,1130,1130,1130,1130,1130,1130,1130,1130,1134,1130,1130,1130,1130,1130,1130,1130,1130,1134,1130,1130,1130,1130,1130,1130,1130,1130,1130,1130,1130,1130,1130,1130,1130,1130,1130,1130,1130,1130,1130,1130,1130,1130,1130,1130,1130,1130,1130,1130,1130,1130,1130,1130,1130,1130,1130,1130,1130,1130,1130,1130,1130,1130,1130,1134,1134,1130,1130,1130,1130,1130,1130,1130,1130,1130,1130,1130,1130,1130,1130,1130,1126,1126,0,0,0,0,0,0,0,739,739,739,741,739,738,738,736,734,733,731,730,728,727,727,725,725,725,727,727,728,731,731,734,736,738,738,741,741,742,744,744,744,744,0,0,0,0,0,1130,1130,1130,1130,1130,1130,1130,1134,1130,1130,1130,1130,1130,1130,1130,1130,1126,1126,1130,1130,1130,1130,1130,1130,1130,1130,1130,1130,1130,1130,1130,1130,1130,1134,1134,1138,906,906,906,906,906,906,906,906,906,906,908,908,908,908,910,910,910,910,910,913,915,918,920,920,920,923,925,938,938,938,940,946,948,948,1134,1130,1130,1134,1134,1134,1134,1134,1134,1134,1134,1134,1134,1130,1130,1130,1130,1130,1130,1134,1130,1130,1134,1134,1134,1134,1134,1134,1134,1130,1126,1126,1123,1123,1123,1119,1119,1119,1119,1119,1119,1119,1115,1115,1115,1119,1123,1126,1126,1130,1130,1134,1134,1134,1134,1134,1134,1134,1134,1134,1134,1134,1134,1134,1134,1134,1134,1134,1134,1134,1134,1134,1134,1134,1134,1130,1130,1130,1130,1130,1130,1130,1130,1130,1134,1134,1134,1134,1134,1134,1134,1134,1130,1130,1130,1130,1134,1134,1134,1134,1134,1134,1134,1134,1134,1134,1130,1130,1130,1130,1130,1130,1130,1130,1130,1130,1130,1130,1130,1126,1126,1130,1130,1130,1126,1126,1126,1126,1126,1126,1126,1126,1126,1130,1126,1126,1126,1126,1130,1126,1126,1126,1126,1126,1126,1123,1123,1123,1123,1126,1126,1123,1123,1126,1126,1126,1123,1123,1123,1123,1123,1123,1123,1123,1126,1126,1126,1126,1126,1126,1126,1126,1126,1126,1126,1126,1126,1126,1126,1126,1126,1126,1126,1126,1126,1123,1123,1126,1126,1126,1126,1126,1126,1126,1126,1126,1123,1123,1123,1123,1123,1126,1126,1126,1126,1126,1126,1126,1126,1123,1123,1126,1126,1123,1123,1123,1123,1126,1126,1123,1123,1123,1123,1123,1126,1126,1123,1123,1126,1126,1130,1126,1126,1123,1123,1119,1119,1123,1034,1034,1034,948,948,948,948,946,946,948,948,948,951,910,910,910,910,910,908,908,0,0,0,0,0,0,0,0,0,0,0,0,0,0,0,0,0,0,0,0,0,0,0,0,0,0,0,0,0,0,0,0,0,0,0,0
0,0,0,0,0,0,1126,1126,1130,1126,1126,1126,1126,1126,1126,1123,1123,1123,1123,1123,1119,1119,1119,1119,1123,1123,1119,1119,1119,1119,1119,1123,1123,1123,1123,1123,1123,1123,1123,1119,1119,1119,1119,1119,1119,1119,1119,1119,1123,1123,1123,1123,1123,1123,1123,1123,1123,1123,1123,1123,1123,1123,1123,1126,1126,1130,1130,1126,1126,1126,1126,1123,1123,1123,1123,1123,1123,1123,1123,1119,1119,1123,1123,1123,1123,1123,1123,1126,1126,1123,1123,1123,1123,1123,1123,1123,1119,1119,1119,1123,1123,1123,1123,1123,1123,1126,1126,1126,1126,1126,1126,1126,1123,1123,1123,1022,1022,1022,1016,1016,1013,1013,1010,1010,1010,1010,1010,1010,1013,1016,1019,1019,1019,1019,1022,1025,1025,1025,1025,1025,1126,1126,1126,1126,1126,1126,1126,1126,1126,1126,1126,1126,1126,1126,1130,1130,1130,1130,1130,1130,1130,1130,1130,1130,1130,1130,1130,1130,1130,1130,1130,1130,1130,1130,1130,1130,1126,1126,1126,1126,1126,1126,1126,1126,1126,1126,1126,1126,1126,1126,1126,1126,1130,1130,1130,1126,1126,1126,1126,1126,1126,1126,1130,1130,1130,1130,1130,1130,1130,1130,1130,1130,1130,1130,1130,1130,1126,1126,1126,1126,1126,1126,1126,1130,1126,1126,1126,1126,1126,1123,1123,0,0,0,0,0,0,739,739,741,741,741,739,738,736,734,733,731,730,730,728,727,727,727,727,727,727,728,730,733,734,736,738,739,741,742,744,744,744,744,746,0,0,0,0,0,1130,1130,1130,1130,1130,1130,1130,1130,1130,1130,1126,1126,1126,1126,1126,1126,1126,1126,1126,1126,1126,1126,1126,1126,1126,1130,1130,1130,1130,1130,1130,1130,1130,1130,1130,1138,906,906,903,903,903,903,903,903,903,903,906,906,906,906,908,908,910,910,910,913,915,918,920,920,923,925,928,938,938,938,940,946,1134,1130,1130,1130,1130,1130,1130,1130,1130,1130,1134,1134,1130,1130,1130,1130,1126,1126,1126,1126,1126,1130,1126,1126,1130,1130,1130,1130,1126,1126,1130,1126,1123,1123,1123,1123,1123,1119,1119,1119,1119,1119,1119,1119,1119,1119,1119,1119,1123,1126,1126,1126,1130,1130,1130,1130,1130,1130,1130,1130,1130,1126,1126,1130,1134,1134,1134,1134,1130,1130,1130,1134,1134,1134,1130,1130,1130,1130,1130,1126,1126,1126,1126,1126,1126,1126,1130,1130,1130,1130,1134,1130,1130,1130,1130,1130,1130,1130,1126,1126,1130,1130,1130,1130,1130,1130,1130,1130,1130,1130,1130,1130,1126,1126,1126,1126,1126,1126,1126,1126,1126,1126,1126,1126,1126,1123,1123,1123,1123,1123,1123,1123,1123,1123,1123,1123,1123,1123,1123,1123,1126,1123,1123,1123,1123,1123,1123,1123,1123,1119,1119,1123,1123,1123,1123,1123,1126,1123,1123,1123,1123,1123,1123,1123,1119,1119,1123,1123,1123,1123,1123,1123,1123,1123,1123,1123,1123,1123,1123,1126,1126,1123,1123,1123,1126,1123,1123,1123,1123,1123,1123,1123,1123,1123,1123,1123,1123,1123,1123,1123,1123,1123,1123,1123,1123,1123,1123,1126,1126,1123,1123,1123,1123,1123,1123,1123,1123,1123,1123,1123,1123,1123,1123,1123,1123,1123,1123,1123,1123,1123,1123,1123,1123,1123,1119,1119,1119,1119,1119,1119,1119,948,948,948,948,948,948,948,948,948,951,951,951,908,908,910,910,910,908,908,0,0,0,0,0,0,0,0,0,0,0,0,0,0,0,0,0,0,0,0,0,0,0,0,0,0,0,0,0,0,0,0,0,0,0,0
0,0,0,0,0,0,1126,1126,1126,1123,1123,1123,1123,1123,1123,1119,1119,1119,1119,1119,1119,1119,1119,1119,1119,1119,1119,1119,1119,1119,1119,1119,1119,1119,1119,1119,1119,1119,1119,1119,1119,1119,1119,1115,1115,1115,1115,1119,1119,1119,1123,1123,1123,1119,1119,1119,1119,1119,1115,1115,1119,1123,1123,1123,1123,1126,1123,1123,1123,1123,1123,1123,1123,1119,1119,1123,1123,1119,1119,1119,1119,1119,1119,1119,1123,1123,1123,1126,1123,1123,1119,1119,1119,1119,1119,1119,1119,1119,1119,1119,1119,1123,1119,1119,1123,1123,1123,1123,1123,1123,1123,1123,1119,1119,1119,1022,1022,1022,1019,1016,1016,1013,1013,1010,1010,1010,1010,1013,1013,1016,1019,1019,1022,1022,1025,1025,1025,1025,1025,1025,1126,1126,1126,1126,1126,1123,1123,1123,1123,1123,1123,1123,1123,1126,1126,1126,1126,1123,1123,1123,1126,1126,1126,1126,1126,1126,1126,1126,1126,1126,1126,1126,1126,1126,1126,1123,1123,1123,1123,1123,1123,1123,1123,1123,1123,1123,1123,1123,1123,1123,1126,1126,1126,1126,1126,1126,1126,1123,1123,1123,1123,1123,1123,1126,1126,1126,1130,1126,1126,1126,1126,1126,1130,1126,1126,1126,1123,1123,1123,1123,1123,1123,1123,1123,1126,1123,1123,1123,1123,1123,1123,0,0,0,0,0,0,741,741,741,741,741,741,739,736,734,733,733,731,730,728,728,727,727,727,727,727,728,730,734,736,738,739,739,741,742,744,744,746,746,746,0,0,0,0,0,0,1126,1126,1126,1123,1123,1126,1126,1126,1126,1126,1126,1123,1123,1123,1123,1123,1123,1123,1123,1123,1123,1123,1123,1123,1126,1126,1126,1126,1126,1130,1130,1130,1130,1130,898,898,898,901,898,898,898,898,901,901,901,903,903,906,906,906,908,908,908,910,913,915,918,920,920,925,928,928,935,935,935,940,1126,1126,1126,1126,1126,1126,1126,1126,1130,1126,1126,1130,1130,1126,1126,1126,1126,1126,1126,1126,1126,1126,1126,1126,1126,1126,1126,1126,1126,1126,1126,1123,1123,1123,1123,1123,1123,1123,1119,1119,1119,1119,1119,1119,1119,1119,1119,1119,1119,1123,1126,1126,1126,1130,1130,1126,1126,1126,1126,1126,1126,1126,1126,1126,1126,1130,1130,1130,1130,1126,1126,1130,1130,1130,1130,1130,1130,1130,1126,1126,1126,1126,1123,1123,1123,1123,1126,1126,1126,1126,1126,1130,1126,1126,1126,1126,1126,1126,1126,1126,1126,1123,1123,1126,1126,1126,1126,1126,1126,1126,1126,1126,1126,1126,1123,1123,1123,1123,1126,1126,1126,1126,1123,1123,1123,1123,1123,1123,1123,1123,1123,1119,1119,1119,1123,1123,1123,1123,1123,1123,1123,1123,1123,1123,1123,1123,1123,1119,1119,1119,1119,1119,1119,1119,1119,1119,1119,1123,1123,1123,1123,1123,1119,1119,1119,1119,1119,1119,1123,1123,1123,1123,1123,1123,1123,1123,1119,1119,1123,1123,1123,1123,1123,1123,1123,1123,1123,1123,1119,1119,1119,1119,1119,1119,1119,1119,1119,1119,1119,1119,1119,1119,1119,1119,1119,1119,1119,1119,1119,1119,1123,1123,1123,1123,1123,1123,1119,1119,1119,1119,1119,1119,1119,1119,1119,1119,1119,1119,1119,1119,1123,1123,1123,1119,1119,1115,1112,1112,1115,1115,1119,1119,948,948,948,948,951,951,951,948,948,951,951,954,908,908,910,910,910,908,908,0,0,0,0,0,0,0,0,0,0,0,0,0,0,0,0,0,0,0,0,0,0,0,0,0,0,0,0,0,0,0,0,0,0,0,0
0,0,0,0,0,1123,1123,1123,1123,1123,1119,1119,1119,1119,1119,1119,1119,1119,1115,1115,1115,1115,1119,1119,1119,1119,1119,1119,1115,1115,1115,1115,1119,1119,1119,1119,1119,1119,1119,1115,1115,1115,1115,1115,1115,1115,1115,1115,1115,1119,1119,1119,1119,1119,1119,1119,1119,1115,1115,1115,1115,1115,1115,1115,1115,1123,1123,1119,1119,1119,1119,1119,1119,1115,1115,1119,1119,1119,1119,1119,1119,1119,1119,1119,1119,1119,1119,1123,1119,1119,1119,1119,1119,1119,1119,1119,1115,1115,1119,1119,1119,1119,1119,1119,1119,1119,1119,1119,1119,1119,1119,1119,1119,1119,1119,1022,1022,1022,1019,1019,1016,1013,1013,1013,1010,1010,1010,1013,1013,1016,1019,1019,1022,1022,1025,1025,1025,1025,1025,1025,1123,1123,1123,1123,1123,1123,1123,1119,1119,1119,1119,1119,1119,1123,1119,1119,1123,1119,1119,1119,1119,1123,1123,1119,1119,1123,1123,1119,1119,1123,1123,1123,1123,1123,1123,1123,1123,1119,1119,1123,1119,1119,1119,1119,1119,1119,1119,1119,1119,1119,1119,1123,1123,1123,1123,1123,1123,1119,1119,1119,1123,1123,1123,1123,1123,1123,1126,1126,1126,1126,1126,1126,1123,1123,1123,1119,1119,1119,1119,1119,1119,1119,1119,1119,1123,1123,1119,1119,1119,1119,1119,1126,1126,0,0,0,0,733,733,741,741,741,741,739,738,736,733,733,731,730,728,728,727,727,727,728,728,730,730,734,736,738,739,741,742,744,746,746,746,746,747,0,0,0,0,1119,1119,1115,1115,1119,1119,1119,1119,1119,1119,1123,1123,1123,1119,1119,1119,1119,1119,1119,1119,1119,1119,1119,1119,1119,1119,1123,1126,1126,1126,1126,1130,1130,1130,1130,896,896,896,896,898,898,898,898,898,898,898,898,901,901,903,903,906,906,908,908,910,913,915,918,920,923,925,928,930,933,935,935,1126,1126,1126,1126,1123,1123,1123,1126,1126,1126,1126,1126,1126,1126,1126,1123,1123,1123,1123,1123,1123,1123,1123,1123,1123,1123,1123,1123,1123,1123,1123,1123,1123,1123,1123,1123,1123,1119,1119,1119,1119,1119,1119,1119,1119,1119,1119,1119,1119,1123,1123,1123,1126,1126,1126,1126,1123,1123,1123,1123,1123,1123,1126,1123,1123,1123,1126,1126,1126,1126,1126,1126,1123,1123,1126,1126,1126,1126,1126,1126,1126,1123,1123,1123,1123,1123,1123,1123,1123,1123,1123,1126,1126,1126,1123,1123,1123,1123,1123,1123,1123,1123,1123,1123,1123,1119,1119,1123,1123,1123,1123,1123,1123,1123,1123,1123,1123,1123,1123,1123,1123,1123,1123,1123,1123,1123,1123,1123,1119,1119,1119,1119,1119,1119,1119,1119,1119,1119,1119,1119,1119,1119,1119,1119,1119,1119,1119,1119,1115,1115,1115,1115,1115,1119,1119,1119,1119,1119,1119,1119,1119,1119,1119,1119,1119,1115,1115,1119,1119,1119,1119,1119,1119,1119,1119,1119,1119,1119,1119,1119,1119,1119,1119,1119,1119,1119,1119,1119,1119,1119,1119,1115,1115,1115,1115,1115,1115,1115,1115,1115,1119,1119,1119,1119,1119,1119,1119,1119,1115,1115,1115,1115,1115,1119,1119,1119,1119,1119,1119,1115,1115,1119,1119,1119,1119,1119,1119,1119,1119,1119,1119,1119,1119,1119,1119,1115,1112,1112,1112,1115,1115,1119,1119,948,948,948,951,951,951,951,951,954,954,954,908,908,908,910,910,910,908,908,0,0,0,0,0,0,0,0,0,0,0,0,0,0,0,0,0,0,0,0,0,0,0,0,0,0,0,0,0,0,0,0,0,0,0,0
0,0,0,0,0,1119,1119,1119,1119,1119,1119,1119,1119,1119,1119,1115,1115,1115,1115,1115,1112,1112,1115,1115,1115,1115,1115,1115,1112,1112,1112,1112,1112,1115,1115,1115,1115,1115,1115,1115,1115,1115,1112,1112,1112,1112,1112,1112,1115,1115,1115,1115,1115,1119,1119,1119,1115,1112,1108,1108,1112,1112,1112,1112,1112,1115,1115,1115,1119,1115,1115,1119,1115,1115,1115,1115,1115,1115,1115,1115,1115,1115,1119,1115,1115,1115,1115,1115,1115,1115,1115,1115,1119,1119,1115,1115,1115,1115,1115,1115,1115,1115,1115,1115,1115,1115,1115,1115,1115,1115,1115,1115,1115,1115,1025,1022,1022,1022,1022,1019,1019,1016,1013,1013,1013,1013,1013,1013,1013,1016,1019,1019,1022,1022,1025,1025,1025,1025,1025,1025,1119,1119,1119,1119,1119,1119,1119,1119,1119,1119,1119,1119,1119,1119,1119,1119,1119,1119,1119,1119,1119,1119,1119,1119,1119,1119,1115,1115,1115,1115,1115,1119,1119,1119,1119,1119,1119,1115,1115,1119,1119,1115,1115,1115,1115,1115,1119,1119,1115,1115,1119,1119,1119,1115,1115,1115,1119,1119,1119,1119,1119,1119,1119,1119,1119,1123,1123,1123,1123,1119,1119,1119,1123,1123,1119,1119,1119,1119,1119,1119,1119,1119,1119,1119,1119,1119,1119,1119,1115,1115,1115,1123,1126,0,0,0,0,731,731,741,741,741,741,739,739,738,734,733,733,731,728,728,728,728,728,728,730,730,734,736,738,739,739,741,742,744,746,746,747,0,0,0,0,0,0,1115,1115,1112,1112,1115,1115,1115,1115,1115,1119,1119,1119,1119,1119,1119,1119,1119,1119,1115,1115,1119,1119,1119,1115,1115,1119,1119,1123,1123,1123,1126,1130,1130,1130,891,891,891,891,894,894,896,896,896,896,896,898,898,898,898,903,903,906,906,908,908,910,913,915,920,923,925,928,928,930,933,935,935,1123,1123,1123,1123,1123,1123,1123,1123,1123,1123,1123,1123,1123,1123,1123,1123,1123,1123,1123,1123,1123,1123,1123,1123,1123,1123,1119,1119,1119,1119,1119,1119,1119,1119,1119,1119,1119,1119,1119,1119,1119,1119,1119,1119,1119,1119,1119,1119,1119,1119,1119,1119,1119,1119,1123,1123,1123,1123,1119,1119,1123,1123,1123,1123,1123,1123,1123,1123,1123,1123,1123,1123,1123,1123,1123,1123,1123,1123,1123,1123,1123,1123,1123,1119,1119,1119,1119,1123,1123,1123,1123,1123,1123,1123,1119,1119,1119,1119,1119,1119,1119,1119,1119,1119,1119,1115,1115,1119,1119,1119,1123,1123,1123,1123,1119,1119,1119,1119,1119,1119,1119,1119,1123,1119,1119,1119,1119,1119,1119,1115,1115,1115,1115,1115,1115,1115,1115,1119,1119,1119,1119,1119,1115,1115,1115,1115,1115,1115,1115,1115,1115,1115,1115,1115,1115,1115,1115,1115,1115,1115,1115,1115,1115,1115,1115,1115,1115,1115,1115,1119,1119,1119,1119,1119,1119,1115,1115,1115,1115,1119,1115,1115,1115,1115,1119,1115,1115,1115,1119,1115,1115,1112,1112,1112,1112,1112,1112,1112,1112,1112,1112,1112,1115,1112,1112,1115,1115,1115,1112,1112,1112,1112,1112,1112,1108,1108,1115,1115,1115,1115,1115,1115,1115,1115,1115,1119,1119,1119,1119,1119,1119,1119,1119,1112,1112,1115,1112,1112,1112,1112,1112,1112,951,951,951,951,951,954,954,954,954,956,954,954,908,908,910,910,910,910,908,908,0,0,0,0,0,0,0,0,0,0,0,0,0,0,0,0,0,0,0,0,0,0,0,0,0,0,0,0,0,0,0,0,0,0,0,0
0,0,0,0,0,1119,1115,1115,1115,1115,1115,1115,1115,1115,1115,1115,1115,1115,1112,1112,1108,1108,1112,1112,1112,1112,1112,1112,1112,1108,1108,1108,1108,1112,1112,1112,1108,1108,1112,1112,1112,1112,1108,1108,1108,1108,1108,1108,1112,1112,1112,1112,1115,1115,1115,1112,1112,1108,1108,1108,1105,1105,1108,1108,1108,1112,1112,1112,1112,1112,1112,1112,1112,1112,1112,1112,1115,1115,1115,1115,1115,1115,1115,1115,1112,1112,1112,1112,1112,1112,1115,1115,1115,1115,1115,1115,1112,1112,1115,1115,1115,1112,1112,1112,1112,1112,1112,1112,1112,1112,1112,1112,1112,1112,1025,1025,1025,1025,1022,1022,1019,1016,1016,1013,1013,1013,1013,1013,1016,1016,1019,1019,1022,1022,1025,1025,1028,1025,1025,1025,1119,1119,1115,1115,1112,1112,1115,1115,1115,1115,1115,1115,1115,1115,1115,1115,1115,1115,1115,1115,1115,1115,1119,1115,1115,1115,1115,1115,1115,1115,1115,1115,1115,1115,1115,1115,1115,1115,1115,1115,1115,1115,1112,1112,1112,1115,1115,1115,1112,1112,1115,1115,1112,1112,1112,1112,1115,1112,1112,1115,1115,1115,1115,1115,1119,1119,1119,1119,1119,1119,1115,1115,1115,1115,1115,1115,1115,1115,1115,1115,1115,1115,1115,1115,1115,1115,1115,1115,1112,1112,1112,1112,0,0,0,0,0,731,731,741,741,741,741,741,739,738,736,734,734,733,730,728,728,728,728,730,730,730,734,736,738,739,739,741,742,744,746,746,747,0,0,0,0,0,0,1112,1112,1112,1112,1112,1112,1112,1112,1112,1112,1115,1115,1115,1115,1115,1115,1115,1115,1115,1115,1115,1115,1115,1112,1112,1115,1115,1119,1119,1119,1119,1130,887,887,889,889,891,891,891,894,894,894,894,896,896,896,896,898,898,901,903,906,906,908,910,910,913,915,920,923,925,928,928,930,935,935,1119,1119,1119,1123,1119,1119,1119,1119,1119,1119,1119,1119,1119,1123,1123,1119,1119,1119,1119,1119,1119,1119,1119,1119,1119,1119,1119,1119,1119,1119,1119,1119,1119,1119,1115,1115,1115,1115,1115,1115,1115,1115,1115,1115,1115,1115,1115,1115,1115,1119,1119,1119,1119,1115,1115,1119,1115,1115,1115,1119,1119,1119,1119,1123,1123,1119,1119,1119,1119,1119,1119,1119,1119,1119,1119,1119,1119,1119,1119,1119,1119,1119,1119,1119,1119,1119,1119,1119,1119,1119,1119,1119,1119,1119,1119,1115,1115,1115,1115,1115,1115,1115,1115,1115,1115,1115,1112,1112,1112,1112,1112,1112,1112,1112,1119,1119,1119,1115,1115,1119,1119,1119,1119,1119,1119,1119,1119,1119,1119,1115,1115,1115,1115,1112,1112,1115,1115,1115,1115,1115,1115,1115,1112,1112,1112,1112,1112,1112,1112,1112,1112,1112,1108,1108,1112,1112,1108,1108,1108,1112,1112,1112,1112,1112,1115,1112,1112,1112,1115,1115,1115,1115,1115,1115,1115,1115,1115,1112,1112,1112,1108,1108,1112,1112,1112,1112,1115,1112,1112,1112,1112,1112,1112,1112,1112,1112,1108,1108,1108,1108,1108,1108,1108,1108,1108,1108,1108,1108,1108,1108,1108,1108,1108,1108,1108,1108,1108,1108,1108,1112,1108,1108,1112,1112,1115,1115,1115,1112,1112,1112,1112,1112,1108,1108,1108,1112,1112,1112,1112,1112,1112,1112,1112,962,951,951,951,951,954,954,954,954,956,956,913,913,913,910,910,910,910,908,908,0,0,0,0,0,0,0,0,0,0,0,0,0,0,0,0,0,0,0,0,0,0,0,0,0,0,0,0,0,0,0,0,0,0,0,0
0,0,0,0,0,1115,1112,1112,1115,1115,1112,1112,1115,1115,1115,1112,1112,1108,1108,1108,1108,1108,1108,1108,1108,1112,1108,1108,1108,1108,1108,1108,1108,1108,1108,1105,1105,1105,1105,1105,1105,1105,1105,1105,1105,1105,1105,1105,1105,1108,1108,1108,1108,1112,1108,1108,1108,1105,1105,1105,1105,1105,1105,1105,1105,1108,1112,1112,1112,1112,1112,1112,1108,1105,1105,1105,1108,1112,1112,1112,1112,1112,1112,1112,1112,1108,1108,1108,1108,1108,1108,1108,1112,1112,1112,1108,1108,1108,1112,1112,1112,1112,1112,1112,1112,1112,1108,1108,1108,1108,1108,1108,1108,1108,1108,1028,1025,1025,1025,1025,1022,1019,1016,1016,1013,1013,1013,1013,1016,1019,1019,1022,1022,1022,1025,1025,1028,1028,1028,1119,1119,1119,1115,1112,1112,1112,1112,1112,1112,1112,1112,1115,1115,1115,1112,1112,1112,1115,1112,1112,1115,1115,1115,1115,1115,1115,1115,1112,1112,1112,1108,1108,1108,1112,1112,1112,1112,1112,1112,1112,1112,1112,1108,1108,1108,1108,1112,1112,1108,1108,1108,1112,1108,1108,1108,1108,1108,1108,1108,1108,1108,1108,1108,1112,1112,1115,1112,1112,1115,1112,1112,1112,1112,1112,1112,1112,1112,1112,1112,1112,1112,1112,1112,1112,1112,1112,1112,1112,1112,1108,1108,1108,0,0,0,0,0,0,749,744,744,742,742,741,739,738,736,736,734,734,731,730,730,730,730,730,730,731,734,736,738,739,741,742,744,746,747,747,747,0,0,0,0,0,0,1112,1112,1108,1108,1108,1108,1108,1108,1108,1112,1112,1115,1112,1112,1112,1112,1112,1112,1112,1112,1112,1112,1112,1108,1108,1112,1112,1115,1115,1115,885,885,887,887,889,889,889,889,889,891,891,894,894,894,894,896,896,898,898,898,901,903,906,908,910,910,913,918,923,925,925,928,928,930,1115,1115,1115,1115,1115,1115,1119,1119,1119,1115,1115,1119,1119,1119,1119,1119,1119,1119,1115,1115,1119,1119,1119,1119,1119,1119,1119,1119,1115,1115,1115,1115,1115,1115,1115,1115,1115,1115,1112,1112,1112,1112,1115,1115,1115,1115,1115,1115,1115,1115,1115,1115,1115,1119,1115,1112,1112,1115,1112,1112,1112,1112,1112,1112,1119,1119,1119,1119,1119,1115,1115,1115,1119,1119,1119,1115,1115,1115,1115,1115,1115,1115,1115,1115,1115,1115,1115,1115,1112,1112,1112,1112,1112,1112,1112,1112,1112,1115,1115,1112,1112,1112,1112,1112,1112,1115,1112,1112,1108,1108,1108,1108,1108,1108,1108,1108,1108,1112,1112,1112,1112,1115,1115,1115,1115,1115,1115,1115,1115,1115,1115,1112,1112,1112,1112,1112,1112,1112,1112,1112,1112,1112,1112,1112,1112,1108,1108,1108,1108,1108,1108,1108,1108,1108,1108,1108,1108,1108,1108,1108,1108,1108,1108,1108,1108,1108,1108,1108,1108,1108,1108,1108,1112,1112,1112,1115,1112,1112,1112,1108,1108,1108,1108,1108,1108,1108,1108,1108,1112,1108,1108,1108,1112,1112,1108,1108,1108,1108,1108,1108,1108,1105,1105,1105,1105,1108,1105,1105,1105,1108,1108,1108,1105,1105,1108,1108,1108,1105,1105,1105,1105,1108,1105,1105,1108,1108,1112,1112,1112,1108,1108,1108,1108,1108,1108,1108,1108,1108,1112,1112,959,959,959,959,959,962,959,954,954,954,954,954,954,954,956,956,908,908,908,910,910,910,910,908,908,0,0,0,0,0,0,0,0,0,0,0,0,0,0,0,0,0,0,0,0,0,0,0,0,0,0,0,0,0,0,0,0,0,0,0,0
0,0,0,0,0,1112,1112,1112,1112,1112,1112,1112,1112,1112,1112,1108,1105,1105,1105,1105,1105,1105,1105,1105,1105,1105,1105,1105,1105,1105,1105,1105,1105,1105,1105,1105,1101,1101,1101,1101,1101,1101,1101,1101,1101,1101,1101,1101,1105,1105,1108,1108,1108,1108,1108,1105,1105,1105,1105,1105,1101,1101,1105,1105,1105,1105,1105,1105,1105,1105,1105,1105,1105,1101,1101,1105,1101,1101,1105,1105,1108,1108,1108,1108,1108,1105,1101,1101,1105,1105,1105,1105,1108,1108,1108,1105,1105,1105,1105,1108,1108,1108,1108,1108,1108,1108,1105,1105,1105,1105,1105,1105,1105,1105,1101,1025,1025,1025,1025,1025,1025,1022,1019,1019,1016,1013,1013,1016,1016,1019,1019,1022,1022,1022,1025,1028,1028,1031,1031,1031,1115,1115,1112,1108,1108,1108,1108,1108,1108,1108,1108,1108,1108,1108,1108,1108,1112,1112,1112,1112,1112,1112,1115,1112,1112,1112,1112,1108,1108,1108,1105,1105,1108,1105,1105,1108,1108,1108,1108,1108,1108,1108,1105,1105,1105,1108,1108,1108,1108,1108,1108,1108,1108,1105,1105,1105,1108,1108,1108,1105,1105,1105,1105,1105,1108,1108,1108,1108,1108,1108,1108,1108,1108,1108,1108,1108,1108,1108,1108,1108,1108,1108,1108,1112,1108,1108,1108,1108,1108,1108,1108,1108,0,0,0,0,0,0,747,747,746,746,744,741,739,738,736,736,734,734,733,731,731,730,730,730,731,733,734,736,738,739,741,742,744,746,747,747,749,752,0,0,0,0,0,1112,1108,1105,1105,1105,1105,1105,1105,1105,1105,1108,1108,1108,1108,1108,1108,1108,1108,1108,1108,1108,1108,1108,1108,1108,1108,1108,1108,1112,885,885,885,887,887,887,889,889,889,889,889,891,891,891,891,891,894,894,896,898,898,901,903,906,908,910,910,915,918,923,925,925,928,928,1101,1101,1101,1108,1108,1112,1112,1112,1112,1112,1112,1112,1112,1112,1115,1115,1115,1115,1115,1112,1112,1112,1112,1115,1115,1115,1115,1115,1115,1115,1112,1112,1112,1112,1112,1112,1112,1112,1112,1108,1108,1108,1108,1112,1112,1112,1112,1112,1112,1112,1112,1112,1112,1112,1115,1112,1112,1112,1112,1112,1112,1108,1108,1108,1108,1108,1108,1108,1115,1115,1112,1112,1112,1115,1115,1115,1112,1112,1115,1115,1115,1112,1112,1112,1112,1112,1112,1112,1112,1108,1108,1108,1108,1112,1112,1112,1112,1112,1112,1112,1108,1108,1108,1108,1108,1108,1108,1108,1108,1108,1108,1108,1108,1108,1108,1108,1108,1108,1108,1108,1108,1108,1108,1112,1112,1112,1112,1112,1112,1112,1112,1112,1108,1108,1108,1108,1108,1108,1108,1108,1112,1112,1108,1108,1112,1108,1108,1108,1108,1108,1105,1105,1105,1105,1105,1105,1105,1105,1105,1105,1108,1105,1105,1108,1105,1105,1105,1105,1105,1105,1105,1101,1101,1105,1105,1105,1108,1108,1108,1108,1108,1105,1105,1105,1105,1105,1105,1105,1108,1105,1105,1108,1108,1108,1108,1108,1108,1108,1108,1105,1105,1105,1105,1105,1105,1105,1108,1105,1105,1105,1105,1105,1105,1105,1105,1101,1101,1105,1105,1105,1105,1105,1108,1105,1105,1105,1108,1108,1108,1108,1108,1108,1105,1105,1105,1105,1105,1105,1108,1108,959,959,959,959,959,959,962,959,956,956,956,956,956,956,956,956,906,906,906,908,910,910,910,910,910,910,0,0,0,0,0,0,0,0,0,0,0,0,0,0,0,0,0,0,0,0,0,0,0,0,0,0,0,0,0,0,0,0,0,0,0,0
0,0,0,0,0,1105,1105,1105,1108,1108,1108,1108,1108,1108,1108,1108,1105,1105,1105,1101,1101,1101,1101,1101,1101,1101,1101,1101,1105,1105,1105,1105,1105,1105,1101,1101,1101,1101,1101,1101,1101,1101,1101,1101,1101,1101,1097,1097,1101,1101,1105,1105,1105,1105,1105,1105,1101,1101,1101,1101,1101,1101,1101,1101,1101,1101,1101,1101,1101,1101,1101,1101,1101,1101,1101,1101,1101,1101,1101,1101,1101,1101,1101,1105,1105,1101,1101,1101,1105,1105,1105,1105,1105,1105,1105,1105,1105,1105,1105,1105,1105,1105,1105,1105,1105,1105,1105,1105,1105,1105,1105,1105,1105,1101,1101,1025,1025,1025,1025,1025,1025,1025,1022,1019,1019,1016,1016,1016,1016,1019,1019,1022,1022,1025,1025,1028,1028,1031,1031,1031,1112,1112,1108,1108,1105,1105,1105,1105,1105,1105,1105,1105,1108,1105,1105,1105,1108,1108,1108,1108,1108,1108,1112,1112,1108,1108,1108,1108,1108,1105,1105,1105,1105,1105,1105,1105,1105,1105,1105,1105,1105,1105,1105,1105,1105,1105,1105,1105,1105,1105,1105,1105,1105,1105,1105,1105,1105,1105,1105,1105,1105,1105,1105,1105,1105,1105,1105,1105,1105,1105,1105,1105,1105,1105,1105,1105,1105,1108,1105,1105,1105,1105,1105,1105,1105,1105,1105,1105,1105,1105,1105,1105,0,0,0,0,0,0,747,747,747,746,744,742,741,738,736,736,734,734,733,731,731,731,731,731,731,734,736,736,738,739,741,742,746,746,747,749,749,752,0,0,0,0,0,0,1108,1105,1105,1105,1105,1105,1105,1105,1105,1105,1105,1105,1105,1105,1108,1108,1108,1105,1105,1105,1105,1105,1105,1105,1108,1108,1108,1112,882,882,885,885,885,887,887,887,887,887,887,889,889,889,889,891,891,894,896,898,898,901,903,906,908,910,913,915,920,923,925,925,928,1097,1097,1097,1097,1101,1105,1108,1108,1108,1108,1108,1108,1108,1108,1112,1112,1112,1112,1112,1112,1112,1112,1112,1112,1112,1112,1112,1112,1112,1112,1108,1108,1108,1108,1108,1108,1108,1108,1108,1108,1105,1105,1108,1108,1108,1108,1108,1108,1108,1108,1108,1108,1108,1108,1108,1108,1108,1108,1108,1108,1108,1108,1108,1108,1108,1108,1108,1108,1108,1108,1108,1108,1108,1112,1112,1112,1112,1112,1112,1112,1112,1112,1108,1108,1108,1108,1108,1108,1108,1108,1105,1105,1105,1108,1108,1108,1108,1108,1108,1108,1108,1108,1105,1105,1105,1105,1105,1105,1105,1105,1105,1105,1105,1105,1105,1108,1108,1108,1105,1105,1105,1105,1101,1101,1101,1101,1108,1108,1108,1108,1108,1108,1108,1108,1108,1108,1108,1108,1108,1105,1105,1108,1108,1108,1108,1108,1108,1108,1108,1105,1105,1105,1105,1105,1105,1105,1105,1101,1101,1105,1105,1105,1105,1105,1105,1105,1101,1097,1097,1101,1101,1101,1097,1097,1101,1101,1101,1101,1101,1105,1105,1105,1105,1105,1105,1105,1105,1105,1105,1105,1105,1105,1105,1105,1105,1105,1105,1105,1105,1105,1101,1101,1105,1105,1105,1101,1101,1105,1105,1101,1101,1105,1105,1101,1101,1101,1101,1101,1101,1101,1101,1105,1105,1105,1105,1105,1105,1105,1105,1105,1105,1105,1105,1105,1105,1105,1105,1105,1105,1105,962,959,959,959,959,959,962,962,962,962,962,962,956,956,956,956,906,906,906,906,908,908,908,910,910,910,910,0,0,0,0,0,0,0,0,0,0,0,0,0,0,0,0,0,0,0,0,0,0,0,0,0,0,0,0,0,0,0,0,0,0,0,0
0,0,0,0,0,1101,1101,1101,1105,1105,1105,1105,1105,1105,1108,1105,1105,1105,1105,1101,1101,1101,1097,1097,1097,1097,1097,1097,1097,1097,1101,1101,1101,1101,1097,1097,1097,1097,1097,1097,1097,1097,1097,1097,1101,1101,1097,1097,1101,1101,1101,1101,1101,1101,1101,1101,1101,1101,1101,1101,1101,1101,1101,1097,1097,1097,1097,1097,1101,1097,1097,1097,1097,1097,1097,1097,1097,1097,1101,1101,1101,1101,1101,1101,1101,1097,1097,1097,1101,1101,1101,1101,1101,1101,1101,1101,1101,1101,1101,1101,1101,1101,1101,1101,1105,1105,1105,1101,1101,1101,1101,1105,1101,1101,1097,1097,1025,1025,1028,1028,1025,1025,1022,1022,1019,1019,1019,1019,1019,1019,1022,1022,1022,1025,1028,1028,1031,1031,1031,1034,1108,1105,1105,1105,1105,1105,1105,1105,1105,1105,1105,1105,1105,1105,1105,1105,1105,1105,1105,1105,1101,1101,1108,1108,1105,1105,1105,1105,1105,1105,1105,1105,1105,1101,1101,1101,1101,1101,1105,1101,1101,1101,1101,1101,1105,1105,1105,1105,1105,1105,1105,1105,1105,1105,1101,1101,1101,1105,1105,1105,1101,1101,1101,1105,1105,1101,1101,1101,1101,1101,1101,1101,1101,1101,1105,1105,1105,1105,1105,1105,1105,1105,1105,1105,1101,1101,1101,1101,1101,1101,1101,1101,0,0,0,0,0,0,747,747,747,746,746,744,741,739,738,736,736,734,733,733,731,731,731,731,733,734,736,738,738,739,741,742,746,747,749,749,750,752,0,0,0,0,0,0,1105,1105,1105,1101,1101,1105,1105,1105,1105,1105,1105,1105,1105,1105,1105,1105,1105,1105,1105,1105,1105,1105,1105,1105,1105,1105,878,878,880,882,882,885,885,887,887,887,887,887,887,887,887,887,889,889,891,894,896,898,898,898,903,906,908,910,913,918,920,923,925,928,928,1094,1094,1097,1097,1097,1101,1105,1105,1105,1105,1105,1105,1105,1105,1108,1108,1108,1112,1112,1108,1108,1108,1108,1108,1108,1108,1108,1108,1108,1105,1105,1105,1105,1105,1105,1105,1105,1105,1105,1105,1105,1105,1105,1105,1105,1105,1105,1105,1108,1108,1108,1108,1105,1105,1105,1105,1105,1105,1105,1105,1105,1105,1108,1105,1105,1105,1105,1105,1105,1105,1105,1105,1105,1105,1108,1108,1108,1108,1108,1108,1108,1108,1108,1108,1108,1105,1105,1105,1105,1105,1105,1105,1105,1105,1105,1105,1105,1105,1105,1105,1105,1105,1105,1105,1105,1105,1101,1101,1105,1105,1105,1101,1101,1105,1105,1105,1105,1105,1101,1101,1101,1101,1097,1097,1097,1097,1101,1101,1101,1105,1105,1105,1105,1105,1105,1105,1105,1105,1105,1105,1105,1105,1105,1105,1105,1105,1105,1105,1105,1105,1105,1101,1101,1101,1101,1101,1097,1097,1097,1101,1101,1101,1101,1101,1101,1101,1097,1094,1094,1097,1097,1097,1097,1097,1097,1097,1097,1097,1097,1097,1101,1101,1101,1101,1101,1101,1101,1101,1101,1101,1101,1101,1101,1105,1101,1101,1105,1105,1101,1101,1101,1101,1101,1101,1094,1094,1094,1101,1101,1101,1101,1101,1101,1101,1097,1097,1097,1097,1097,1101,1101,1105,1105,1105,1105,1105,1105,1105,1101,1101,1101,1101,1105,1105,1105,1105,1105,1105,1105,1105,962,962,962,959,959,962,962,962,964,964,962,962,959,959,959,906,906,906,906,906,908,908,908,908,908,908,908,0,0,0,0,0,0,0,0,0,0,0,0,0,0,0,0,0,0,0,0,0,0,0,0,0,0,0,0,0,0,0,0,0,0,0,0
0,0,0,0,0,1101,1101,1101,1101,1101,1101,1101,1105,1105,1105,1105,1105,1101,1101,1101,1101,1097,1097,1097,1094,1094,1094,1094,1094,1094,1097,1097,1097,1097,1097,1094,1094,1094,1094,1094,1094,1094,1097,1097,1097,1097,1097,1097,1097,1097,1101,1097,1097,1097,1097,1097,1097,1097,1097,1097,1097,1097,1097,1097,1097,1097,1097,1097,1094,1094,1094,1094,1094,1094,1094,1094,1094,1094,1097,1097,1097,1097,1097,1097,1094,1094,1094,1094,1097,1097,1097,1097,1101,1101,1101,1101,1101,1101,1097,1097,1097,1097,1101,1101,1101,1101,1101,1101,1101,1101,1101,1101,1101,1097,1094,1094,1028,1028,1028,1028,1025,1025,1025,1022,1022,1019,1019,1019,1019,1022,1022,1022,1022,1025,1028,1028,1031,1031,1034,1034,1105,1101,1101,1101,1101,1101,1101,1101,1101,1101,1101,1101,1101,1101,1101,1101,1101,1101,1101,1097,1097,1094,1094,1097,1097,1101,1101,1101,1101,1101,1101,1101,1101,1101,1101,1101,1101,1101,1101,1101,1097,1097,1101,1101,1101,1101,1101,1101,1101,1101,1097,1097,1101,1101,1101,1101,1101,1101,1101,1101,1101,1101,1101,1101,1101,1101,1101,1101,1101,1101,1101,1101,1101,1101,1101,1101,1101,1101,1101,1101,1101,1101,1101,1101,1101,1101,1101,1101,1101,1097,1097,1101,0,0,0,0,0,0,747,747,747,747,746,744,742,741,739,738,736,734,733,733,731,731,731,733,733,734,736,738,739,739,741,742,746,747,749,750,750,0,0,0,0,0,0,1105,1105,1101,1101,1101,1101,1101,1101,1101,1101,1101,1101,1101,1101,1101,1101,1101,1101,1101,1101,1101,1101,1105,1105,1105,1105,878,878,878,878,880,882,882,885,885,885,885,885,885,885,887,887,887,887,889,891,894,896,898,898,898,903,906,908,910,913,918,920,923,925,928,1097,1094,1094,1097,1097,1097,1101,1101,1101,1101,1105,1105,1105,1105,1105,1105,1105,1105,1105,1105,1105,1108,1105,1105,1105,1105,1105,1105,1105,1105,1105,1105,1105,1105,1105,1105,1105,1105,1105,1101,1101,1101,1101,1101,1105,1105,1105,1105,1105,1105,1105,1105,1105,1105,1101,1101,1101,1105,1101,1101,1101,1105,1105,1105,1105,1105,1105,1105,1101,1101,1101,1105,1101,1101,1105,1105,1105,1105,1105,1105,1105,1105,1105,1105,1105,1105,1105,1105,1105,1101,1101,1101,1101,1101,1105,1105,1105,1105,1105,1105,1105,1101,1101,1101,1101,1101,1101,1097,1097,1101,1101,1101,1101,1101,1101,1101,1105,1105,1101,1097,1097,1097,1097,1097,1097,1097,1097,1101,1101,1101,1101,1101,1105,1105,1105,1105,1101,1101,1101,1105,1101,1101,1101,1101,1101,1101,1101,1101,1101,1101,1101,1101,1097,1097,1097,1097,1097,1094,1094,1094,1094,1094,1097,1097,1094,1094,1094,1094,1094,1094,1094,1094,1094,1094,1094,1094,1097,1094,1094,1094,1094,1097,1097,1094,1094,1097,1097,1097,1094,1094,1097,1097,1097,1097,1101,1101,1101,1101,1101,1101,1097,1097,1097,1097,1094,1094,1094,1094,1094,1094,1097,1097,1097,1097,1097,1097,1097,1094,1094,1094,1097,1097,1097,1101,1101,1101,1097,1097,1094,1094,1097,1097,1097,1097,1101,1101,1101,1101,1105,1105,967,964,964,964,964,964,964,964,964,964,964,964,962,962,962,906,906,906,906,906,906,908,908,908,908,908,908,908,0,0,0,0,0,0,0,0,0,0,0,0,0,0,0,0,0,0,0,0,0,0,0,0,0,0,0,0,0,0,0,0,0,0,0,0
0,0,0,0,0,1097,1097,1101,1101,1101,1101,1101,1101,1101,1097,1097,1101,1101,1101,1097,1097,1094,1094,1094,1090,1090,1090,1090,1090,1090,1094,1097,1097,1097,1097,1094,1094,1094,1094,1094,1094,1094,1094,1094,1097,1097,1094,1094,1094,1097,1097,1097,1097,1097,1097,1094,1094,1094,1097,1094,1094,1097,1097,1094,1094,1094,1094,1094,1094,1090,1090,1090,1090,1090,1090,1090,1094,1094,1097,1097,1094,1094,1094,1094,1094,1094,1094,1094,1097,1094,1094,1094,1094,1097,1094,1094,1097,1097,1094,1094,1097,1097,1097,1094,1094,1097,1097,1097,1097,1101,1101,1101,1097,1097,1094,1094,1028,1028,1028,1028,1025,1025,1025,1025,1022,1019,1019,1019,1019,1022,1022,1022,1022,1025,1028,1028,1031,1031,1034,1034,1034,1097,1097,1097,1097,1097,1097,1097,1097,1097,1097,1097,1097,1097,1097,1094,1094,1094,1097,1094,1094,1090,1090,1090,1094,1094,1094,1094,1094,1101,1097,1097,1097,1101,1097,1097,1097,1097,1097,1097,1094,1094,1097,1097,1101,1101,1101,1101,1097,1097,1097,1097,1097,1097,1097,1097,1097,1101,1101,1101,1097,1097,1097,1097,1097,1097,1097,1097,1097,1097,1097,1097,1097,1097,1097,1097,1097,1101,1097,1097,1094,1094,1094,1094,1097,1097,1097,1097,1097,1094,1094,1094,0,0,0,0,0,0,750,749,749,747,747,746,742,741,739,738,736,734,734,733,733,733,733,733,734,734,736,738,739,741,741,742,746,747,750,752,752,754,0,0,0,0,0,1101,1101,1101,1101,1101,1101,1101,1101,1097,1097,1097,1097,1097,1097,1097,1101,1101,1101,1101,1097,1097,1101,1101,1105,1105,875,875,875,875,878,878,880,882,880,880,882,882,882,882,882,885,885,885,887,887,889,894,896,898,898,901,903,906,908,910,913,918,920,920,923,1097,1097,1097,1097,1097,1097,1097,1097,1097,1097,1097,1101,1101,1101,1101,1101,1101,1101,1101,1101,1101,1101,1101,1101,1101,1105,1105,1105,1105,1101,1101,1101,1101,1101,1101,1101,1101,1101,1101,1101,1101,1101,1097,1097,1097,1101,1101,1101,1101,1101,1101,1101,1101,1101,1101,1097,1097,1097,1097,1097,1097,1097,1097,1101,1101,1101,1101,1101,1101,1097,1097,1097,1097,1101,1101,1101,1101,1101,1101,1101,1101,1101,1105,1105,1105,1101,1101,1101,1101,1101,1097,1097,1097,1097,1101,1101,1101,1101,1101,1101,1101,1101,1097,1097,1097,1097,1097,1097,1097,1097,1097,1097,1101,1101,1097,1097,1097,1101,1101,1097,1097,1094,1094,1094,1094,1094,1094,1094,1097,1097,1097,1097,1097,1097,1097,1097,1101,1101,1097,1097,1101,1097,1097,1097,1097,1097,1097,1097,1097,1097,1097,1097,1097,1097,1097,1097,1094,1094,1094,1094,1094,1094,1094,1094,1094,1094,1094,1094,1094,1094,1094,1090,1090,1094,1094,1094,1094,1094,1090,1090,1094,1094,1094,1094,1090,1090,1094,1094,1094,1094,1094,1094,1094,1094,1094,1094,1094,1097,1101,1097,1094,1094,1094,1094,1090,1090,1090,1090,1090,1090,1094,1094,1094,1094,1094,1094,1094,1094,1094,1094,1094,1094,1094,1097,1097,1094,1094,1094,1094,1090,1090,1094,1094,1094,1094,1101,1101,1097,1097,1101,970,967,967,967,967,967,967,967,967,967,967,964,964,962,962,962,0,906,906,906,906,906,908,908,908,906,906,906,908,0,0,0,0,0,0,0,0,0,0,0,0,0,0,0,0,0,0,0,0,0,0,0,0,0,0,0,0,0,0,0,0,0,0,0,0
0,0,0,0,0,1094,1094,1097,1097,1097,1097,1097,1097,1097,1097,1094,1094,1094,1094,1094,1094,1090,1090,1090,1090,1090,1090,1090,1087,1087,1090,1094,1094,1094,1094,1094,1094,1090,1090,1094,1094,1094,1094,1094,1094,1094,1094,1090,1090,1094,1094,1094,1094,1094,1094,1094,1090,1090,1094,1094,1094,1094,1094,1094,1090,1090,1090,1090,1090,1090,1090,1090,1090,1090,1090,1090,1090,1090,1090,1094,1090,1090,1094,1090,1090,1090,1090,1090,1090,1090,1090,1090,1090,1094,1094,1094,1094,1094,1094,1094,1094,1094,1094,1090,1090,1094,1094,1094,1094,1094,1097,1097,1094,1094,1094,1090,1090,1031,1028,1028,1025,1025,1025,1025,1022,1022,1022,1019,1019,1022,1022,1022,1025,1025,1028,1031,1031,1034,1034,1034,1034,1094,1094,1094,1094,1094,1097,1094,1094,1094,1094,1094,1094,1094,1094,1090,1090,1090,1094,1090,1090,1090,1090,1090,1090,1090,1090,1090,1090,1094,1094,1094,1097,1097,1097,1094,1094,1094,1094,1094,1094,1094,1094,1097,1097,1097,1097,1097,1097,1094,1094,1094,1094,1094,1094,1094,1094,1097,1097,1097,1097,1097,1097,1094,1094,1094,1094,1094,1097,1094,1094,1094,1094,1094,1094,1094,1094,1094,1094,1094,1090,1090,1090,1090,1094,1094,1094,1094,1094,1090,1090,1090,0,0,0,0,0,0,750,749,749,749,747,746,744,742,741,739,736,736,734,734,733,733,733,733,734,734,736,738,739,741,741,744,747,747,752,754,754,754,0,0,0,0,0,1097,1097,1097,1097,1097,1097,1097,1097,1097,1097,1094,1094,1097,1097,1097,1097,1097,1101,1097,1097,1097,1097,869,869,869,869,871,873,875,875,875,878,880,878,878,878,880,880,880,880,882,882,885,887,887,889,894,896,898,898,901,903,906,908,910,913,918,920,920,923,1094,1094,1094,1094,1094,1094,1094,1094,1094,1094,1094,1097,1097,1097,1097,1097,1097,1097,1097,1097,1097,1097,1097,1097,1097,1097,1097,1097,1101,1097,1097,1097,1097,1097,1097,1097,1097,1097,1097,1097,1097,1097,1094,1094,1097,1097,1097,1097,1097,1097,1097,1097,1097,1097,1097,1097,1094,1094,1094,1094,1094,1094,1097,1097,1097,1097,1097,1097,1097,1097,1097,1097,1097,1097,1097,1097,1097,1097,1097,1097,1097,1097,1097,1097,1097,1101,1097,1097,1097,1097,1097,1097,1097,1097,1097,1097,1097,1097,1097,1097,1097,1097,1097,1094,1094,1094,1097,1097,1094,1094,1097,1097,1097,1097,1097,1097,1097,1097,1097,1094,1094,1094,1094,1094,1094,1094,1094,1094,1094,1094,1094,1094,1094,1094,1094,1094,1094,1094,1094,1097,1097,1097,1097,1094,1094,1094,1094,1094,1094,1094,1094,1094,1094,1094,1094,1094,1094,1094,1094,1090,1090,1090,1090,1090,1090,1090,1090,1090,1090,1090,1090,1090,1090,1090,1090,1090,1090,1090,1090,1090,1090,1090,1090,1090,1090,1090,1090,1090,1090,1087,1087,1090,1090,1090,1090,1094,1094,1090,1090,1090,1090,1090,1090,1090,1090,1090,1090,1090,1090,1090,1090,1090,1094,1090,1090,1094,1090,1090,1090,1090,1090,1094,1094,1094,1094,1090,1090,1090,1090,1090,1090,1090,1090,1094,1094,1097,1097,975,975,973,970,970,970,970,967,967,967,967,967,967,967,967,964,964,964,967,0,906,906,906,906,906,906,906,906,906,906,906,906,0,0,0,0,0,0,0,0,0,0,0,0,0,0,0,0,0,0,0,0,0,0,0,0,0,0,0,0,0,0,0,0,0,0,0,0
0,0,0,0,0,1094,1094,1097,1097,1097,1097,1094,1094,1097,1097,1094,1090,1090,1090,1090,1090,1090,1090,1090,1087,1087,1087,1087,1087,1087,1087,1087,1087,1090,1090,1090,1090,1090,1090,1090,1090,1090,1090,1090,1090,1090,1090,1090,1090,1090,1090,1090,1090,1087,1087,1087,1087,1090,1090,1090,1090,1090,1090,1090,1090,1090,1090,1087,1087,1087,1087,1087,1087,1087,1087,1087,1087,1090,1090,1090,1090,1087,1087,1087,1087,1087,1087,1087,1087,1090,1090,1090,1090,1090,1090,1090,1090,1090,1090,1090,1090,1090,1090,1090,1090,1090,1090,1094,1090,1090,1094,1094,1090,1090,1090,1090,1087,1031,1028,1028,1025,1025,1025,1025,1022,1022,1022,1022,1022,1022,1022,1022,1025,1025,1028,1031,1031,1034,1034,1034,1034,1090,1090,1090,1090,1094,1094,1094,1094,1094,1090,1090,1090,1090,1090,1090,1090,1090,1090,1090,1090,1087,1087,1087,1087,1087,1087,1087,1090,1090,1090,1090,1090,1090,1090,1090,1090,1090,1090,1090,1090,1090,1090,1094,1097,1094,1094,1097,1094,1094,1090,1090,1090,1090,1090,1090,1090,1094,1094,1094,1090,1090,1090,1090,1090,1090,1090,1094,1094,1090,1090,1094,1090,1090,1090,1090,1090,1090,1090,1090,1090,1090,1090,1090,1090,1090,1090,1090,1090,1090,1090,1090,0,0,0,0,0,0,750,750,749,749,747,746,744,742,741,739,736,736,734,734,733,733,733,733,734,736,738,738,739,741,741,746,747,750,752,754,754,754,0,0,0,0,0,1097,1094,1094,1094,1094,1094,1094,1094,1090,1090,1090,1090,1094,1094,1094,1097,1097,1097,1094,1094,1094,1097,869,869,869,869,869,871,873,871,871,873,875,878,878,878,878,880,880,880,880,882,885,885,887,891,894,896,898,898,901,906,906,908,910,913,920,920,923,1094,1094,1094,1094,1094,1094,1094,1094,1094,1094,1094,1094,1094,1094,1097,1097,1097,1097,1094,1094,1094,1094,1094,1097,1097,1097,1097,1094,1094,1094,1094,1094,1097,1097,1097,1097,1097,1097,1097,1097,1094,1094,1094,1094,1094,1094,1094,1094,1094,1094,1094,1094,1094,1094,1094,1094,1094,1094,1094,1094,1094,1094,1094,1094,1094,1094,1094,1094,1094,1094,1094,1094,1094,1094,1094,1094,1094,1094,1094,1097,1094,1094,1094,1094,1094,1094,1090,1090,1094,1094,1094,1094,1094,1094,1094,1094,1097,1094,1094,1094,1094,1094,1094,1094,1094,1094,1094,1094,1094,1090,1090,1094,1094,1094,1094,1094,1094,1094,1094,1094,1094,1094,1090,1090,1090,1090,1090,1090,1090,1090,1090,1090,1090,1090,1090,1090,1090,1087,1087,1090,1090,1090,1090,1094,1094,1090,1090,1090,1090,1090,1090,1090,1090,1090,1090,1090,1090,1090,1090,1090,1090,1090,1090,1090,1087,1087,1087,1087,1087,1087,1087,1087,1087,1087,1090,1090,1087,1087,1087,1087,1087,1087,1090,1090,1090,1090,1090,1087,1087,1087,1087,1084,1084,1084,1087,1087,1090,1090,1090,1090,1090,1090,1090,1090,1090,1090,1090,1090,1090,1090,1090,1087,1087,1087,1087,1087,1087,1090,1090,1090,1090,1090,1090,1090,1090,1090,1087,1087,1087,1087,1087,1087,1090,1090,1090,1090,1097,978,975,975,973,970,970,970,973,970,970,967,967,967,967,967,967,964,964,967,967,0,906,906,906,906,906,906,906,903,903,903,903,903,0,0,0,0,0,0,0,0,0,0,0,0,0,0,0,0,0,0,0,0,0,0,0,0,0,0,0,0,0,0,0,0,0,0,0,0
0,0,0,0,0,1090,1090,1094,1094,1094,1094,1090,1090,1094,1094,1090,1090,1090,1090,1090,1090,1087,1087,1087,1087,1084,1084,1084,1084,1084,1087,1087,1087,1087,1087,1087,1087,1087,1087,1087,1087,1087,1087,1087,1087,1087,1087,1087,1087,1087,1087,1084,1080,1080,1084,1084,1084,1084,1087,1087,1090,1090,1090,1090,1087,1087,1087,1087,1087,1087,1087,1087,1087,1084,1084,1087,1087,1087,1087,1087,1087,1087,1084,1084,1084,1084,1084,1084,1084,1087,1087,1087,1087,1087,1087,1087,1087,1087,1087,1087,1087,1087,1087,1087,1087,1087,1087,1090,1090,1090,1090,1090,1087,1087,1087,1087,1084,1031,1031,1028,1025,1025,1025,1025,1022,1022,1022,1022,1022,1022,1022,1022,1025,1025,1028,1031,1031,1034,1034,1034,1087,1087,1087,1087,1087,1090,1090,1090,1090,1090,1090,1090,1090,1087,1087,1090,1087,1087,1090,1090,1087,1087,1087,1087,1087,1087,1087,1087,1087,1087,1087,1087,1087,1087,1087,1087,1087,1087,1087,1087,1090,1087,1087,1090,1090,1090,1090,1094,1090,1090,1090,1087,1087,1087,1087,1087,1087,1087,1087,1090,1090,1090,1090,1090,1090,1090,1090,1090,1090,1090,1090,1090,1090,1087,1087,1090,1090,1087,1087,1087,1087,1087,1090,1090,1090,1090,1090,1087,1087,1087,1087,1087,0,0,0,0,0,0,0,750,750,749,747,746,746,742,741,739,738,736,736,734,734,733,733,734,736,738,738,739,741,741,742,747,747,752,754,754,754,754,0,0,0,0,0,1094,1090,1090,1090,1090,1090,1090,1090,1090,1090,1087,1087,1087,1090,1090,1094,1094,1097,1094,1094,1094,867,867,867,867,867,867,869,869,869,869,871,873,875,875,875,875,878,878,880,880,882,885,885,887,891,894,896,898,898,901,906,906,908,910,913,1090,1090,1090,1090,1094,1094,1094,1094,1094,1090,1090,1090,1090,1090,1090,1090,1094,1094,1094,1094,1094,1094,1094,1094,1094,1094,1094,1094,1094,1094,1094,1090,1090,1090,1090,1090,1090,1094,1094,1094,1094,1094,1094,1094,1094,1094,1094,1094,1094,1094,1094,1090,1090,1090,1090,1090,1090,1090,1090,1094,1090,1090,1090,1090,1090,1090,1090,1090,1090,1090,1090,1090,1094,1094,1094,1094,1094,1094,1094,1094,1094,1094,1094,1094,1094,1090,1090,1090,1090,1090,1090,1090,1090,1090,1090,1090,1090,1090,1090,1094,1094,1094,1094,1094,1094,1094,1094,1090,1090,1090,1090,1090,1090,1090,1090,1090,1090,1090,1090,1090,1090,1090,1090,1090,1090,1090,1090,1090,1090,1090,1090,1090,1090,1090,1090,1090,1087,1087,1087,1084,1084,1084,1087,1090,1090,1090,1090,1090,1090,1090,1090,1090,1090,1090,1090,1090,1090,1090,1090,1090,1090,1090,1090,1087,1087,1087,1087,1084,1084,1084,1084,1084,1084,1087,1084,1084,1087,1087,1087,1087,1084,1084,1084,1084,1084,1087,1087,1087,1087,1087,1084,1084,1084,1084,1084,1084,1084,1084,1084,1084,1087,1087,1087,1087,1087,1087,1087,1087,1087,1090,1090,1084,1084,1084,1084,1084,1084,1084,1084,1084,1087,1087,1087,1087,1087,1087,1087,1087,1087,1084,1084,1084,1084,1084,1084,1087,1087,1087,1087,1094,978,978,978,975,973,973,973,975,1077,970,970,970,970,970,970,970,967,967,967,967,964,906,906,906,906,906,906,903,903,901,901,903,903,0,0,0,0,0,0,0,0,0,0,0,0,0,0,0,0,0,0,0,0,0,0,0,0,0,0,0,0,0,0,0,0,0,0,0,0
