0,0,0,0,0,0,0,0,0,0,1523,1516,1516,1516,1516,1516,1516,1516,1516,1516,1516,1516,1516,1516,1516,1516,1516,1516,1516,1516,1516,1516,1516,1516,1516,1516,1523,1523,1523,1523,1523,1523,1516,1516,1516,1516,1516,1523,1523,1516,1516,1516,1516,1509,1509,1509,1509,1509,1509,1509,1509,1509,1509,1509,1503,1503,1503,1503,0,0,0,0,0,0,0,667,663,663,663,663,662,661,661,661,661,661,661,661,661,661,661,662,662,663,663,663,664,664,666,666,666,666,667,668,670,670,671,671,672,672,674,674,675,676,676,678,679,680,680,682,682,684,687,688,690,693,693,694,696,696,697,698,700,701,701,701,701,703,704,707,708,708,710,710,710,711,713,713,714,716,716,716,717,719,719,720,720,722,722,723,723,727,728,728,728,730,730,733,733,733,734,734,734,736,738,739,739,741,742,744,746,747,747,749,750,750,750,752,752,754,754,754,755,757,757,759,761,761,762,764,764,766,766,767,769,769,769,771,773,774,774,776,778,780,780,781,781,781,781,781,781,783,783,783,785,792,790,789,789,1193,1193,1210,1210,1210,1210,1210,1210,1210,1214,1214,1214,1219,1219,1223,1223,1223,1223,1223,1227,1227,1227,1227,1227,1227,1227,1227,1227,1227,1227,1227,1227,1227,1227,1227,1227,1227,1227,1232,1232,1232,1232,1236,1236,1236,1236,1483,1483,1483,1477,1477,1477,1477,1477,1477,1477,1477,1477,1477,1477,1477,1477,1477,1477,1477,1477,1477,1477,1477,1483,1483,1477,1477,1470,1470,1470,1470,1464,1464,1464,1464,1464,1464,1464,1464,1464,933,933,930,930,928,925,923,920,918,918,918,918,918,918,918,918,918,918,920,923,925,925,928,928,928,930,930,930,930,930,930,930,0,0,0,0,0,1470,1464,1464,1464,1464,1464,1464,1464,1464,1464,1464,1464,1464,1464,1464,1464,1464,1464,1464,1464,1464,1464,1464,1464,1464,1464,1464,1464,1464,1464,1464,1464,1464,1464,1458,1458,1458,1458,1458,1458,1458,1458,1458,1458,1464,1464,1458,1458,1458,1458,1458,1458,1452,1452,1452,1452,1452,1452,1452,1452,1452,1452,1445,1445,1445,1445,1445,1452,1452,1458,1458,1458,1452,1452,1452,1452,1452,1452,1445,1445,1445,1445,1445,1445,1439,1439,1439,1439,1433,1433,1427,1427,1421,1421,1421,1421,1415,1415,1415,1410,1410,1404,1398,1398,1392,1387,1381,1381,1376,1376,1376,1370,1370,1365,1365,1359,1354,1349,1349,1349,1343,1338,1338,1333,1333,1328,1328,1328,1317,1317,1312,1312,1312,1307,1307,1302,1297,1297,1292,1292,1288,1288,1283,1278,1273,1273,1273,1268,1264,1259,1259,1255,1255,1255,1250,1250,1250,1241,1241,1236,1232,1232,1227,1227,1223,1223,1219,1219,1219,1214,1210,1210,1206,1202,1197,1197,1197,1193,1189,1189,1189,1185,1185,1185,1181,1177,1177,1173,1169,1169,1165,1165,1165,1161,1157,1157,1153,1153,1153,1149,1149,1145,1141,1138,1138,1134,1134,1134,1134,1130,1126,1123,1119,1119,1119,1115,1112,1108,1108,1105,1105,1105,1101,1101,1101,1097,1094,1094,1090,1090,1087,1087,1084,1080,1077,1077,1073,1073,1070,1070,1067,1067,1063,1063,1060,1060,1057,1057,1054,1050,1050,1050,1047,1047,1047,0,0,0,0,0,0,0,0,0,0,0,0,0,0,0,0,0,0,0,0,0,0,0,0,0,0,0,0,0,0,0,0,0
0,0,0,0,0,0,0,0,0,0,1509,1509,1509,1509,1516,1516,1516,1509,1509,1509,1516,1516,1509,1509,1509,1509,1509,1509,1509,1509,1509,1516,1509,1509,1509,1509,1509,1516,1516,1516,1516,1516,1516,1516,1516,1516,1516,1516,1516,1509,1509,1509,1509,1509,1503,1496,1496,1496,1503,1503,1503,1503,1503,1503,1503,1503,1503,1503,0,0,0,0,0,0,0,0,662,662,662,662,661,661,659,659,659,659,659,661,661,661,661,662,662,663,663,663,664,664,666,666,666,667,667,670,670,671,671,671,672,672,674,675,676,676,678,679,680,680,680,682,684,687,687,690,691,694,694,696,696,696,697,700,701,703,703,703,703,704,706,708,708,710,711,711,711,711,713,714,714,716,716,716,717,719,719,720,722,722,723,725,727,727,728,728,730,730,731,733,733,734,734,734,736,736,739,741,741,742,744,746,746,747,747,749,749,750,750,752,754,754,754,754,755,757,759,761,761,761,762,764,764,766,766,767,769,769,769,773,774,774,776,776,780,781,781,781,781,783,783,781,781,785,783,783,787,1193,1193,1193,1197,1193,1193,1202,1202,1206,1206,1210,1210,1210,1214,1214,1214,1219,1219,1219,1223,1223,1223,1223,1223,1223,1223,1227,1227,1227,1227,1227,1227,1227,1227,1227,1227,1227,1227,1227,1227,1227,1227,1232,1232,1232,1232,1236,1236,1236,1236,1483,1483,1477,1477,1470,1470,1470,1470,1470,1470,1470,1470,1470,1470,1477,1477,1477,1470,1470,1470,1470,1477,1470,1470,1470,1470,1470,1470,1464,1464,1464,1464,1464,1464,1464,1458,1458,1458,1458,1464,935,933,930,930,928,928,925,923,920,918,918,918,918,918,918,918,918,920,920,923,925,925,928,928,928,930,930,930,930,930,930,930,0,0,0,0,1464,1464,1464,1458,1458,1458,1458,1458,1458,1458,1458,1458,1464,1464,1458,1458,1458,1458,1458,1458,1458,1458,1458,1458,1458,1458,1458,1458,1458,1458,1458,1458,1458,1458,1458,1452,1452,1452,1452,1452,1452,1452,1452,1452,1452,1458,1458,1452,1452,1452,1452,1452,1445,1445,1445,1445,1445,1445,1445,1445,1445,1445,1445,1445,1445,1445,1445,1445,1445,1445,1445,1445,1452,1445,1445,1445,1445,1445,1445,1445,1445,1445,1445,1439,1439,1439,1439,1433,1433,1433,1433,1427,1427,1421,1421,1421,1421,1415,1415,1415,1415,1410,1410,1404,1398,1392,1387,1387,1381,1381,1376,1376,1370,1370,1370,1365,1359,1354,1349,1349,1349,1343,1338,1338,1333,1333,1333,1328,1328,1317,1317,1312,1312,1312,1307,1307,1302,1297,1297,1292,1292,1288,1288,1283,1278,1273,1273,1273,1268,1264,1264,1264,1259,1255,1255,1255,1250,1250,1245,1241,1236,1232,1232,1227,1227,1223,1223,1219,1219,1219,1214,1214,1210,1206,1202,1202,1202,1197,1193,1193,1189,1189,1185,1185,1185,1181,1181,1177,1173,1173,1169,1169,1165,1165,1161,1157,1157,1153,1153,1153,1149,1149,1145,1141,1138,1138,1134,1134,1134,1134,1130,1126,1123,1119,1119,1119,1115,1112,1108,1108,1108,1105,1105,1105,1101,1101,1097,1094,1094,1094,1090,1090,1087,1087,1080,1080,1077,1077,1073,1073,1070,1067,1067,1063,1063,1060,1060,1060,1057,1054,1050,1050,1050,1050,1047,1047,0,0,0,0,0,0,0,0,0,0,0,0,0,0,0,0,0,0,0,0,0,0,0,0,0,0,0,0,0,0,0,0,0
0,0,0,0,0,0,0,0,0,0,1509,1509,1509,1509,1509,1509,1509,1509,1509,1509,1509,1509,1509,1509,1503,1503,1503,1503,1503,1496,1496,1496,1496,1503,1503,1503,1503,1509,1509,1509,1509,1509,1509,1509,1509,1509,1509,1509,1509,1509,1509,1509,1503,1503,1503,1496,1496,1496,1496,1496,1496,1496,1496,1496,1496,1503,1496,1496,1503,0,0,0,0,0,0,0,662,661,661,661,661,659,659,659,659,659,659,659,661,661,661,661,662,663,663,663,664,664,666,666,666,667,667,670,671,671,671,672,672,674,675,676,676,678,679,680,680,680,682,683,687,687,690,691,693,694,696,696,696,697,698,701,703,703,703,704,704,706,707,708,708,710,711,711,711,713,714,714,714,716,716,716,717,719,720,720,722,722,723,725,727,727,728,728,730,730,733,733,733,734,734,734,736,738,739,741,741,742,744,746,746,747,747,747,749,750,750,752,754,754,754,754,755,757,759,761,761,761,762,764,764,766,766,767,769,769,769,773,774,774,776,776,780,781,781,783,785,785,783,781,781,781,781,1202,1193,1193,1193,1193,1197,1197,1197,1202,1202,1206,1206,1210,1210,1210,1210,1214,1214,1214,1214,1214,1219,1219,1219,1219,1219,1223,1223,1223,1227,1227,1227,1227,1227,1227,1227,1227,1227,1227,1227,1227,1227,1227,1227,1232,1232,1232,1232,1236,1236,1236,1236,1470,1470,1470,1470,1470,1470,1470,1464,1464,1464,1464,1464,1470,1470,1470,1470,1470,1464,1464,1464,1464,1464,1464,1464,1464,1464,1464,1464,1464,1464,1464,1464,1458,1458,1458,1458,1458,1458,1458,1458,938,933,930,930,928,928,925,923,920,920,918,918,918,918,918,918,920,920,920,923,925,925,928,928,928,930,930,930,930,930,930,0,0,0,0,0,1458,1458,1458,1458,1452,1452,1458,1458,1458,1458,1458,1452,1452,1452,1452,1452,1452,1452,1452,1452,1452,1452,1452,1452,1452,1452,1452,1452,1452,1452,1452,1452,1452,1445,1445,1445,1445,1445,1445,1445,1445,1445,1445,1445,1445,1452,1452,1452,1452,1445,1445,1445,1445,1445,1445,1445,1445,1445,1445,1439,1439,1445,1445,1439,1439,1439,1439,1439,1439,1439,1439,1439,1439,1439,1445,1445,1445,1445,1445,1439,1439,1439,1439,1439,1439,1439,1433,1433,1433,1433,1427,1427,1421,1421,1421,1421,1415,1415,1415,1415,1410,1410,1410,1404,1398,1392,1392,1387,1381,1381,1376,1376,1370,1370,1370,1365,1359,1354,1354,1349,1349,1343,1343,1338,1333,1333,1333,1333,1328,1317,1317,1312,1312,1312,1307,1307,1302,1297,1297,1292,1292,1288,1288,1288,1278,1273,1273,1273,1268,1264,1264,1264,1259,1255,1255,1255,1250,1250,1245,1241,1236,1232,1232,1232,1227,1227,1223,1219,1219,1219,1214,1214,1210,1206,1202,1197,1197,1197,1193,1193,1189,1189,1185,1185,1185,1181,1181,1181,1177,1173,1169,1169,1165,1165,1161,1157,1157,1153,1153,1153,1149,1149,1145,1141,1141,1138,1138,1134,1134,1134,1130,1126,1123,1119,1119,1119,1115,1115,1112,1108,1108,1105,1105,1105,1105,1101,1097,1094,1094,1094,1090,1090,1087,1087,1084,1080,1077,1077,1077,1073,1070,1067,1067,1063,1063,1063,1060,1060,1057,1054,1054,1050,1050,1050,1047,1047,0,0,0,0,0,0,0,0,0,0,0,0,0,0,0,0,0,0,0,0,0,0,0,0,0,0,0,0,0,0,0,0,0
0,0,0,0,0,0,0,0,0,0,1509,1503,1503,1503,1509,1503,1503,1503,1503,1503,1503,1503,1503,1503,1503,1503,1503,1503,1496,1489,1489,1489,1489,1489,1489,1489,1489,1496,1496,1496,1496,1496,1496,1496,1496,1503,1503,1503,1503,1503,1503,1503,1496,1496,1496,1489,1489,1489,1489,1489,1489,1489,1489,1489,1489,1496,1496,1496,1496,0,0,0,0,0,0,0,0,659,659,659,659,659,659,659,659,659,659,659,661,661,661,661,662,663,663,663,664,664,666,666,666,667,668,670,671,672,672,674,674,674,675,676,678,679,679,680,680,682,683,686,687,690,691,693,693,696,696,696,697,698,700,701,703,703,704,704,704,706,707,708,708,710,711,711,711,713,714,714,716,716,716,717,719,719,720,720,722,723,725,725,727,727,728,728,730,730,733,733,734,734,736,736,738,739,741,741,742,744,744,746,746,747,747,747,749,750,752,752,754,754,754,755,755,757,759,761,761,761,762,764,764,766,766,767,769,769,769,773,774,774,774,776,780,781,0,0,0,0,0,0,1193,1193,1197,1202,1202,1193,1193,1197,1202,1202,1202,1202,1202,1206,1206,1206,1206,1210,1210,1210,1210,1210,1210,1214,1214,1214,1214,1214,1219,1219,1223,1223,1223,1227,1227,1227,1227,1227,1227,1227,1227,1227,1227,1227,1227,1227,1232,1232,1232,1232,1232,1236,1236,1236,1236,1236,1470,1464,1464,1464,1464,1464,1464,1458,1458,1464,1464,1464,1464,1464,1464,1464,1464,1464,1458,1458,1464,1464,1464,1458,1458,1458,1458,1458,1458,1458,1458,1458,1458,1458,1452,1452,1452,1452,1458,938,935,933,930,930,928,928,925,923,920,920,918,918,918,920,920,920,923,923,925,925,928,928,928,928,930,930,930,933,933,933,0,0,0,0,0,1458,1458,1458,1452,1452,1452,1452,1452,1445,1445,1452,1445,1445,1445,1445,1445,1445,1445,1445,1445,1445,1445,1445,1445,1445,1445,1445,1445,1445,1445,1445,1445,1445,1439,1439,1439,1439,1439,1439,1439,1439,1439,1439,1445,1445,1445,1445,1445,1445,1445,1445,1445,1445,1439,1439,1439,1439,1439,1439,1439,1439,1439,1439,1439,1439,1439,1439,1439,1433,1433,1433,1439,1439,1439,1439,1439,1439,1439,1439,1439,1439,1433,1433,1433,1433,1433,1433,1433,1433,1427,1427,1421,1421,1421,1421,1421,1415,1415,1415,1415,1410,1410,1410,1404,1398,1392,1392,1387,1381,1381,1376,1376,1376,1370,1370,1365,1359,1354,1354,1349,1349,1349,1343,1338,1338,1333,1333,1333,1328,1322,1317,1312,1312,1312,1307,1307,1302,1302,1297,1292,1292,1292,1288,1288,1278,1273,1273,1273,1268,1268,1264,1264,1259,1255,1255,1255,1250,1250,1245,1241,1236,1236,1232,1232,1227,1227,1223,1219,1219,1219,1214,1214,1210,1206,1202,1197,1197,1197,1193,1193,1193,1189,1185,1185,1185,1185,1181,1181,1177,1173,1173,1169,1169,1165,1161,1161,1157,1153,1153,1153,1149,1149,1145,1141,1141,1138,1138,1134,1134,1134,1130,1130,1123,1123,1119,1119,1115,1115,1112,1108,1108,1105,1105,1105,1105,1101,1097,1097,1094,1094,1094,1090,1090,1087,1084,1080,1080,1077,1077,1073,1070,1070,1067,1063,1063,1063,1060,1060,1057,1054,1054,1050,1050,1050,1050,1050,0,0,0,0,0,0,0,0,0,0,0,0,0,0,0,0,0,0,0,0,0,0,0,0,0,0,0,0,0,0,0,0,0
0,0,0,0,0,0,0,0,0,0,1503,1503,1496,1496,1503,1503,1503,1503,1496,1496,1503,1496,1496,1503,1496,1496,1496,1496,1496,1489,1489,1489,1489,1489,1489,1489,1489,1489,1489,1489,1489,1489,1489,1489,1496,1496,1496,1496,1496,1496,1496,1496,1496,1496,1496,1489,1489,1489,1489,1489,1489,1483,1483,1483,1489,1489,1489,1489,1489,0,0,0,0,0,0,0,0,659,659,659,659,658,658,658,658,659,659,659,661,661,661,661,662,663,663,664,664,666,666,666,667,668,670,671,672,674,674,674,675,675,676,678,679,680,680,682,682,683,686,687,688,690,691,693,696,696,696,696,697,698,700,701,703,703,704,704,704,704,707,708,708,710,711,711,713,713,714,714,716,716,716,717,719,719,720,722,722,723,725,727,727,728,728,730,730,733,733,734,734,736,736,738,738,739,741,741,742,744,744,746,746,747,747,747,749,750,752,752,754,754,754,755,757,759,759,761,761,761,762,764,764,766,766,767,767,767,767,773,774,774,774,776,776,776,776,0,0,0,0,0,1193,1193,1197,1197,1197,1197,1197,1202,1202,1202,1202,1202,1202,1206,1206,1206,1206,1206,1206,1206,1210,1210,1210,1210,1210,1210,1214,1214,1214,1219,1219,1219,1223,1223,1227,1227,1227,1227,1227,1227,1227,1227,1227,1227,1227,1227,1232,1232,1232,1232,1232,1236,1236,1236,1236,1236,1464,1464,1464,1464,1464,1464,1458,1458,1458,1458,1458,1458,1458,1458,1458,1458,1458,1458,1458,1458,1458,1458,1458,1458,1458,1458,1458,1452,1452,1452,1452,1452,1445,1445,1445,1445,1452,1452,1452,938,938,933,933,933,930,928,925,925,923,920,920,920,920,920,920,920,923,925,925,925,928,928,928,930,930,933,933,933,933,933,0,0,0,0,1452,1452,1452,1452,1445,1445,1445,1445,1445,1445,1445,1445,1439,1439,1439,1439,1439,1439,1439,1439,1439,1439,1439,1445,1445,1445,1445,1445,1439,1439,1439,1439,1439,1439,1439,1439,1439,1439,1439,1439,1439,1439,1439,1439,1439,1439,1439,1439,1439,1439,1439,1439,1439,1439,1439,1439,1439,1439,1433,1433,1433,1433,1433,1433,1433,1433,1433,1433,1433,1433,1427,1427,1433,1433,1433,1433,1433,1433,1427,1427,1427,1427,1433,1433,1427,1427,1427,1427,1427,1427,1427,1421,1421,1421,1421,1421,1421,1415,1415,1415,1415,1410,1404,1404,1404,1398,1392,1392,1387,1381,1381,1381,1376,1376,1370,1370,1365,1359,1354,1354,1349,1349,1349,1343,1338,1338,1333,1333,1333,1328,1322,1317,1317,1312,1312,1312,1307,1307,1302,1297,1297,1292,1292,1288,1283,1278,1273,1273,1273,1268,1268,1268,1264,1259,1259,1255,1255,1250,1250,1245,1241,1236,1236,1232,1232,1227,1227,1223,1219,1219,1219,1214,1214,1210,1210,1206,1202,1202,1197,1197,1197,1193,1189,1185,1185,1185,1185,1181,1181,1177,1173,1173,1169,1169,1165,1165,1161,1157,1157,1153,1153,1149,1149,1145,1141,1141,1138,1138,1138,1134,1134,1134,1130,1123,1123,1119,1119,1119,1115,1112,1108,1108,1105,1105,1105,1105,1101,1101,1097,1094,1094,1094,1090,1090,1087,1084,1084,1080,1080,1077,1073,1073,1070,1070,1067,1063,1063,1060,1060,1057,1054,1054,1050,1050,1050,1050,1050,0,0,0,0,0,0,0,0,0,0,0,0,0,0,0,0,0,0,0,0,0,0,0,0,0,0,0,0,0,0,0,0,0
0,0,0,0,0,0,0,0,0,1489,1489,1489,1489,1489,1489,1489,1496,1496,1496,1496,1496,1496,1496,1496,1489,1489,1489,1489,1489,1489,1489,1489,1489,1489,1489,1489,1489,1489,1489,1489,1489,1483,1483,1489,1489,1489,1489,1489,1489,1496,1496,1489,1489,1489,1489,1489,1483,1483,1483,1483,1483,1483,1483,1483,1483,1489,1489,1489,1489,1489,0,0,0,0,0,1019,1019,659,659,659,659,658,658,658,658,658,659,659,661,661,661,662,662,663,663,664,664,666,666,667,667,670,671,672,672,674,675,675,675,676,676,679,679,680,682,682,683,684,687,688,690,690,691,693,696,696,696,697,697,698,701,701,703,703,704,704,704,704,708,708,708,710,711,711,713,713,714,714,716,716,716,717,719,719,720,722,722,725,725,727,727,728,728,730,730,734,734,736,736,736,736,738,739,739,741,742,742,744,746,746,746,747,747,747,749,750,752,752,754,754,754,755,757,759,759,761,761,761,762,764,766,766,766,767,767,766,766,771,774,776,776,776,776,0,0,0,0,0,0,0,1193,1193,1193,1193,1197,1202,1202,1202,1202,1202,1202,1202,1202,1202,1206,1206,1206,1206,1206,1206,1210,1210,1210,1210,1210,1210,1214,1214,1214,1219,1219,1219,1219,1223,1223,1223,1223,1227,1227,1227,1227,1227,1227,1227,1227,1227,1232,1232,1232,1232,1236,1236,1241,1236,1236,1236,1464,1464,1464,1458,1458,1458,1458,1452,1452,1452,1458,1458,1458,1458,1458,1458,1458,1458,1452,1452,1452,1458,1452,1452,1452,1452,1452,1445,1445,1445,1445,1445,1439,1439,1439,1439,1439,1433,1433,938,938,935,935,935,933,930,928,925,923,920,920,920,920,920,920,923,925,925,925,928,928,928,930,930,933,933,935,935,935,935,0,0,0,0,1445,1445,1445,1445,1445,1445,1439,1439,1439,1439,1439,1439,1439,1439,1439,1439,1433,1433,1433,1439,1439,1439,1433,1433,1433,1433,1439,1439,1439,1439,1439,1439,1439,1439,1433,1433,1433,1433,1433,1433,1433,1433,1433,1433,1439,1439,1439,1439,1439,1439,1439,1433,1433,1433,1433,1433,1433,1433,1427,1427,1427,1427,1427,1427,1427,1427,1427,1427,1427,1427,1421,1421,1427,1427,1427,1427,1427,1427,1421,1421,1421,1421,1421,1421,1421,1427,1427,1421,1421,1421,1421,1421,1421,1421,1421,1421,1415,1415,1415,1415,1410,1410,1404,1404,1398,1398,1392,1392,1387,1387,1381,1381,1376,1376,1370,1370,1365,1359,1354,1354,1349,1349,1349,1343,1338,1338,1333,1333,1333,1328,1322,1322,1317,1312,1312,1312,1307,1307,1302,1297,1297,1292,1292,1288,1283,1278,1273,1273,1273,1268,1268,1268,1264,1259,1259,1255,1255,1250,1250,1245,1241,1236,1236,1232,1232,1227,1227,1223,1223,1219,1219,1214,1214,1214,1210,1206,1202,1202,1202,1197,1197,1193,1193,1189,1189,1185,1185,1181,1181,1177,1177,1173,1169,1169,1165,1165,1161,1161,1157,1153,1153,1149,1149,1145,1141,1141,1138,1138,1138,1134,1134,1134,1130,1126,1123,1123,1119,1119,1115,1112,1112,1108,1108,1105,1105,1105,1105,1101,1097,1094,1094,1094,1090,1090,1087,1087,1084,1080,1080,1077,1077,1073,1073,1070,1067,1063,1063,1060,1060,1057,1054,1054,1050,1050,1050,1050,1050,0,0,0,0,0,0,0,0,0,0,0,0,0,0,0,0,0,0,0,0,0,0,0,0,0,0,0,0,0,0,0,0,0
0,0,0,0,0,0,0,0,0,1489,1483,1483,1483,1483,1483,1483,1489,1489,1489,1489,1489,1489,1489,1489,1489,1489,1489,1489,1483,1483,1483,1483,1483,1483,1483,1483,1483,1483,1483,1483,1483,1483,1483,1483,1483,1483,1489,1489,1489,1489,1489,1489,1489,1489,1489,1483,1483,1483,1483,1477,1477,1477,1477,1477,1483,1483,1483,1483,1483,1483,0,0,1022,0,0,1019,1019,659,659,659,659,658,658,658,658,658,659,659,661,661,661,662,662,663,664,664,666,666,667,668,670,671,672,674,674,675,675,676,676,676,678,679,680,682,682,683,684,686,688,690,691,691,693,693,696,696,696,697,698,700,701,703,703,704,704,704,706,707,708,708,708,710,711,711,713,713,714,714,716,716,717,717,719,719,720,722,723,725,725,727,728,728,728,730,731,734,734,736,736,738,738,738,739,741,741,742,744,746,746,746,747,747,747,747,749,750,752,754,754,754,755,755,759,759,759,761,761,762,764,764,766,766,766,767,766,766,766,771,771,1189,1185,1185,1185,0,0,1193,0,0,1193,1193,1193,1193,1193,1193,1193,1197,1197,1197,1202,1202,1202,1202,1202,1202,1206,1206,1206,1206,1206,1206,1210,1210,1210,1210,1210,1210,1214,1214,1214,1214,1219,1219,1219,1223,1223,1223,1223,1227,1227,1227,1227,1227,1227,1227,1227,1232,1232,1232,1232,1232,1236,1236,1241,1236,1236,1236,1458,1458,1452,1452,1452,1452,1452,1445,1445,1445,1452,1452,1452,1452,1445,1445,1452,1452,1452,1452,1452,1452,1452,1452,1445,1445,1445,1439,1439,1439,1439,1439,1439,1433,1433,1433,1433,1433,1433,940,938,935,935,935,933,933,930,925,925,920,920,920,920,920,923,923,925,925,925,928,928,928,930,930,933,935,935,935,935,935,938,938,0,1445,1445,1445,1445,1439,1439,1439,1439,1439,1439,1439,1439,1439,1433,1433,1433,1433,1433,1433,1433,1433,1433,1433,1427,1427,1427,1427,1433,1433,1427,1427,1433,1433,1433,1433,1433,1433,1427,1427,1427,1427,1427,1433,1433,1433,1433,1433,1433,1433,1433,1433,1433,1427,1427,1427,1427,1427,1427,1427,1427,1427,1421,1421,1421,1421,1421,1421,1421,1421,1421,1421,1421,1421,1421,1421,1421,1421,1421,1421,1421,1421,1421,1421,1421,1421,1415,1415,1415,1415,1421,1421,1421,1421,1421,1421,1421,1415,1415,1415,1410,1410,1410,1404,1404,1404,1398,1398,1392,1392,1387,1387,1381,1381,1376,1376,1370,1370,1365,1359,1354,1354,1349,1349,1349,1343,1338,1338,1333,1333,1333,1328,1322,1322,1317,1312,1312,1312,1307,1307,1302,1297,1297,1292,1292,1288,1283,1278,1273,1273,1273,1268,1268,1268,1268,1264,1259,1259,1255,1255,1250,1245,1241,1236,1236,1232,1232,1232,1227,1227,1223,1223,1219,1214,1214,1214,1210,1206,1202,1202,1202,1197,1197,1193,1193,1189,1189,1185,1185,1181,1181,1177,1177,1173,1169,1169,1165,1165,1165,1161,1161,1157,1153,1149,1149,1145,1145,1141,1138,1138,1138,1134,1134,1134,1134,1130,1123,1123,1119,1119,1115,1112,1112,1108,1108,1105,1105,1105,1105,1101,1097,1094,1094,1094,1090,1090,1090,1087,1084,1080,1080,1080,1077,1077,1073,1070,1067,1063,1063,1060,1060,1057,1054,1054,1054,1054,1050,1050,1050,0,0,0,0,0,0,0,0,0,0,0,0,0,0,0,0,0,0,0,0,0,0,0,0,0,0,0,0,0,0,0,0,0
0,0,0,0,0,0,0,0,0,1483,1483,1483,1477,1477,1483,1483,1483,1483,1483,1483,1483,1483,1489,1489,1483,1483,1483,1483,1483,1483,1483,1483,1483,1483,1483,1483,1483,1483,1483,1483,1483,1483,1483,1483,1483,1483,1483,1483,1483,1483,1483,1483,1483,1483,1483,1483,1483,1477,1477,1477,1477,1477,1477,1477,1477,1477,1477,1477,1477,1483,0,0,0,1022,1022,1022,1022,661,661,659,659,659,659,659,659,659,659,659,661,661,662,663,663,664,664,664,666,667,668,670,671,674,674,674,675,675,675,676,676,678,679,680,680,682,682,683,684,687,688,690,691,691,693,694,696,696,697,697,698,700,703,703,703,704,706,706,706,707,708,708,710,710,711,713,713,713,714,714,716,717,717,717,719,720,722,723,725,727,727,727,728,728,730,730,733,736,736,736,738,738,738,739,739,741,742,744,744,746,746,746,747,747,747,749,749,750,754,754,755,755,755,757,759,761,761,761,762,0,767,767,767,767,767,766,764,764,764,764,1189,1189,1185,1185,1185,0,0,0,1193,1189,1189,1189,1193,1193,1193,1193,1193,1197,1197,1197,1197,1197,1197,1197,1197,1202,1202,1202,1202,1206,1206,1206,1210,1210,1210,1210,1210,1210,1214,1214,1214,1214,1219,1219,1219,1223,1223,1227,1227,1227,1227,1227,1227,1227,1227,1227,1227,1232,1232,1232,1236,1236,1236,1241,1241,1236,1236,1236,1236,1458,1445,1445,1445,1445,1445,1445,1445,1445,1445,1445,1445,1445,1439,1439,1445,1445,1445,1445,1445,1452,1445,1445,1439,1439,1439,1439,1439,1433,1433,1433,1433,1433,1427,1427,1427,1415,1415,946,938,938,938,935,935,933,930,928,925,923,923,923,923,923,925,925,928,928,928,928,928,930,930,933,933,935,935,938,938,938,938,938,0,0,0,1439,1439,1433,1433,1433,1433,1433,1433,1433,1433,1433,1427,1427,1427,1427,1427,1427,1427,1427,1427,1427,1427,1427,1427,1427,1427,1427,1427,1427,1427,1427,1427,1427,1427,1427,1427,1427,1427,1427,1427,1427,1427,1427,1433,1433,1433,1433,1433,1433,1427,1421,1421,1421,1421,1421,1421,1421,1421,1421,1421,1421,1415,1415,1421,1421,1421,1421,1415,1415,1415,1415,1415,1415,1415,1415,1415,1415,1415,1415,1415,1415,1415,1415,1415,1415,1415,1410,1410,1415,1415,1415,1415,1415,1415,1415,1410,1410,1410,1404,1404,1404,1398,1398,1398,1398,1392,1392,1387,1387,1381,1381,1376,1376,1370,1370,1365,1365,1354,1354,1349,1349,1349,1338,1338,1338,1333,1333,1333,1328,1328,1322,1317,1317,1312,1312,1307,1307,1302,1297,1297,1292,1292,1288,1283,1278,1273,1273,1273,1268,1268,1268,1268,1264,1264,1259,1255,1255,1250,1245,1241,1241,1236,1232,1232,1232,1227,1227,1223,1223,1219,1214,1214,1214,1210,1206,1202,1202,1202,1202,1197,1197,1193,1189,1189,1185,1185,1185,1181,1177,1177,1173,1169,1169,1169,1165,1165,1161,1161,1157,1153,1149,1149,1145,1145,1141,1141,1138,1138,1138,1134,1134,1134,1130,1123,1123,1119,1119,1115,1112,1112,1108,1108,1105,1105,1105,1105,1101,1097,1094,1094,1094,1090,1090,1090,1087,1084,1080,1080,1080,1077,1077,1073,1070,1067,1063,1063,1063,1060,1060,1057,1054,1054,1054,1050,1050,1050,0,0,0,0,0,0,0,0,0,0,0,0,0,0,0,0,0,0,0,0,0,0,0,0,0,0,0,0,0,0,0,0,0
0,0,0,0,0,0,0,0,0,1483,1483,1483,1477,1477,1477,1477,1477,1483,1483,1483,1483,1483,1483,1483,1483,1477,1477,1477,1477,1477,1477,1477,1477,1477,1477,1477,1477,1477,1477,1477,1477,1477,1477,1477,1477,1477,1483,1483,1483,1483,1483,1483,1477,1477,1477,1470,1470,1470,1470,1470,1470,1470,1470,1470,1470,1470,1470,1470,1470,1483,1483,0,1022,1022,1022,1025,1025,661,661,661,659,659,659,659,659,659,659,661,661,662,662,663,664,664,666,666,667,668,670,672,674,675,675,675,675,676,676,678,679,680,680,680,682,682,683,683,686,687,688,690,691,691,693,693,696,696,697,697,698,700,703,703,704,704,706,706,707,707,708,708,710,710,711,713,714,714,714,716,716,717,717,719,720,720,722,723,725,727,727,727,728,730,730,731,733,736,736,738,738,738,739,739,741,741,742,744,746,746,747,747,747,747,747,749,749,752,754,754,755,757,757,757,759,761,761,761,761,761,1181,767,767,767,767,766,764,764,764,764,1185,1185,1185,1185,0,1185,1185,1185,1189,1189,1189,1189,1193,1193,1193,1193,1193,1193,1193,1197,1197,1197,1197,1197,1197,1197,1197,1202,1202,1202,1206,1206,1210,1210,1210,1210,1210,1214,1214,1214,1214,1214,1219,1219,1219,1223,1223,1227,1227,1227,1227,1227,1227,1227,1227,1227,1232,1232,1232,1232,1236,1236,1236,1241,1241,1236,1236,1236,1236,1445,1445,1445,1445,1439,1439,1439,1439,1439,1439,1439,1439,1439,1433,1433,1439,1439,1439,1439,1439,1439,1439,1439,1439,1433,1433,1433,1433,1433,1433,1433,1433,1427,1427,1427,1415,1415,1415,946,940,938,938,938,935,935,933,928,928,925,925,925,925,925,925,928,928,928,928,928,930,930,933,933,935,935,938,938,938,938,938,940,0,0,0,1439,1427,1427,1427,1427,1427,1421,1421,1421,1427,1427,1421,1421,1421,1421,1421,1421,1421,1421,1421,1421,1421,1421,1421,1421,1421,1421,1421,1421,1421,1421,1421,1421,1421,1421,1421,1421,1421,1421,1421,1421,1421,1421,1427,1421,1421,1421,1421,1421,1415,1415,1415,1415,1415,1415,1415,1415,1415,1415,1415,1415,1415,1415,1415,1415,1415,1415,1415,1415,1415,1415,1415,1415,1410,1410,1415,1415,1410,1410,1410,1410,1410,1410,1410,1410,1410,1404,1404,1410,1410,1410,1410,1410,1410,1410,1404,1404,1404,1404,1404,1398,1398,1398,1392,1392,1392,1392,1387,1387,1381,1381,1381,1376,1376,1370,1370,1359,1354,1354,1354,1349,1349,1338,1338,1338,1333,1333,1333,1328,1328,1322,1322,1317,1312,1312,1307,1307,1302,1302,1297,1292,1292,1288,1288,1278,1273,1273,1273,1268,1268,1268,1268,1264,1264,1259,1255,1255,1250,1245,1241,1241,1236,1236,1232,1232,1232,1227,1223,1223,1223,1214,1214,1214,1210,1206,1202,1202,1202,1202,1197,1197,1193,1189,1189,1185,1185,1185,1181,1181,1177,1177,1173,1169,1169,1169,1165,1161,1161,1161,1153,1149,1149,1149,1145,1141,1141,1138,1138,1138,1134,1134,1134,1130,1130,1123,1123,1119,1119,1115,1112,1108,1108,1108,1105,1105,1105,1101,1097,1094,1094,1094,1090,1090,1090,1087,1087,1084,1080,1080,1080,1077,1073,1073,1070,1067,1063,1063,1063,1060,1057,1054,1054,1054,1050,1050,1050,0,0,0,0,0,0,0,0,0,0,0,0,0,0,0,0,0,0,0,0,0,0,0,0,0,0,0,0,0,0,0,0,0
0,0,0,0,0,0,0,0,0,1477,1477,1477,1470,1470,1470,1470,1470,1477,1477,1477,1477,1477,1477,1477,1477,1477,1470,1470,1470,1470,1470,1470,1470,1470,1477,1477,1477,1477,1477,1470,1470,1470,1470,1470,1470,1470,1477,1477,1477,1477,1477,1477,1470,1470,1470,1470,1464,1464,1464,1464,1464,1464,1464,1464,1464,1464,1464,1464,1464,1470,1470,1022,1022,1022,1022,1025,1025,1025,661,661,661,659,659,659,659,659,659,661,661,662,663,664,664,666,666,667,668,671,672,674,675,675,675,675,676,676,678,679,680,680,680,682,682,683,684,684,687,688,688,690,691,691,693,693,696,696,697,697,698,700,703,703,704,704,706,706,707,708,708,708,710,710,711,713,714,714,714,716,717,717,719,719,720,722,723,725,725,727,727,727,730,730,730,731,734,736,738,738,739,739,739,739,741,741,742,744,746,746,747,747,747,747,749,750,750,752,754,754,755,757,757,759,761,761,761,761,761,0,0,1181,1181,1202,1202,766,766,766,766,1185,1185,1185,1185,1181,1181,1181,1181,1185,1185,1189,1189,1189,1189,1193,1193,1193,1193,1193,1193,1193,1197,1197,1197,1197,1197,1197,1197,1197,1202,1202,1202,1206,1210,1210,1210,1210,1210,1214,1214,1214,1214,1219,1219,1219,1219,1223,1227,1227,1227,1227,1227,1227,1227,1227,1227,1227,1232,1232,1232,1236,1236,1236,1241,1241,1241,1241,1241,1236,1236,1439,1439,1439,1439,1439,1439,1439,1433,1433,1433,1433,1433,1433,1433,1433,1433,1433,1433,1433,1439,1439,1433,1433,1433,1433,1427,1427,1427,1427,1427,1427,1427,1427,1427,1415,1415,1410,1410,946,943,940,938,938,935,935,933,930,928,925,925,925,925,925,925,928,928,928,928,928,930,933,933,935,935,938,938,938,938,938,940,940,0,0,0,1427,1427,1421,1421,1421,1421,1415,1415,1421,1421,1421,1421,1421,1421,1421,1421,1421,1421,1421,1421,1421,1421,1421,1421,1421,1421,1421,1421,1421,1421,1421,1421,1421,1415,1415,1421,1415,1415,1421,1421,1421,1421,1421,1421,1415,1415,1410,1410,1415,1410,1410,1410,1410,1410,1415,1415,1410,1410,1410,1410,1410,1410,1410,1410,1410,1410,1410,1410,1410,1410,1410,1410,1410,1410,1410,1410,1410,1410,1404,1404,1404,1404,1404,1404,1404,1404,1398,1398,1404,1404,1404,1404,1398,1398,1404,1404,1404,1398,1398,1398,1398,1398,1398,1392,1392,1392,1387,1387,1387,1381,1381,1376,1376,1376,1370,1370,1359,1354,1354,1354,1349,1349,1338,1338,1338,1333,1333,1333,1333,1328,1322,1322,1317,1312,1312,1307,1307,1302,1302,1297,1297,1292,1288,1288,1283,1278,1273,1273,1268,1268,1268,1268,1264,1264,1259,1259,1255,1250,1245,1241,1241,1236,1236,1232,1232,1232,1232,1227,1227,1223,1219,1214,1214,1210,1206,1202,1202,1202,1202,1197,1197,1193,1193,1189,1185,1185,1185,1181,1181,1177,1177,1173,1169,1169,1169,1165,1161,1161,1161,1157,1153,1153,1149,1149,1145,1141,1141,1138,1138,1134,1134,1134,1130,1130,1123,1123,1119,1119,1115,1112,1112,1108,1108,1105,1105,1105,1101,1097,1094,1094,1094,1090,1090,1090,1087,1087,1084,1080,1080,1080,1077,1077,1073,1070,1070,1067,1063,1063,1063,1060,1057,1054,1054,1050,1050,1050,0,0,0,0,0,0,0,0,0,0,0,0,0,0,0,0,0,0,0,0,0,0,0,0,0,0,0,0,0,0,0,0,0
0,0,0,0,0,0,0,0,0,1470,1470,1470,1470,1470,1464,1464,1470,1470,1470,1470,1470,1470,1470,1477,1470,1470,1464,1464,1464,1464,1464,1464,1470,1470,1470,1470,1470,1470,1470,1464,1464,1464,1464,1464,1464,1464,1464,1464,1464,1470,1470,1470,1464,1464,1464,1464,1464,1458,1458,1458,1458,1458,1458,1458,1458,1458,1458,1458,1458,1464,1464,1022,1022,1022,1022,1025,1025,1025,1025,661,659,659,659,659,659,659,659,661,661,663,664,666,666,667,668,668,671,672,674,675,675,675,676,676,676,678,679,680,680,680,682,682,682,683,684,686,687,688,690,690,691,691,693,694,696,696,697,698,700,701,703,704,704,706,707,707,707,708,708,710,710,710,711,713,714,714,716,717,719,719,719,720,720,722,723,725,727,727,727,728,730,730,730,731,734,734,738,738,739,739,739,739,741,742,742,744,746,747,747,747,747,749,750,752,752,752,754,755,757,757,759,759,761,761,761,761,761,0,0,1181,1181,1181,1185,1185,1185,1185,1185,1185,1181,1181,1181,1181,1181,1181,1181,1181,1185,1185,1189,1189,1189,1189,1189,1189,1189,1189,1193,1193,1193,1193,1197,1197,1197,1197,1197,1197,1202,1202,1202,1206,1210,1210,1210,1214,1214,1214,1214,1214,1214,1219,1219,1223,1223,1223,1227,1227,1227,1227,1227,1232,1232,1232,1232,1232,1232,1232,1236,1236,1241,1241,1241,1241,1245,1241,1241,1241,1241,1439,1433,1433,1433,1433,1433,1433,1433,1427,1427,1427,1427,1427,1427,1427,1427,1427,1427,1427,1433,1433,1427,1427,1427,1427,1427,1427,1427,1427,1427,1421,1421,1421,1415,1415,1410,1410,1410,946,946,943,940,938,938,935,935,933,928,928,928,925,925,925,925,928,928,928,928,930,930,933,935,935,935,938,938,938,938,938,940,940,940,0,1421,1421,1421,1415,1415,1415,1415,1415,1415,1415,1415,1415,1415,1415,1415,1421,1421,1421,1421,1415,1415,1415,1415,1415,1415,1415,1415,1415,1415,1415,1415,1415,1415,1415,1415,1415,1415,1415,1415,1415,1415,1415,1415,1415,1415,1410,1410,1404,1404,1410,1404,1404,1404,1404,1404,1410,1404,1404,1404,1404,1404,1404,1404,1404,1404,1404,1404,1404,1404,1404,1404,1404,1404,1404,1404,1404,1404,1404,1404,1404,1404,1404,1398,1398,1398,1398,1398,1398,1398,1398,1398,1398,1398,1398,1398,1398,1398,1398,1392,1392,1392,1398,1398,1392,1392,1392,1392,1387,1387,1381,1381,1381,1376,1376,1376,1370,1370,1359,1359,1354,1354,1349,1349,1338,1338,1338,1333,1333,1333,1333,1328,1322,1322,1317,1312,1312,1307,1307,1302,1302,1297,1297,1292,1288,1288,1288,1283,1278,1273,1273,1268,1268,1268,1264,1264,1264,1259,1255,1250,1245,1241,1241,1241,1236,1236,1232,1232,1232,1227,1227,1223,1219,1214,1214,1214,1210,1206,1206,1202,1202,1197,1197,1197,1193,1189,1189,1185,1185,1181,1181,1177,1177,1173,1173,1169,1169,1165,1165,1161,1161,1157,1153,1153,1149,1149,1145,1141,1141,1138,1138,1134,1134,1134,1130,1130,1123,1123,1119,1119,1115,1115,1112,1108,1108,1108,1105,1105,1101,1101,1094,1094,1094,1090,1090,1090,1087,1087,1084,1080,1080,1080,1077,1077,1073,1070,1070,1067,1063,1063,1063,1060,1057,1054,1054,1054,1047,1047,0,0,0,0,0,0,0,0,0,0,0,0,0,0,0,0,0,0,0,0,0,0,0,0,0,0,0,0,0,0,0,0,0
0,0,0,0,0,0,0,0,0,1470,1470,1470,1464,1464,1464,1464,1464,1464,1464,1464,1464,1464,1464,1464,1464,1464,1464,1458,1458,1458,1458,1464,1464,1464,1464,1464,1464,1464,1464,1464,1458,1458,1458,1458,1458,1458,1458,1458,1464,1464,1464,1464,1458,1458,1458,1458,1458,1458,1458,1458,1452,1452,1452,1452,1452,1445,1445,1452,1458,1458,1025,1022,1022,1022,1022,1025,1025,1028,1028,661,659,659,659,659,659,659,659,661,662,664,664,666,667,668,670,671,672,672,674,675,675,675,676,676,676,679,679,680,680,680,682,682,683,683,686,687,687,688,690,690,693,693,694,696,696,697,697,700,701,703,703,704,704,706,707,707,708,708,708,710,710,710,711,713,714,716,716,717,719,720,720,720,722,722,725,727,727,728,728,728,730,730,730,731,734,734,736,738,739,739,739,739,741,742,744,746,746,747,747,747,747,749,750,752,752,752,754,757,757,759,759,761,761,761,761,761,761,1173,1173,1181,1181,1181,1181,1181,1181,1181,1181,1181,1181,1181,1181,1181,1181,1181,1181,1181,1185,1185,1189,1189,1189,1189,1189,1189,1189,1189,1189,1193,1193,1193,1197,1197,1197,1197,1197,1197,1202,1202,1202,1206,1210,1210,1210,1214,1214,1214,1214,1214,1219,1219,1223,1223,1223,1223,1227,1227,1227,1227,1232,1232,1232,1232,1232,1232,1236,1236,1236,1236,1241,1241,1241,1241,1245,1241,1241,1241,1241,1433,1433,1433,1433,1427,1427,1427,1427,1427,1427,1421,1421,1421,1421,1421,1421,1421,1421,1421,1421,1421,1421,1421,1421,1421,1421,1421,1421,1421,1421,1415,1415,1415,1410,1410,1410,1404,1404,946,946,943,940,940,938,938,935,933,930,928,928,928,928,928,928,928,928,928,930,930,933,935,935,935,938,938,938,938,938,938,940,940,0,0,0,1415,1415,1410,1410,1410,1410,1410,1410,1415,1415,1415,1415,1415,1415,1415,1415,1415,1415,1415,1415,1415,1415,1410,1410,1410,1410,1415,1410,1410,1415,1415,1415,1415,1415,1415,1415,1415,1410,1410,1410,1404,1404,1404,1404,1404,1404,1404,1404,1404,1404,1404,1404,1404,1404,1404,1404,1404,1404,1404,1404,1404,1404,1404,1404,1398,1398,1404,1398,1398,1398,1404,1398,1398,1398,1398,1398,1398,1398,1398,1398,1398,1398,1398,1398,1398,1392,1392,1392,1392,1392,1398,1392,1392,1392,1398,1392,1392,1392,1392,1392,1392,1392,1392,1392,1392,1387,1387,1381,1381,1381,1381,1376,1376,1376,1370,1370,1365,1359,1359,1354,1349,1349,1338,1338,1338,1338,1333,1333,1333,1328,1322,1322,1317,1312,1312,1307,1307,1302,1302,1302,1297,1292,1288,1288,1288,1283,1278,1273,1273,1268,1268,1268,1268,1264,1264,1259,1255,1250,1250,1245,1245,1241,1236,1236,1232,1232,1232,1227,1227,1223,1219,1214,1214,1214,1210,1206,1206,1202,1202,1197,1197,1197,1193,1189,1189,1185,1185,1181,1181,1177,1177,1173,1173,1169,1169,1165,1165,1161,1161,1157,1153,1153,1153,1153,1149,1145,1141,1138,1138,1138,1134,1134,1130,1130,1123,1123,1119,1119,1119,1115,1112,1112,1108,1108,1108,1105,1101,1101,1094,1094,1090,1090,1090,1090,1087,1087,1084,1080,1080,1080,1077,1077,1073,1070,1070,1067,1067,1063,1063,1060,1057,1054,1054,1054,1047,1047,0,0,0,0,0,0,0,0,0,0,0,0,0,0,0,0,0,0,0,0,0,0,0,0,0,0,0,0,0,0,0,0,0
0,0,0,0,0,0,0,0,0,1470,1470,1464,1464,1464,1464,1464,1464,1464,1464,1458,1458,1458,1458,1458,1458,1458,1452,1452,1452,1452,1458,1458,1458,1464,1464,1464,1464,1464,1458,1458,1458,1458,1458,1458,1458,1458,1458,1458,1458,1458,1458,1458,1458,1458,1458,1458,1458,1458,1458,1452,1452,1445,1445,1445,1445,1445,1445,1445,1445,1022,1022,1022,1022,1022,1022,1022,1025,1028,661,661,661,659,658,658,658,658,659,661,663,666,667,668,670,670,671,671,672,672,674,675,675,675,676,676,676,679,679,680,680,682,682,682,683,684,686,687,687,688,690,690,693,693,696,696,697,698,698,701,703,703,704,704,704,706,707,707,708,708,710,710,711,711,713,714,716,716,716,719,720,720,720,722,723,723,725,727,727,728,728,728,730,730,730,733,734,736,736,738,739,739,739,741,741,742,744,746,746,747,747,747,749,749,750,752,752,752,755,757,759,759,759,1157,1157,1161,1161,0,0,1173,1173,1173,1173,1177,1177,1177,1177,1181,1181,1181,1181,1181,1181,1181,1181,1181,1181,1181,1185,1185,1189,1189,1189,1189,1189,1189,1189,1189,1189,1193,1193,1193,1197,1197,1197,1197,1197,1197,1202,1202,1206,1210,1210,1210,1214,1214,1214,1214,1214,1214,1219,1219,1223,1223,1223,1227,1227,1227,1227,1232,1232,1232,1232,1232,1232,1236,1236,1236,1241,1241,1241,1241,1245,1245,1245,1245,1241,1241,1245,1433,1433,1433,1427,1421,1421,1421,1421,1421,1421,1415,1415,1415,1415,1415,1415,1415,1415,1415,1415,1415,1415,1415,1415,1415,1415,1415,1415,1415,1415,1415,1415,1410,1410,1410,1404,1404,1404,946,946,943,940,940,938,938,935,935,933,930,930,928,928,928,928,928,928,928,930,930,933,935,935,935,938,938,938,938,940,940,940,943,0,0,0,1415,1410,1404,1404,1404,1404,1404,1404,1410,1410,1410,1410,1410,1410,1410,1410,1410,1410,1410,1410,1410,1410,1410,1410,1404,1404,1404,1404,1404,1404,1404,1404,1410,1410,1410,1410,1410,1410,1404,1404,1398,1398,1398,1398,1398,1398,1398,1398,1398,1398,1398,1398,1398,1398,1398,1398,1398,1398,1398,1398,1398,1398,1398,1398,1398,1398,1398,1398,1398,1398,1398,1398,1398,1398,1398,1398,1398,1398,1398,1398,1398,1392,1392,1392,1392,1392,1392,1392,1392,1392,1392,1392,1392,1392,1392,1387,1387,1387,1387,1387,1387,1387,1387,1381,1381,1387,1381,1381,1381,1381,1381,1376,1376,1370,1370,1370,1365,1359,1359,1354,1349,1349,1343,1343,1343,1338,1333,1333,1333,1328,1322,1322,1317,1312,1312,1307,1307,1302,1302,1302,1297,1292,1288,1288,1288,1283,1278,1273,1273,1273,1268,1268,1268,1264,1264,1259,1255,1250,1250,1245,1245,1241,1236,1236,1236,1232,1232,1227,1227,1223,1219,1214,1214,1214,1210,1206,1206,1202,1202,1197,1197,1197,1193,1189,1189,1185,1185,1181,1181,1177,1173,1173,1173,1169,1169,1165,1165,1161,1161,1157,1153,1153,1153,1153,1149,1149,1145,1138,1138,1138,1134,1134,1130,1130,1126,1123,1123,1119,1119,1115,1115,1112,1112,1108,1108,1105,1101,1097,1094,1094,1090,1090,1090,1090,1087,1087,1084,1080,1080,1080,1077,1077,1073,1073,1070,1067,1067,1067,1063,1063,1060,1057,1054,1050,1047,1047,0,0,0,0,0,0,0,0,0,0,0,0,0,0,0,0,0,0,0,0,0,0,0,0,0,0,0,0,0,0,0,0,0
0,0,0,0,0,0,0,0,0,1464,1464,1464,1464,1464,1458,1458,1458,1458,1452,1452,1452,1445,1445,1452,1452,1452,1452,1452,1452,1452,1458,1458,1458,1458,1458,1458,1458,1458,1458,1452,1452,1452,1452,1458,1452,1452,1458,1458,1452,1452,1452,1452,1452,1452,1452,1452,1458,1458,1452,1452,1452,1445,1445,1445,1445,1445,1445,1439,1025,1022,1022,1022,1022,1022,1022,1022,1025,1028,661,661,661,659,658,658,658,658,659,661,664,668,670,670,670,671,671,672,672,674,675,675,675,675,676,676,679,679,680,680,680,682,682,683,683,684,686,687,687,688,690,690,691,694,696,696,697,698,700,701,703,703,704,704,704,706,707,708,708,710,710,711,711,713,714,714,716,716,717,719,720,720,722,722,723,725,725,727,728,728,728,730,730,731,731,734,734,736,738,739,739,739,741,741,742,742,744,746,746,747,747,747,749,749,752,752,752,752,1161,1165,1165,1161,1161,1157,1157,1161,1161,1161,1165,1169,1169,1169,1173,1173,1177,1177,1177,1177,1177,1177,1177,1177,1181,1181,1181,1181,1181,1181,1185,1185,1185,1189,1189,1189,1189,1189,1189,1189,1193,1193,1193,1193,1197,1197,1197,1197,1197,1202,1202,1206,1210,1210,1210,1210,1214,1214,1214,1214,1214,1219,1219,1219,1223,1223,1227,1227,1227,1227,1232,1232,1232,1236,1236,1236,1236,1236,1236,1236,1241,1241,1245,1245,1245,1245,1245,1245,1245,1245,1245,1421,1421,1421,1421,1415,1415,1415,1415,1415,1415,1415,1415,1415,1415,1415,1415,1415,1415,1410,1410,1410,1410,1410,1410,1410,1410,1410,1410,1410,1410,1410,1410,1410,1404,1404,1398,1398,946,946,946,946,943,940,940,938,938,935,935,933,930,930,928,928,928,928,930,930,930,933,935,935,935,938,938,938,938,940,940,940,943,943,943,0,1410,1410,1410,1404,1404,1404,1398,1398,1404,1404,1404,1404,1410,1404,1404,1404,1404,1404,1404,1404,1404,1404,1404,1404,1404,1398,1398,1398,1398,1398,1398,1398,1398,1404,1404,1404,1404,1404,1404,1398,1398,1398,1398,1398,1398,1398,1392,1392,1392,1392,1392,1392,1398,1398,1398,1398,1398,1398,1398,1398,1398,1398,1398,1398,1398,1392,1392,1398,1398,1392,1392,1392,1398,1392,1392,1392,1392,1392,1392,1392,1392,1392,1392,1392,1392,1387,1387,1387,1387,1387,1387,1387,1387,1387,1387,1387,1387,1387,1381,1381,1381,1381,1381,1381,1381,1381,1381,1376,1376,1376,1376,1376,1376,1376,1370,1370,1370,1365,1359,1359,1354,1349,1349,1343,1343,1343,1338,1333,1333,1333,1328,1322,1322,1317,1312,1312,1307,1307,1302,1302,1302,1297,1292,1288,1288,1288,1283,1278,1273,1273,1273,1268,1268,1268,1264,1264,1259,1255,1255,1250,1250,1245,1241,1241,1236,1236,1232,1232,1232,1227,1227,1223,1219,1214,1214,1214,1206,1206,1202,1202,1197,1197,1197,1193,1189,1185,1185,1185,1181,1181,1177,1173,1173,1173,1169,1169,1165,1165,1161,1161,1157,1153,1153,1153,1153,1149,1149,1145,1141,1141,1138,1134,1134,1130,1130,1126,1123,1123,1119,1119,1119,1115,1112,1112,1108,1108,1105,1101,1097,1094,1094,1094,1090,1090,1090,1087,1087,1084,1080,1080,1080,1077,1077,1073,1073,1070,1067,1067,1067,1063,1063,1060,1057,1054,1050,1047,1047,0,0,0,0,0,0,0,0,0,0,0,0,0,0,0,0,0,0,0,0,0,0,0,0,0,0,0,0,0,0,0,0,0
0,0,0,0,0,0,0,0,0,1464,1458,1458,1458,1458,1458,1452,1452,1452,1452,1452,1445,1445,1445,1452,1445,1445,1445,1445,1445,1445,1452,1452,1452,1452,1452,1452,1452,1452,1452,1452,1445,1445,1452,1452,1452,1452,1452,1452,1445,1445,1445,1445,1445,1445,1445,1452,1452,1452,1452,1445,1445,1445,1439,1439,1439,1439,1439,1025,1025,1022,1022,1022,1022,1022,1022,1022,1025,1028,661,661,661,659,655,654,654,659,1031,670,670,670,671,671,671,671,672,674,674,675,675,675,676,676,676,678,679,680,680,682,682,682,682,683,684,686,686,687,687,688,690,691,691,694,696,696,697,698,701,703,703,704,704,704,704,706,707,708,708,710,711,711,711,713,714,716,716,717,717,720,720,720,722,723,725,725,727,727,728,728,728,730,730,731,731,734,736,736,736,738,739,739,741,741,742,742,744,746,747,747,747,747,1157,1157,1157,1157,1165,1161,1161,1165,1165,1161,1161,1157,1157,1161,1161,1161,1165,1165,1165,1169,1169,1169,1173,1173,1173,1173,1173,1177,1177,1177,1177,1177,1177,1181,1181,1181,1181,1185,1185,1185,1185,1189,1189,1189,1189,1189,1193,1193,1193,1193,1197,1197,1197,1197,1197,1202,1206,1206,1210,1210,1210,1210,1214,1214,1214,1214,1214,1219,1219,1223,1227,1227,1227,1227,1227,1227,1232,1232,1236,1236,1236,1236,1236,1236,1236,1236,1241,1241,1245,1245,1245,1245,1245,1245,1245,1245,1245,1415,1415,1415,1415,1415,1410,1410,1415,1415,1415,1410,1410,1410,1410,1410,1410,1410,1410,1410,1410,1410,1410,1404,1404,1410,1410,1410,1410,1410,1410,1404,1404,1404,1404,1398,1398,1392,946,946,946,946,943,943,940,940,938,938,935,933,930,930,928,928,928,930,930,930,933,935,935,938,938,938,938,938,940,940,940,943,943,946,946,0,0,1404,1404,1398,1398,1398,1398,1398,1398,1398,1398,1398,1404,1398,1398,1398,1398,1398,1398,1398,1398,1398,1398,1398,1398,1398,1398,1398,1398,1392,1392,1398,1398,1398,1398,1398,1398,1398,1398,1398,1392,1392,1392,1392,1392,1392,1392,1392,1392,1392,1392,1392,1392,1392,1392,1392,1392,1392,1392,1392,1392,1392,1392,1392,1392,1392,1392,1392,1392,1392,1387,1387,1392,1392,1392,1392,1387,1387,1387,1387,1387,1387,1387,1387,1387,1387,1381,1381,1381,1381,1381,1381,1381,1381,1387,1381,1381,1381,1376,1376,1376,1376,1376,1381,1376,1376,1376,1376,1376,1376,1370,1370,1370,1370,1370,1370,1365,1359,1359,1359,1354,1354,1349,1349,1343,1343,1338,1333,1333,1333,1328,1328,1322,1322,1312,1312,1307,1307,1302,1302,1302,1297,1292,1292,1288,1288,1288,1283,1278,1273,1273,1268,1268,1268,1268,1264,1259,1255,1255,1250,1250,1245,1245,1241,1236,1236,1232,1232,1232,1227,1227,1223,1219,1214,1214,1214,1210,1206,1202,1202,1197,1197,1197,1193,1189,1185,1185,1185,1181,1177,1177,1173,1173,1173,1169,1169,1165,1165,1161,1161,1157,1157,1153,1153,1153,1153,1149,1149,1141,1141,1138,1138,1134,1134,1130,1130,1123,1123,1123,1119,1119,1115,1115,1112,1108,1108,1105,1105,1101,1097,1094,1094,1094,1090,1090,1090,1087,1084,1080,1080,1080,1077,1077,1073,1073,1070,1067,1067,1067,1063,1063,1060,1057,1054,1054,1047,1047,0,0,0,0,0,0,0,0,0,0,0,0,0,0,0,0,0,0,0,0,0,0,0,0,0,0,0,0,0,0,0,0,0
0,0,0,0,0,0,0,0,0,1458,1458,1458,1452,1452,1452,1445,1445,1445,1445,1445,1445,1445,1445,1445,1445,1445,1445,1439,1439,1445,1445,1439,1439,1445,1445,1445,1445,1445,1445,1445,1439,1439,1445,1445,1445,1445,1445,1445,1445,1445,1439,1439,1445,1445,1445,1445,1445,1445,1445,1445,1439,1439,1439,1439,1439,1439,1439,1025,1025,1025,1022,1022,1022,1022,1022,1022,1025,1028,659,659,659,658,655,654,654,1031,1031,671,671,671,671,671,671,672,672,674,674,675,675,676,676,676,678,679,680,680,680,682,682,682,683,683,684,686,687,687,688,688,690,691,693,694,696,696,697,698,701,703,704,704,704,704,704,706,707,708,710,710,711,713,713,714,714,717,717,717,719,720,722,722,722,723,725,725,727,727,728,728,728,730,730,731,733,734,736,736,736,738,739,739,741,741,742,742,744,744,744,1153,1153,1161,1161,1157,1157,1157,1161,1161,1165,1161,1161,1161,1161,1161,1161,1161,1161,1161,1165,1165,1165,1169,1169,1169,1169,1169,1169,1173,1173,1173,1173,1177,1177,1177,1177,1177,1181,1181,1181,1181,1185,1185,1185,1189,1189,1189,1189,1189,1193,1193,1193,1197,1197,1197,1197,1197,1197,1202,1206,1206,1210,1210,1210,1214,1214,1214,1214,1214,1214,1219,1219,1223,1227,1227,1227,1227,1227,1232,1232,1232,1236,1236,1236,1236,1236,1241,1236,1236,1241,1241,1245,1245,1245,1245,1245,1245,1245,1245,1245,1250,1415,1410,1410,1410,1410,1410,1404,1404,1404,1410,1410,1410,1410,1410,1410,1410,1410,1404,1404,1404,1404,1398,1398,1404,1398,1398,1404,1404,1404,1404,1398,1398,1398,1392,1392,1392,946,946,946,946,943,943,943,940,940,938,938,935,935,930,930,928,928,930,933,933,933,935,935,938,938,938,938,940,940,943,943,943,946,946,0,0,0,0,1404,1398,1398,1398,1398,1398,1398,1398,1398,1398,1398,1398,1398,1398,1398,1392,1392,1392,1392,1392,1398,1398,1398,1392,1392,1392,1392,1392,1392,1392,1392,1392,1392,1392,1392,1392,1392,1392,1392,1392,1392,1387,1387,1392,1387,1387,1387,1387,1387,1387,1387,1387,1387,1387,1387,1387,1392,1392,1392,1392,1392,1392,1387,1387,1387,1387,1387,1387,1387,1387,1387,1387,1387,1387,1381,1381,1381,1381,1381,1381,1381,1381,1381,1381,1376,1376,1376,1376,1376,1376,1376,1376,1381,1376,1376,1376,1376,1376,1376,1376,1376,1376,1376,1376,1376,1376,1370,1370,1370,1370,1370,1370,1365,1365,1365,1359,1359,1359,1354,1354,1349,1349,1349,1343,1343,1333,1333,1333,1328,1328,1328,1322,1317,1312,1307,1307,1307,1302,1302,1297,1292,1292,1288,1288,1288,1283,1278,1278,1273,1273,1268,1268,1268,1264,1259,1255,1255,1250,1250,1250,1245,1241,1236,1236,1232,1232,1232,1227,1227,1223,1219,1219,1214,1214,1210,1206,1206,1202,1197,1197,1197,1193,1193,1185,1185,1185,1181,1177,1177,1173,1173,1173,1169,1169,1165,1165,1165,1161,1157,1157,1157,1157,1153,1153,1149,1149,1145,1141,1138,1138,1134,1134,1130,1130,1123,1123,1123,1119,1119,1119,1115,1112,1108,1108,1105,1105,1105,1101,1097,1094,1094,1090,1090,1087,1087,1084,1080,1080,1080,1077,1077,1073,1073,1070,1070,1067,1067,1063,1063,1060,1060,1054,1054,1050,1050,0,0,0,0,0,0,0,0,0,0,0,0,0,0,0,0,0,0,0,0,0,0,0,0,0,0,0,0,0,0,0,0,0
0,0,0,0,0,0,0,0,0,1439,1439,1439,1445,1445,1445,1445,1445,1439,1439,1439,1439,1439,1439,1439,1439,1439,1439,1439,1439,1439,1439,1439,1439,1439,1439,1439,1439,1439,1439,1439,1433,1433,1433,1433,1439,1439,1439,1439,1439,1439,1439,1439,1439,1439,1439,1439,1439,1445,1445,1439,1439,1439,1433,1433,1433,1433,1433,1025,1025,1022,1022,1022,1022,1022,1025,1025,1025,1028,659,659,659,658,658,1031,1031,1031,1034,1034,1034,672,671,671,671,672,672,674,674,675,675,676,676,678,679,680,680,680,682,682,682,682,683,684,686,686,687,687,688,688,690,691,694,694,696,696,697,698,701,703,704,704,704,704,706,707,708,710,710,711,713,713,713,714,716,717,717,719,720,720,722,722,722,723,725,725,727,727,728,728,728,730,730,731,733,734,736,736,736,738,739,739,741,741,742,742,742,1153,1153,1153,1153,1153,1157,1157,1157,1157,1161,1161,1161,1161,1161,1161,1161,1161,1161,1161,1161,1161,1165,1165,1165,1165,1165,1169,1169,1169,1169,1173,1173,1173,1173,1177,1177,1177,1177,1177,1181,1181,1181,1181,1185,1185,1185,1189,1189,1189,1189,1193,1193,1193,1197,1197,1197,1197,1197,1197,1202,1202,1206,1210,1210,1210,1210,1210,1210,1210,1214,1214,1214,1219,1219,1223,1227,1227,1227,1227,1227,1398,1236,1236,1392,1241,1241,1241,1241,1241,1241,1241,1241,1241,1245,1245,1245,1245,1245,1245,1245,1245,1250,1250,1255,1404,1404,1404,1404,1404,1398,1398,1398,1398,1398,1404,1404,1404,1404,1404,1404,1398,1398,1398,1398,1398,1398,1398,1398,1398,1398,1398,1398,1398,1398,1392,1392,1392,1392,1387,1387,943,943,946,943,943,943,943,940,938,938,935,935,933,930,930,930,933,933,933,935,935,938,938,938,938,938,940,943,943,943,943,946,946,946,948,0,1398,1398,1398,1398,1398,1392,1392,1392,1392,1392,1392,1392,1392,1392,1392,1392,1392,1392,1392,1392,1392,1392,1392,1392,1392,1392,1387,1387,1387,1387,1387,1387,1392,1392,1392,1392,1392,1387,1387,1387,1387,1387,1387,1387,1381,1381,1381,1381,1381,1381,1381,1381,1381,1387,1381,1381,1381,1376,1376,1376,1387,1387,1387,1381,1381,1381,1381,1381,1381,1381,1381,1381,1381,1381,1381,1381,1381,1381,1381,1381,1376,1376,1376,1376,1376,1376,1376,1376,1376,1376,1376,1376,1376,1376,1370,1370,1370,1370,1370,1370,1370,1370,1370,1370,1370,1370,1370,1370,1370,1370,1370,1365,1365,1359,1359,1354,1354,1359,1359,1354,1354,1349,1349,1349,1343,1343,1333,1333,1333,1328,1328,1328,1322,1317,1312,1307,1307,1307,1302,1302,1297,1292,1292,1292,1288,1288,1283,1278,1278,1273,1273,1268,1268,1268,1264,1259,1255,1255,1255,1250,1250,1245,1245,1241,1236,1236,1232,1232,1227,1223,1219,1219,1219,1214,1214,1210,1210,1206,1202,1202,1197,1197,1197,1193,1185,1185,1185,1185,1181,1181,1173,1173,1173,1169,1169,1165,1165,1165,1161,1157,1157,1157,1153,1153,1153,1149,1149,1141,1141,1138,1138,1134,1134,1134,1130,1126,1123,1123,1119,1119,1115,1115,1112,1112,1108,1108,1105,1105,1101,1097,1094,1094,1090,1090,1087,1087,1084,1080,1080,1080,1077,1077,1073,1073,1070,1070,1067,1067,1063,1063,1060,1060,1057,1054,1050,1050,0,0,0,0,0,0,0,0,0,0,0,0,0,0,0,0,0,0,0,0,0,0,0,0,0,0,0,0,0,0,0,0,0
0,0,0,0,0,0,0,0,0,1433,1433,1433,1433,1433,1439,1433,1433,1439,1439,1439,1439,1439,1439,1439,1439,1439,1439,1439,1439,1439,1439,1439,1439,1439,1433,1433,1433,1433,1433,1433,1433,1433,1427,1427,1433,1433,1433,1433,1433,1433,1433,1433,1433,1433,1433,1439,1439,1439,1439,1433,1433,1433,1433,1427,1427,1427,1427,1025,1025,1022,1022,1022,1022,1022,1025,1025,1025,1028,1028,1028,1028,1031,1031,1031,1031,1031,1034,1034,1034,672,672,672,672,672,672,674,674,675,676,676,678,679,679,680,680,680,682,682,682,683,684,684,686,686,687,687,688,688,691,691,694,694,696,696,697,700,701,703,704,704,706,706,706,707,710,710,711,713,714,714,714,714,716,717,717,719,720,722,722,722,722,723,725,725,727,727,728,728,730,730,730,731,733,734,736,736,736,738,739,739,741,741,741,741,1153,1153,1153,1153,1153,1153,1153,1157,1161,1161,1161,1161,1161,1161,1161,1161,1161,1157,1157,1161,1161,1161,1161,1165,1165,1165,1165,1165,1165,1165,1169,1169,1173,1173,1173,1177,1177,1177,1177,1181,1181,1181,1181,1181,1185,1185,1185,1189,1189,1189,1193,1193,1193,1193,1197,1197,1197,1197,1197,1202,1202,1206,1206,1210,1210,1210,1210,1210,1210,1210,1214,1214,1404,1404,1404,1227,1227,1232,1392,1398,1398,1398,1398,1398,1392,1392,1241,1241,1241,1241,1241,1241,1241,1245,1245,1245,1245,1245,1245,1245,1250,1250,1250,1250,1255,1398,1398,1398,1398,1398,1392,1392,1398,1398,1398,1398,1398,1398,1398,1398,1398,1392,1392,1392,1392,1392,1392,1392,1392,1392,1392,1398,1398,1392,1392,1392,1392,1392,1387,1387,1387,943,943,946,946,946,946,943,940,940,938,938,935,933,933,930,930,933,933,933,935,935,938,938,938,940,940,943,943,943,943,946,946,948,948,948,0,1398,1398,1392,1392,1392,1387,1387,1387,1387,1387,1387,1387,1387,1387,1387,1387,1387,1387,1387,1387,1387,1387,1387,1387,1387,1387,1381,1381,1381,1381,1387,1387,1387,1387,1387,1387,1387,1387,1381,1381,1381,1381,1381,1381,1376,1376,1376,1376,1376,1376,1376,1376,1376,1376,1376,1376,1376,1376,1376,1376,1376,1376,1376,1376,1376,1376,1376,1376,1376,1376,1376,1376,1376,1376,1376,1376,1376,1376,1376,1376,1376,1376,1370,1370,1370,1370,1370,1370,1370,1370,1370,1370,1370,1370,1370,1370,1370,1370,1370,1370,1370,1370,1370,1370,1370,1370,1370,1370,1370,1370,1365,1359,1359,1359,1354,1354,1354,1354,1354,1354,1354,1349,1349,1349,1343,1343,1333,1333,1333,1328,1328,1328,1328,1322,1312,1312,1307,1307,1302,1302,1297,1292,1292,1292,1288,1288,1283,1278,1278,1278,1273,1273,1268,1268,1264,1259,1255,1255,1250,1250,1250,1245,1245,1241,1236,1236,1232,1232,1227,1223,1219,1219,1219,1219,1214,1214,1210,1206,1202,1202,1197,1197,1197,1197,1185,1185,1185,1181,1181,1181,1173,1173,1173,1169,1169,1169,1165,1165,1161,1157,1157,1153,1153,1153,1153,1149,1149,1141,1141,1138,1138,1134,1134,1134,1130,1130,1123,1123,1123,1123,1115,1115,1112,1112,1108,1108,1105,1105,1101,1097,1097,1094,1094,1090,1090,1087,1084,1084,1080,1080,1077,1077,1073,1073,1070,1070,1067,1067,1063,1063,1060,1060,1057,1054,1050,1050,0,0,0,0,0,0,0,0,0,0,0,0,0,0,0,0,0,0,0,0,0,0,0,0,0,0,0,0,0,0,0,0,0
0,0,0,0,0,0,0,0,0,1433,1433,1433,1433,1433,1433,1427,1427,1427,1433,1433,1433,1433,1433,1433,1433,1433,1433,1433,1433,1439,1433,1433,1433,1433,1433,1433,1427,1427,1433,1421,1421,1421,1427,1427,1421,1421,1427,1427,1433,1433,1427,1427,1427,1433,1433,1427,1427,1427,1427,1427,1427,1427,1427,1421,1421,1421,1421,1025,1025,1022,1022,1022,1025,1025,1025,1025,1025,1028,1028,1028,1028,1031,1031,1034,1034,1034,1034,1038,1038,672,672,672,672,672,674,674,674,675,676,678,679,679,680,680,680,682,682,682,682,683,684,686,686,687,687,688,688,688,691,691,694,696,696,697,697,700,701,703,704,704,706,706,706,708,710,711,711,713,714,714,714,714,716,717,717,719,720,720,722,722,723,723,725,727,727,727,728,728,730,730,730,733,734,734,736,738,738,738,739,739,739,1149,1149,1149,1153,1153,1153,1153,1153,1153,1153,1157,1157,1157,1157,1157,1157,1161,1161,1157,1157,1157,1157,1161,1161,1161,1161,1165,1165,1165,1165,1165,1165,1165,1169,1169,1173,1173,1173,1177,1177,1177,1181,1181,1181,1181,1181,1185,1189,1189,1189,1193,1193,1193,1193,1193,1193,1197,1197,1197,1197,1202,1202,1202,1206,1206,1210,1210,1210,1210,1210,1210,1210,1210,1404,1404,1404,1398,1398,1392,1392,1392,1392,1392,1392,1392,1392,1392,1392,1392,1241,1241,1241,1241,1241,1245,1245,1245,1245,1245,1245,1250,1250,1250,1250,1250,1250,1250,1255,1398,1398,1398,1392,1392,1392,1392,1392,1392,1392,1392,1392,1392,1392,1392,1392,1387,1387,1392,1392,1392,1392,1392,1392,1392,1392,1392,1392,1392,1392,1392,1392,1387,1387,1387,1387,1392,948,946,946,946,946,943,943,940,938,938,935,933,933,930,930,933,933,933,935,935,938,938,938,940,940,943,946,946,946,946,948,948,948,948,0,1398,1398,1392,1381,1381,1376,1376,1381,1381,1381,1381,1381,1381,1381,1381,1381,1381,1381,1381,1381,1381,1387,1387,1381,1381,1381,1381,1381,1381,1381,1381,1381,1381,1381,1381,1381,1381,1381,1376,1376,1376,1376,1376,1376,1376,1376,1376,1376,1376,1376,1376,1376,1376,1376,1376,1376,1370,1370,1370,1370,1370,1370,1370,1370,1370,1370,1376,1376,1376,1376,1376,1376,1376,1376,1376,1376,1376,1370,1370,1370,1370,1370,1370,1370,1370,1370,1370,1370,1370,1370,1370,1370,1370,1370,1370,1370,1370,1370,1365,1365,1365,1365,1365,1365,1365,1365,1365,1365,1365,1365,1359,1354,1354,1354,1354,1354,1354,1354,1354,1354,1354,1349,1349,1349,1343,1343,1333,1333,1333,1328,1328,1328,1328,1322,1312,1312,1307,1307,1302,1302,1302,1292,1292,1292,1288,1288,1283,1283,1278,1278,1273,1273,1268,1268,1264,1259,1255,1255,1250,1250,1250,1245,1245,1241,1241,1236,1232,1232,1227,1227,1219,1219,1219,1219,1214,1214,1210,1206,1202,1202,1197,1197,1197,1197,1185,1185,1185,1181,1181,1177,1173,1173,1173,1169,1169,1169,1165,1165,1161,1157,1157,1153,1153,1153,1153,1149,1149,1145,1141,1138,1138,1138,1134,1134,1130,1130,1126,1123,1123,1119,1119,1115,1112,1112,1108,1108,1105,1105,1101,1101,1097,1094,1094,1090,1090,1087,1084,1084,1080,1080,1077,1077,1073,1073,1070,1067,1067,1067,1063,1063,1063,1060,1057,1054,1050,1050,0,0,0,0,0,0,0,0,0,0,0,0,0,0,0,0,0,0,0,0,0,0,0,0,0,0,0,0,0,0,0,0,0
0,0,0,0,0,0,0,0,0,1427,1427,1427,1433,1433,1433,1427,1427,1427,1427,1427,1427,1427,1427,1427,1427,1433,1433,1433,1433,1433,1433,1433,1433,1433,1427,1427,1427,1427,1427,1421,1421,1421,1421,1421,1421,1421,1421,1421,1427,1427,1427,1427,1427,1427,1427,1427,1427,1421,1421,1421,1421,1421,1421,1415,1415,1415,1415,1415,1022,1022,1022,1022,1025,1025,1025,1025,1025,1028,1031,1031,1031,1031,1031,1034,1034,1034,1038,1038,672,672,672,672,672,672,674,674,675,676,676,679,680,680,680,680,682,682,682,682,683,684,684,686,686,687,687,688,688,690,691,693,694,696,696,697,700,701,703,704,704,706,707,707,708,710,710,710,713,713,714,714,714,714,716,717,717,719,720,720,722,722,723,723,725,727,727,727,728,730,730,730,731,734,734,734,736,738,738,738,738,1149,1149,1149,1149,1149,1149,1149,1149,1153,1153,1153,1153,1153,1153,1157,1157,1157,1157,1157,1157,1157,1157,1157,1157,1161,1161,1161,1161,1165,1165,1165,1165,1165,1165,1165,1165,1169,1169,1173,1173,1177,1177,1177,1181,1181,1181,1181,1185,1185,1189,1189,1189,1193,1193,1193,1193,1197,1197,1197,1197,1197,1197,1202,1202,1202,1206,1206,1210,1210,1210,1210,1210,1210,1210,1398,1398,1398,1398,1398,1398,1392,1392,1392,1392,1392,1392,1392,1392,1387,1387,1387,1245,1241,1241,1241,1245,1245,1245,1245,1245,1245,1245,1250,1250,1250,1250,1250,1255,1255,1255,1392,1392,1392,1392,1392,1392,1392,1392,1387,1387,1387,1387,1387,1387,1387,1387,1387,1387,1387,1387,1387,1387,1387,1387,1387,1387,1387,1387,1387,1387,1387,1387,1387,1387,1387,1387,1387,948,948,948,946,946,946,943,943,938,938,935,933,933,933,933,933,935,935,935,935,938,938,940,940,943,946,946,946,946,946,948,948,948,948,0,1381,1381,1381,1381,1376,1376,1376,1376,1376,1370,1370,1376,1376,1376,1376,1376,1381,1381,1381,1381,1381,1381,1381,1376,1376,1381,1376,1376,1376,1376,1376,1381,1381,1376,1376,1376,1376,1376,1376,1376,1376,1376,1376,1376,1370,1370,1370,1370,1370,1370,1370,1370,1370,1376,1370,1370,1370,1370,1370,1370,1370,1370,1370,1370,1370,1370,1370,1370,1370,1370,1370,1370,1370,1370,1370,1370,1370,1370,1370,1370,1370,1370,1370,1365,1365,1365,1365,1365,1365,1365,1365,1365,1365,1365,1365,1365,1365,1365,1365,1365,1359,1359,1359,1359,1359,1359,1359,1359,1359,1359,1354,1354,1354,1354,1354,1354,1354,1354,1354,1354,1349,1349,1349,1343,1343,1343,1338,1333,1333,1333,1328,1328,1328,1322,1312,1312,1307,1307,1302,1302,1302,1292,1292,1292,1288,1288,1288,1283,1278,1278,1273,1273,1268,1268,1268,1259,1255,1255,1255,1250,1250,1250,1245,1241,1241,1236,1236,1232,1227,1223,1219,1219,1219,1219,1214,1214,1214,1210,1206,1202,1202,1197,1197,1193,1185,1185,1185,1185,1181,1177,1173,1173,1173,1169,1169,1169,1165,1165,1161,1161,1157,1157,1153,1153,1153,1149,1149,1145,1141,1138,1138,1138,1134,1134,1134,1130,1126,1123,1123,1119,1119,1115,1112,1112,1108,1108,1105,1105,1101,1101,1097,1094,1094,1090,1090,1087,1084,1084,1080,1080,1077,1077,1077,1073,1070,1067,1067,1067,1067,1063,1063,1060,1057,1057,1054,1054,0,0,0,0,0,0,0,0,0,0,0,0,0,0,0,0,0,0,0,0,0,0,0,0,0,0,0,0,0,0,0,0,0
0,0,0,0,0,0,0,0,0,1427,1427,1427,1433,1433,1427,1421,1421,1421,1421,1421,1421,1421,1421,1421,1421,1421,1421,1421,1421,1433,1427,1427,1427,1427,1421,1421,1421,1421,1421,1415,1415,1415,1415,1415,1415,1415,1415,1415,1421,1421,1421,1421,1421,1421,1421,1421,1421,1421,1421,1421,1421,1415,1415,1415,1415,1410,1410,1410,1022,1022,1022,1022,1025,1025,1025,1025,1028,1028,1031,1031,1031,1031,1031,1034,1034,1034,1038,1038,672,672,672,672,674,674,674,675,675,676,676,678,679,680,680,680,682,682,682,683,683,684,686,686,686,687,687,688,690,690,691,694,694,696,696,697,700,703,703,704,704,707,707,708,708,710,710,710,713,713,714,714,714,716,716,717,719,720,720,720,720,722,723,723,725,727,727,727,728,730,730,731,733,734,734,1134,1134,1130,1130,1134,1138,1141,1141,1145,1149,1149,1149,1149,1149,1153,1149,1149,1153,1153,1153,1153,1153,1153,1153,1157,1157,1153,1153,1157,1157,1157,1157,1161,1161,1161,1165,1165,1165,1165,1165,1165,1165,1169,1169,1173,1173,1177,1177,1177,1181,1181,1181,1181,1185,1189,1189,1189,1193,1193,1193,1193,1197,1197,1197,1197,1197,1197,1197,1202,1202,1202,1206,1206,1210,1210,1210,1387,1392,1392,1392,1392,1392,1392,1392,1392,1392,1392,1392,1392,1392,1387,1387,1387,1387,1387,1387,1381,1250,1245,1245,1245,1245,1245,1245,1250,1250,1250,1250,1250,1250,1250,1255,1255,1255,1255,1259,1392,1387,1387,1387,1387,1387,1387,1387,1387,1387,1387,1381,1381,1381,1381,1381,1381,1381,1381,1387,1387,1381,1381,1387,1387,1387,1387,1387,1387,1387,1381,1381,1381,1381,1381,1381,1381,1381,954,948,948,948,948,946,943,940,938,935,935,933,933,933,933,935,935,935,935,938,938,940,940,943,946,946,946,946,948,948,948,948,948,0,0,0,1381,1381,1376,1376,1376,1376,1370,1370,1370,1370,1370,1370,1376,1376,1376,1376,1376,1376,1376,1376,1376,1376,1376,1376,1376,1376,1376,1376,1376,1376,1376,1376,1376,1376,1376,1370,1370,1370,1370,1370,1370,1370,1370,1370,1370,1370,1370,1370,1370,1370,1370,1370,1370,1370,1370,1370,1365,1365,1365,1365,1365,1365,1365,1365,1365,1365,1365,1365,1365,1365,1365,1365,1365,1365,1365,1365,1365,1365,1370,1365,1365,1365,1365,1365,1365,1359,1359,1365,1365,1365,1365,1365,1365,1359,1359,1359,1359,1359,1354,1354,1354,1354,1354,1354,1354,1354,1354,1354,1354,1354,1349,1349,1349,1349,1349,1349,1349,1349,1349,1349,1343,1343,1343,1343,1338,1333,1333,1333,1328,1328,1328,1322,1312,1312,1312,1307,1307,1302,1302,1297,1292,1292,1288,1288,1288,1283,1278,1278,1273,1273,1268,1268,1264,1259,1255,1255,1255,1250,1250,1250,1245,1241,1241,1236,1236,1232,1227,1223,1219,1219,1219,1219,1214,1214,1214,1210,1206,1206,1202,1197,1197,1193,1189,1185,1185,1185,1181,1181,1173,1173,1173,1173,1169,1169,1169,1165,1161,1161,1157,1157,1153,1153,1149,1149,1149,1145,1141,1138,1138,1138,1134,1134,1134,1130,1126,1126,1123,1119,1119,1115,1115,1112,1112,1108,1108,1105,1105,1101,1101,1097,1094,1094,1090,1087,1084,1084,1080,1080,1077,1077,1077,1073,1070,1070,1067,1067,1067,1063,1063,1060,1057,1057,1054,1054,0,0,0,0,0,0,0,0,0,0,0,0,0,0,0,0,0,0,0,0,0,0,0,0,0,0,0,0,0,0,0,0,0
0,0,0,0,0,0,0,0,0,1421,1421,1421,1427,1427,1415,1415,1415,1421,1421,1421,1421,1421,1421,1421,1421,1415,1415,1415,1415,1415,1421,1421,1421,1421,1421,1415,1415,1415,1415,1415,1410,1410,1415,1415,1415,1415,1415,1415,1415,1415,1415,1415,1415,1415,1415,1415,1415,1415,1415,1415,1415,1415,1415,1415,1415,1410,1410,1410,1022,1022,1022,1022,1025,1025,1028,1028,1028,1031,1031,1031,1031,1031,1031,1034,1034,1034,1038,1038,672,672,674,674,674,674,675,675,675,676,676,678,679,680,680,680,682,682,683,683,684,684,686,686,686,687,687,688,690,691,693,694,696,696,696,697,700,703,703,704,704,707,708,708,710,710,711,711,713,713,714,714,714,716,717,717,719,720,720,720,720,722,723,723,725,727,727,727,727,727,1130,1130,1134,1134,1134,1134,1134,1130,1130,1134,1138,1141,1141,1145,1149,1149,1149,1149,1149,1149,1149,1149,1149,1149,1149,1149,1149,1149,1149,1153,1153,1153,1153,1153,1153,1157,1157,1161,1161,1161,1165,1165,1165,1165,1165,1165,1169,1169,1173,1173,1177,1177,1177,1177,1181,1181,1181,1181,1185,1189,1189,1189,1193,1193,1193,1193,1197,1197,1197,1197,1197,1197,1197,1381,1381,1381,1381,1381,1381,1387,1387,1387,1387,1387,1387,1387,1387,1392,1392,1392,1392,1387,1387,1387,1387,1387,1387,1387,1387,1381,1381,1381,1250,1250,1250,1245,1245,1245,1245,1250,1250,1250,1250,1250,1250,1250,1255,1255,1255,1255,1259,1387,1387,1387,1381,1381,1381,1387,1381,1381,1381,1381,1376,1376,1376,1376,1376,1376,1376,1376,1381,1381,1376,1376,1381,1381,1381,1381,1381,1387,1381,1381,1381,1376,1376,1376,1376,1376,1376,954,951,948,948,948,946,946,943,940,938,935,935,935,935,935,935,935,938,938,938,938,940,940,943,946,946,946,946,948,948,948,948,948,948,0,1376,1376,1376,1376,1376,1376,1370,1370,1370,1370,1370,1370,1370,1370,1370,1370,1370,1376,1370,1370,1370,1370,1370,1370,1370,1370,1370,1370,1370,1370,1370,1370,1370,1370,1370,1370,1365,1365,1370,1370,1370,1370,1370,1365,1365,1365,1365,1365,1365,1365,1365,1365,1365,1365,1365,1365,1365,1365,1365,1365,1365,1365,1365,1359,1359,1359,1359,1359,1359,1359,1359,1359,1359,1359,1359,1365,1365,1365,1365,1365,1365,1359,1359,1359,1359,1359,1354,1354,1359,1359,1359,1359,1359,1354,1354,1354,1354,1354,1354,1354,1354,1349,1349,1349,1349,1349,1349,1349,1349,1349,1349,1349,1349,1349,1349,1343,1343,1343,1343,1343,1343,1338,1338,1338,1338,1333,1333,1333,1333,1328,1328,1328,1322,1317,1317,1312,1307,1307,1307,1302,1302,1292,1292,1288,1288,1288,1283,1283,1278,1273,1273,1273,1273,1264,1259,1259,1255,1255,1250,1250,1250,1245,1245,1241,1241,1236,1232,1232,1227,1223,1219,1219,1219,1214,1214,1214,1210,1210,1206,1202,1197,1197,1193,1189,1189,1185,1185,1181,1181,1177,1177,1173,1173,1173,1169,1169,1165,1165,1161,1157,1157,1153,1153,1149,1149,1149,1145,1141,1138,1138,1138,1134,1134,1130,1130,1130,1126,1123,1119,1119,1115,1115,1112,1112,1112,1108,1105,1105,1101,1101,1097,1097,1094,1090,1087,1087,1084,1080,1080,1080,1080,1077,1073,1070,1070,1067,1067,1067,1063,1063,1060,1060,1057,1054,1054,0,0,0,0,0,0,0,0,0,0,0,0,0,0,0,0,0,0,0,0,0,0,0,0,0,0,0,0,0,0,0,0,0
0,0,0,0,0,0,0,0,0,1415,1415,1415,1415,1415,1415,1415,1415,1421,1415,1415,1415,1415,1415,1415,1415,1415,1415,1415,1415,1415,1415,1415,1415,1410,1410,1410,1415,1415,1410,1410,1410,1410,1415,1415,1415,1415,1415,1415,1415,1415,1410,1410,1410,1410,1415,1415,1415,1415,1415,1415,1410,1410,1410,1410,1404,1404,1404,1404,1398,1022,1022,1022,1025,1025,1028,1028,1028,1031,1031,1031,1031,1031,1031,1034,1034,1038,1038,1041,675,675,675,674,674,674,675,675,676,676,678,679,680,680,680,682,682,682,683,684,684,686,686,686,687,687,688,690,690,691,693,694,696,696,697,700,700,703,703,704,706,707,708,708,710,710,711,711,713,714,714,714,714,716,716,717,719,720,720,722,722,722,723,723,725,727,727,727,1126,1126,1130,1130,1130,1134,1134,1134,1134,1134,1134,1134,1138,1138,1138,1141,1145,1145,1145,1145,1145,1145,1145,1149,1149,1149,1149,1149,1149,1149,1149,1149,1149,1149,1149,1149,1153,1153,1157,1157,1161,1161,1165,1165,1165,1165,1165,1165,1169,1173,1173,1173,1177,1177,1177,1177,1181,1181,1181,1181,1185,1189,1189,1189,1193,1193,1193,1193,1197,1197,1197,1197,1381,1381,1381,1381,1376,1376,1381,1381,1381,1381,1381,1387,1387,1387,1381,1381,1381,1381,1381,1387,1387,1387,1387,1387,1387,1381,1381,1381,1381,1381,1376,1376,1250,1250,1250,1250,1250,1250,1250,1250,1250,1250,1250,1250,1250,1255,1255,1255,1255,1255,1259,1387,1381,1381,1381,1381,1381,1376,1376,1376,1376,1376,1370,1370,1370,1370,1370,1370,1376,1376,1376,1376,1376,1376,1376,1376,1376,1376,1376,1376,1376,1370,1370,1370,1370,1370,1370,1370,1370,954,954,951,951,951,948,946,943,943,938,938,935,935,935,935,935,935,938,938,940,940,940,943,946,946,946,946,946,948,948,948,948,948,948,0,1376,1376,1376,1370,1370,1370,1370,1370,1365,1365,1365,1365,1365,1365,1359,1359,1365,1365,1365,1365,1365,1370,1370,1370,1370,1370,1370,1370,1370,1370,1370,1370,1370,1365,1365,1365,1365,1365,1365,1359,1359,1365,1359,1359,1359,1359,1359,1359,1359,1365,1365,1365,1365,1365,1365,1359,1359,1359,1359,1359,1359,1354,1354,1354,1354,1354,1354,1354,1354,1354,1354,1354,1354,1349,1349,1349,1349,1354,1354,1359,1354,1354,1354,1354,1354,1354,1354,1354,1354,1354,1354,1354,1354,1354,1354,1354,1349,1349,1349,1349,1349,1343,1343,1349,1349,1349,1349,1349,1349,1349,1349,1343,1343,1343,1343,1343,1338,1338,1338,1338,1338,1338,1338,1338,1338,1333,1333,1333,1328,1328,1328,1322,1322,1317,1317,1312,1312,1307,1307,1307,1302,1292,1292,1288,1288,1288,1283,1283,1278,1273,1273,1273,1273,1264,1259,1259,1255,1255,1250,1250,1250,1245,1245,1241,1241,1236,1232,1232,1227,1223,1223,1219,1219,1214,1214,1214,1210,1210,1206,1202,1197,1197,1193,1189,1189,1185,1185,1181,1181,1177,1177,1177,1173,1173,1169,1169,1169,1165,1161,1157,1157,1153,1153,1149,1149,1149,1145,1141,1138,1138,1138,1134,1134,1130,1130,1130,1130,1123,1119,1119,1115,1115,1112,1112,1112,1108,1105,1105,1101,1101,1097,1097,1094,1090,1090,1090,1087,1084,1084,1080,1080,1077,1073,1073,1070,1067,1067,1067,1063,1063,1060,1057,1057,1054,1054,0,0,0,0,0,0,0,0,0,0,0,0,0,0,0,0,0,0,0,0,0,0,0,0,0,0,0,0,0,0,0,0,0
0,0,0,0,0,0,0,0,0,1415,1415,1415,1415,1410,1410,1410,1410,1415,1415,1415,1415,1415,1415,1415,1415,1415,1415,1415,1415,1415,1415,1415,1410,1410,1410,1410,1404,1404,1404,1404,1404,1410,1410,1410,1410,1410,1410,1410,1410,1410,1410,1410,1404,1404,1410,1410,1410,1410,1410,1410,1410,1410,1404,1398,1398,1398,1398,1398,1398,1022,1022,1022,1025,1028,1028,1028,1028,1031,1031,1031,1031,1031,1031,1034,1034,1038,1038,1041,1041,675,675,675,675,675,675,675,676,676,678,679,680,680,680,682,682,682,683,684,684,686,686,687,687,688,688,690,691,691,693,694,696,696,697,700,700,703,704,704,706,707,708,710,710,710,711,713,713,714,714,714,714,716,716,716,719,720,722,722,722,723,725,725,725,725,1123,1126,1126,1126,1126,1130,1130,1130,1130,1134,1134,1134,1134,1134,1138,1138,1138,1141,1145,1145,1145,1145,1145,1145,1145,1145,1145,1145,1145,1149,1149,1149,1149,1149,1149,1149,1149,1149,1153,1153,1157,1157,1161,1161,1161,1165,1165,1165,1165,1169,1169,1173,1173,1173,1177,1177,1177,1177,1181,1181,1181,1181,1185,1185,1189,1193,1193,1193,1193,1193,1197,1197,1376,1376,1376,1381,1381,1376,1376,1376,1376,1376,1376,1381,1381,1381,1381,1381,1376,1376,1376,1376,1376,1376,1376,1376,1381,1381,1381,1381,1376,1376,1376,1376,1376,1376,1255,1250,1250,1250,1250,1250,1250,1250,1250,1250,1250,1250,1250,1255,1259,1259,1259,1259,1259,1381,1381,1376,1376,1376,1376,1370,1370,1370,1370,1370,1370,1370,1370,1370,1370,1370,1370,1370,1370,1370,1370,1370,1370,1370,1370,1370,1370,1370,1370,1370,1365,1365,1365,1359,1359,1365,1365,956,956,951,951,951,948,948,946,943,940,938,938,938,935,935,938,938,938,938,940,943,943,943,946,946,946,948,948,948,948,948,948,948,0,0,0,1370,1370,1370,1365,1365,1365,1365,1365,1365,1359,1359,1359,1359,1354,1354,1354,1354,1359,1359,1359,1359,1365,1365,1365,1365,1365,1365,1365,1365,1365,1365,1365,1359,1359,1359,1359,1359,1354,1354,1354,1354,1359,1354,1354,1354,1354,1354,1354,1359,1359,1359,1359,1359,1354,1354,1354,1354,1354,1354,1354,1354,1354,1354,1354,1349,1349,1349,1349,1349,1349,1349,1349,1349,1349,1349,1349,1343,1343,1349,1354,1354,1354,1354,1354,1354,1349,1349,1354,1354,1354,1354,1354,1354,1349,1349,1349,1349,1343,1343,1343,1338,1338,1338,1338,1343,1343,1343,1343,1343,1343,1338,1338,1338,1338,1333,1333,1333,1333,1333,1333,1333,1333,1333,1333,1333,1333,1333,1328,1328,1328,1322,1322,1317,1317,1312,1312,1312,1307,1307,1302,1292,1292,1288,1288,1288,1288,1283,1278,1273,1273,1273,1273,1264,1264,1259,1255,1255,1250,1250,1250,1245,1245,1241,1241,1236,1236,1232,1227,1223,1223,1219,1219,1214,1214,1214,1210,1210,1206,1206,1202,1197,1193,1189,1189,1185,1185,1185,1181,1177,1177,1177,1173,1173,1169,1169,1169,1165,1161,1157,1157,1153,1153,1153,1149,1149,1145,1141,1138,1138,1138,1138,1134,1130,1130,1130,1130,1123,1123,1119,1119,1115,1115,1112,1112,1108,1105,1105,1105,1101,1097,1097,1094,1094,1090,1090,1087,1087,1084,1080,1080,1077,1073,1073,1070,1070,1067,1067,1063,1063,1060,1057,1057,1054,1054,0,0,0,0,0,0,0,0,0,0,0,0,0,0,0,0,0,0,0,0,0,0,0,0,0,0,0,0,0,0,0,0,0
0,0,0,0,0,0,0,0,0,1410,1410,1410,1410,1410,1410,1410,1410,1410,1410,1410,1410,1410,1410,1410,1410,1410,1410,1410,1410,1410,1410,1410,1410,1404,1404,1404,1398,1398,1398,1398,1398,1398,1398,1404,1404,1410,1410,1410,1404,1404,1404,1404,1404,1404,1404,1404,1410,1410,1410,1410,1410,1404,1398,1398,1398,1392,1392,1398,1392,1392,1025,1025,1025,1028,1028,1028,1028,1031,1031,1031,1031,1031,1034,1034,1038,1038,1041,1041,1044,1044,675,675,675,675,675,675,676,676,679,679,680,682,682,682,682,683,683,684,684,686,686,687,687,688,690,691,691,693,693,694,696,696,697,700,701,703,704,704,707,707,708,710,710,710,711,713,713,714,714,714,714,716,716,716,717,720,722,722,722,723,723,1119,1119,1123,1123,1123,1123,1126,1126,1130,1130,1130,1130,1134,1134,1134,1134,1134,1138,1134,1134,1141,1141,1141,1141,1141,1141,1141,1145,1145,1145,1145,1145,1145,1145,1145,1145,1145,1145,1145,1145,1149,1149,1149,1153,1157,1157,1161,1161,1165,1165,1165,1165,1169,1169,1173,1173,1173,1177,1177,1181,1181,1181,1181,1181,1181,1185,1185,1185,1193,1193,1197,1197,1197,1376,1370,1370,1370,1376,1376,1376,1376,1376,1376,1376,1376,1376,1376,1381,1381,1381,1376,1376,1376,1376,1376,1376,1370,1370,1370,1370,1370,1370,1370,1370,1376,1376,1376,1370,1370,1370,1250,1250,1250,1250,1250,1250,1250,1250,1255,1255,1255,1255,1255,1259,1259,1259,1259,1264,1264,1376,1370,1370,1370,1370,1370,1370,1365,1365,1370,1365,1365,1365,1370,1365,1365,1365,1365,1365,1365,1365,1365,1365,1365,1365,1365,1365,1365,1365,1365,1359,1359,1354,1354,1359,1354,1354,959,956,954,954,954,951,948,948,946,943,940,938,938,938,938,938,938,940,940,940,943,943,946,946,946,946,948,948,948,948,948,948,948,0,0,0,1365,1365,1365,1359,1359,1359,1359,1359,1359,1359,1359,1359,1354,1354,1354,1354,1354,1354,1354,1354,1354,1354,1354,1354,1354,1359,1359,1359,1359,1359,1359,1354,1354,1354,1354,1354,1354,1354,1354,1354,1354,1354,1354,1354,1354,1354,1354,1354,1354,1354,1354,1354,1354,1354,1354,1354,1354,1354,1349,1349,1349,1349,1349,1349,1349,1349,1349,1349,1349,1349,1349,1349,1343,1343,1343,1343,1338,1338,1338,1343,1343,1343,1343,1349,1349,1349,1349,1349,1349,1349,1349,1349,1349,1349,1349,1349,1343,1338,1338,1338,1333,1333,1333,1333,1333,1333,1338,1338,1338,1338,1333,1333,1333,1333,1333,1328,1328,1333,1333,1333,1333,1333,1333,1333,1328,1328,1328,1328,1328,1328,1322,1317,1317,1312,1312,1312,1312,1307,1307,1302,1297,1292,1292,1288,1288,1288,1283,1278,1273,1273,1273,1268,1264,1259,1259,1255,1255,1250,1250,1250,1245,1245,1241,1241,1236,1236,1232,1227,1227,1223,1219,1219,1214,1214,1210,1210,1210,1206,1202,1202,1197,1193,1189,1189,1185,1185,1185,1181,1181,1177,1177,1177,1173,1173,1169,1165,1165,1165,1161,1157,1153,1153,1153,1149,1149,1145,1141,1138,1138,1138,1138,1134,1130,1130,1130,1130,1126,1123,1119,1119,1115,1115,1112,1112,1108,1105,1105,1105,1101,1101,1097,1097,1094,1090,1090,1090,1087,1087,1084,1080,1077,1073,1073,1070,1070,1067,1067,1063,1063,1060,1060,1057,1054,1054,0,0,0,0,0,0,0,0,0,0,0,0,0,0,0,0,0,0,0,0,0,0,0,0,0,0,0,0,0,0,0,0,0
0,0,0,0,0,0,0,0,0,1410,1410,1410,1410,1410,1410,1410,1410,1410,1410,1410,1410,1410,1404,1404,1410,1410,1410,1410,1410,1410,1404,1404,1404,1398,1398,1398,1392,1392,1392,1392,1392,1392,1392,1392,1392,1398,1392,1392,1392,1398,1398,1398,1398,1398,1398,1404,1404,1404,1404,1404,1404,1398,1398,1398,1392,1392,1392,1392,1392,1387,1022,1022,1025,1028,1028,1028,1031,1031,1034,1034,1034,1034,1034,1038,1038,1041,1041,1044,1044,1044,675,675,675,675,676,676,678,678,679,680,680,682,682,682,682,683,683,684,686,686,686,687,687,688,690,691,691,693,694,694,696,696,697,700,701,703,704,706,707,708,708,710,710,710,711,713,714,714,714,714,716,716,716,716,717,720,722,722,722,1123,1123,1119,1119,1123,1123,1123,1123,1126,1126,1130,1130,1130,1134,1134,1134,1134,1134,1134,1138,1134,1134,1141,1141,1141,1141,1141,1141,1141,1145,1145,1145,1145,1145,1145,1145,1145,1145,1141,1141,1141,1145,1145,1149,1149,1153,1157,1157,1161,1161,1165,1165,1165,1165,1169,1169,1173,1173,1173,1177,1177,1181,1181,1181,1181,1181,1181,1185,1185,1185,1193,1193,1197,1370,1370,1370,1370,1370,1370,1370,1376,1376,1370,1370,1370,1376,1370,1370,1376,1376,1376,1376,1376,1370,1370,1370,1370,1370,1370,1370,1370,1370,1370,1370,1370,1370,1370,1370,1370,1370,1370,1370,1255,1250,1250,1250,1250,1250,1250,1255,1255,1255,1255,1255,1255,1259,1259,1259,1259,1264,1264,1370,1370,1370,1370,1370,1365,1365,1365,1365,1365,1365,1365,1365,1365,1365,1365,1365,1365,1365,1359,1359,1359,1359,1354,1354,1354,1354,1354,1354,1359,1354,1354,1354,1354,1354,1354,962,959,959,956,954,954,954,951,948,946,946,943,940,938,938,938,938,938,940,940,940,943,943,946,946,948,948,948,948,948,948,948,948,948,948,0,1365,1365,1359,1359,1354,1354,1354,1354,1354,1354,1354,1354,1354,1354,1349,1349,1349,1349,1349,1349,1349,1354,1354,1354,1354,1354,1349,1349,1349,1354,1354,1354,1354,1354,1354,1349,1349,1349,1349,1349,1349,1349,1349,1349,1349,1349,1349,1349,1349,1349,1349,1349,1349,1349,1349,1349,1349,1349,1349,1349,1349,1349,1349,1349,1349,1343,1343,1343,1343,1349,1343,1343,1343,1343,1343,1338,1338,1338,1338,1338,1338,1338,1338,1338,1338,1338,1338,1343,1343,1343,1343,1343,1343,1343,1343,1343,1343,1338,1338,1333,1333,1328,1328,1328,1328,1328,1328,1333,1333,1333,1333,1333,1333,1328,1328,1328,1328,1328,1328,1328,1328,1333,1333,1328,1328,1328,1328,1322,1322,1322,1322,1322,1317,1317,1312,1312,1312,1307,1307,1307,1302,1297,1292,1292,1292,1288,1288,1283,1278,1278,1273,1273,1268,1264,1259,1259,1255,1255,1250,1250,1250,1250,1245,1241,1241,1236,1236,1232,1227,1227,1223,1219,1219,1214,1214,1210,1210,1210,1206,1202,1202,1197,1197,1189,1189,1189,1185,1185,1181,1181,1181,1181,1177,1173,1173,1169,1165,1165,1165,1161,1157,1153,1153,1149,1149,1149,1149,1145,1145,1141,1138,1134,1134,1134,1134,1130,1130,1123,1123,1123,1119,1119,1115,1112,1112,1108,1108,1105,1105,1101,1101,1097,1097,1094,1094,1094,1090,1090,1087,1084,1080,1077,1077,1073,1070,1070,1067,1067,1063,1063,1060,1060,1057,1054,1054,0,0,0,0,0,0,0,0,0,0,0,0,0,0,0,0,0,0,0,0,0,0,0,0,0,0,0,0,0,0,0,0,0
0,0,0,0,0,0,0,0,0,1410,1410,1410,1404,1404,1404,1410,1404,1404,1404,1404,1404,1404,1398,1398,1404,1404,1404,1404,1404,1404,1398,1398,1398,1398,1398,1392,1392,1392,1392,1392,1392,1392,1387,1387,1387,1392,1392,1392,1387,1387,1392,1392,1392,1398,1398,1398,1398,1398,1398,1392,1392,1392,1392,1392,1392,1387,1387,1392,1387,1387,1022,1022,1025,1028,1028,1028,1031,1034,1034,1034,1034,1034,1034,1038,1041,1041,1041,1044,1044,1044,1044,676,676,676,678,678,679,679,680,680,680,682,682,683,683,684,684,686,686,686,686,687,687,688,691,691,693,693,694,696,696,696,698,700,701,703,704,706,707,708,710,710,710,710,711,713,714,714,714,716,716,716,716,716,716,1119,1119,1119,1119,1123,1123,1119,1119,1123,1123,1123,1126,1126,1126,1130,1130,1130,1130,1134,1134,1134,1134,1134,1134,1134,1134,1138,1138,1138,1138,1138,1141,1141,1141,1145,1145,1145,1145,1145,1145,1145,1141,1141,1141,1138,1138,1138,1141,1145,1149,1153,1157,1161,1165,1165,1165,1165,1169,1169,1169,1173,1173,1173,1177,1181,1181,1181,1181,1181,1185,1185,1185,1185,1185,1370,1370,1370,1370,1370,1370,1365,1365,1365,1365,1370,1370,1370,1370,1370,1370,1370,1370,1370,1370,1370,1370,1370,1370,1370,1370,1370,1370,1365,1365,1365,1365,1365,1365,1365,1365,1365,1365,1365,1365,1365,1365,1365,1250,1250,1250,1250,1250,1250,1255,1255,1255,1255,1255,1259,1259,1259,1259,1259,1264,1264,1370,1370,1365,1365,1365,1365,1365,1359,1359,1359,1359,1359,1359,1359,1359,1359,1359,1359,1359,1359,1354,1354,1354,1349,1349,1349,1349,1349,1349,1354,1349,1349,1349,1349,1354,1349,962,959,959,956,956,956,954,951,948,948,946,946,943,940,940,940,940,940,940,943,943,943,943,946,948,948,948,948,948,951,951,951,951,951,951,0,1354,1354,1354,1354,1354,1354,1354,1354,1354,1354,1349,1349,1349,1349,1349,1349,1349,1349,1349,1349,1349,1349,1349,1349,1349,1349,1349,1349,1349,1349,1349,1349,1349,1349,1349,1349,1349,1349,1349,1349,1343,1343,1349,1349,1349,1349,1349,1349,1343,1343,1343,1343,1343,1343,1343,1343,1343,1343,1343,1343,1343,1343,1343,1343,1343,1343,1343,1343,1338,1338,1338,1338,1338,1338,1338,1338,1333,1333,1333,1333,1333,1333,1338,1338,1333,1333,1333,1333,1333,1338,1338,1343,1338,1338,1338,1338,1338,1333,1333,1333,1328,1328,1328,1328,1328,1328,1328,1328,1328,1328,1328,1328,1328,1328,1328,1328,1328,1328,1328,1328,1328,1328,1328,1328,1322,1322,1322,1322,1322,1322,1317,1317,1317,1312,1312,1312,1307,1307,1307,1307,1302,1302,1297,1292,1292,1288,1288,1283,1278,1278,1273,1273,1268,1268,1264,1259,1255,1255,1250,1250,1250,1250,1245,1241,1241,1236,1236,1232,1232,1227,1227,1223,1219,1214,1214,1214,1210,1210,1206,1202,1202,1197,1197,1193,1189,1189,1185,1185,1181,1181,1181,1181,1177,1173,1173,1169,1165,1165,1165,1161,1157,1153,1149,1149,1149,1153,1149,1145,1145,1141,1138,1134,1134,1134,1134,1130,1130,1123,1123,1123,1119,1119,1115,1112,1112,1108,1105,1105,1105,1101,1101,1097,1097,1097,1094,1094,1090,1090,1087,1084,1084,1080,1077,1073,1073,1070,1070,1067,1063,1063,1060,1060,1057,1054,1054,0,0,0,0,0,0,0,0,0,0,0,0,0,0,0,0,0,0,0,0,0,0,0,0,0,0,0,0,0,0,0,0,0
0,0,0,0,0,0,0,0,0,1404,1404,1404,1404,1398,1398,1404,1398,1398,1398,1398,1398,1398,1392,1392,1392,1392,1398,1392,1392,1392,1392,1392,1398,1392,1392,1392,1392,1392,1387,1387,1387,1387,1387,1387,1387,1387,1387,1387,1387,1387,1387,1387,1387,1387,1387,1387,1387,1392,1392,1392,1387,1387,1387,1387,1387,1387,1387,1387,1387,1381,1022,1022,1025,1028,1028,1028,1031,1034,1034,1034,1034,1038,1038,1038,1041,1041,1044,1044,1044,1044,1044,1044,678,678,679,679,680,680,680,680,680,682,682,683,683,684,684,686,686,686,686,687,688,690,691,693,693,694,694,696,696,697,698,700,701,703,706,707,708,708,710,710,710,710,711,713,714,714,714,716,716,716,716,716,1115,1119,1119,1119,1119,1119,1119,1119,1119,1123,1123,1123,1126,1126,1126,1130,1130,1130,1130,1130,1130,1134,1134,1134,1134,1134,1134,1138,1138,1138,1138,1138,1141,1141,1141,1145,1145,1145,1145,1145,1145,1145,1141,1138,1134,1134,1134,1134,1134,1138,1141,1153,1157,1161,1165,1165,1165,1169,1169,1169,1169,1173,1173,1173,1177,1181,1185,1185,1354,1354,1354,1354,1354,1359,1365,1365,1365,1370,1370,1370,1365,1365,1365,1365,1365,1365,1365,1365,1365,1370,1370,1370,1370,1370,1370,1370,1370,1370,1365,1365,1370,1365,1365,1365,1365,1365,1365,1359,1359,1359,1359,1359,1359,1359,1359,1354,1354,1354,1250,1250,1250,1250,1250,1250,1255,1255,1255,1255,1255,1259,1259,1264,1264,1264,1264,1264,1365,1365,1365,1365,1359,1359,1359,1354,1354,1354,1354,1354,1354,1354,1354,1354,1354,1354,1354,1354,1354,1349,1349,1349,1349,1349,1349,1349,1349,1349,1349,1349,1349,1349,1349,1349,962,959,959,956,956,956,954,951,948,948,946,946,946,943,943,943,943,943,943,943,943,946,946,946,948,948,948,948,951,951,951,951,951,954,954,0,1349,1349,1349,1349,1349,1349,1349,1349,1349,1349,1349,1349,1349,1349,1349,1349,1343,1343,1343,1343,1343,1343,1343,1343,1343,1343,1343,1343,1343,1343,1343,1343,1343,1343,1343,1343,1343,1343,1343,1343,1343,1343,1343,1343,1338,1338,1338,1338,1338,1338,1338,1338,1338,1338,1338,1343,1343,1338,1338,1338,1338,1338,1338,1338,1338,1338,1338,1338,1338,1333,1333,1333,1333,1333,1333,1333,1333,1333,1333,1333,1333,1333,1333,1333,1333,1333,1333,1333,1333,1333,1333,1333,1333,1333,1338,1333,1333,1333,1328,1328,1328,1328,1322,1322,1328,1328,1328,1328,1328,1328,1328,1328,1328,1328,1322,1322,1322,1322,1322,1322,1322,1328,1328,1322,1322,1322,1322,1317,1317,1317,1317,1317,1312,1312,1312,1307,1307,1307,1307,1302,1302,1302,1297,1292,1292,1288,1288,1283,1283,1278,1273,1273,1268,1268,1264,1259,1255,1255,1250,1250,1250,1250,1245,1241,1241,1236,1236,1232,1232,1227,1227,1223,1219,1214,1214,1214,1214,1210,1206,1202,1202,1197,1197,1193,1189,1189,1185,1185,1181,1181,1181,1181,1177,1177,1173,1169,1165,1165,1165,1161,1157,1153,1149,1149,1149,1149,1149,1149,1145,1141,1141,1138,1134,1134,1134,1130,1130,1126,1123,1123,1119,1119,1115,1115,1112,1108,1105,1105,1105,1101,1101,1097,1097,1097,1094,1094,1090,1090,1090,1087,1084,1080,1077,1073,1073,1070,1070,1067,1063,1063,1060,1060,1057,1057,1057,0,0,0,0,0,0,0,0,0,0,0,0,0,0,0,0,0,0,0,0,0,0,0,0,0,0,0,0,0,0,0,0,0
0,0,0,0,0,0,0,0,0,1398,1398,1398,1398,1392,1392,1392,1392,1392,1392,1392,1392,1392,1392,1392,1392,1392,1392,1387,1387,1387,1387,1387,1392,1392,1392,1392,1387,1387,1387,1387,1387,1381,1381,1381,1381,1381,1381,1381,1381,1387,1387,1387,1387,1387,1387,1387,1387,1381,1381,1381,1381,1387,1381,1381,1381,1381,1387,1381,1381,1381,1025,1025,1025,1028,1028,1028,1031,1034,1034,1034,1034,1038,1038,1038,1041,1041,1044,1044,1044,1044,1044,1044,679,679,679,679,680,680,680,680,680,682,682,683,683,684,684,686,686,687,687,688,690,691,691,693,693,694,694,696,696,697,698,700,701,704,706,707,707,708,708,708,710,710,711,713,716,716,716,1115,1115,1115,1115,1115,1115,1115,1115,1119,1119,1119,1119,1119,1119,1119,1119,1123,1126,1126,1126,1126,1130,1130,1130,1130,1130,1134,1134,1134,1134,1134,1134,1138,1138,1138,1138,1138,1141,1141,1145,1145,1145,1145,1149,1145,1145,1145,1138,1134,1134,1130,1130,1130,1130,1130,1134,1134,1161,1161,1165,1169,1169,1169,1169,1169,1173,1173,1173,1173,1181,1181,1354,1354,1354,1354,1354,1354,1354,1354,1359,1359,1359,1365,1365,1365,1365,1359,1359,1359,1359,1359,1365,1365,1365,1365,1365,1365,1365,1365,1365,1365,1365,1365,1365,1365,1365,1365,1365,1365,1359,1359,1359,1359,1359,1359,1359,1359,1354,1354,1354,1354,1354,1354,1250,1250,1250,1250,1255,1255,1255,1255,1255,1259,1259,1259,1264,1264,1264,1264,1264,1365,1359,1359,1359,1359,1359,1354,1354,1354,1349,1349,1349,1349,1349,1349,1349,1349,1349,1349,1349,1349,1349,1349,1349,1349,1349,1343,1343,1349,1349,1349,1349,1343,1343,1343,1349,1343,1338,959,959,959,956,956,954,951,948,948,946,946,946,943,943,943,943,946,946,946,946,946,946,948,948,948,951,951,951,954,954,954,954,954,954,956,1349,1349,1349,1349,1343,1343,1343,1343,1343,1343,1343,1343,1343,1343,1343,1343,1343,1343,1343,1343,1343,1343,1343,1343,1343,1343,1338,1338,1338,1338,1338,1338,1338,1338,1338,1338,1338,1338,1343,1343,1338,1338,1338,1338,1338,1338,1333,1333,1333,1333,1333,1338,1338,1338,1338,1338,1338,1333,1333,1333,1333,1333,1333,1333,1333,1333,1333,1333,1333,1333,1333,1333,1333,1333,1333,1333,1333,1328,1328,1328,1328,1328,1328,1328,1328,1328,1328,1328,1328,1328,1328,1328,1322,1322,1322,1328,1328,1328,1322,1322,1322,1322,1322,1322,1322,1322,1322,1322,1322,1322,1322,1322,1322,1322,1322,1322,1322,1322,1322,1322,1322,1322,1322,1322,1322,1317,1317,1317,1317,1312,1312,1312,1312,1307,1307,1307,1307,1307,1302,1302,1302,1297,1297,1292,1292,1288,1288,1283,1283,1278,1273,1273,1268,1268,1264,1259,1259,1255,1255,1250,1250,1250,1245,1241,1241,1236,1236,1232,1232,1227,1227,1223,1219,1219,1219,1214,1214,1210,1210,1202,1202,1202,1197,1193,1189,1189,1185,1185,1181,1181,1181,1181,1181,1177,1173,1169,1165,1165,1165,1161,1157,1153,1153,1149,1149,1149,1149,1149,1145,1141,1141,1138,1134,1134,1134,1130,1130,1126,1123,1123,1119,1119,1115,1115,1112,1108,1105,1105,1105,1101,1101,1097,1097,1097,1094,1094,1090,1090,1090,1087,1080,1080,1077,1077,1073,1073,1070,1067,1067,1063,1063,1060,1060,1057,1057,0,0,0,0,0,0,0,0,0,0,0,0,0,0,0,0,0,0,0,0,0,0,0,0,0,0,0,0,0,0,0,0,0
0,0,0,0,0,0,0,0,0,1392,1392,1392,1392,1392,1392,1392,1387,1387,1387,1387,1387,1387,1387,1387,1387,1381,1381,1381,1381,1381,1381,1387,1387,1387,1387,1387,1387,1387,1387,1387,1387,1381,1376,1376,1376,1376,1376,1376,1376,1381,1381,1381,1381,1381,1381,1381,1381,1381,1376,1376,1376,1376,1376,1376,1376,1381,1381,1381,1381,1370,1025,1025,1025,1028,1028,1028,1031,1034,1034,1034,1034,1038,1038,1038,1041,1041,1044,1044,1044,1044,1044,680,680,680,680,680,680,680,680,680,682,682,683,683,684,684,686,686,687,687,687,690,690,691,693,693,693,694,694,696,697,697,698,700,703,703,704,706,707,707,708,708,710,710,710,710,1112,1112,1115,1115,1115,1115,1115,1115,1115,1115,1115,1119,1119,1119,1119,1119,1119,1119,1119,1123,1123,1126,1126,1126,1130,1130,1130,1130,1130,1130,1130,1134,1134,1134,1134,1138,1138,1138,1141,1141,1141,1141,1145,1145,1145,1149,1149,1145,1145,1141,1134,1130,1130,1126,1126,1126,1126,1126,1126,1123,1123,1123,1165,1169,1169,1169,1169,1169,1173,1173,1173,1173,1359,1359,1354,1354,1359,1354,1354,1354,1354,1354,1359,1359,1359,1359,1365,1365,1359,1359,1354,1354,1359,1359,1359,1359,1359,1359,1359,1359,1359,1359,1359,1359,1359,1359,1359,1359,1359,1359,1359,1359,1354,1354,1354,1354,1354,1354,1354,1354,1354,1349,1349,1349,1349,1349,1250,1250,1250,1255,1255,1255,1255,1259,1259,1259,1259,1259,1264,1264,1264,1264,1264,1365,1354,1354,1354,1354,1354,1354,1349,1349,1349,1349,1349,1349,1349,1349,1349,1349,1349,1349,1343,1343,1343,1343,1343,1343,1343,1343,1343,1343,1343,1343,1343,1338,1338,1338,1338,1338,1338,1338,962,962,959,959,956,954,951,948,948,946,946,946,943,943,946,946,946,946,946,946,946,948,948,948,951,951,954,954,954,954,954,956,956,956,1349,1349,1343,1343,1343,1338,1338,1338,1338,1338,1338,1338,1338,1338,1338,1338,1338,1338,1338,1333,1333,1338,1338,1333,1333,1333,1333,1333,1333,1333,1333,1333,1333,1333,1333,1333,1333,1333,1333,1333,1333,1338,1338,1333,1333,1333,1333,1333,1333,1333,1333,1333,1333,1333,1333,1333,1333,1333,1333,1328,1328,1328,1333,1333,1333,1333,1333,1333,1328,1328,1328,1328,1328,1328,1328,1328,1328,1328,1328,1328,1328,1328,1328,1328,1328,1328,1322,1322,1322,1322,1322,1322,1322,1317,1317,1322,1317,1317,1322,1317,1317,1317,1317,1317,1317,1317,1317,1317,1317,1317,1317,1322,1322,1322,1317,1317,1317,1317,1317,1312,1312,1317,1317,1317,1317,1312,1312,1312,1312,1312,1307,1307,1307,1307,1302,1302,1302,1302,1302,1302,1302,1297,1297,1292,1292,1292,1288,1283,1283,1278,1273,1273,1268,1268,1264,1259,1259,1255,1255,1250,1250,1250,1245,1245,1241,1236,1236,1232,1232,1227,1227,1223,1219,1219,1219,1214,1214,1214,1210,1206,1202,1202,1197,1193,1193,1189,1185,1185,1181,1181,1181,1181,1181,1177,1177,1169,1169,1165,1165,1165,1157,1157,1153,1153,1149,1149,1153,1149,1145,1141,1138,1138,1134,1134,1134,1130,1126,1126,1123,1123,1119,1119,1119,1115,1112,1112,1108,1105,1105,1105,1101,1101,1097,1097,1094,1094,1090,1090,1090,1087,1080,1080,1077,1077,1077,1073,1070,1070,1067,1067,1063,1060,1060,1057,1057,0,0,0,0,0,0,0,0,0,0,0,0,0,0,0,0,0,0,0,0,0,0,0,0,0,0,0,0,0,0,0,0,0
0,0,0,0,0,0,0,0,0,1387,1387,1387,1387,1387,1387,1387,1387,1387,1387,1387,1387,1387,1387,1381,1381,1376,1376,1376,1376,1376,1381,1381,1381,1387,1387,1387,1381,1381,1381,1381,1381,1381,1376,1376,1376,1376,1376,1376,1376,1376,1376,1376,1381,1376,1376,1376,1376,1376,1370,1370,1370,1370,1370,1370,1370,1370,1370,1370,1376,1370,1370,1370,1031,1028,1028,1031,1031,1034,1034,1038,1038,1038,1038,1041,1041,1044,1044,1044,1044,1044,1044,680,680,680,680,680,680,680,680,680,682,682,683,683,684,686,686,686,687,687,687,690,690,691,693,693,694,694,696,696,697,698,698,700,703,703,704,706,707,707,708,708,0,1105,1105,1105,1112,1112,1112,1112,1115,1115,1115,1115,1115,1115,1115,1119,1119,1119,1119,1119,1119,1119,1119,1119,1123,1123,1126,1126,1126,1130,1130,1130,1130,1130,1130,1134,1134,1134,1134,1138,1138,1141,1141,1141,1141,1141,1145,1145,1149,1149,1149,1149,1145,1138,1130,1126,1126,1126,1123,1123,1123,1119,1119,1115,1115,1112,1112,1169,1169,1169,1169,1169,1349,1349,1349,1354,1354,1354,1354,1354,1354,1354,1349,1349,1349,1349,1349,1354,1354,1354,1354,1354,1354,1354,1354,1354,1354,1354,1354,1354,1354,1354,1354,1354,1354,1354,1354,1354,1354,1354,1354,1354,1354,1354,1354,1354,1354,1354,1349,1349,1349,1349,1349,1349,1349,1349,1349,1343,1343,1343,1255,1255,1255,1255,1255,1255,1259,1259,1259,1259,1259,1264,1264,1264,1264,1264,1264,1264,1354,1349,1349,1349,1349,1349,1349,1343,1343,1343,1343,1343,1343,1343,1343,1343,1343,1343,1343,1338,1338,1338,1338,1338,1338,1338,1338,1343,1343,1338,1338,1333,1333,1333,1338,1333,1333,1333,1333,962,962,959,959,956,954,948,948,946,946,946,946,946,946,946,946,946,946,946,948,948,948,951,951,954,954,956,956,956,956,956,956,956,1343,1343,1343,1338,1338,1333,1333,1333,1333,1333,1333,1333,1333,1333,1333,1333,1333,1333,1333,1333,1333,1333,1333,1333,1333,1333,1333,1333,1333,1333,1333,1333,1333,1333,1333,1333,1333,1333,1333,1333,1333,1333,1328,1328,1328,1328,1328,1328,1328,1328,1328,1328,1333,1333,1328,1328,1328,1328,1328,1328,1328,1328,1328,1328,1328,1328,1328,1328,1322,1322,1322,1322,1322,1322,1322,1322,1322,1322,1322,1322,1322,1322,1322,1322,1322,1322,1322,1322,1322,1322,1322,1317,1317,1317,1317,1317,1312,1312,1312,1312,1312,1312,1312,1317,1312,1312,1312,1312,1317,1317,1317,1317,1317,1317,1317,1312,1312,1312,1312,1312,1312,1312,1312,1312,1312,1312,1312,1307,1307,1307,1307,1302,1302,1302,1302,1302,1302,1302,1302,1302,1302,1297,1297,1292,1292,1292,1288,1288,1283,1278,1273,1273,1268,1268,1264,1259,1259,1255,1255,1255,1250,1250,1250,1245,1241,1236,1236,1232,1232,1227,1227,1227,1219,1219,1219,1219,1214,1214,1214,1206,1202,1202,1197,1193,1193,1189,1185,1185,1181,1181,1181,1181,1181,1177,1177,1169,1169,1165,1165,1165,1161,1157,1153,1153,1149,1149,1153,1149,1149,1145,1138,1138,1134,1134,1134,1130,1126,1126,1123,1123,1119,1119,1119,1115,1112,1112,1108,1105,1105,1105,1101,1101,1097,1097,1094,1094,1090,1090,1090,1084,1080,1080,1077,1077,1077,1073,1073,1070,1067,1067,1063,1063,1060,1057,1057,0,0,0,0,0,0,0,0,0,0,0,0,0,0,0,0,0,0,0,0,0,0,0,0,0,0,0,0,0,0,0,0,0
0,0,0,0,0,0,0,0,0,1387,1387,1387,1387,1381,1381,1381,1381,1381,1381,1381,1381,1387,1381,1381,1376,1376,1376,1370,1370,1376,1376,1376,1381,1381,1381,1381,1376,1376,1376,1376,1376,1376,1370,1370,1370,1370,1370,1370,1370,1370,1370,1370,1370,1370,1370,1370,1370,1370,1370,1370,1370,1370,1370,1365,1365,1365,1365,1365,1365,1365,1365,1365,1034,1031,1031,1031,1034,1034,1034,1038,1038,1041,1041,1041,1044,1044,1044,1044,1044,1044,1044,680,680,680,682,682,680,680,682,682,682,682,683,684,684,686,686,686,687,687,688,690,691,691,693,693,694,694,696,696,697,698,700,700,703,703,704,706,707,707,708,0,0,1105,1105,1105,1105,1105,1108,1108,1112,1112,1115,1115,1115,1115,1115,1115,1115,1115,1115,1119,1119,1119,1119,1119,1123,1123,1126,1126,1126,1130,1130,1130,1130,1130,1130,1134,1134,1138,1138,1138,1138,1141,1141,1141,1141,1141,1145,1145,1149,1149,1149,1149,1145,1134,1126,1123,1123,1123,1119,1119,1119,1119,1115,1115,1112,1112,1108,1108,1349,1349,1349,1349,1349,1349,1349,1349,1354,1349,1349,1349,1349,1349,1349,1349,1349,1349,1349,1349,1349,1349,1349,1349,1349,1349,1349,1349,1349,1349,1349,1349,1349,1349,1349,1349,1349,1349,1349,1349,1349,1349,1349,1349,1349,1349,1349,1349,1349,1349,1349,1349,1349,1343,1343,1343,1343,1343,1343,1343,1338,1338,1259,1259,1259,1259,1259,1259,1259,1259,1259,1259,1259,1264,1264,1264,1264,1264,1264,1264,1349,1343,1343,1343,1343,1343,1343,1343,1338,1338,1343,1343,1343,1338,1338,1338,1338,1338,1338,1338,1338,1338,1338,1338,1338,1338,1338,1338,1338,1338,1333,1333,1328,1328,1333,1333,1333,1328,967,964,962,962,959,956,954,951,951,948,946,946,946,946,946,946,946,946,946,948,948,948,948,951,954,954,956,956,956,959,959,959,959,959,0,1338,1338,1333,1333,1333,1328,1328,1328,1333,1333,1333,1333,1333,1333,1333,1333,1333,1333,1328,1328,1328,1328,1328,1328,1328,1328,1328,1328,1328,1328,1328,1328,1328,1328,1328,1328,1328,1328,1328,1328,1328,1328,1322,1322,1322,1322,1322,1322,1322,1322,1322,1328,1328,1328,1322,1322,1322,1322,1322,1322,1322,1322,1322,1322,1322,1322,1322,1317,1317,1317,1317,1317,1317,1317,1317,1317,1317,1317,1322,1317,1317,1317,1317,1317,1317,1312,1312,1317,1317,1317,1317,1312,1312,1312,1312,1312,1312,1312,1312,1307,1307,1307,1307,1312,1312,1312,1312,1312,1312,1312,1312,1312,1312,1312,1312,1312,1312,1307,1307,1307,1307,1307,1307,1307,1307,1307,1307,1302,1302,1302,1302,1302,1297,1297,1297,1297,1302,1302,1302,1302,1297,1297,1292,1292,1288,1288,1283,1283,1283,1278,1278,1268,1268,1264,1259,1255,1255,1255,1250,1250,1250,1245,1241,1241,1236,1232,1232,1232,1232,1227,1227,1223,1219,1219,1219,1219,1214,1214,1214,1202,1202,1197,1197,1197,1189,1185,1185,1181,1181,1181,1181,1181,1177,1177,1169,1169,1165,1165,1165,1161,1161,1157,1153,1149,1149,1153,1149,1149,1145,1138,1138,1138,1134,1134,1130,1126,1126,1123,1123,1119,1119,1119,1115,1112,1112,1108,1105,1105,1105,1101,1101,1097,1097,1094,1094,1090,1090,1090,1084,1080,1080,1080,1077,1077,1073,1073,1070,1067,1067,1063,1063,1060,1057,1057,0,0,0,0,0,0,0,0,0,0,0,0,0,0,0,0,0,0,0,0,0,0,0,0,0,0,0,0,0,0,0,0,0
