0,0,0,0,0,0,0,0,0,0,0,0,0,1594,1594,1594,1594,1594,1594,1594,1594,1594,1594,1594,1594,1594,1594,1594,1594,1594,1594,1594,1594,1594,1594,1594,1594,1594,1594,1594,1594,1594,1594,1594,1594,1594,1594,1594,1594,1594,1594,1594,1594,1594,1586,1586,1586,1586,1594,1586,1586,1586,1586,1586,1586,1586,1586,1586,1586,1586,1594,1594,1601,1601,1609,1616,1609,1609,1616,1785,1785,1748,1748,1748,1748,1748,1748,1748,1739,1739,1739,1731,1731,1722,1722,1722,1722,1713,1713,1713,1713,1632,1624,1624,1616,1616,1609,1609,1609,1609,1609,1616,1624,1624,1624,1624,1632,1632,1632,1632,1632,1639,1639,1639,1647,1655,1655,1655,1663,1663,1663,1663,1671,1671,1680,1680,1688,1688,1688,1696,1696,1696,1696,1705,1705,1713,1713,1722,1722,1722,1731,1731,1731,1739,1739,1748,1748,1748,1757,1757,1757,1766,1766,1766,1766,1776,1785,1794,1794,1794,1794,1804,1804,1804,1804,1813,1823,1823,1823,1823,1833,1833,1843,1843,1843,1853,1853,1853,1853,1853,1843,1843,1843,1843,0,0,1087,0,1087,1087,1087,1087,1087,1087,1087,1084,1084,1084,1080,1080,1080,1080,1080,1080,1084,1087,1087,1090,1097,1097,1097,1101,1101,1101,1105,0,0,0,0,1766,1766,1766,1766,1766,1766,1757,1757,1757,1748,1748,1748,1739,1739,1731,1731,1731,1731,1722,1722,1722,1722,1722,1722,1722,1713,1713,1705,1696,1696,1696,1696,1688,1688,1688,1688,1688,1688,1688,1688,1671,1671,1663,1663,1663,1655,1655,1655,1655,1655,1647,1647,1647,1647,1639,1639,1639,1632,1632,1624,1624,1624,1624,1624,1624,1616,1616,1616,1609,1609,1601,1601,1601,1601,1601,1601,1594,1594,1586,1586,1579,1579,1572,1572,1572,1564,1564,1564,1564,1572,1572,0,0,0,0,0,0,0,0,920,918,918,918,918,915,915,913,913,910,908,906,906,908,908,908,908,910,913,913,915,918,920,923,923,925,925,0,0,0,0,0,1489,1489,1489,1483,1477,1477,1477,1470,1470,1470,1470,1464,1464,1464,1464,1458,1458,1452,1452,1452,1445,1445,1445,1439,1439,1439,1439,1439,1433,1433,1433,1433,1433,1427,1427,1421,1421,1421,1415,1415,1415,1415,1410,1410,1410,1404,1404,1404,1404,1398,1398,1398,1392,1392,1392,1392,1392,1387,1387,1387,1387,1381,1381,1376,1376,1376,1370,1370,1370,1370,1365,1365,1359,1359,1354,1354,1354,1354,1349,1349,1349,1349,1349,1349,1343,1343,1338,1338,1338,1333,1333,1333,1333,1333,1333,1328,1328,1328,1322,1322,1322,1322,1317,1317,1317,1312,1312,1312,1307,1307,1307,1307,1302,1297,1297,1292,1292,1292,1288,1288,1288,1288,1288,1288,1288,1283,1283,1278,1273,1273,1273,1273,1268,1268,1268,1264,1264,1264,1264,1259,1259,1259,1255,1255,1250,1250,1250,1250,1250,1250,1250,1245,1245,1245,1241,1241,1236,1236,1232,1232,1232,1227,1227,1227,1223,1219,1219,1219,1219,1219,1214,1214,1214,1214,1214,1214,1210,1210,1210,1202,1202,1202,1202,1202,1197,1197,1197,1197,1197,1193,1189,1189,1189,1189,1185,1185,1185,1181,1181,1181,1181,1181,1177,1177,1177,1177,1173,1169,1169,1169,1169,1169,1165,1165,1165,1165,1165,1165,1161,1161,1161,1157,1157,1153,1153,1153,1153,1153,1153,1149,1149,1149,1149,1149,1145,1145,1141,1141,1138,1138,1138,1138,1134,1134,1134,1134,1134,1134,1130,1130,0,0,0,0,0,0,0,0,0,0,0,0,0,0,0,0,0,0,0,0,0,0,0,0,0,0,0,0,0,0
0,0,0,0,0,0,0,0,0,0,0,0,0,1594,1594,1594,1594,1594,1594,1594,1594,1594,1594,1594,1594,1594,1594,1594,1594,1594,1594,1594,1594,1594,1594,1594,1594,1594,1594,1594,1594,1594,1594,1594,1594,1594,1594,1594,1594,1594,1594,1594,1594,1594,1594,1594,1594,1594,1594,1594,1586,1586,1586,1586,1586,1586,1586,1586,1586,1586,1594,1594,1594,1601,1601,1609,1609,1616,1616,1624,1739,1739,1739,1739,1748,1748,1748,1748,1748,1739,1739,1731,1731,1722,1722,1722,1722,1713,1713,1713,1713,1632,1624,1624,1616,1616,1616,1609,1609,1609,1609,1616,1624,1624,1624,1624,1632,1632,1632,1632,1632,1639,1639,1639,1647,1655,1655,1655,1663,1663,1663,1663,1671,1671,1680,1680,1688,1688,1696,1696,1696,1696,1696,1705,1713,1713,1713,1722,1722,1722,1731,1731,1731,1739,1739,1748,1748,1748,1757,1757,1757,1766,1766,1766,1776,1776,1785,1794,1794,1794,1794,1804,1804,1804,1813,1813,1823,1823,1823,1833,1833,1833,1843,1843,1843,1853,1853,1853,1853,1853,1853,1843,1843,1843,0,0,1087,1087,1087,1087,1087,1087,1087,1087,1087,1084,1084,1084,1084,1084,1084,1084,1084,1084,1087,1087,1087,1090,1097,1097,1101,1101,1101,1105,1105,0,0,0,1776,1776,1766,1766,1766,1766,1766,1757,1757,1757,1748,1748,1748,1739,1739,1731,1731,1731,1731,1722,1722,1722,1722,1722,1722,1722,1713,1713,1713,1705,1696,1696,1696,1696,1696,1696,1688,1688,1688,1688,1680,1680,1671,1671,1663,1663,1655,1655,1655,1655,1655,1655,1655,1647,1647,1647,1639,1632,1632,1632,1632,1624,1624,1624,1624,1624,1624,1624,1616,1616,1609,1601,1601,1601,1601,1601,1601,1594,1594,1594,1586,1579,1579,1572,1572,1572,1572,1564,1564,1564,1572,1572,0,0,0,0,0,0,0,0,920,920,920,918,918,918,915,913,913,910,908,908,908,908,908,908,908,910,913,915,918,920,920,923,925,925,925,0,0,0,0,0,1489,1489,1489,1483,1483,1483,1477,1477,1470,1470,1470,1464,1464,1464,1464,1458,1458,1458,1452,1452,1445,1445,1445,1439,1439,1439,1439,1439,1439,1439,1433,1433,1433,1427,1427,1421,1421,1421,1415,1415,1415,1415,1415,1410,1410,1410,1410,1404,1404,1404,1398,1398,1392,1392,1392,1392,1392,1392,1387,1387,1387,1381,1381,1381,1376,1376,1370,1370,1370,1370,1365,1365,1359,1359,1354,1354,1354,1354,1354,1349,1349,1349,1349,1349,1343,1343,1338,1338,1338,1333,1333,1333,1333,1333,1333,1328,1328,1328,1322,1322,1322,1322,1317,1317,1317,1312,1312,1312,1307,1307,1307,1307,1302,1302,1297,1297,1292,1292,1292,1292,1288,1288,1288,1288,1288,1288,1283,1278,1278,1273,1273,1273,1268,1268,1268,1268,1264,1264,1264,1259,1259,1259,1255,1255,1255,1250,1250,1250,1250,1250,1250,1245,1245,1245,1241,1241,1236,1236,1232,1232,1232,1232,1227,1227,1227,1223,1223,1219,1219,1219,1214,1214,1214,1214,1214,1214,1210,1210,1206,1206,1202,1202,1202,1202,1202,1197,1197,1197,1197,1193,1193,1193,1189,1189,1189,1189,1185,1185,1181,1181,1181,1181,1181,1181,1177,1177,1177,1173,1169,1169,1169,1169,1169,1165,1165,1165,1165,1165,1165,1161,1161,1161,1157,1157,1157,1153,1153,1153,1153,1149,1149,1149,1149,1149,1145,1145,1145,1141,1141,1138,1138,1138,1134,1134,1134,1134,1134,1134,1130,1130,0,0,0,0,0,0,0,0,0,0,0,0,0,0,0,0,0,0,0,0,0,0,0,0,0,0,0,0,0,0
0,0,0,0,0,0,0,0,0,0,0,0,0,1594,1594,1594,1594,1594,1594,1594,1594,1594,1594,1594,1594,1594,1594,1594,1594,1594,1594,1594,1594,1594,1594,1594,1594,1594,1594,1594,1594,1594,1594,1594,1594,1594,1594,1594,1594,1594,1594,1594,1594,1594,1594,1594,1594,1594,1594,1594,1594,1594,1594,1586,1586,1586,1586,1586,1586,1586,1594,1594,1594,1601,1601,1609,1609,1616,1616,1624,1739,1739,1739,1739,1739,1748,1748,1748,1748,1748,1739,1731,1731,1731,1722,1722,1722,1713,1713,1713,1713,1632,1624,1624,1616,1616,1616,1616,1616,1616,1616,1624,1624,1624,1624,1632,1632,1632,1632,1639,1639,1639,1639,1647,1647,1655,1655,1655,1655,1663,1663,1671,1671,1671,1680,1680,1688,1688,1696,1696,1696,1696,1696,1705,1713,1713,1713,1722,1722,1722,1731,1731,1731,1739,1739,1748,1748,1757,1757,1757,1766,1766,1766,1766,1776,1785,1785,1794,1794,1794,1804,1804,1804,1804,1813,1813,1823,1823,1833,1833,1833,1843,1843,1843,1853,1853,1853,1853,1853,1853,1853,1843,1843,1833,1833,1084,1084,1084,1087,1087,1087,1090,1087,1087,1087,1084,1084,1084,1084,1084,1084,1084,1084,1084,1087,1087,1087,1090,1094,1097,1101,1101,1105,1105,1105,0,0,0,1776,1776,1766,1766,1766,1766,1766,1766,1757,1757,1757,1748,1748,1748,1739,1731,1731,1731,1731,1722,1722,1722,1722,1722,1722,1722,1722,1713,1713,1705,1705,1696,1696,1696,1696,1688,1688,1688,1688,1688,1680,1680,1671,1671,1663,1663,1663,1663,1655,1655,1655,1655,1655,1647,1647,1647,1639,1632,1632,1632,1632,1632,1624,1624,1624,1624,1624,1624,1616,1616,1609,1601,1601,1609,1601,1601,1601,1594,1594,1594,1586,1586,1579,1579,1579,1572,1572,1572,1572,1572,1572,1572,0,0,0,0,0,0,0,925,920,920,920,918,918,918,915,913,913,910,908,908,908,908,908,908,908,910,913,915,918,920,920,923,925,925,928,0,0,0,0,0,1489,1489,1489,1483,1483,1483,1477,1477,1470,1470,1470,1464,1464,1464,1464,1458,1458,1458,1452,1452,1445,1445,1445,1445,1445,1445,1439,1439,1439,1439,1433,1433,1433,1427,1427,1421,1421,1421,1415,1415,1415,1415,1415,1410,1410,1410,1410,1404,1404,1404,1398,1398,1392,1392,1392,1392,1392,1392,1392,1387,1387,1387,1381,1381,1376,1376,1376,1370,1370,1370,1365,1365,1365,1365,1359,1354,1354,1354,1354,1349,1349,1349,1349,1349,1343,1343,1343,1338,1338,1338,1333,1333,1333,1333,1333,1328,1328,1328,1322,1322,1322,1322,1317,1317,1317,1317,1312,1312,1312,1307,1307,1307,1302,1302,1297,1297,1292,1292,1292,1292,1292,1288,1288,1288,1288,1288,1283,1278,1278,1278,1273,1273,1268,1268,1268,1268,1268,1264,1264,1264,1264,1259,1255,1255,1255,1255,1250,1250,1250,1250,1250,1250,1245,1245,1241,1241,1241,1236,1236,1232,1232,1232,1232,1227,1227,1223,1223,1219,1219,1219,1219,1219,1214,1214,1214,1214,1210,1210,1206,1206,1202,1202,1202,1202,1202,1202,1197,1197,1197,1197,1193,1193,1193,1189,1189,1189,1185,1185,1185,1181,1181,1181,1181,1181,1177,1177,1177,1177,1173,1169,1169,1169,1169,1165,1165,1165,1165,1165,1165,1161,1161,1161,1161,1157,1157,1153,1153,1153,1153,1149,1149,1149,1149,1149,1145,1145,1145,1141,1141,1138,1138,1138,1138,1134,1134,1134,1134,1134,1130,1130,0,0,0,0,0,0,0,0,0,0,0,0,0,0,0,0,0,0,0,0,0,0,0,0,0,0,0,0,0,0
0,0,0,0,0,0,0,0,0,0,0,0,0,1594,1594,1594,1594,1594,1594,1594,1594,1601,1594,1594,1594,1594,1594,1594,1594,1594,1594,1594,1594,1594,1594,1594,1594,1594,1594,1594,1594,1594,1594,1594,1594,1594,1594,1594,1594,1594,1594,1594,1594,1594,1594,1594,1594,1594,1594,1594,1594,1594,1594,1594,1586,1586,1586,1586,1586,1586,1594,1594,1601,1601,1609,1609,1609,1616,1624,1632,1731,1731,1731,1739,1739,1748,1748,1748,1748,1748,1748,1739,1731,1731,1722,1722,1722,1713,1713,1722,1713,1632,1624,1624,1624,1624,1616,1616,1616,1616,1616,1624,1624,1624,1632,1632,1632,1632,1632,1639,1639,1639,1639,1647,1647,1647,1655,1655,1655,1663,1671,1671,1671,1680,1680,1688,1688,1688,1696,1696,1696,1696,1696,1705,1705,1713,1713,1722,1722,1722,1731,1731,1739,1739,1748,1748,1757,1757,1757,1757,1766,1766,1766,1766,1776,1776,1794,1794,1794,1794,1794,1804,1804,1804,1813,1813,1823,1823,1833,1833,1833,1843,1843,1843,1853,1853,1853,1853,1853,1853,1853,1853,1843,1080,1080,1080,1080,1084,1087,1087,1087,1090,1087,1087,1087,1084,1084,1084,1084,1084,1084,1084,1084,1084,1087,1087,1087,1094,1094,1097,1101,1101,1105,1105,1108,1108,0,0,1776,1776,1766,1766,1766,1766,1766,1766,1766,1757,1757,1757,1748,1748,1739,1739,1731,1731,1731,1731,1722,1722,1722,1722,1722,1722,1722,1713,1713,1705,1705,1705,1696,1696,1696,1688,1688,1688,1688,1688,1680,1680,1680,1671,1671,1663,1663,1663,1655,1655,1655,1655,1655,1655,1655,1647,1647,1639,1632,1632,1632,1632,1624,1624,1624,1624,1624,1624,1616,1616,1616,1601,1601,1609,1609,1601,1601,1601,1594,1594,1594,1586,1579,1579,1579,1572,1572,1572,1572,1572,1572,1572,0,0,0,0,0,0,0,925,920,920,920,918,918,918,915,915,913,910,908,908,908,908,908,908,908,910,913,915,918,920,920,925,925,928,928,0,0,0,0,0,1489,1489,1489,1489,1483,1483,1477,1477,1470,1470,1470,1464,1464,1464,1464,1464,1458,1458,1458,1458,1445,1445,1445,1445,1445,1445,1439,1439,1439,1439,1433,1433,1433,1433,1427,1427,1421,1421,1421,1415,1415,1415,1415,1410,1410,1410,1410,1404,1404,1404,1398,1398,1398,1392,1392,1392,1392,1392,1392,1387,1387,1387,1381,1381,1376,1376,1376,1370,1370,1370,1370,1365,1365,1365,1359,1359,1354,1354,1354,1349,1349,1349,1349,1349,1343,1343,1343,1338,1338,1338,1333,1333,1333,1333,1333,1333,1328,1328,1328,1322,1322,1322,1317,1317,1317,1317,1312,1312,1312,1307,1307,1307,1307,1302,1302,1297,1292,1292,1292,1292,1292,1288,1288,1288,1288,1288,1283,1278,1278,1278,1273,1273,1273,1268,1268,1268,1268,1264,1264,1264,1264,1259,1259,1255,1255,1255,1255,1250,1250,1250,1250,1250,1245,1245,1241,1241,1236,1236,1236,1232,1232,1232,1232,1232,1227,1227,1223,1223,1219,1219,1219,1219,1214,1214,1214,1214,1214,1210,1210,1206,1206,1202,1202,1202,1202,1202,1202,1197,1197,1197,1197,1193,1193,1189,1189,1189,1185,1185,1185,1181,1181,1181,1181,1181,1181,1181,1177,1177,1173,1169,1169,1169,1169,1169,1165,1165,1165,1165,1165,1165,1165,1161,1161,1157,1157,1157,1153,1153,1153,1149,1149,1149,1149,1149,1145,1145,1145,1145,1141,1138,1138,1138,1138,1138,1134,1134,1134,1134,1134,1134,0,0,0,0,0,0,0,0,0,0,0,0,0,0,0,0,0,0,0,0,0,0,0,0,0,0,0,0,0,0
0,0,0,0,0,0,0,0,0,0,0,0,0,1594,1594,1594,1594,1594,1594,1594,1594,1601,1601,1601,1601,1601,1601,1594,1594,1601,1601,1601,1601,1594,1594,1601,1601,1601,1594,1594,1601,1601,1601,1594,1594,1594,1594,1594,1594,1594,1594,1594,1601,1601,1594,1594,1594,1594,1594,1594,1594,1594,1594,1594,1594,1586,1586,1586,1586,1594,1594,1594,1601,1601,1601,1609,1609,1616,1624,1624,1731,1731,1731,1731,1739,1748,1748,1748,1748,1748,1748,1739,1739,1731,1731,1722,1722,1722,1722,1722,1713,1632,1624,1624,1624,1624,1624,1624,1624,1624,1624,1624,1624,1624,1632,1632,1632,1632,1639,1639,1639,1647,1647,1647,1647,1647,1655,1655,1663,1663,1671,1671,1680,1680,1688,1688,1688,1688,1696,1696,1696,1696,1696,1705,1705,1713,1713,1722,1722,1722,1731,1731,1739,1739,1748,1748,1757,1757,1757,1757,1766,1766,1766,1776,1776,1776,1794,1794,1794,1794,1794,1804,1804,1804,1813,1813,1823,1823,1833,1833,1833,1843,1843,1843,1853,1853,1863,1863,1853,1853,1853,1853,1843,1077,1077,1077,1080,1080,1087,1087,1087,1087,1087,1087,1087,1084,1084,1084,1084,1084,1084,1084,1084,1084,1087,1087,1087,1094,1094,1097,1101,1101,1101,1105,1105,1105,0,1785,1776,1776,1766,1766,1766,1766,1766,1766,1766,1757,1757,1757,1757,1748,1739,1739,1731,1731,1731,1731,1731,1722,1722,1722,1722,1722,1722,1722,1713,1713,1713,1705,1696,1696,1696,1696,1688,1688,1688,1688,1680,1680,1680,1671,1671,1663,1663,1663,1655,1655,1655,1655,1655,1655,1655,1655,1647,1639,1632,1632,1632,1632,1624,1624,1624,1624,1624,1624,1616,1616,1616,1609,1609,1609,1609,1601,1601,1601,1594,1594,1594,1586,1579,1579,1579,1579,1572,1572,1572,1572,1579,1579,0,0,0,0,0,0,0,925,920,920,920,918,918,918,915,915,913,913,908,908,908,908,908,908,910,910,913,915,918,920,923,925,925,928,930,0,0,0,0,0,1496,1489,1489,1489,1489,1483,1477,1477,1470,1470,1470,1464,1464,1464,1464,1464,1458,1458,1458,1458,1452,1445,1445,1445,1445,1445,1445,1439,1439,1439,1433,1433,1433,1433,1427,1427,1427,1421,1421,1415,1415,1415,1415,1415,1410,1410,1410,1404,1404,1404,1398,1398,1398,1398,1392,1392,1392,1392,1392,1392,1387,1387,1381,1381,1376,1376,1376,1370,1370,1370,1370,1370,1370,1365,1359,1359,1359,1354,1354,1349,1349,1349,1349,1349,1349,1343,1343,1338,1338,1338,1333,1333,1333,1333,1333,1333,1328,1328,1328,1322,1322,1322,1317,1317,1317,1317,1312,1312,1312,1307,1307,1307,1307,1302,1302,1297,1297,1292,1292,1292,1292,1292,1288,1288,1288,1288,1283,1278,1278,1278,1278,1273,1273,1273,1268,1268,1268,1268,1268,1264,1264,1264,1259,1259,1255,1255,1255,1250,1250,1250,1250,1250,1245,1245,1241,1241,1236,1236,1236,1236,1232,1232,1232,1232,1232,1227,1227,1223,1223,1223,1219,1219,1219,1214,1214,1214,1214,1210,1210,1206,1206,1202,1202,1202,1202,1202,1202,1197,1197,1197,1197,1193,1193,1189,1189,1189,1185,1185,1185,1185,1181,1181,1181,1181,1181,1181,1177,1177,1173,1173,1173,1169,1169,1169,1169,1165,1165,1165,1165,1165,1165,1161,1161,1161,1157,1157,1157,1153,1153,1149,1149,1149,1149,1149,1145,1145,1145,1145,1141,1141,1141,1138,1138,1138,1134,1134,1134,1134,1134,1134,0,0,0,0,0,0,0,0,0,0,0,0,0,0,0,0,0,0,0,0,0,0,0,0,0,0,0,0,0,0
0,0,0,0,0,0,0,0,0,0,0,0,0,1594,1594,1594,1594,1594,1594,1594,1594,1594,1594,1594,1594,1594,1601,1601,1601,1601,1601,1601,1601,1594,1594,1601,1601,1601,1601,1601,1601,1601,1601,1601,1601,1594,1594,1594,1594,1601,1601,1601,1601,1601,1594,1594,1594,1594,1594,1594,1594,1594,1594,1594,1594,1586,1586,1594,1594,1594,1594,1594,1601,1601,1601,1609,1609,1616,1624,1624,1731,1731,1731,1731,1739,1748,1748,1748,1748,1748,1748,1748,1739,1731,1731,1722,1722,1722,1722,1722,1713,1632,1624,1624,1624,1624,1624,1624,1624,1624,1624,1624,1624,1624,1632,1632,1632,1639,1639,1639,1639,1647,1647,1647,1647,1655,1655,1655,1663,1663,1671,1671,1680,1680,1688,1688,1688,1688,1696,1696,1696,1696,1705,1705,1705,1713,1713,1722,1722,1722,1731,1739,1739,1748,1748,1748,1757,1757,1757,1757,1766,1766,1776,1776,1776,1785,1794,1794,1794,1794,1794,1804,1804,1804,1813,1813,1823,1823,1833,1833,1843,1843,1843,1843,1853,1853,1863,1863,1853,1853,1853,1853,1077,1077,1077,1077,1077,1080,1084,1084,1084,1087,1087,1087,1087,1087,1084,1084,1084,1084,1084,1084,1084,1084,1087,1087,1087,1090,1090,1094,1097,1097,1097,1097,1105,1105,0,1785,1785,1776,1776,1766,1766,1766,1766,1766,1766,1766,1757,1757,1757,1748,1748,1739,1739,1731,1731,1731,1731,1731,1731,1722,1722,1722,1722,1722,1722,1713,1713,1705,1705,1696,1696,1696,1688,1688,1688,1688,1688,1680,1680,1680,1671,1671,1663,1663,1663,1655,1655,1655,1655,1655,1655,1655,1655,1647,1639,1639,1632,1632,1624,1624,1624,1624,1624,1624,1616,1616,1616,1609,1609,1609,1609,1601,1601,1601,1594,1594,1594,1586,1586,1586,1586,1579,1579,1579,1579,1579,1594,0,0,0,0,0,0,0,0,923,920,920,920,918,918,918,915,915,913,908,908,908,908,908,908,908,910,910,913,918,920,923,925,925,928,928,928,0,0,0,0,0,1496,1489,1489,1489,1489,1483,1477,1477,1470,1470,1470,1464,1464,1464,1464,1464,1464,1464,1464,1458,1452,1445,1445,1445,1445,1445,1445,1439,1439,1439,1439,1433,1433,1433,1427,1427,1427,1421,1421,1421,1415,1415,1415,1415,1410,1410,1410,1404,1404,1404,1398,1398,1398,1398,1392,1392,1392,1392,1392,1392,1387,1381,1381,1381,1376,1376,1376,1376,1370,1370,1370,1370,1370,1370,1365,1359,1359,1354,1354,1354,1349,1349,1349,1349,1349,1343,1343,1343,1338,1338,1338,1333,1333,1333,1333,1333,1333,1328,1328,1322,1322,1322,1317,1317,1317,1312,1312,1312,1312,1312,1307,1307,1307,1302,1302,1297,1297,1297,1292,1292,1292,1292,1292,1288,1288,1288,1283,1278,1278,1278,1278,1273,1273,1273,1273,1268,1268,1268,1268,1264,1264,1264,1264,1259,1255,1255,1255,1255,1250,1250,1250,1250,1245,1245,1241,1241,1236,1236,1236,1236,1232,1232,1232,1232,1232,1227,1227,1227,1223,1223,1223,1219,1219,1214,1214,1214,1214,1210,1210,1206,1206,1202,1202,1202,1202,1202,1202,1197,1197,1197,1197,1197,1193,1193,1189,1189,1185,1185,1185,1185,1181,1181,1181,1181,1181,1181,1177,1177,1177,1173,1173,1169,1169,1169,1169,1169,1165,1165,1165,1165,1165,1161,1161,1161,1157,1157,1157,1153,1153,1149,1149,1149,1149,1149,1145,1145,1145,1145,1141,1141,1141,1138,1138,1138,1138,1134,1134,1134,1134,1134,0,0,0,0,0,0,0,0,0,0,0,0,0,0,0,0,0,0,0,0,0,0,0,0,0,0,0,0,0,0
0,0,0,0,0,0,0,0,0,0,0,0,0,1594,1594,1594,1594,1594,1594,1594,1594,1594,1594,1594,1594,1594,1601,1601,1601,1601,1601,1601,1601,1601,1601,1601,1601,1601,1601,1601,1601,1601,1601,1601,1601,1594,1594,1594,1594,1594,1594,1594,1601,1601,1594,1594,1594,1594,1594,1594,1594,1594,1594,1594,1594,1594,1594,1594,1594,1594,1594,1594,1601,1601,1601,1609,1609,1616,1624,1624,1722,1731,1731,1731,1739,1748,1748,1748,1748,1748,1748,1748,1739,1731,1731,1722,1722,1722,1722,1722,1722,1632,1632,1624,1624,1624,1624,1624,1624,1624,1616,1616,1624,1624,1632,1632,1639,1639,1647,1647,1647,1647,1647,1647,1647,1655,1655,1655,1663,1663,1671,1671,1680,1680,1688,1688,1688,1688,1696,1696,1696,1705,1705,1713,1713,1713,1722,1722,1731,1731,1731,1739,1739,1748,1748,1757,1757,1757,1757,1766,1766,1766,1776,1776,1776,1785,1794,1794,1794,1794,1794,1804,1804,1804,1813,1813,1823,1823,1833,1833,1843,1843,1843,1843,1853,1863,1863,1863,1853,1853,1853,1853,1073,1073,1077,1077,1077,1077,1080,1080,1080,1084,1087,1084,1084,1084,1084,1084,1084,1084,1084,1084,1084,1084,1087,1087,1087,1090,1090,1090,1094,1094,1094,1097,1105,1105,1073,1785,1785,1785,1776,1766,1766,1766,1766,1766,1766,1766,1757,1757,1757,1748,1748,1739,1739,1739,1739,1731,1731,1731,1731,1722,1722,1722,1722,1722,1722,1713,1713,1713,1705,1705,1696,1696,1696,1696,1688,1688,1688,1688,1680,1680,1680,1671,1663,1663,1663,1663,1655,1655,1655,1655,1655,1655,1655,1647,1647,1647,1639,1632,1632,1632,1624,1624,1624,1624,1616,1616,1616,1609,1609,1609,1609,1601,1601,1601,1594,1594,1594,1586,1586,1586,1586,1579,1579,1579,1579,1579,1594,0,0,0,0,0,0,0,925,923,920,920,920,918,918,918,915,915,915,908,908,908,908,908,908,908,910,910,915,918,920,923,925,928,928,928,928,0,0,0,0,0,1496,1489,1489,1489,1489,1483,1477,1477,1477,1470,1470,1470,1470,1464,1464,1464,1464,1464,1464,1458,1458,1445,1445,1445,1445,1445,1445,1445,1439,1439,1439,1439,1439,1433,1433,1427,1427,1421,1421,1421,1421,1415,1415,1415,1415,1415,1410,1410,1404,1404,1398,1398,1398,1398,1398,1398,1392,1392,1392,1392,1387,1381,1381,1381,1376,1376,1376,1376,1370,1370,1370,1370,1370,1370,1365,1365,1365,1359,1354,1354,1354,1354,1349,1349,1349,1349,1349,1343,1343,1338,1338,1333,1333,1333,1333,1333,1333,1328,1328,1322,1322,1322,1322,1317,1317,1312,1312,1312,1312,1312,1307,1307,1307,1307,1302,1302,1302,1297,1297,1297,1292,1292,1292,1288,1288,1288,1283,1283,1278,1278,1278,1278,1273,1273,1273,1273,1268,1268,1268,1268,1264,1264,1264,1259,1259,1255,1255,1255,1250,1250,1250,1250,1250,1245,1245,1241,1236,1236,1236,1236,1236,1232,1232,1232,1232,1232,1227,1227,1227,1223,1223,1219,1219,1219,1214,1214,1214,1214,1210,1210,1206,1206,1202,1202,1202,1202,1202,1197,1197,1197,1197,1197,1193,1193,1189,1189,1185,1185,1185,1185,1181,1181,1181,1181,1181,1181,1181,1177,1177,1173,1173,1173,1169,1169,1169,1169,1169,1165,1165,1165,1165,1165,1161,1161,1161,1161,1157,1153,1153,1149,1149,1149,1149,1149,1149,1145,1145,1145,1145,1141,1141,1141,1138,1138,1138,1138,1134,1134,1134,1134,0,0,0,0,0,0,0,0,0,0,0,0,0,0,0,0,0,0,0,0,0,0,0,0,0,0,0,0,0,0
0,0,0,0,0,0,0,0,0,0,0,0,0,1594,1594,1594,1594,1594,1594,1594,1594,1601,1601,1601,1601,1601,1601,1601,1601,1601,1601,1601,1601,1601,1601,1601,1601,1601,1601,1601,1601,1601,1601,1601,1601,1594,1594,1594,1594,1594,1594,1594,1601,1601,1601,1601,1594,1594,1594,1594,1594,1594,1594,1594,1594,1594,1594,1594,1594,1594,1594,1594,1601,1601,1601,1609,1616,1624,1624,1624,1624,1731,1731,1739,1739,1748,1748,1748,1748,1748,1748,1748,1739,1739,1731,1731,1722,1722,1722,1722,1722,1632,1632,1624,1624,1624,1624,1624,1624,1624,1616,1616,1624,1624,1632,1632,1632,1639,1647,1647,1647,1647,1647,1655,1655,1655,1655,1655,1663,1671,1671,1680,1680,1680,1688,1688,1688,1688,1696,1705,1705,1713,1713,1713,1722,1722,1722,1722,1731,1731,1731,1739,1748,1748,1757,1757,1757,1757,1757,1766,1766,1766,1766,1776,1776,1785,1794,1794,1794,1794,1794,1804,1804,1804,1804,1813,1823,1823,1833,1833,1843,1843,1843,1057,1057,1863,1863,1863,1853,1853,1063,1063,1067,1067,1073,1073,1077,1077,1077,1077,1080,1080,1084,1084,1084,1084,1084,1080,1080,1080,1080,1080,1080,1084,1084,1084,1087,1084,1084,1087,1084,1084,1077,1077,1073,1073,1073,1785,1785,1785,1776,1766,1766,1766,1766,1766,1766,1766,1766,1757,1757,1748,1748,1739,1739,1739,1739,1731,1731,1731,1731,1722,1722,1722,1722,1722,1722,1713,1713,1713,1705,1705,1696,1696,1696,1696,1688,1688,1688,1688,1680,1680,1680,1680,1671,1663,1663,1663,1663,1655,1655,1655,1655,1655,1655,1655,1655,1647,1647,1639,1632,1632,1632,1624,1624,1624,1616,1616,1616,1609,1609,1609,1609,1609,1601,1601,1594,1594,1594,1586,1586,1586,1586,1586,1579,1579,1579,1586,1594,0,0,0,0,0,0,0,925,923,920,920,920,918,918,918,915,915,915,908,908,908,908,908,910,910,910,910,913,918,920,925,928,928,930,930,930,0,0,0,0,0,1496,1489,1489,1489,1489,1483,1483,1483,1477,1470,1470,1470,1470,1470,1464,1464,1464,1464,1464,1458,1458,1458,1452,1452,1445,1445,1445,1445,1439,1439,1439,1439,1439,1433,1433,1427,1427,1421,1421,1421,1421,1421,1415,1415,1415,1415,1415,1410,1404,1404,1398,1398,1398,1398,1398,1398,1392,1392,1392,1392,1387,1381,1381,1381,1376,1376,1376,1376,1376,1370,1370,1370,1370,1370,1370,1365,1365,1365,1354,1354,1354,1354,1349,1349,1349,1349,1349,1343,1343,1338,1338,1338,1333,1333,1333,1333,1333,1328,1328,1328,1322,1322,1322,1317,1317,1312,1312,1312,1312,1312,1307,1307,1307,1307,1302,1302,1302,1302,1297,1297,1292,1292,1292,1288,1288,1288,1283,1283,1278,1278,1278,1278,1273,1273,1273,1273,1273,1268,1268,1268,1268,1264,1264,1264,1259,1259,1255,1255,1255,1255,1250,1250,1250,1250,1245,1241,1241,1236,1236,1236,1236,1232,1232,1232,1232,1232,1227,1227,1227,1227,1227,1223,1223,1219,1219,1214,1214,1214,1214,1210,1210,1206,1206,1202,1202,1202,1202,1197,1197,1197,1197,1193,1193,1193,1189,1189,1185,1185,1185,1185,1181,1181,1181,1181,1181,1181,1181,1181,1181,1177,1173,1173,1173,1173,1169,1169,1169,1165,1165,1165,1165,1165,1165,1161,1161,1161,1153,1153,1153,1149,1149,1149,1149,1149,1149,1149,1149,1149,1145,1145,1141,1141,1141,1138,1138,1138,1138,1134,1134,1134,0,0,0,0,0,0,0,0,0,0,0,0,0,0,0,0,0,0,0,0,0,0,0,0,0,0,0,0,0,0
0,0,0,0,0,0,0,0,0,0,0,0,0,1594,1594,1594,1594,1594,1601,1601,1601,1601,1601,1601,1601,1601,1601,1601,1601,1601,1601,1601,1601,1601,1601,1601,1601,1601,1601,1601,1601,1601,1601,1601,1601,1594,1594,1594,1594,1594,1601,1601,1601,1601,1601,1601,1601,1594,1594,1594,1594,1594,1594,1594,1594,1594,1594,1594,1594,1594,1594,1601,1601,1601,1609,1609,1616,1624,1624,1616,1616,1731,1731,1739,1739,1748,1748,1748,1748,1748,1748,1748,1739,1739,1731,1731,1731,1722,1722,1722,1722,1632,1632,1624,1624,1624,1624,1624,1624,1624,1624,1624,1624,1624,1632,1632,1632,1639,1647,1647,1647,1647,1647,1655,1655,1655,1655,1663,1671,1671,1671,1680,1680,1680,1688,1688,1688,1696,1696,1705,1705,1713,1722,1722,1722,1722,1722,1722,1731,1731,1731,1739,1748,1748,1757,1757,1757,1757,1757,1766,1766,1766,1766,1776,1776,1785,1785,1794,1794,1794,1794,1794,1804,1804,1804,1813,1823,1833,1833,1843,1054,1054,1057,1057,1050,1050,1054,1863,1060,1060,1063,1063,1063,1063,1070,1073,1073,1073,1073,1073,1077,1077,1080,1084,1084,1084,1084,1080,1080,1077,1077,1077,1077,1077,1080,1080,1084,1077,1073,1073,1077,1073,1073,1073,1070,1070,1070,1070,1070,1776,1776,1766,1766,1776,1776,1766,1766,1766,1766,1757,1757,1757,1748,1739,1739,1739,1739,1731,1731,1731,1731,1722,1722,1722,1722,1722,1722,1722,1722,1713,1713,1705,1696,1696,1696,1696,1688,1688,1688,1688,1688,1680,1680,1680,1671,1671,1663,1663,1663,1663,1655,1655,1655,1655,1655,1655,1655,1655,1647,1639,1632,1632,1632,1624,1624,1624,1616,1616,1616,1609,1609,1609,1609,1609,1601,1601,1601,1594,1594,1594,1586,1586,1586,1586,1586,1579,1579,1586,1594,1601,0,0,0,0,0,0,923,920,920,920,920,918,918,918,915,915,915,908,908,908,908,908,910,910,910,910,913,918,920,925,928,930,930,930,930,0,0,0,0,0,1496,1496,1489,1489,1489,1489,1483,1483,1477,1470,1470,1470,1470,1470,1464,1464,1464,1464,1464,1464,1458,1458,1452,1452,1445,1445,1445,1445,1439,1439,1439,1439,1439,1433,1433,1433,1427,1421,1421,1421,1421,1421,1415,1415,1415,1415,1415,1410,1404,1404,1398,1398,1398,1398,1398,1398,1392,1392,1392,1392,1387,1387,1381,1381,1376,1376,1376,1376,1376,1370,1370,1370,1370,1370,1370,1370,1365,1365,1359,1354,1354,1354,1354,1349,1349,1349,1349,1343,1343,1343,1338,1338,1338,1333,1333,1333,1333,1328,1328,1328,1328,1322,1322,1322,1317,1317,1312,1312,1312,1312,1307,1307,1307,1307,1307,1307,1302,1302,1302,1297,1297,1292,1292,1292,1288,1288,1283,1283,1278,1278,1278,1278,1278,1278,1273,1273,1273,1273,1268,1268,1268,1264,1264,1264,1264,1259,1259,1255,1255,1255,1250,1250,1250,1250,1245,1241,1241,1236,1236,1236,1236,1232,1232,1232,1232,1232,1232,1227,1227,1227,1227,1227,1223,1223,1219,1214,1214,1214,1214,1210,1210,1210,1206,1202,1202,1202,1202,1197,1197,1197,1197,1193,1193,1193,1189,1189,1185,1185,1185,1185,1185,1181,1181,1181,1181,1181,1181,1181,1181,1177,1173,1173,1173,1173,1173,1169,1169,1169,1165,1165,1165,1165,1165,1165,1161,1161,1153,1153,1153,1149,1149,1149,1149,1149,1149,1149,1149,1149,1149,1145,1145,1145,1141,1138,1138,1138,1138,1134,1134,1134,0,0,0,0,0,0,0,0,0,0,0,0,0,0,0,0,0,0,0,0,0,0,0,0,0,0,0,0,0,0
0,0,0,0,0,0,0,0,0,0,0,0,0,1601,1601,1601,1601,1601,1601,1601,1601,1601,1601,1601,1601,1601,1601,1601,1601,1601,1601,1601,1601,1601,1601,1601,1601,1601,1601,1601,1601,1601,1601,1601,1601,1601,1594,1594,1594,1601,1601,1601,1601,1601,1601,1601,1601,1594,1594,1594,1594,1594,1594,1594,1594,1594,1594,1594,1594,1594,1594,1601,1601,1601,1609,1609,1616,1624,1624,1616,1616,1731,1739,1739,1739,1748,1748,1748,1748,1757,1757,1748,1748,1748,1731,1731,1731,1731,1731,1731,1722,1713,1632,1624,1624,1624,1624,1624,1624,1624,1624,1624,1624,1624,1624,1632,1632,1639,1647,1647,1647,1647,1655,1655,1655,1655,1655,1663,1671,1671,1671,1671,1680,1680,1688,1688,1688,1696,1705,1705,1713,1722,1722,1722,1722,1722,1722,1722,1731,1731,1739,1739,1748,1757,1757,1757,1757,1757,1757,1766,1766,1766,1766,1776,1776,1785,1785,1794,1794,1794,1794,1794,1804,1044,1044,1044,1044,1044,1054,1054,1054,1054,1054,1047,1047,1050,1050,1050,1050,1057,1060,1060,1060,1060,1063,1070,1070,1070,1067,1067,1070,1067,1067,1063,1063,1077,1077,1077,1073,1073,1073,1073,1073,1070,1070,1073,1073,1073,1070,1070,1070,1070,1070,1070,1070,1070,1067,1063,1063,1060,1060,1063,1063,1776,1776,1766,1063,1063,1063,1060,1060,1757,1748,1722,1722,1713,1713,1731,1731,1722,1722,1722,1722,1722,1722,1722,1722,1722,1722,1713,1713,1705,1696,1696,1696,1696,1688,1688,1688,1688,1688,1688,1680,1680,1671,1671,1671,1663,1663,1663,1663,1655,1655,1655,1655,1655,1655,1655,1647,1639,1632,1632,1632,1624,1624,1624,1616,1616,1616,1609,1609,1609,1609,1609,1609,1601,1601,1601,1594,1594,1594,1594,1586,1586,1586,1586,1586,1586,1594,1601,0,0,0,0,0,0,923,920,920,920,920,920,918,918,915,915,915,910,908,908,908,910,910,910,910,910,913,918,920,925,928,930,930,930,930,0,0,0,0,0,1496,1496,1496,1496,1489,1489,1483,1483,1477,1477,1470,1470,1470,1470,1464,1464,1464,1464,1464,1464,1464,1458,1452,1445,1445,1445,1445,1445,1439,1439,1439,1439,1439,1439,1433,1433,1427,1421,1421,1421,1421,1421,1421,1415,1415,1415,1415,1410,1404,1404,1398,1398,1398,1398,1398,1398,1392,1392,1392,1392,1387,1387,1387,1381,1381,1376,1376,1376,1376,1376,1370,1370,1370,1370,1370,1370,1365,1365,1365,1359,1354,1354,1354,1354,1349,1349,1349,1349,1343,1343,1343,1338,1338,1338,1333,1333,1333,1333,1328,1328,1328,1328,1328,1322,1322,1317,1317,1312,1312,1312,1307,1307,1307,1307,1307,1307,1302,1302,1302,1302,1297,1292,1292,1292,1288,1288,1283,1283,1283,1278,1278,1278,1278,1278,1273,1273,1273,1273,1273,1268,1268,1264,1264,1264,1259,1259,1259,1255,1255,1255,1255,1255,1250,1250,1250,1245,1241,1241,1236,1236,1236,1232,1232,1232,1232,1232,1232,1232,1227,1227,1227,1227,1227,1223,1219,1219,1214,1214,1214,1214,1214,1210,1210,1206,1206,1202,1202,1202,1197,1197,1197,1197,1193,1193,1189,1189,1185,1185,1185,1185,1185,1185,1185,1181,1181,1181,1181,1181,1181,1177,1177,1173,1173,1173,1173,1169,1169,1169,1169,1165,1165,1165,1165,1165,1165,1157,1153,1153,1153,1153,1153,1149,1149,1149,1149,1149,1149,1149,1149,1145,1145,1145,1145,1141,1138,1138,1138,1138,1134,1134,0,0,0,0,0,0,0,0,0,0,0,0,0,0,0,0,0,0,0,0,0,0,0,0,0,0,0,0,0,0
0,0,0,0,0,0,0,0,0,0,0,0,0,1601,1601,1601,1601,1601,1601,1601,1601,1601,1601,1601,1601,1601,1601,1601,1601,1609,1601,1601,1601,1601,1601,1601,1601,1601,1601,1601,1601,1601,1601,1601,1601,1601,1601,1594,1594,1601,1601,1601,1601,1601,1601,1601,1601,1601,1601,1594,1594,1594,1594,1594,1594,1594,1594,1601,1601,1601,1601,1601,1601,1609,1609,1609,1616,1624,1616,1609,1609,1739,1739,1739,1748,1748,1748,1748,1757,1757,1757,1757,1748,1739,1739,1731,1731,1731,1731,1731,1722,1713,1632,1632,1624,1624,1624,1624,1624,1624,1624,1624,1624,1624,1624,1624,1632,1639,1647,1647,1647,1647,1655,1655,1655,1655,1663,1663,1671,1671,1671,1671,1680,1680,1688,1688,1688,1696,1705,1705,1713,1722,1722,1722,1722,1722,1731,1731,1731,1731,1739,1739,1748,1757,1757,1757,1757,1757,1766,1766,1766,1766,1776,1776,1785,1785,1794,1794,1794,1034,1034,1034,1034,1044,1041,1041,1041,1044,1050,1050,1050,1050,1050,1047,1047,1050,1050,1050,1050,1054,1057,1057,1057,1057,1060,1060,1063,1063,1060,1060,1060,1060,1060,1060,1060,1077,1077,1067,1067,1067,1067,1067,1067,1063,1063,1063,1067,1067,1063,1063,1063,1063,1063,1067,1070,1070,1067,1063,1063,1060,1060,1060,1060,1060,1063,1063,1063,1063,1060,1060,1057,1057,1748,1713,1713,1713,1713,1722,1722,1722,1722,1722,1722,1722,1722,1722,1722,1722,1722,1713,1705,1705,1696,1696,1696,1696,1696,1688,1688,1688,1688,1688,1680,1680,1671,1671,1671,1663,1663,1663,1663,1655,1655,1655,1655,1655,1655,1655,1647,1639,1639,1632,1632,1624,1624,1624,1616,1616,1616,1609,1609,1609,1609,1609,1609,1601,1601,1601,1594,1594,1594,1594,1586,1586,1586,1586,1586,1586,1586,0,0,0,0,0,0,0,923,923,923,923,920,920,918,918,915,915,915,910,910,908,908,910,910,910,910,910,913,918,923,925,928,930,930,930,930,0,0,0,0,0,1496,1496,1496,1496,1489,1489,1483,1483,1477,1477,1470,1470,1470,1470,1470,1470,1470,1464,1464,1464,1464,1458,1452,1445,1445,1445,1445,1445,1445,1445,1439,1439,1439,1439,1433,1433,1427,1427,1421,1421,1421,1421,1421,1415,1415,1415,1415,1410,1410,1404,1398,1398,1398,1398,1398,1398,1392,1392,1392,1392,1387,1387,1387,1381,1381,1381,1376,1376,1376,1376,1370,1370,1370,1370,1370,1370,1365,1365,1365,1359,1354,1354,1354,1354,1349,1349,1349,1349,1343,1343,1343,1338,1338,1338,1333,1333,1333,1333,1328,1328,1328,1328,1328,1322,1322,1317,1317,1312,1312,1312,1307,1307,1307,1307,1307,1307,1307,1307,1302,1302,1297,1297,1297,1292,1288,1288,1288,1288,1283,1283,1278,1278,1278,1278,1273,1273,1273,1273,1273,1268,1268,1264,1264,1264,1259,1259,1259,1255,1255,1255,1255,1255,1250,1250,1250,1250,1250,1241,1236,1236,1236,1236,1236,1232,1232,1232,1232,1232,1232,1232,1227,1227,1227,1223,1223,1219,1219,1214,1214,1214,1214,1214,1210,1206,1206,1202,1202,1202,1197,1197,1197,1197,1197,1193,1193,1193,1189,1185,1185,1185,1185,1185,1185,1181,1181,1181,1181,1181,1181,1177,1177,1177,1177,1173,1173,1173,1169,1169,1169,1165,1165,1165,1165,1165,1165,1157,1153,1153,1153,1153,1153,1153,1149,1149,1149,1149,1149,1149,1149,1149,1145,1145,1145,1141,1138,1138,1138,1138,1134,1134,0,0,0,0,0,0,0,0,0,0,0,0,0,0,0,0,0,0,0,0,0,0,0,0,0,0,0,0,0,0
0,0,0,0,0,0,0,0,0,0,0,0,0,1601,1601,1601,1601,1601,1601,1601,1601,1601,1601,1601,1609,1609,1609,1601,1601,1609,1601,1601,1601,1601,1601,1601,1601,1601,1601,1609,1601,1601,1601,1601,1601,1601,1601,1601,1601,1601,1601,1601,1601,1601,1601,1601,1601,1601,1601,1601,1601,1601,1601,1601,1594,1594,1601,1601,1601,1601,1601,1601,1601,1609,1609,1609,1616,1624,1616,1609,1609,1616,1739,1739,1748,1748,1748,1757,1757,1757,1757,1757,1748,1739,1739,1739,1731,1731,1731,1731,1731,1722,1639,1632,1632,1624,1624,1632,1624,1624,1624,1624,1624,1624,1624,1624,1632,1639,1639,1639,1647,1655,1655,1655,1655,1663,1663,1671,1671,1671,1671,1671,1671,1680,1680,1680,1688,1696,1705,1713,1713,1722,1722,1722,1722,1722,1731,1731,1731,1731,1739,1739,1748,1748,1757,1757,1757,1757,1766,1766,1766,1766,1776,1776,1785,1785,1785,1031,1031,1031,1031,1031,1034,1038,1038,1038,1038,1038,1047,1050,1047,1047,1047,1044,1044,1047,1047,1044,1044,1047,1047,1050,1050,1050,1050,1050,1054,1057,1057,1057,1060,1050,1047,1047,1047,1047,1047,1054,1054,1057,1057,1057,1057,1054,1054,1057,1057,1060,1060,1057,1057,1060,1060,1063,1063,1063,1063,1060,1060,1060,1060,1057,1057,1057,1060,1060,1060,1060,1057,1057,1050,1050,1050,1713,1713,1731,1731,1722,1722,1731,1722,1722,1722,1722,1722,1722,1722,1722,1722,1713,1705,1696,1696,1696,1696,1696,1696,1696,1688,1688,1688,1688,1680,1680,1680,1671,1671,1663,1663,1663,1663,1663,1655,1655,1655,1655,1655,1655,1655,1647,1639,1639,1632,1632,1624,1624,1616,1616,1616,1616,1609,1609,1609,1609,1609,1601,1601,1601,1601,1594,1594,1594,1594,1586,1586,1586,1586,1579,1579,0,0,0,0,0,0,0,923,923,923,923,920,920,918,918,918,918,915,913,910,910,910,910,913,913,913,913,915,918,923,928,928,930,930,930,930,0,0,0,0,0,1496,1496,1496,1496,1489,1489,1483,1483,1477,1477,1477,1470,1470,1470,1470,1464,1464,1464,1464,1464,1464,1452,1452,1445,1445,1445,1445,1445,1445,1445,1445,1439,1439,1439,1433,1433,1427,1427,1427,1421,1421,1421,1421,1421,1415,1415,1415,1415,1410,1404,1404,1404,1404,1398,1398,1398,1398,1392,1392,1392,1392,1392,1387,1387,1387,1381,1376,1376,1376,1376,1370,1370,1370,1370,1370,1370,1365,1365,1365,1359,1359,1354,1354,1354,1354,1349,1349,1349,1349,1343,1343,1338,1338,1338,1338,1333,1333,1333,1333,1328,1328,1328,1328,1328,1328,1322,1317,1317,1312,1312,1312,1307,1307,1307,1307,1307,1307,1307,1302,1302,1297,1297,1297,1292,1292,1288,1288,1288,1288,1283,1283,1278,1278,1278,1278,1273,1273,1273,1273,1268,1268,1264,1264,1264,1264,1259,1259,1255,1255,1255,1255,1255,1250,1250,1250,1250,1250,1241,1241,1236,1236,1236,1236,1236,1232,1232,1232,1232,1232,1232,1227,1227,1227,1227,1223,1219,1219,1219,1214,1214,1214,1214,1210,1206,1206,1202,1202,1202,1202,1197,1197,1197,1197,1197,1193,1193,1189,1189,1189,1189,1185,1185,1185,1185,1185,1181,1181,1181,1181,1177,1177,1177,1177,1173,1173,1173,1169,1169,1169,1169,1165,1165,1165,1165,1161,1161,1157,1157,1153,1153,1153,1153,1153,1153,1153,1149,1149,1149,1149,1149,1145,1145,1145,1141,1138,1138,1138,1138,1138,1138,0,0,0,0,0,0,0,0,0,0,0,0,0,0,0,0,0,0,0,0,0,0,0,0,0,0,0,0,0,0
0,0,0,0,0,0,0,0,0,0,0,0,0,1594,1594,1601,1601,1601,1601,1601,1601,1601,1601,1609,1609,1609,1609,1601,1601,1609,1601,1601,1601,1601,1601,1601,1609,1609,1609,1609,1601,1601,1601,1601,1601,1601,1601,1594,1594,1601,1601,1601,1601,1609,1609,1601,1601,1601,1601,1601,1601,1601,1601,1601,1601,1601,1601,1601,1601,1601,1601,1601,1601,1609,1609,1616,1616,1624,1616,1616,1616,1616,1748,1748,1748,1757,1757,1757,1757,1757,1757,1757,1748,1739,1739,1739,1731,1731,1731,1731,1731,1722,1639,1632,1632,1632,1632,1632,1632,1624,1624,1624,1624,1624,1624,1632,1632,1632,1639,1639,1647,1647,1655,1655,1655,1663,1663,1671,1671,1671,1671,1671,1671,1680,1680,1680,1688,1696,1705,1705,1713,1722,1722,1722,1722,1731,1731,1731,1731,1739,1739,1739,1739,1748,1757,1757,1766,1766,1766,1766,1766,1766,1766,1766,1776,1025,1025,1025,1028,1028,1028,1028,1031,1034,1038,1038,1038,1038,1047,1047,1047,1044,1044,1041,1041,1038,1038,1034,1034,1044,1044,1044,1047,1044,1044,1047,1047,1047,1047,1041,1041,1038,1034,1034,1034,1034,1038,1041,1044,1050,1050,1050,1050,1047,1047,1047,1047,1050,1050,1050,1050,1050,1054,1057,1054,1054,1054,1050,1050,1050,1050,1050,1050,1054,1057,1057,1060,1060,1057,1057,1050,1047,1047,1038,1038,1038,1041,1041,1044,1044,1044,1731,1722,1722,1722,1722,1722,1722,1722,1713,1705,1696,1696,1696,1696,1696,1696,1696,1696,1688,1688,1688,1688,1680,1680,1680,1671,1671,1663,1663,1663,1663,1663,1663,1663,1655,1655,1655,1655,1647,1639,1639,1632,1632,1624,1624,1624,1624,1616,1616,1616,1616,1609,1609,1609,1609,1601,1601,1601,1594,1594,1594,1594,1594,1586,1586,1586,1579,1572,1550,1550,0,0,0,0,0,923,923,923,923,920,920,918,918,918,915,915,913,910,910,910,910,913,913,913,913,915,918,923,928,928,930,930,930,930,0,0,0,0,0,1503,1496,1496,1496,1489,1489,1489,1483,1483,1483,1477,1470,1470,1470,1470,1464,1464,1464,1464,1464,1464,1452,1452,1445,1445,1445,1445,1445,1445,1445,1445,1439,1439,1439,1439,1433,1427,1427,1427,1421,1421,1421,1421,1421,1415,1415,1415,1415,1410,1410,1404,1404,1404,1404,1398,1398,1398,1392,1392,1392,1392,1392,1387,1387,1387,1381,1376,1376,1376,1376,1370,1370,1370,1370,1370,1370,1365,1365,1365,1365,1359,1359,1354,1354,1354,1349,1349,1349,1349,1349,1343,1343,1338,1338,1338,1333,1333,1333,1333,1328,1328,1328,1328,1328,1328,1322,1317,1317,1317,1312,1312,1312,1307,1307,1307,1307,1307,1307,1302,1302,1302,1297,1297,1292,1292,1292,1288,1288,1288,1283,1283,1283,1283,1278,1278,1278,1273,1273,1273,1273,1268,1268,1268,1264,1264,1264,1259,1259,1255,1255,1255,1255,1255,1255,1250,1250,1250,1250,1245,1241,1236,1236,1236,1236,1232,1232,1232,1232,1232,1232,1227,1227,1227,1223,1223,1219,1219,1219,1219,1214,1214,1214,1214,1210,1206,1202,1202,1202,1202,1202,1202,1197,1197,1197,1193,1193,1193,1189,1189,1189,1189,1185,1185,1185,1185,1185,1185,1181,1181,1181,1177,1177,1177,1173,1173,1173,1169,1169,1169,1169,1165,1165,1165,1165,1161,1161,1157,1157,1157,1157,1153,1153,1153,1153,1153,1153,1149,1149,1149,1149,1149,1149,1145,1141,1138,1138,1138,1138,1138,1138,0,0,0,0,0,0,0,0,0,0,0,0,0,0,0,0,0,0,0,0,0,0,0,0,0,0,0,0,0,0
0,0,0,0,0,0,0,0,0,0,0,0,0,1594,1594,1601,1601,1601,1601,1601,1609,1609,1609,1609,1609,1609,1609,1609,1609,1609,1609,1601,1601,1609,1601,1601,1609,1609,1609,1609,1609,1609,1609,1601,1601,1601,1601,1594,1594,1601,1601,1609,1609,1609,1609,1601,1601,1601,1601,1601,1601,1601,1601,1601,1601,1601,1601,1601,1601,1601,1601,1601,1601,1609,1609,1616,1624,1624,1624,1616,1616,1616,1748,1748,1757,1757,1757,1757,1757,1757,1757,1757,1757,1739,1739,1739,1731,1731,1731,1731,1731,1731,1713,1639,1632,1632,1632,1632,1632,1632,1632,1632,1632,1632,1632,1632,1632,1632,1639,1639,1647,1647,1655,1655,1663,1663,1663,1671,1671,1671,1671,1680,1680,1680,1688,1688,1688,1696,1705,1705,1713,1713,1713,1722,1722,1722,1722,1731,1731,1731,1731,1731,1739,1748,1757,1757,1766,1019,1019,1016,1016,1019,1022,1025,1022,1022,1022,1025,1025,1028,1028,1028,1028,1031,1031,1028,1028,1031,1031,1041,1041,1034,1034,1038,1038,1038,1034,1034,1034,1034,1034,1034,1038,1038,1038,1041,1038,1038,1038,1038,1038,1034,1034,1034,1034,1034,1038,1041,1041,1044,1044,1044,1044,1041,1041,1041,1041,1041,1044,1038,1038,1047,1047,1054,1050,1050,1050,1050,1047,1044,1041,1041,1047,1047,1050,1054,1057,1057,1057,1050,1050,1041,1038,1038,1038,1038,1038,1038,1038,1038,1041,1044,1041,1041,1722,1722,1722,1722,1722,1713,1705,1705,1696,1696,1696,1696,1696,1696,1696,1696,1688,1688,1688,1680,1680,1680,1671,1671,1663,1663,1663,1663,1663,1663,1663,1655,1655,1655,1655,1647,1639,1639,1632,1632,1632,1624,1624,1624,1624,1616,1616,1616,1609,1609,1609,1609,1601,1601,1601,1601,1594,1594,1594,1594,1586,1586,1586,1579,1572,1550,1550,0,0,0,0,0,923,923,923,923,923,923,920,918,918,915,915,913,913,913,913,913,913,913,915,915,915,918,923,928,928,930,933,930,930,0,0,0,0,1503,1503,1496,1496,1489,1489,1489,1489,1483,1483,1483,1477,1477,1470,1470,1470,1470,1470,1470,1464,1464,1464,1458,1452,1452,1445,1445,1445,1445,1445,1445,1445,1439,1439,1439,1439,1433,1433,1427,1427,1421,1421,1421,1421,1421,1421,1415,1415,1415,1415,1410,1410,1404,1404,1404,1404,1398,1398,1398,1392,1392,1392,1392,1392,1392,1387,1381,1381,1376,1376,1376,1376,1370,1370,1370,1370,1370,1365,1365,1365,1365,1359,1359,1354,1354,1354,1354,1349,1349,1349,1349,1343,1343,1343,1343,1338,1338,1333,1333,1333,1333,1328,1328,1328,1328,1328,1322,1322,1317,1317,1312,1312,1312,1312,1307,1307,1307,1307,1307,1302,1302,1302,1297,1297,1292,1292,1292,1288,1288,1288,1288,1283,1283,1283,1278,1278,1273,1273,1273,1273,1273,1268,1268,1268,1264,1264,1264,1259,1259,1255,1255,1255,1255,1255,1255,1250,1250,1250,1250,1250,1241,1241,1236,1236,1236,1232,1232,1232,1232,1232,1232,1227,1227,1227,1223,1223,1219,1219,1219,1219,1214,1214,1214,1214,1210,1206,1206,1206,1202,1202,1202,1202,1197,1197,1197,1197,1197,1193,1193,1189,1189,1189,1189,1185,1185,1185,1185,1185,1181,1181,1181,1177,1177,1177,1177,1173,1173,1173,1169,1169,1169,1169,1169,1165,1165,1161,1161,1157,1157,1157,1157,1153,1153,1153,1153,1153,1153,1153,1149,1149,1149,1149,1149,1145,1145,1141,1138,1138,1138,1138,1138,0,0,0,0,0,0,0,0,0,0,0,0,0,0,0,0,0,0,0,0,0,0,0,0,0,0,0,0,0,0
0,0,0,0,0,0,0,0,0,0,0,0,0,1601,1601,1601,1601,1601,1601,1609,1609,1609,1609,1609,1616,1616,1609,1609,1609,1609,1609,1601,1601,1609,1601,1601,1609,1609,1609,1609,1609,1609,1609,1609,1609,1609,1601,1601,1609,1601,1601,1609,1609,1609,1609,1609,1609,1609,1601,1601,1601,1601,1601,1601,1601,1601,1601,1601,1601,1601,1601,1601,1601,1609,1616,1616,1624,1624,1624,1624,1624,1624,1624,1748,1757,1757,1757,1757,1757,1766,1766,1757,1757,1748,1748,1739,1739,1739,1739,1739,1731,1731,1713,1647,1639,1632,1632,1632,1632,1632,1632,1632,1632,1632,1632,1632,1632,1632,1639,1639,1647,1647,1655,1655,1663,1663,1671,1671,1671,1680,1680,1680,1680,1688,1688,1688,1688,1696,1705,1705,1713,1713,1713,1722,1722,1722,1722,1722,1722,1731,1010,1010,1731,1739,1748,1757,1016,1016,1016,1013,1013,1016,1019,1022,1019,1019,1019,1022,1022,1025,1025,1025,1025,1025,1028,1022,1019,1019,1013,1013,1031,1028,1028,1034,1034,1034,1031,1028,1028,1034,1031,1031,1031,1025,1025,1025,1034,1031,1031,1031,1034,1034,1034,1034,1034,1034,1038,1041,1041,1041,1038,1038,1038,1038,1038,1034,1034,1038,1038,1034,1034,1047,1047,1047,1047,1047,1047,1047,1044,1041,1038,1038,1038,1038,1038,1038,1038,1034,1031,1031,1034,1038,1034,1034,1034,1034,1038,1034,1034,1034,1034,1034,1038,1041,1041,1025,1722,1722,1722,1713,1705,1705,1696,1696,1696,1696,1696,1696,1696,1696,1688,1688,1688,1688,1680,1680,1671,1671,1663,1663,1663,1663,1663,1663,1663,1655,1655,1655,1655,1655,1647,1639,1632,1632,1632,1624,1624,1624,1624,1624,1616,1616,1609,1609,1609,1609,1601,1601,1601,1601,1594,1594,1594,1594,1594,1586,1586,1579,1579,1557,1557,0,0,0,0,0,923,923,923,923,923,923,920,918,918,915,915,915,913,913,913,913,913,913,915,915,918,920,925,928,930,930,933,933,0,0,0,0,0,1503,1503,1503,1496,1489,1489,1489,1489,1489,1483,1483,1477,1477,1477,1470,1470,1470,1470,1470,1464,1464,1464,1458,1458,1458,1452,1445,1445,1445,1445,1445,1445,1439,1439,1439,1433,1433,1433,1427,1427,1427,1427,1421,1421,1421,1421,1421,1415,1415,1415,1410,1410,1410,1404,1404,1404,1404,1398,1398,1398,1392,1392,1392,1392,1392,1387,1381,1381,1381,1376,1376,1376,1376,1376,1370,1370,1370,1370,1370,1370,1365,1359,1359,1359,1354,1354,1354,1349,1349,1349,1349,1343,1343,1343,1338,1338,1333,1333,1333,1333,1333,1333,1328,1328,1328,1328,1328,1322,1322,1317,1317,1312,1312,1312,1307,1307,1307,1307,1307,1307,1302,1302,1302,1297,1292,1292,1292,1292,1288,1288,1288,1283,1283,1283,1278,1278,1273,1273,1273,1273,1273,1268,1268,1268,1268,1264,1264,1264,1259,1255,1255,1255,1255,1255,1255,1250,1250,1250,1250,1250,1245,1245,1241,1236,1236,1236,1236,1232,1232,1232,1232,1232,1227,1227,1223,1219,1219,1219,1219,1219,1214,1214,1214,1214,1214,1210,1206,1206,1206,1202,1202,1202,1202,1202,1197,1197,1197,1193,1193,1193,1193,1189,1189,1185,1185,1185,1185,1181,1181,1181,1181,1181,1181,1177,1177,1177,1177,1173,1173,1169,1169,1169,1169,1165,1165,1165,1161,1161,1161,1157,1157,1153,1153,1153,1153,1153,1153,1153,1149,1149,1149,1149,1149,1145,1145,1141,1138,1138,1138,1138,1138,0,0,0,0,0,0,0,0,0,0,0,0,0,0,0,0,0,0,0,0,0,0,0,0,0,0,0,0,0,0
0,0,0,0,0,0,0,0,0,0,0,0,0,1601,1601,1601,1601,1601,1601,1609,1609,1609,1609,1609,1616,1616,1609,1609,1609,1609,1609,1601,1601,1609,1601,1601,1609,1609,1609,1609,1609,1609,1609,1609,1609,1609,1609,1609,1609,1609,1609,1609,1609,1609,1609,1609,1609,1609,1601,1601,1601,1601,1601,1601,1601,1601,1601,1601,1601,1601,1601,1601,1601,1609,1616,1616,1624,1624,1624,1624,1624,1624,1624,1748,1757,1757,1757,1757,1757,1766,1766,1757,1757,1748,1748,1748,1739,1739,1739,1739,1731,1731,1713,1671,1647,1639,1639,1632,1632,1632,1632,1632,1632,1632,1632,1632,1632,1632,1639,1639,1647,1647,1655,1655,1663,1663,1671,1671,1680,1680,1680,1680,1680,1688,1688,1688,1688,1696,1696,1705,1705,1705,1705,1722,1722,1722,1722,1007,1007,1007,1007,1007,1007,1013,1010,1010,1010,1013,1013,1010,1010,1010,1013,1013,1016,1016,1016,1019,1019,1019,1022,1019,1019,1019,1028,1013,1013,1013,1013,1013,1019,1022,1022,1028,1028,1028,1028,1025,1025,1022,1022,1019,1019,1019,1016,1013,1013,1019,1022,1025,1025,1025,1025,1028,1028,1031,1031,1034,1038,1031,1031,1031,1031,1031,1034,1031,1031,1031,1025,1022,1022,1022,1022,1022,1022,1025,1044,1044,1038,1034,1034,1034,1034,1031,1031,1034,1031,1028,1028,1025,1025,1034,1031,1031,1028,1028,1034,1028,1028,1025,1022,1022,1022,1022,1022,1025,1025,1025,1025,1022,1022,1025,1025,1025,1696,1696,1696,1696,1696,1696,1688,1688,1688,1688,1680,1680,1680,1671,1671,1663,1663,1663,1663,1663,1663,1655,1655,1655,1655,1655,1647,1639,1632,1632,1632,1624,1624,1624,1624,1624,1616,1616,1609,1609,1609,1609,1601,1601,1601,1601,1594,1594,1594,1594,1594,1586,1586,1586,1586,0,0,0,0,0,0,0,923,923,923,923,923,923,920,920,918,915,915,915,913,913,913,913,913,915,915,915,918,925,925,928,930,930,933,933,0,0,0,0,0,1496,1496,1496,1496,1489,1489,1489,1489,1489,1483,1483,1477,1477,1477,1477,1470,1470,1470,1470,1464,1464,1464,1458,1458,1458,1452,1445,1445,1445,1445,1445,1445,1445,1439,1439,1433,1433,1433,1427,1427,1427,1427,1421,1421,1421,1421,1421,1421,1421,1415,1415,1410,1410,1410,1410,1404,1404,1398,1398,1398,1392,1392,1392,1392,1392,1392,1387,1381,1381,1381,1376,1376,1376,1376,1376,1370,1370,1370,1370,1370,1365,1365,1359,1359,1359,1354,1354,1349,1349,1349,1349,1343,1343,1343,1338,1338,1333,1333,1333,1333,1333,1333,1333,1328,1328,1328,1328,1328,1322,1322,1317,1317,1312,1312,1312,1307,1307,1307,1307,1307,1302,1302,1302,1297,1292,1292,1292,1292,1292,1288,1288,1288,1283,1283,1278,1278,1278,1273,1273,1273,1273,1273,1268,1268,1268,1264,1264,1264,1264,1259,1259,1255,1255,1255,1255,1255,1255,1250,1250,1250,1245,1245,1241,1236,1236,1236,1236,1232,1232,1232,1232,1232,1227,1227,1223,1219,1219,1219,1219,1219,1214,1214,1214,1214,1214,1210,1210,1206,1206,1202,1202,1202,1202,1202,1197,1197,1197,1197,1197,1193,1193,1193,1189,1189,1185,1185,1185,1181,1181,1181,1181,1181,1181,1181,1177,1177,1177,1173,1173,1169,1169,1169,1169,1165,1165,1165,1161,1161,1161,1157,1157,1157,1157,1157,1153,1153,1153,1153,1149,1149,1149,1149,1149,1145,1145,1141,1138,1138,1138,1138,1138,0,0,0,0,0,0,0,0,0,0,0,0,0,0,0,0,0,0,0,0,0,0,0,0,0,0,0,0,0,0
0,0,0,0,0,0,0,0,0,0,0,0,0,1601,1601,1609,1601,1601,1609,1609,1609,1609,1609,1609,1616,1616,1609,1609,1609,1609,1609,1609,1609,1609,1609,1609,1609,1609,1616,1616,1616,1616,1616,1609,1609,1609,1609,1609,1609,1609,1609,1609,1609,1616,1609,1609,1609,1609,1609,1609,1601,1601,1601,1601,1601,1601,1601,1601,1601,1601,1601,1609,1609,1616,1616,1624,1624,1632,1624,1624,1624,1624,1624,1739,1757,1757,1757,1757,1766,1766,1766,1766,1757,1757,1757,1748,1748,1748,1739,1739,1739,1731,1713,1671,1663,1639,1639,1632,1632,1632,1632,1632,1632,1632,1632,1632,1632,1632,1639,1639,1647,1647,1655,1655,1655,1663,1663,1671,1680,1680,1680,1688,1688,1688,1688,1688,1688,1696,995,995,1705,1705,998,998,998,1001,1001,1001,1004,1004,1004,1007,1007,1010,1007,1007,1007,1010,1010,1007,1007,1007,1010,1010,1013,1013,1013,1013,1013,1016,1013,1007,1004,1004,1004,1007,1010,1007,1007,1007,1013,1016,1016,1016,1016,1016,1022,1022,1022,1019,1016,1016,1016,1010,1010,1010,1010,1013,1013,1013,1013,1013,1013,1025,1016,1016,1016,1016,1016,1019,1019,1016,1016,1016,1019,1019,1019,1019,1019,1019,1013,1013,1013,1001,1001,1007,1013,1013,1025,1025,1028,1025,1025,1022,1019,1013,1013,1025,1022,1022,1022,1025,1028,1028,1025,1025,1028,1025,1025,1019,1019,1019,1016,1016,1016,1016,1016,1016,1019,1016,1016,1019,1016,1016,1016,1016,1016,1025,1696,1696,1688,1688,1688,1680,1680,1680,1671,1671,1671,1663,1663,1663,1663,1663,1663,1663,1655,1655,1655,1655,1647,1639,1632,1632,1632,1632,1624,1624,1624,1624,1624,1616,1616,1609,1609,1609,1601,1601,1601,1601,1594,1594,1594,1594,1594,1586,1586,1586,1586,0,0,0,0,0,0,0,923,923,923,923,923,923,920,920,918,918,915,915,913,913,913,913,913,915,915,918,920,925,928,928,930,933,935,935,0,0,0,0,0,1496,1496,1496,1496,1496,1489,1489,1489,1489,1489,1483,1483,1477,1477,1477,1470,1470,1470,1470,1464,1464,1464,1464,1458,1458,1452,1452,1445,1445,1445,1445,1445,1445,1439,1439,1439,1433,1433,1433,1427,1427,1427,1427,1427,1421,1421,1421,1421,1415,1415,1415,1410,1410,1410,1410,1404,1404,1404,1398,1398,1398,1392,1392,1392,1392,1392,1387,1381,1381,1381,1376,1376,1376,1376,1376,1370,1370,1370,1370,1370,1365,1365,1365,1359,1359,1354,1354,1349,1349,1349,1349,1343,1343,1343,1338,1338,1333,1333,1333,1333,1333,1333,1333,1328,1328,1328,1328,1328,1322,1322,1317,1317,1312,1312,1312,1307,1307,1307,1307,1307,1302,1302,1302,1297,1292,1292,1292,1292,1292,1288,1288,1288,1288,1283,1278,1278,1278,1278,1278,1273,1273,1273,1268,1268,1268,1264,1264,1264,1264,1259,1259,1259,1255,1255,1255,1255,1250,1250,1250,1250,1245,1245,1241,1236,1236,1236,1236,1236,1232,1232,1232,1232,1232,1227,1223,1219,1219,1219,1219,1219,1219,1219,1214,1214,1214,1210,1210,1210,1206,1202,1202,1202,1202,1202,1202,1197,1197,1197,1197,1193,1193,1193,1189,1189,1185,1185,1185,1181,1181,1181,1181,1181,1181,1181,1181,1181,1177,1177,1173,1173,1169,1169,1169,1169,1165,1165,1165,1161,1161,1161,1157,1157,1157,1157,1153,1153,1153,1153,1153,1149,1149,1149,1149,1145,1145,1141,1138,1138,1138,1138,1138,0,0,0,0,0,0,0,0,0,0,0,0,0,0,0,0,0,0,0,0,0,0,0,0,0,0,0,0,0,0
0,0,0,0,0,0,0,0,0,0,0,0,0,1601,1601,1609,1609,1609,1609,1616,1616,1609,1609,1609,1616,1616,1609,1609,1609,1609,1609,1609,1609,1609,1609,1609,1609,1609,1616,1616,1616,1616,1616,1616,1609,1609,1609,1609,1609,1609,1609,1609,1616,1616,1609,1609,1609,1609,1609,1609,1601,1601,1601,1609,1609,1609,1609,1609,1601,1601,1609,1609,1609,1609,1616,1624,1624,1632,1632,1632,1632,1632,1639,1739,1748,1748,1757,1757,1757,1766,1766,1757,1757,1757,1757,1748,1748,1748,1748,1739,1739,1731,1713,1671,1647,1639,1639,1632,1632,1632,1632,1632,1632,1632,1632,1632,1632,1632,1639,1639,1647,1647,1655,1655,1655,1663,1663,1671,1671,1680,1680,1688,1688,1688,1696,1696,1696,992,992,992,992,992,992,995,995,995,995,995,998,1001,1001,1001,1001,1007,1004,1004,1007,1010,1007,1004,1004,1004,1007,1007,1007,1007,1007,1007,1007,1007,1007,1001,1001,1001,1001,1004,1004,1004,1004,1004,1007,1010,1010,1010,1007,1007,1010,1013,1013,1010,1007,1007,1010,1004,1004,1007,1007,1007,1010,1010,1010,1010,1010,1010,1010,1007,1007,1010,1010,1010,1010,1010,1010,1010,1013,1013,1013,1013,1013,1010,1010,1010,1007,1001,1001,1004,1004,1007,1016,1016,1016,1016,1016,1016,1013,1010,1010,1010,1010,1013,1016,1016,1019,1022,1019,1019,1022,1022,1019,1016,1016,1016,1016,1013,1010,1010,1010,1013,1016,1013,1013,1013,1016,1016,1016,1013,1013,1010,1010,1019,1019,1688,1688,1680,1680,1680,1671,1671,1671,1663,1663,1663,1663,1663,1663,1663,1663,1655,1655,1655,1647,1639,1632,1632,1632,1632,1632,1632,1624,1624,1624,1624,1616,1616,1609,1609,1601,1601,1601,1601,1601,1601,1594,1594,1594,1594,1586,1586,0,0,0,0,0,0,0,928,925,925,923,923,923,923,920,920,918,918,915,915,913,913,913,913,915,915,915,918,920,925,928,930,933,935,935,935,0,0,0,0,0,1496,1496,1496,1496,1496,1489,1489,1489,1489,1489,1483,1483,1477,1477,1477,1470,1470,1470,1470,1470,1470,1464,1464,1458,1458,1458,1452,1452,1445,1445,1445,1445,1445,1439,1439,1439,1439,1433,1433,1433,1427,1427,1427,1427,1421,1421,1421,1421,1415,1415,1415,1415,1410,1410,1410,1410,1404,1404,1398,1398,1398,1398,1392,1392,1392,1392,1387,1381,1381,1381,1381,1376,1376,1376,1376,1376,1370,1370,1370,1370,1370,1365,1365,1365,1359,1354,1354,1354,1349,1349,1349,1349,1343,1343,1338,1338,1333,1333,1333,1333,1333,1333,1333,1328,1328,1328,1328,1328,1322,1322,1322,1317,1317,1312,1312,1312,1312,1307,1307,1307,1307,1302,1302,1297,1292,1292,1292,1292,1292,1288,1288,1288,1288,1283,1283,1278,1278,1278,1278,1273,1273,1273,1268,1268,1268,1264,1264,1264,1264,1259,1259,1259,1255,1255,1255,1255,1250,1250,1250,1250,1245,1245,1241,1241,1236,1236,1236,1236,1236,1232,1232,1232,1232,1227,1223,1223,1223,1219,1219,1219,1219,1219,1219,1214,1214,1214,1210,1210,1206,1202,1202,1202,1202,1202,1202,1202,1202,1197,1197,1197,1197,1193,1193,1189,1185,1185,1185,1181,1181,1181,1181,1181,1181,1181,1181,1181,1181,1181,1177,1173,1173,1173,1169,1169,1165,1165,1165,1165,1165,1161,1161,1157,1157,1157,1157,1153,1153,1153,1153,1149,1149,1149,1149,1145,1145,1141,1141,1138,1138,1138,1138,0,0,0,0,0,0,0,0,0,0,0,0,0,0,0,0,0,0,0,0,0,0,0,0,0,0,0,0,0,0
0,0,0,0,0,0,0,0,0,0,0,0,0,1609,1609,1609,1609,1609,1609,1616,1616,1609,1609,1609,1616,1616,1609,1609,1609,1609,1609,1609,1609,1609,1609,1609,1609,1609,1616,1616,1616,1616,1616,1616,1609,1609,1609,1609,1616,1616,1616,1616,1616,1616,1609,1609,1609,1609,1609,1609,1601,1601,1609,1609,1609,1609,1609,1609,1609,1609,1609,1609,1609,1609,1616,1624,1624,1632,1632,1632,1632,1639,1639,1739,1748,1748,1757,1757,1757,1766,1766,1757,1757,1757,1757,1757,1748,1748,1748,1748,1739,1731,1722,1671,1647,1639,1639,1632,1632,1632,1632,1624,1624,1632,1632,1632,1632,1632,1632,1639,1647,1647,1655,1655,1655,1663,1663,1671,1671,1680,1680,1688,987,987,987,987,989,989,989,989,989,989,989,992,992,992,992,992,992,992,992,989,989,989,989,995,995,1001,1004,1001,1001,1001,1001,1001,1001,1001,998,998,998,998,1001,1001,1001,1001,1001,1001,1001,1001,1001,1001,1004,1004,1004,1004,1004,1004,1004,1004,1004,1001,998,998,1001,1001,1001,1004,1001,1001,1004,1007,1007,1007,1001,1001,1004,1001,1001,1001,1001,1001,1004,1004,1004,1007,1007,1007,1007,1004,1004,1004,1004,1004,1004,998,998,1001,1001,1004,1007,1007,1010,1010,1010,1010,1007,1004,1004,1004,1004,1007,1007,1007,1010,1013,1013,1013,1013,1013,1013,1013,1013,1013,1013,1010,1007,1007,1004,1004,1007,1004,1004,1013,1013,1013,1010,1004,1004,1004,1001,1001,1001,998,995,995,995,1680,1680,1671,1671,1663,1663,1663,1663,1671,1663,1663,1663,1655,1655,1655,1647,1639,1632,1632,1632,1632,1632,1632,1632,1624,1624,1624,1616,1616,1609,1609,1601,1601,1601,1601,1601,1601,1594,1594,1594,1594,1594,0,0,0,0,0,0,0,0,928,928,928,925,925,923,923,920,920,918,915,915,915,915,915,913,913,915,915,918,918,920,925,928,930,933,938,938,938,0,0,0,0,0,1496,1496,1496,1496,1496,1489,1489,1489,1489,1489,1483,1483,1483,1477,1477,1470,1470,1470,1470,1470,1470,1464,1464,1464,1464,1458,1452,1452,1452,1445,1445,1445,1445,1439,1439,1439,1439,1439,1433,1433,1433,1433,1427,1427,1427,1421,1421,1421,1415,1415,1415,1415,1410,1410,1410,1410,1404,1404,1398,1398,1398,1398,1392,1392,1392,1392,1387,1387,1381,1381,1381,1381,1376,1376,1376,1376,1370,1370,1370,1370,1370,1365,1365,1365,1359,1354,1354,1354,1349,1349,1349,1349,1349,1349,1338,1338,1333,1333,1333,1333,1333,1333,1333,1328,1328,1328,1328,1328,1322,1322,1322,1317,1317,1317,1312,1312,1312,1307,1307,1307,1307,1302,1302,1297,1292,1292,1292,1292,1292,1288,1288,1288,1288,1283,1283,1283,1278,1278,1278,1273,1273,1273,1268,1268,1268,1268,1268,1268,1264,1264,1264,1259,1259,1255,1255,1250,1250,1250,1250,1250,1245,1245,1245,1241,1236,1236,1236,1236,1236,1236,1232,1232,1232,1227,1223,1223,1223,1223,1219,1219,1219,1219,1219,1219,1214,1214,1214,1210,1210,1206,1206,1206,1202,1202,1202,1202,1202,1197,1197,1197,1197,1197,1193,1189,1189,1185,1185,1185,1181,1181,1181,1181,1181,1181,1181,1181,1181,1181,1177,1177,1173,1173,1169,1169,1165,1165,1165,1165,1165,1161,1161,1161,1161,1157,1157,1157,1153,1153,1153,1153,1149,1149,1149,1145,1145,1141,1141,1138,1138,1138,1138,0,0,0,0,0,0,0,0,0,0,0,0,0,0,0,0,0,0,0,0,0,0,0,0,0,0,0,0,0,0
0,0,0,0,0,0,0,0,0,0,0,0,0,1616,1616,1616,1616,1616,1616,1616,1616,1616,1616,1616,1616,1616,1616,1609,1609,1609,1609,1609,1609,1609,1609,1609,1609,1609,1616,1616,1616,1616,1616,1616,1616,1616,1616,1616,1616,1616,1616,1616,1616,1616,1609,1609,1609,1609,1609,1609,1609,1609,1609,1609,1609,1609,1609,1609,1609,1609,1616,1609,1609,1616,1616,1624,1624,1632,1632,1632,1632,1632,1632,1748,1748,1748,1757,1757,1757,1766,1766,1757,1757,1757,1757,1757,1757,1757,1757,1748,1748,1731,1722,1680,1663,1639,1639,1632,1632,1632,1632,1624,1624,1632,1632,1632,1632,1632,1632,1632,1639,1639,1647,1655,1655,1655,1663,1663,1671,978,978,978,978,978,984,984,987,987,989,989,989,989,989,989,987,987,984,981,981,984,984,987,987,987,987,992,992,995,1001,1001,998,998,995,992,992,992,992,992,992,995,995,998,998,998,998,998,998,998,998,998,998,995,995,998,998,989,989,995,995,995,992,992,992,995,998,1001,998,998,1001,1001,1001,1001,992,992,998,995,995,998,998,998,1001,1001,1001,1001,1004,1004,1004,1001,1001,1001,1001,1001,1001,998,998,1001,1001,1001,1004,1004,1004,1004,1004,1004,1001,1001,1001,1001,1001,1004,998,998,1001,1004,1001,1001,1007,1007,1010,1010,1010,1010,1010,1007,1007,1007,1004,1001,1001,1001,1001,1001,1001,1001,1001,1001,1001,1001,1001,1001,1001,992,992,992,992,992,998,998,1004,1007,1680,1680,1671,1671,1010,1010,1010,1010,1655,1655,1647,1639,1632,1632,1632,1632,1632,1632,1632,1632,1624,1624,1616,1616,1609,1609,1601,1601,1601,1601,1601,1601,1594,1594,1594,1594,1594,0,0,0,0,0,0,0,930,928,928,928,925,925,925,923,920,918,918,915,915,915,915,915,915,915,915,915,918,918,920,925,928,933,935,938,938,938,0,0,0,0,1496,1496,1496,1496,1496,1496,1496,1489,1489,1489,1489,1489,1483,1483,1483,1477,1477,1470,1470,1470,1470,1470,1464,1464,1464,1464,1458,1458,1452,1452,1445,1445,1445,1445,1439,1439,1439,1439,1439,1433,1433,1433,1433,1427,1427,1427,1421,1421,1421,1415,1415,1415,1415,1410,1410,1410,1410,1404,1404,1404,1398,1398,1398,1398,1392,1392,1392,1387,1387,1387,1381,1381,1381,1376,1376,1376,1376,1376,1370,1370,1370,1370,1370,1365,1365,1359,1354,1354,1354,1349,1349,1349,1349,1349,1343,1343,1338,1338,1333,1333,1333,1333,1333,1333,1333,1328,1328,1328,1328,1322,1322,1322,1317,1317,1317,1312,1312,1312,1312,1312,1307,1307,1307,1302,1302,1297,1292,1292,1292,1292,1292,1288,1288,1288,1288,1283,1283,1278,1278,1278,1273,1273,1273,1268,1268,1268,1268,1268,1268,1268,1264,1264,1259,1259,1255,1255,1250,1250,1250,1250,1250,1250,1245,1245,1241,1236,1236,1236,1236,1236,1236,1232,1232,1232,1227,1223,1223,1223,1223,1223,1219,1219,1219,1219,1219,1214,1214,1214,1214,1210,1206,1206,1206,1206,1202,1202,1202,1202,1197,1197,1197,1197,1197,1193,1193,1189,1185,1185,1185,1185,1181,1181,1181,1181,1181,1181,1181,1181,1181,1177,1177,1173,1173,1169,1169,1169,1165,1165,1165,1165,1165,1161,1161,1161,1161,1157,1157,1153,1153,1153,1153,1149,1149,1149,1145,1145,1141,1141,1138,1138,1138,1138,0,0,0,0,0,0,0,0,0,0,0,0,0,0,0,0,0,0,0,0,0,0,0,0,0,0,0,0,0,0
0,0,0,0,0,0,0,0,0,0,0,0,0,1616,1616,1616,1616,1616,1616,1616,1624,1616,1616,1616,1616,1616,1616,1609,1609,1616,1616,1616,1609,1609,1616,1616,1616,1616,1616,1616,1616,1616,1616,1616,1616,1616,1616,1616,1616,1616,1616,1616,1616,1616,1616,1616,1616,1616,1616,1616,1616,1616,1616,1616,1616,1616,1616,1616,1616,1616,1616,1609,1609,1609,1616,1616,1624,1632,1632,1632,1632,1632,1632,1757,1748,1748,1757,1757,1757,1766,1766,1766,1766,1766,1766,1757,1757,1757,1757,1748,1748,1731,1722,1680,1663,1647,1639,1632,1632,1632,1632,1624,1624,1632,1632,1632,1632,1632,1632,1632,1639,1639,1647,1655,1655,1655,1663,1663,1663,978,978,978,978,978,981,981,984,984,987,987,987,987,987,984,978,978,978,978,978,978,978,978,978,978,981,984,987,989,992,995,995,992,992,989,987,987,987,987,984,984,987,987,984,984,987,989,987,987,989,992,992,989,989,989,989,978,978,989,989,989,989,989,989,989,989,992,992,992,992,998,998,992,989,989,992,992,992,992,992,992,998,998,998,1001,1001,1001,998,998,1001,998,998,998,995,995,998,998,998,998,998,1001,1001,1004,1004,1004,1001,1001,1001,1001,1001,998,998,998,998,1001,998,998,998,998,1001,1001,1001,1001,1001,1001,1001,1001,1001,1001,1001,1001,1001,1001,1001,1001,1001,998,998,998,995,995,989,987,987,989,989,989,995,995,995,1004,1007,1007,1007,1007,1007,1007,1007,1007,1001,1001,995,995,992,992,1632,1632,1632,1632,1632,1632,1624,1624,1616,1609,1609,1601,1601,1601,1601,1601,1601,1601,1594,1594,1594,1594,1594,0,0,0,0,0,0,0,930,928,928,928,928,925,925,923,920,918,918,915,915,915,915,915,915,915,915,915,918,918,920,928,930,933,935,938,940,0,0,0,0,0,1496,1496,1496,1496,1496,1496,1496,1489,1489,1489,1489,1489,1483,1483,1483,1477,1477,1470,1470,1470,1470,1470,1464,1464,1464,1464,1464,1458,1458,1452,1452,1452,1445,1445,1445,1439,1439,1439,1439,1439,1433,1433,1433,1427,1427,1427,1427,1421,1421,1415,1415,1415,1415,1415,1410,1410,1410,1404,1404,1404,1398,1398,1398,1398,1392,1392,1392,1387,1387,1387,1387,1381,1381,1381,1376,1376,1376,1376,1370,1370,1370,1370,1365,1365,1365,1359,1354,1354,1354,1354,1349,1349,1349,1349,1343,1343,1338,1338,1338,1333,1333,1333,1333,1333,1333,1333,1328,1328,1322,1317,1317,1317,1317,1317,1312,1312,1312,1312,1312,1312,1307,1307,1307,1307,1302,1297,1292,1292,1292,1292,1292,1292,1288,1288,1288,1283,1283,1278,1278,1278,1273,1273,1273,1268,1268,1268,1268,1268,1268,1268,1264,1264,1264,1259,1259,1255,1255,1255,1250,1250,1250,1250,1250,1245,1241,1241,1236,1236,1236,1236,1236,1232,1232,1232,1227,1227,1227,1227,1223,1223,1219,1219,1219,1219,1219,1214,1214,1214,1214,1214,1210,1210,1210,1206,1206,1202,1202,1202,1202,1197,1197,1197,1197,1197,1193,1189,1185,1185,1185,1185,1181,1181,1181,1181,1181,1181,1181,1181,1177,1177,1177,1173,1173,1169,1169,1169,1169,1165,1165,1165,1165,1165,1161,1161,1161,1161,1157,1157,1157,1153,1153,1149,1149,1149,1145,1145,1141,1141,1138,1138,1138,1138,0,0,0,0,0,0,0,0,0,0,0,0,0,0,0,0,0,0,0,0,0,0,0,0,0,0,0,0,0,0
0,0,0,0,0,0,0,0,0,0,0,0,0,1624,1624,1624,1624,1616,1616,1616,1624,1616,1616,1616,1616,1616,1616,1616,1616,1616,1616,1616,1616,1616,1616,1616,1616,1616,1616,1616,1616,1616,1616,1616,1616,1616,1616,1616,1616,1616,1616,1616,1616,1616,1616,1616,1616,1616,1616,1616,1616,1616,1616,1616,1616,1616,1616,1616,1616,1616,1616,1609,1609,1609,1616,1616,1624,1632,1639,1639,1639,1632,1632,1757,1748,1748,1757,1757,1757,1766,1766,1766,1766,1766,1766,1757,1757,1757,1757,1757,1748,1739,1731,1696,1663,1647,1639,1632,1632,1632,1624,1624,1624,1624,954,954,954,956,959,962,962,964,1647,1655,1655,1663,1663,1663,978,975,975,978,975,973,973,973,967,967,981,984,984,984,984,978,975,975,975,973,973,973,975,973,973,973,973,973,973,978,989,995,992,989,989,987,987,984,984,984,984,984,984,984,981,981,981,981,981,981,981,981,981,984,981,981,981,978,978,973,973,987,987,984,984,987,984,984,984,987,987,987,989,989,987,984,984,987,987,987,987,987,995,995,998,998,1001,998,998,995,995,992,992,995,992,992,995,995,995,987,987,987,1001,1001,1001,1001,1001,1001,1001,1001,1001,992,992,992,995,995,992,992,992,992,992,992,992,998,998,995,995,995,998,995,995,998,998,998,995,995,995,995,995,992,989,989,987,987,987,987,987,987,989,989,989,995,998,1007,1007,1007,1007,1007,1007,992,989,989,989,989,989,989,992,992,989,989,1632,1632,1624,1624,1616,1609,1609,1601,1601,1601,1601,1601,1601,1601,1594,1594,1594,1594,1594,0,0,0,0,0,0,0,925,925,925,928,928,925,925,925,923,918,915,915,915,915,915,915,915,915,918,918,918,920,925,928,933,933,938,938,940,0,0,0,0,0,1503,1503,1503,1503,1509,1503,1503,1496,1489,1489,1489,1489,1489,1483,1483,1477,1477,1477,1470,1470,1470,1470,1464,1464,1464,1464,1464,1458,1458,1458,1452,1452,1445,1445,1445,1439,1439,1439,1439,1439,1433,1433,1433,1427,1427,1427,1427,1421,1421,1421,1415,1415,1415,1415,1415,1410,1410,1410,1404,1404,1404,1398,1398,1398,1398,1392,1392,1392,1392,1387,1387,1381,1381,1381,1376,1376,1376,1376,1376,1370,1370,1370,1365,1365,1365,1359,1354,1354,1354,1354,1354,1354,1349,1349,1349,1343,1343,1338,1338,1338,1333,1333,1333,1333,1333,1333,1328,1328,1322,1317,1317,1317,1317,1317,1312,1312,1312,1312,1312,1312,1307,1307,1307,1307,1302,1302,1297,1297,1292,1292,1292,1292,1292,1288,1288,1288,1283,1283,1278,1278,1278,1273,1273,1268,1268,1268,1268,1268,1268,1268,1268,1264,1264,1264,1259,1255,1255,1255,1250,1250,1250,1250,1250,1245,1241,1241,1236,1236,1236,1236,1236,1236,1232,1232,1232,1232,1227,1227,1227,1227,1223,1219,1219,1219,1219,1219,1214,1214,1214,1214,1210,1210,1210,1210,1206,1206,1202,1202,1202,1197,1197,1197,1197,1197,1193,1189,1185,1185,1185,1185,1185,1181,1181,1181,1181,1181,1181,1181,1177,1177,1177,1177,1173,1169,1169,1169,1169,1169,1165,1165,1165,1165,1165,1161,1161,1161,1161,1157,1157,1153,1153,1153,1149,1149,1145,1145,1141,1141,1138,1138,1138,1138,0,0,0,0,0,0,0,0,0,0,0,0,0,0,0,0,0,0,0,0,0,0,0,0,0,0,0,0,0,0
0,0,0,0,0,0,0,0,0,0,0,0,0,1624,1624,1624,1624,1624,1624,1624,1624,1624,1616,1616,1616,1624,1616,1616,1616,1616,1616,1616,1616,1616,1616,1624,1624,1624,1624,1624,1624,1616,1616,1616,1616,1616,1616,1616,1616,1624,1624,1616,1616,1616,1616,1616,1616,1616,1616,1616,1616,1616,1616,1616,1616,1616,1616,1616,1616,1616,1616,1609,1609,1609,1616,1616,1632,1632,1632,1632,1639,1639,1639,1748,1748,1748,1757,1757,1757,1757,1757,1766,1766,1766,1766,1757,1757,943,943,1748,1748,1731,1731,1705,1655,1655,1639,1632,1632,1632,1624,1624,956,956,954,954,954,956,959,962,962,962,967,967,948,948,948,967,967,964,962,956,956,964,964,967,967,967,967,967,975,975,973,973,973,973,973,973,973,973,973,970,970,970,967,964,962,959,959,959,964,964,975,975,975,975,975,978,978,978,978,978,978,978,978,975,975,975,975,978,978,978,978,978,978,978,978,973,973,981,981,981,981,981,978,978,978,978,978,981,981,984,978,978,975,975,975,975,975,978,978,978,978,998,998,995,995,992,989,989,989,987,984,978,978,984,984,981,981,978,978,998,995,995,995,995,995,992,989,989,987,987,987,989,989,989,989,989,989,989,989,989,989,989,989,989,989,989,989,989,992,992,992,992,992,989,989,989,987,984,984,984,984,984,981,981,984,981,978,978,978,978,975,975,1007,1004,989,989,989,989,989,989,989,989,989,989,989,987,987,987,978,978,1616,1616,1609,1609,1601,1601,1601,1601,1601,978,975,975,975,975,975,975,975,0,0,970,970,970,925,925,925,928,928,928,925,925,923,918,915,915,915,915,915,915,915,915,918,920,920,923,928,930,933,933,938,938,940,0,0,0,0,1516,1509,1509,1509,1509,1509,1503,1503,1496,1496,1489,1489,1489,1489,1483,1483,1483,1477,1477,1477,1470,1470,1470,1470,1464,1464,1464,1464,1458,1458,1458,1452,1452,1445,1445,1445,1445,1439,1439,1439,1439,1439,1433,1433,1433,1433,1427,1427,1421,1421,1421,1415,1415,1415,1415,1415,1415,1410,1410,1410,1404,1404,1404,1404,1398,1398,1398,1392,1392,1392,1387,1387,1387,1387,1381,1381,1376,1376,1376,1376,1370,1370,1370,1370,1365,1365,1359,1359,1359,1354,1354,1354,1354,1354,1349,1349,1343,1343,1343,1338,1338,1338,1333,1333,1333,1333,1333,1328,1328,1322,1322,1317,1317,1317,1317,1312,1312,1312,1312,1312,1312,1312,1307,1307,1307,1307,1302,1302,1297,1297,1292,1292,1292,1292,1292,1288,1288,1288,1283,1283,1278,1278,1278,1273,1273,1273,1268,1268,1268,1268,1268,1268,1268,1264,1259,1259,1255,1255,1255,1250,1250,1250,1250,1250,1245,1241,1241,1241,1236,1236,1236,1236,1236,1232,1232,1232,1232,1227,1227,1227,1227,1223,1223,1219,1219,1219,1219,1214,1214,1214,1214,1214,1210,1210,1210,1206,1202,1202,1202,1202,1202,1197,1197,1197,1197,1193,1189,1189,1185,1185,1185,1185,1185,1181,1181,1181,1181,1181,1181,1177,1177,1177,1177,1173,1173,1169,1169,1169,1169,1169,1169,1165,1165,1165,1165,1161,1161,1161,1157,1157,1157,1153,1153,1153,1149,1145,1145,1145,1141,1141,1141,1141,1141,0,0,0,0,0,0,0,0,0,0,0,0,0,0,0,0,0,0,0,0,0,0,0,0,0,0,0,0,0,0
0,0,0,0,0,0,0,0,0,0,0,0,0,1624,1624,1624,1624,1624,1624,1624,1624,1624,1616,1616,1616,1624,1616,1609,1609,1616,1616,1616,1616,1616,1616,1624,1624,1624,1624,1624,1624,1624,1616,1616,1616,1616,1616,1616,1624,1624,1624,1624,1616,1616,1616,1616,1616,1616,1616,1616,1616,1616,1616,1616,1616,1616,1616,1616,1616,1616,1616,1616,1609,1609,1616,1616,1624,1632,1632,1632,1639,1639,1639,1748,1748,1748,1757,1757,1757,1757,1757,1766,1766,1766,938,938,938,938,935,935,935,935,935,1705,1655,1655,1647,1632,951,951,954,954,954,954,954,954,954,954,956,956,948,946,946,946,948,948,948,948,951,959,956,954,954,956,959,959,962,962,964,967,970,970,967,967,970,967,967,967,967,967,967,967,967,964,962,959,959,956,956,956,959,964,967,964,964,973,973,973,973,973,967,967,975,973,973,973,973,973,970,970,973,973,973,973,973,975,975,975,975,978,978,978,978,978,975,973,973,975,975,975,970,970,975,973,970,970,970,970,970,967,967,967,967,967,967,967,978,978,978,984,984,981,978,975,973,973,975,975,975,975,975,981,981,981,981,981,981,978,978,978,981,981,981,981,987,984,984,987,984,978,978,978,987,984,981,981,984,987,984,984,987,987,987,987,987,987,984,984,978,978,978,981,981,981,981,981,981,978,978,975,975,975,975,975,978,1004,981,981,984,987,984,984,987,989,989,989,987,984,984,978,978,978,975,1609,1609,1609,1601,1601,970,970,970,970,973,973,973,975,970,970,973,970,970,967,967,967,925,925,925,928,928,928,925,925,923,918,918,915,915,915,915,915,918,918,918,920,920,923,928,930,933,935,938,938,940,0,0,0,0,1516,1509,1509,1509,1509,1509,1503,1503,1496,1496,1489,1489,1489,1489,1483,1483,1483,1483,1477,1477,1470,1470,1470,1470,1464,1464,1464,1464,1464,1458,1458,1458,1458,1452,1445,1445,1445,1445,1439,1439,1439,1439,1439,1439,1433,1433,1427,1427,1427,1421,1421,1421,1415,1415,1415,1415,1415,1415,1410,1410,1410,1404,1404,1404,1398,1398,1392,1392,1392,1392,1387,1387,1387,1387,1381,1381,1376,1376,1376,1376,1370,1370,1370,1370,1365,1365,1359,1359,1359,1354,1354,1354,1354,1354,1354,1349,1349,1349,1349,1343,1343,1338,1338,1338,1333,1333,1333,1328,1328,1322,1322,1322,1322,1317,1317,1317,1312,1312,1312,1312,1312,1312,1307,1307,1307,1307,1307,1302,1297,1297,1292,1292,1292,1292,1292,1288,1288,1288,1283,1283,1283,1278,1278,1273,1273,1273,1273,1268,1268,1268,1268,1268,1268,1264,1259,1259,1255,1255,1255,1250,1250,1250,1250,1250,1245,1241,1241,1241,1241,1236,1236,1236,1236,1232,1232,1232,1232,1232,1232,1232,1227,1227,1223,1223,1223,1219,1219,1219,1214,1214,1214,1214,1210,1210,1210,1206,1202,1202,1202,1202,1197,1197,1197,1197,1197,1193,1193,1189,1189,1185,1185,1185,1185,1181,1181,1181,1181,1181,1181,1177,1177,1177,1177,1173,1173,1169,1169,1169,1169,1169,1169,1165,1165,1165,1165,1161,1161,1161,1157,1157,1157,1157,1153,1153,1149,1149,1145,1145,1145,1141,1141,1141,1141,0,0,0,0,0,0,0,0,0,0,0,0,0,0,0,0,0,0,0,0,0,0,0,0,0,0,0,0,0,0
0,0,0,0,0,0,0,0,0,0,0,0,0,1624,1624,1624,1624,1624,1624,1624,1624,1624,1624,1616,1616,1616,1616,1609,1609,1616,1616,1616,1616,1616,1624,1624,1624,1624,1624,1624,1624,1624,1616,1616,1624,1616,1616,1624,1624,1624,1624,1624,1624,1624,1616,1616,1616,1616,1616,1616,1616,1616,1616,1616,1616,1616,1616,1616,1616,1616,1616,1616,1609,1609,1616,1616,1624,1632,1632,1632,1639,1639,1639,1655,1748,1748,1757,1757,1757,1757,1757,933,933,933,935,935,935,935,935,935,935,935,935,938,938,938,940,943,946,946,951,951,951,951,951,951,951,951,951,948,948,946,946,946,946,946,946,946,951,956,956,954,954,954,956,956,959,959,959,964,964,964,956,954,954,959,959,962,962,962,962,962,962,962,956,956,956,956,956,956,956,956,964,962,962,962,962,962,962,964,964,964,964,967,967,967,967,967,967,964,964,964,967,967,967,970,970,970,967,967,975,975,975,975,975,970,970,967,967,964,962,959,959,964,964,964,964,964,964,964,964,964,964,964,964,964,967,967,967,973,973,973,975,973,967,967,970,970,970,967,967,970,975,975,975,975,975,975,975,975,975,973,973,975,975,975,975,975,973,973,970,970,973,973,975,975,975,978,978,978,981,981,981,981,981,981,981,978,978,978,978,978,981,981,978,978,978,978,975,973,973,973,973,973,973,973,975,975,978,984,981,981,978,978,981,978,978,978,978,978,975,975,975,975,975,973,970,970,970,970,967,967,973,970,970,970,967,967,970,967,967,964,962,962,967,928,928,928,928,928,925,925,923,920,918,918,918,915,915,915,918,918,918,920,920,923,928,930,933,935,935,938,0,0,0,0,0,1516,1516,1516,1516,1509,1509,1503,1503,1496,1496,1496,1489,1489,1489,1489,1483,1483,1483,1477,1477,1470,1470,1470,1470,1470,1470,1464,1464,1464,1464,1458,1458,1458,1452,1445,1445,1445,1445,1439,1439,1439,1439,1439,1439,1433,1433,1433,1433,1427,1421,1421,1421,1421,1415,1415,1415,1415,1415,1415,1410,1410,1410,1404,1404,1398,1398,1392,1392,1392,1392,1392,1387,1387,1387,1381,1381,1376,1376,1376,1376,1370,1370,1370,1370,1365,1365,1359,1359,1359,1354,1354,1354,1354,1354,1354,1349,1349,1349,1349,1349,1343,1343,1338,1338,1338,1333,1333,1333,1328,1328,1328,1328,1322,1322,1317,1317,1317,1317,1312,1312,1312,1312,1312,1307,1307,1307,1307,1307,1302,1302,1297,1292,1292,1292,1292,1288,1288,1288,1283,1283,1283,1283,1278,1273,1273,1273,1273,1273,1268,1268,1268,1268,1268,1264,1264,1259,1255,1255,1255,1255,1250,1250,1250,1250,1245,1245,1241,1241,1241,1236,1236,1241,1236,1232,1232,1232,1232,1232,1232,1232,1227,1227,1227,1223,1223,1219,1219,1219,1219,1214,1214,1214,1214,1210,1210,1206,1202,1202,1202,1202,1197,1197,1197,1197,1197,1197,1193,1193,1189,1189,1185,1185,1185,1185,1181,1181,1181,1181,1181,1181,1177,1177,1177,1173,1173,1173,1169,1169,1169,1169,1169,1165,1165,1165,1165,1165,1165,1161,1161,1157,1157,1157,1153,1153,1149,1149,1145,1145,1145,1141,1141,1141,1141,0,0,0,0,0,0,0,0,0,0,0,0,0,0,0,0,0,0,0,0,0,0,0,0,0,0,0,0,0,0
0,0,0,0,0,0,0,0,0,0,0,0,0,1624,1624,1624,1624,1624,1624,1624,1624,1624,1624,1616,1616,1616,1616,1609,1609,1616,1616,1616,1624,1624,1624,1624,1624,1624,1624,1624,1624,1624,1616,1616,1624,1616,1616,1624,1624,1624,1624,1624,1624,1624,1624,1624,1616,1616,1616,1616,1616,1616,1616,1616,1616,1616,1616,1624,1616,1616,1616,1616,1616,1616,1616,1616,1624,1624,1632,1632,1632,1639,1655,1655,1748,1748,1757,1757,1757,928,928,928,930,930,930,933,933,935,935,933,933,935,935,935,935,935,935,938,940,940,948,948,948,946,946,948,948,948,946,946,946,943,943,943,943,943,943,943,943,943,954,948,948,948,954,956,956,956,959,962,962,962,954,951,946,946,946,946,946,948,951,954,956,954,954,954,954,951,951,951,954,954,954,954,954,956,954,954,954,954,954,954,956,962,962,962,962,962,962,962,959,959,959,959,956,956,956,956,959,962,962,962,962,973,964,962,962,962,962,956,956,959,959,962,962,962,962,962,956,956,959,962,962,959,959,962,962,962,959,959,959,959,964,964,964,964,964,964,964,964,964,964,964,964,962,962,964,967,970,970,970,967,967,970,970,970,967,967,967,967,964,964,964,964,967,967,967,970,970,970,970,973,978,978,978,978,978,975,967,962,962,975,975,978,975,975,975,975,970,967,967,967,970,967,967,967,970,970,970,975,973,967,967,970,970,970,970,967,967,967,970,973,973,970,970,970,967,967,967,967,967,967,970,970,970,967,964,964,964,964,964,962,959,959,964,928,928,928,928,928,925,925,923,923,918,918,918,918,915,915,918,918,918,920,920,925,928,930,933,935,935,938,0,0,0,0,0,1516,1516,1516,1516,1516,1509,1509,1503,1496,1496,1496,1489,1489,1489,1489,1489,1483,1483,1477,1477,1470,1470,1470,1470,1470,1470,1464,1464,1464,1464,1458,1458,1458,1452,1445,1445,1445,1445,1445,1439,1439,1439,1439,1439,1439,1439,1433,1433,1427,1427,1421,1421,1421,1415,1415,1415,1415,1415,1415,1410,1410,1410,1404,1404,1398,1398,1398,1392,1392,1392,1392,1392,1387,1387,1387,1381,1381,1376,1376,1376,1370,1370,1370,1370,1365,1365,1365,1359,1359,1359,1354,1354,1354,1354,1354,1349,1349,1349,1349,1349,1343,1343,1343,1338,1338,1338,1338,1333,1333,1328,1328,1328,1328,1322,1322,1317,1317,1317,1317,1312,1312,1312,1312,1307,1307,1307,1307,1302,1302,1302,1297,1297,1292,1292,1292,1292,1288,1288,1288,1283,1283,1283,1278,1278,1273,1273,1273,1273,1273,1268,1268,1268,1268,1264,1264,1259,1255,1255,1255,1255,1255,1250,1250,1250,1250,1245,1245,1245,1241,1241,1241,1241,1236,1232,1232,1232,1232,1232,1232,1227,1227,1227,1227,1223,1223,1219,1219,1219,1219,1214,1214,1214,1214,1210,1210,1206,1206,1202,1202,1202,1197,1197,1197,1197,1197,1197,1197,1193,1189,1189,1189,1185,1185,1185,1185,1181,1181,1181,1181,1181,1177,1177,1177,1173,1173,1173,1173,1169,1169,1169,1169,1165,1165,1165,1165,1165,1165,1165,1161,1161,1157,1157,1153,1153,1153,1149,1149,1145,1145,1145,1145,1145,1145,0,0,0,0,0,0,0,0,0,0,0,0,0,0,0,0,0,0,0,0,0,0,0,0,0,0,0,0,0,0
0,0,0,0,0,0,0,0,0,0,0,0,0,1632,1624,1624,1624,1624,1624,1624,1624,1624,1624,1624,1624,1624,1616,1616,1616,1616,1624,1624,1624,1624,1624,1624,1624,1624,1624,1624,1624,1624,1624,1624,1624,1616,1616,1624,1624,1624,1624,1624,1624,1624,1624,1624,1624,1624,1616,1616,1616,1616,1624,1616,1616,1616,1616,1616,1616,1616,1616,1616,1616,1616,915,915,1624,1624,1632,1632,1632,1639,1655,1757,920,920,920,920,923,925,925,925,928,928,930,930,930,930,930,930,930,930,933,935,930,930,933,935,935,935,938,938,938,940,946,946,946,943,943,943,943,943,943,943,940,940,940,940,940,940,943,946,946,946,948,948,948,951,951,954,946,946,946,946,946,946,943,943,946,946,946,946,951,951,951,951,951,951,948,948,948,948,948,948,948,948,946,946,948,948,948,951,951,951,951,956,956,956,956,956,954,954,954,951,951,951,948,948,948,946,946,946,946,946,962,959,956,956,956,954,954,956,956,959,959,959,959,956,954,954,956,956,956,956,956,956,956,954,954,954,954,954,956,956,959,959,959,959,962,959,956,956,956,956,956,956,956,956,956,959,962,962,962,964,964,964,967,967,967,967,964,962,959,959,962,964,964,964,967,964,964,967,967,967,967,964,964,964,964,959,959,973,967,967,973,973,973,973,964,964,964,964,964,964,964,964,964,967,962,962,964,964,964,964,964,964,964,964,964,964,964,964,964,964,964,964,964,964,964,964,964,964,970,970,970,964,962,962,962,962,962,962,959,959,962,930,930,928,928,928,925,925,925,923,920,918,918,918,918,918,918,918,918,920,923,925,928,933,935,935,935,938,0,0,0,0,0,1523,1523,1523,1516,1516,1509,1509,1503,1503,1496,1496,1496,1489,1489,1489,1489,1483,1483,1477,1477,1470,1470,1470,1470,1470,1470,1464,1464,1464,1464,1458,1458,1458,1458,1452,1445,1445,1445,1445,1445,1439,1439,1439,1439,1439,1439,1433,1433,1427,1427,1421,1421,1421,1421,1415,1415,1415,1415,1415,1415,1410,1410,1410,1404,1404,1398,1398,1392,1392,1392,1392,1392,1387,1387,1387,1387,1381,1381,1381,1376,1370,1370,1370,1370,1370,1365,1365,1359,1359,1359,1354,1354,1354,1354,1354,1349,1349,1349,1349,1349,1349,1343,1343,1343,1338,1338,1338,1333,1333,1333,1328,1328,1328,1322,1322,1322,1317,1317,1317,1312,1312,1312,1312,1307,1307,1307,1307,1302,1302,1302,1297,1297,1292,1292,1292,1292,1288,1288,1288,1288,1283,1283,1278,1278,1278,1273,1273,1273,1273,1273,1268,1268,1268,1264,1264,1264,1259,1255,1255,1255,1255,1250,1250,1250,1250,1245,1245,1245,1241,1241,1241,1241,1236,1236,1232,1232,1232,1232,1232,1227,1227,1227,1227,1223,1223,1223,1219,1219,1219,1214,1214,1214,1214,1210,1210,1210,1206,1206,1202,1202,1202,1202,1197,1197,1197,1197,1197,1193,1193,1193,1189,1185,1185,1185,1185,1185,1185,1181,1181,1181,1177,1177,1177,1173,1173,1173,1173,1169,1169,1169,1169,1165,1165,1165,1165,1165,1165,1165,1161,1161,1157,1157,1153,1153,1153,1149,1149,1149,1149,1145,1145,1145,1145,0,0,0,0,0,0,0,0,0,0,0,0,0,0,0,0,0,0,0,0,0,0,0,0,0,0,0,0,0,0
0,0,0,0,0,0,0,0,0,0,0,0,0,1632,1624,1624,1624,1624,1624,1624,1624,1624,1624,1624,1624,1624,1624,1624,1624,1624,1624,1624,1624,1624,1624,1624,1624,1624,1624,1624,1624,1624,1624,1624,1624,1624,1624,1624,1624,1624,1624,1624,1624,1624,1624,1624,1624,1624,1616,1616,1616,1616,1616,1616,1616,1616,1616,1616,1616,1616,1616,1616,918,915,915,913,913,1632,1632,1632,1639,1655,915,915,918,918,920,920,920,923,925,925,925,925,928,928,930,930,930,928,928,928,930,933,928,928,930,930,933,933,933,933,935,935,933,933,935,940,938,938,940,940,940,940,940,940,940,940,938,938,940,943,943,943,943,943,943,940,938,938,940,938,938,940,940,940,940,940,940,940,943,943,943,946,946,946,946,946,946,943,943,943,940,940,940,940,938,938,938,938,935,935,935,946,948,948,948,946,946,954,951,951,951,948,946,946,946,943,943,943,943,943,943,943,943,946,948,948,951,951,954,954,954,954,954,951,951,948,948,951,954,954,956,954,951,951,951,948,946,946,946,948,951,951,956,956,956,956,956,956,954,948,948,954,954,951,951,951,954,951,951,954,954,956,956,959,959,959,959,959,959,956,956,956,956,956,956,956,959,959,959,959,967,964,959,959,962,959,959,959,959,962,962,967,973,973,973,962,959,959,959,959,959,964,962,962,962,962,959,959,956,956,956,956,959,962,962,962,962,962,962,962,962,962,962,959,959,959,962,964,964,964,967,970,970,964,962,962,962,959,959,959,956,956,951,933,930,930,928,928,925,925,925,923,920,918,918,918,918,918,918,918,920,923,925,928,930,933,935,935,935,938,0,0,0,0,0,1523,1523,1523,1516,1516,1516,1509,1503,1503,1496,1496,1496,1489,1489,1489,1489,1483,1483,1483,1477,1477,1470,1470,1470,1470,1470,1464,1464,1464,1464,1464,1458,1458,1458,1452,1452,1445,1445,1445,1445,1439,1439,1439,1439,1439,1439,1439,1433,1433,1427,1427,1421,1421,1421,1415,1415,1415,1415,1415,1410,1410,1410,1410,1404,1404,1398,1398,1392,1392,1392,1392,1392,1387,1387,1387,1387,1387,1381,1381,1376,1376,1370,1370,1370,1370,1365,1365,1365,1365,1359,1359,1359,1354,1354,1354,1354,1349,1349,1349,1349,1349,1343,1343,1343,1343,1338,1338,1333,1333,1333,1328,1328,1328,1328,1322,1322,1322,1317,1317,1312,1312,1312,1312,1307,1307,1307,1307,1307,1302,1302,1297,1297,1292,1292,1292,1292,1288,1288,1288,1288,1283,1283,1278,1278,1278,1278,1273,1273,1273,1273,1273,1268,1268,1268,1264,1264,1259,1255,1255,1255,1255,1255,1250,1250,1250,1250,1250,1245,1245,1241,1241,1241,1236,1236,1232,1232,1232,1232,1232,1232,1227,1227,1227,1227,1223,1223,1219,1219,1214,1214,1214,1214,1214,1210,1210,1210,1206,1206,1202,1202,1202,1202,1197,1197,1197,1197,1197,1197,1197,1193,1193,1189,1189,1185,1185,1185,1185,1181,1181,1181,1181,1177,1177,1177,1173,1173,1173,1169,1169,1169,1169,1165,1165,1165,1165,1165,1165,1165,1161,1161,1161,1157,1153,1153,1153,1149,1149,1149,1149,1149,1145,1145,1145,0,0,0,0,0,0,0,0,0,0,0,0,0,0,0,0,0,0,0,0,0,0,0,0,0,0,0,0,0,0
0,0,0,0,0,0,0,0,0,0,0,0,0,1624,1624,1624,1632,1624,1624,1624,1624,1624,1624,1624,1624,1624,1624,1624,1624,1624,1624,1624,1624,1624,1624,1624,1624,1624,1624,1624,1624,1624,1624,1624,1624,1624,1624,1624,1624,1624,1624,1624,1624,1624,1624,1624,1624,1624,1624,1616,1616,1616,1616,1616,1616,1616,1616,1616,1616,1616,1616,1616,918,913,913,913,913,913,913,913,915,913,913,913,915,915,918,920,920,923,923,923,923,923,925,925,930,930,930,925,925,925,928,925,925,925,925,928,930,928,928,928,930,928,928,928,930,930,930,930,933,938,938,938,938,938,938,938,935,935,938,938,940,940,943,943,938,938,935,935,935,935,935,935,935,938,938,938,940,940,940,940,940,940,940,940,940,940,940,938,938,938,935,935,935,935,935,933,933,933,933,933,933,935,940,943,943,943,943,943,943,940,940,943,943,943,940,940,940,938,938,940,940,940,940,943,943,946,946,946,946,951,946,943,943,946,946,946,946,946,946,948,954,940,940,943,943,943,938,935,935,935,935,951,951,954,954,954,954,946,943,943,946,946,948,948,948,948,948,946,946,943,943,946,946,946,951,954,954,954,954,954,954,951,951,954,954,954,956,956,951,951,967,956,956,954,954,956,956,956,956,956,954,954,951,946,946,954,954,954,951,951,954,962,962,962,959,959,959,956,956,956,954,954,954,951,951,956,956,956,956,956,956,962,956,956,956,956,956,959,956,956,964,967,967,962,959,959,959,959,956,956,954,951,943,935,930,930,928,928,925,925,925,923,923,918,918,918,918,918,918,920,920,923,925,928,930,933,935,935,935,938,0,0,0,0,0,1523,1523,1523,1516,1516,1516,1509,1503,1503,1496,1496,1496,1496,1496,1489,1489,1483,1483,1483,1483,1477,1477,1470,1470,1470,1470,1464,1464,1464,1464,1464,1458,1458,1452,1452,1452,1445,1445,1445,1445,1439,1439,1439,1439,1439,1439,1439,1433,1433,1427,1427,1421,1421,1421,1415,1415,1415,1415,1415,1410,1410,1410,1410,1404,1404,1398,1398,1392,1392,1392,1392,1392,1387,1387,1387,1387,1387,1387,1381,1376,1376,1376,1370,1370,1370,1370,1370,1370,1365,1359,1359,1359,1354,1354,1354,1354,1354,1349,1349,1349,1349,1349,1349,1343,1343,1343,1343,1338,1333,1333,1328,1328,1328,1328,1328,1322,1322,1317,1317,1312,1312,1312,1312,1307,1307,1307,1307,1307,1302,1302,1302,1297,1297,1292,1292,1292,1292,1288,1288,1288,1288,1283,1278,1278,1278,1278,1273,1273,1273,1273,1273,1273,1268,1268,1268,1268,1259,1259,1255,1255,1255,1255,1255,1250,1250,1250,1250,1250,1245,1245,1241,1241,1236,1236,1236,1236,1232,1232,1232,1232,1232,1227,1227,1227,1227,1223,1223,1219,1214,1214,1214,1214,1214,1214,1210,1210,1210,1206,1202,1202,1202,1202,1197,1197,1197,1197,1197,1197,1197,1193,1193,1189,1189,1189,1185,1185,1185,1185,1181,1181,1181,1181,1177,1177,1177,1173,1173,1169,1169,1169,1169,1169,1169,1165,1165,1165,1165,1165,1165,1161,1161,1157,1153,1153,1153,1153,1149,1149,1149,1149,1145,1145,1145,0,0,0,0,0,0,0,0,0,0,0,0,0,0,0,0,0,0,0,0,0,0,0,0,0,0,0,0,0,0
0,0,0,0,0,0,0,0,0,0,0,0,0,1624,1624,1624,1632,1632,1624,1624,1624,1624,1624,1624,1624,1624,1624,1624,1624,1624,1624,1624,1624,1624,1624,1624,1624,1624,1624,1632,1624,1624,1624,1624,1624,1624,1624,1624,1624,1624,1624,1624,1624,1624,1616,1616,1624,1624,1624,1624,1624,1624,1616,1616,1616,1616,1616,1616,1616,1616,1624,1624,915,913,908,908,908,910,910,913,915,913,913,913,915,915,915,918,918,920,920,920,920,920,920,923,925,925,923,920,920,920,923,923,923,923,923,925,928,925,925,925,925,925,925,923,923,923,925,925,928,928,928,935,935,935,935,933,933,933,935,935,935,935,938,938,935,935,933,933,933,933,933,933,933,933,933,935,935,935,935,935,935,935,935,933,933,935,935,935,933,933,933,933,933,930,930,928,925,925,925,928,928,928,933,933,938,938,938,935,933,933,933,930,928,928,938,933,933,935,935,935,935,935,935,938,940,940,940,938,938,935,935,935,935,940,940,940,940,938,938,940,935,935,935,938,938,938,935,935,935,933,933,935,935,935,935,938,938,940,938,935,935,935,943,946,943,943,943,940,940,940,940,940,940,940,943,940,940,940,940,943,943,943,943,951,951,951,951,948,946,943,943,946,946,946,946,946,946,954,940,940,946,946,946,943,943,946,948,948,946,946,946,946,946,951,948,948,948,951,951,951,946,946,946,946,946,954,951,951,954,954,954,954,954,948,948,948,948,951,948,948,962,964,962,962,959,956,956,956,956,954,951,946,938,935,930,930,928,928,928,925,925,923,923,920,918,918,918,918,918,920,920,923,925,928,930,935,935,935,938,938,0,0,0,0,0,1523,1523,1523,1516,1516,1516,1509,1503,1503,1496,1496,1496,1496,1496,1489,1489,1489,1483,1483,1483,1477,1477,1477,1477,1470,1470,1464,1464,1464,1464,1464,1464,1458,1452,1452,1452,1445,1445,1445,1445,1445,1445,1439,1439,1439,1439,1439,1433,1433,1427,1427,1421,1421,1421,1421,1415,1415,1415,1415,1415,1410,1410,1410,1410,1404,1398,1398,1392,1392,1392,1392,1392,1392,1392,1387,1387,1387,1387,1381,1381,1376,1376,1370,1370,1370,1370,1370,1370,1370,1365,1365,1359,1359,1354,1354,1354,1354,1349,1349,1349,1349,1349,1349,1343,1343,1343,1343,1338,1333,1333,1333,1328,1328,1328,1328,1328,1322,1317,1317,1312,1312,1312,1312,1307,1307,1307,1307,1307,1302,1302,1302,1297,1297,1297,1292,1292,1292,1288,1288,1288,1288,1283,1278,1278,1278,1278,1278,1273,1273,1273,1273,1273,1268,1268,1268,1268,1259,1259,1255,1255,1255,1255,1255,1250,1250,1250,1250,1250,1245,1245,1241,1241,1236,1236,1236,1236,1232,1232,1232,1232,1232,1227,1227,1227,1227,1223,1223,1219,1214,1214,1214,1214,1214,1214,1214,1210,1210,1210,1206,1202,1202,1202,1202,1202,1197,1197,1197,1197,1197,1193,1193,1189,1189,1189,1185,1185,1185,1185,1181,1181,1181,1181,1181,1177,1177,1173,1173,1169,1169,1169,1169,1169,1169,1169,1165,1165,1165,1165,1165,1165,1161,1157,1157,1153,1153,1153,1153,1149,1149,1149,1149,1149,1149,0,0,0,0,0,0,0,0,0,0,0,0,0,0,0,0,0,0,0,0,0,0,0,0,0,0,0,0,0,0
0,0,0,0,0,0,0,0,0,0,0,0,0,1624,1624,1624,1632,1632,1632,1632,1632,1632,1632,1624,1624,1624,1624,1624,1624,1624,1624,1624,1624,1624,1624,1624,1624,1624,1624,1632,1632,1624,1624,1624,1624,1624,1624,1624,1624,1624,1624,1624,1624,1624,1616,1616,1624,1624,1624,1624,1624,1624,1624,1616,1616,1616,1616,1624,1624,1616,906,903,903,906,906,908,908,910,910,913,913,913,913,913,910,910,913,915,915,918,918,918,918,915,915,915,918,918,918,918,915,915,915,915,915,918,920,920,920,920,920,918,918,920,920,918,918,918,918,918,918,915,915,915,915,915,915,930,930,913,906,906,918,918,918,920,930,930,928,928,928,928,930,928,928,928,930,930,935,935,933,933,933,933,933,930,930,933,933,930,930,930,930,928,928,925,925,925,923,920,920,923,923,923,928,928,928,930,930,928,925,925,925,925,925,925,925,925,928,928,930,930,933,935,935,935,935,938,938,935,933,933,933,933,933,935,935,935,935,935,935,935,933,933,933,933,935,935,933,930,930,928,928,925,925,925,928,930,935,935,935,933,933,933,933,938,938,938,940,938,938,938,935,935,935,935,935,935,935,935,935,935,935,935,935,935,935,935,938,940,940,938,938,938,938,935,935,935,938,938,935,935,935,935,938,940,938,938,943,943,943,943,940,940,940,940,943,935,935,943,938,938,938,938,938,938,935,935,946,946,946,946,946,946,948,946,946,946,946,948,948,948,948,964,962,959,956,954,954,954,951,948,946,943,938,935,933,930,928,928,928,925,925,923,923,920,920,918,918,918,920,920,920,923,925,928,933,935,935,935,938,938,0,0,0,0,0,1523,1523,1523,1523,1516,1516,1509,1503,1503,1503,1496,1496,1496,1496,1489,1489,1489,1483,1483,1483,1477,1477,1477,1477,1470,1470,1470,1464,1464,1464,1464,1464,1458,1458,1452,1452,1445,1445,1445,1445,1445,1445,1439,1439,1439,1439,1439,1439,1433,1427,1427,1421,1421,1421,1421,1415,1415,1415,1415,1415,1410,1410,1410,1410,1398,1398,1398,1398,1392,1392,1392,1392,1392,1392,1392,1392,1392,1387,1381,1381,1376,1376,1370,1370,1370,1370,1370,1370,1370,1370,1365,1365,1359,1354,1354,1354,1354,1349,1349,1349,1349,1349,1349,1349,1343,1343,1343,1338,1333,1333,1333,1328,1328,1328,1328,1328,1328,1322,1322,1317,1317,1312,1312,1312,1307,1307,1307,1307,1307,1302,1302,1302,1302,1297,1297,1292,1292,1288,1288,1288,1288,1283,1283,1278,1278,1278,1278,1273,1273,1273,1273,1273,1268,1268,1268,1268,1264,1259,1259,1259,1255,1255,1255,1255,1255,1250,1250,1250,1245,1245,1245,1241,1241,1241,1236,1236,1236,1232,1232,1232,1232,1232,1227,1227,1227,1223,1223,1219,1219,1214,1214,1214,1214,1214,1214,1210,1210,1210,1206,1206,1202,1202,1202,1202,1202,1197,1197,1197,1197,1197,1193,1193,1189,1189,1189,1185,1185,1185,1181,1181,1181,1181,1181,1181,1177,1173,1173,1173,1169,1169,1169,1169,1169,1165,1165,1165,1165,1165,1165,1161,1161,1157,1157,1153,1153,1153,1153,1149,1149,1149,1149,1149,1149,0,0,0,0,0,0,0,0,0,0,0,0,0,0,0,0,0,0,0,0,0,0,0,0,0,0,0,0,0,0
0,0,0,0,0,0,0,0,0,0,0,0,0,1624,1624,1624,1632,1632,1632,1632,1632,1632,1632,1632,1632,1624,1624,1624,1624,1632,1624,1624,1632,1624,1624,1624,1624,1632,1632,1632,1632,1632,1632,1624,1624,1632,1624,1624,1624,1624,1624,1624,1624,1624,1616,1616,1624,1624,1624,1624,1624,1624,1624,894,894,891,891,891,894,906,903,901,901,903,903,903,906,906,906,910,913,913,910,910,908,908,910,913,913,913,913,915,913,913,913,913,913,913,913,913,915,915,913,913,913,915,913,913,913,913,918,915,915,915,915,915,913,913,915,915,913,906,906,906,906,906,906,906,906,906,906,906,910,910,913,913,915,915,923,923,923,923,925,923,923,923,923,923,920,920,930,928,928,928,928,925,925,928,930,930,930,930,928,925,925,923,923,920,920,918,918,918,918,918,915,915,923,923,923,920,920,920,920,920,920,920,920,920,923,923,923,923,925,928,933,933,933,930,930,930,928,928,928,928,928,930,930,930,930,930,928,928,928,928,925,925,928,930,928,925,925,925,923,923,923,923,923,925,928,928,930,930,930,928,928,930,933,933,935,933,933,933,933,930,930,930,930,930,933,933,933,933,933,933,930,928,925,925,933,933,933,933,933,933,933,935,933,933,935,935,935,933,933,933,935,935,935,935,938,940,940,940,940,940,940,940,933,933,935,935,935,935,935,935,935,935,935,935,935,940,940,943,943,946,946,943,943,940,940,940,940,940,935,928,928,925,925,925,933,933,935,935,938,938,935,935,933,930,930,928,928,925,925,925,923,920,920,920,920,920,920,920,923,925,928,930,933,935,935,938,938,938,0,0,0,0,0,1523,1523,1523,1516,1516,1516,1509,1503,1503,1503,1496,1496,1496,1496,1489,1489,1489,1489,1489,1483,1483,1483,1477,1477,1477,1470,1470,1470,1464,1464,1464,1464,1464,1458,1458,1458,1452,1452,1445,1445,1445,1445,1439,1439,1439,1439,1439,1439,1433,1427,1427,1421,1421,1421,1421,1415,1415,1415,1415,1415,1410,1410,1410,1404,1398,1398,1398,1398,1392,1392,1392,1392,1392,1392,1392,1392,1392,1392,1387,1381,1376,1376,1376,1376,1370,1370,1370,1370,1370,1370,1365,1365,1359,1354,1354,1354,1354,1349,1349,1349,1349,1349,1349,1349,1343,1343,1343,1338,1333,1333,1333,1328,1328,1328,1328,1328,1328,1322,1322,1317,1317,1312,1312,1312,1312,1307,1307,1307,1307,1307,1302,1302,1302,1297,1297,1292,1292,1292,1288,1288,1288,1283,1283,1283,1283,1278,1278,1273,1273,1273,1273,1273,1268,1268,1268,1268,1264,1264,1259,1259,1259,1259,1255,1255,1255,1250,1250,1250,1250,1245,1245,1241,1241,1241,1236,1236,1236,1236,1232,1232,1232,1232,1227,1227,1227,1223,1223,1219,1219,1219,1214,1214,1214,1214,1214,1214,1214,1210,1210,1206,1206,1202,1202,1202,1202,1202,1197,1197,1197,1197,1193,1193,1189,1189,1189,1185,1185,1185,1181,1181,1181,1181,1181,1181,1177,1177,1173,1173,1169,1169,1169,1169,1169,1165,1165,1165,1165,1165,1165,1161,1161,1157,1157,1153,1153,1153,1153,1149,1149,1149,1149,1149,1149,0,0,0,0,0,0,0,0,0,0,0,0,0,0,0,0,0,0,0,0,0,0,0,0,0,0,0,0,0,0
