0,0,0,0,1013,1013,1013,1010,1010,1007,1007,1007,1007,1007,1007,1007,1007,1007,1007,1004,1004,1004,1001,1001,1004,1004,1004,1007,1004,1001,1001,1001,998,998,998,1001,1001,1001,998,998,998,998,998,998,998,998,998,998,992,992,998,998,998,1001,1001,1001,998,998,998,995,992,992,992,992,992,995,995,995,998,998,998,998,998,998,995,995,995,995,995,995,995,995,995,995,998,995,995,995,992,992,992,992,992,992,995,995,995,995,995,995,995,992,992,992,989,989,989,989,989,989,989,989,989,989,989,989,989,989,989,989,989,989,989,989,989,987,987,989,987,987,987,987,987,987,984,984,984,984,984,987,984,984,984,984,984,987,987,987,987,987,987,984,984,987,984,984,984,984,984,981,981,981,981,978,978,981,981,981,981,981,978,978,978,978,978,978,981,981,981,978,978,978,978,978,978,978,975,975,978,978,975,975,975,978,978,975,975,975,975,975,975,975,975,975,975,975,975,975,975,975,975,975,975,975,975,975,975,975,975,975,975,975,973,973,973,973,970,970,970,970,970,970,967,967,815,813,813,811,809,807,807,805,803,803,803,802,800,798,798,798,798,798,798,800,800,807,809,809,811,813,815,817,819,819,821,821,962,962,962,964,964,964,962,962,962,962,962,962,962,964,962,962,962,962,959,959,962,959,959,962,962,959,959,962,962,959,959,959,962,959,959,959,959,959,959,956,956,956,959,959,959,959,959,959,959,959,959,959,959,959,959,959,959,959,959,956,956,956,956,956,956,956,956,956,956,956,956,956,956,956,956,956,956,956,956,956,956,956,956,956,956,956,956,956,954,954,954,954,956,954,954,954,954,954,954,954,951,951,951,954,954,951,951,951,951,951,951,948,948,948,948,948,948,948,948,948,948,948,948,948,948,948,946,946,946,946,946,948,948,948,948,946,946,946,946,946,946,946,946,946,946,946,946,946,946,946,946,946,943,943,943,943,943,943,943,943,943,943,943,943,943,943,940,940,940,940,940,940,940,940,940,940,938,938,938,938,938,938,938,938,935,935,935,938,938,938,938,938,938,938,938,938,938,938,938,938,938,938,938,938,938,938,938,938,935,935,935,935,935,933,933,933,933,933,933,930,930,930,930,930,930,930,930,930,930,930,930,928,928,928,928,928,928,928,928,928,930,930,930,930,930,930,930,930,930,930,928,928,928,928,928,928,928,925,925,925,925,925,925,925,925,925,925,928,928,925,925,925,925,925,925,925,925,925,923,920,920,923,923,920,920,920,920,920,920,920,920,925,923,923,923,920,920,920,920,920,920,920,923,923,923,923,923,920,918,918,918,918,918,918,918,918,918,918,918,918,918,918,918,918,915,915,915,913,913,915,915,915,915,915,915,915,915,915,0,0,0,0,0,0,0,0,0,0,0,0,0,0,0,0,0,0,0,0,0,0,0,0,0,0,0,0,0,0,0,0,0,0,0,0
0,0,0,0,1010,1010,1010,1010,1007,1004,1004,1007,1004,1004,1004,1001,1001,1001,1001,998,998,1001,1001,1001,1001,1001,1001,1001,1001,1001,1001,1001,998,998,998,998,998,998,998,995,995,995,998,995,995,995,995,995,992,992,992,995,995,995,995,995,995,995,995,992,992,989,989,989,989,992,992,992,995,995,995,992,992,992,992,992,992,992,992,992,992,992,992,995,995,992,992,992,992,992,989,989,992,992,992,992,992,989,989,989,989,989,989,989,989,987,987,987,987,987,987,987,987,987,987,987,987,989,987,987,987,987,987,987,987,987,987,987,987,987,987,984,984,984,984,981,981,981,981,984,984,981,981,981,981,981,981,981,981,984,984,981,981,984,984,981,981,978,978,978,978,978,978,978,978,978,978,978,978,978,978,975,975,975,975,975,975,975,978,978,978,975,975,975,975,975,975,975,975,975,975,975,975,975,975,975,975,973,973,975,975,973,973,973,973,973,970,970,973,970,970,973,970,970,970,970,970,970,973,973,973,973,973,970,970,970,967,967,967,967,967,967,964,964,815,815,815,813,811,811,809,807,805,803,803,803,802,802,800,800,800,800,800,802,802,807,809,809,809,813,815,819,819,821,821,821,962,962,962,962,962,962,962,962,962,959,959,959,959,959,956,956,959,959,959,959,959,959,959,959,959,956,956,959,959,959,956,956,959,956,956,956,956,956,956,954,954,954,956,956,956,956,956,956,956,956,956,956,956,956,956,956,956,956,956,956,956,956,954,954,954,954,954,951,951,951,951,951,951,951,951,954,954,956,956,954,954,954,954,954,954,954,954,954,954,954,954,954,954,954,951,951,951,951,951,951,951,948,948,951,951,948,948,948,948,948,948,948,948,946,946,946,946,946,946,946,946,946,946,946,946,946,946,946,946,946,946,943,943,943,946,946,946,946,946,946,946,946,946,946,946,946,946,943,943,943,943,943,940,940,940,940,940,940,940,940,940,940,940,940,940,940,938,938,938,938,938,938,938,938,938,938,938,938,938,938,938,935,935,935,935,935,933,933,933,935,935,935,935,935,935,935,935,935,935,935,935,935,935,935,935,935,935,935,935,935,935,933,933,933,930,930,930,930,930,930,930,928,928,928,928,928,928,928,928,928,928,928,925,925,925,925,925,925,925,925,925,925,925,928,928,928,928,928,928,928,928,928,928,928,925,925,925,925,925,925,923,923,923,923,923,923,923,925,925,923,923,923,920,920,920,920,920,923,920,918,918,920,918,918,918,918,918,918,918,918,918,918,918,918,920,920,920,920,920,920,920,920,920,920,923,920,918,918,918,918,915,915,915,915,915,915,915,918,915,915,915,915,913,913,913,913,913,913,913,913,913,913,913,913,913,913,913,913,0,0,0,0,0,0,0,0,0,0,0,0,0,0,0,0,0,0,0,0,0,0,0,0,0,0,0,0,0,0,0,0,0,0,0,0
0,0,0,0,1010,1010,1010,1007,1004,1004,1004,1004,1001,1001,1001,1001,1001,998,998,998,998,998,998,998,998,998,998,998,998,998,998,998,998,998,998,998,995,995,995,989,989,989,989,989,989,989,989,989,989,989,989,989,992,992,992,992,992,992,992,992,989,989,989,989,989,989,989,992,992,992,992,989,989,989,989,987,987,987,989,989,989,989,992,992,992,989,989,989,989,989,989,989,989,989,989,989,989,989,989,987,987,987,987,987,987,987,987,987,987,987,987,987,987,987,987,987,987,987,987,987,987,987,987,984,984,984,984,984,987,984,984,981,981,981,981,981,981,981,981,981,981,981,981,981,981,981,981,978,978,978,978,978,978,981,978,978,978,978,978,978,978,978,978,978,978,978,978,978,975,975,975,975,973,973,973,973,973,973,973,975,973,973,973,973,973,973,973,973,973,975,973,973,973,975,975,973,973,973,973,973,973,973,970,970,970,967,967,967,967,967,967,967,967,967,967,967,967,967,967,967,967,970,970,970,967,967,967,967,967,967,964,964,964,964,962,817,817,817,815,813,811,809,807,805,805,805,803,802,802,802,802,802,802,802,803,807,809,809,809,813,815,819,819,821,823,823,959,959,959,959,959,959,959,959,959,959,959,956,956,956,956,956,956,956,956,956,956,956,956,956,956,956,956,956,956,956,956,956,956,956,956,954,954,954,954,954,951,951,954,956,956,956,956,956,956,956,956,956,956,956,956,956,956,954,954,954,954,951,951,951,954,951,951,951,951,951,951,948,948,948,948,951,951,951,951,951,951,951,951,951,951,951,951,951,951,951,951,951,951,951,951,948,948,948,948,948,948,948,948,948,948,948,948,946,946,946,946,946,946,946,943,943,943,946,946,946,946,946,946,946,946,946,943,943,943,943,943,940,940,940,940,940,940,940,940,940,940,940,940,940,943,943,943,940,940,940,940,940,940,940,938,938,938,938,938,938,938,938,938,938,938,938,935,935,935,935,935,935,935,935,935,935,935,935,935,935,933,933,933,933,933,933,930,930,933,933,933,933,935,933,933,933,933,933,933,930,930,933,933,933,933,933,933,933,933,933,933,933,930,930,930,930,928,928,928,928,928,928,928,928,928,928,928,925,925,925,925,925,925,925,925,925,925,923,923,923,923,923,923,923,923,925,925,925,925,925,925,923,923,925,925,925,923,923,923,923,923,920,920,920,920,920,920,920,920,918,918,918,918,918,918,918,918,918,918,918,918,918,918,918,918,918,918,918,918,918,918,918,918,918,918,918,918,918,918,918,918,918,918,918,918,918,918,918,915,915,915,913,913,915,915,915,915,915,915,915,913,913,913,913,913,913,913,910,910,910,910,910,910,910,910,910,910,910,0,0,0,0,0,0,0,0,0,0,0,0,0,0,0,0,0,0,0,0,0,0,0,0,0,0,0,0,0,0,0,0,0,0,0,0
0,0,0,0,1001,1001,1001,1001,1001,1001,1001,1001,1001,998,998,998,998,998,998,998,998,998,998,998,995,995,992,992,992,992,995,995,995,995,995,995,995,992,992,989,989,989,989,989,989,989,989,989,989,989,989,989,989,989,989,989,989,989,989,989,989,989,989,989,989,987,987,989,989,989,989,987,987,987,987,987,987,987,984,984,987,987,987,989,989,989,989,989,987,987,987,987,987,987,987,987,987,987,987,987,987,987,987,987,987,987,987,987,987,984,984,987,984,984,981,981,984,984,984,984,984,984,984,984,984,984,984,984,984,981,981,978,978,978,981,978,978,981,981,981,978,978,981,978,978,978,978,978,978,978,978,978,978,978,978,978,978,975,975,975,975,975,975,975,975,975,975,975,975,975,975,973,973,973,970,970,970,970,970,970,970,970,970,970,970,970,970,970,970,973,973,970,970,973,973,973,970,970,970,970,970,970,970,967,967,967,967,967,967,964,964,967,964,964,967,967,967,967,967,967,967,967,967,964,964,967,967,964,964,964,964,964,964,962,962,819,819,819,817,815,813,811,809,807,805,805,803,803,802,802,802,802,802,803,805,809,809,809,811,813,817,819,821,821,823,823,956,956,956,956,956,956,956,956,956,956,956,956,956,956,954,954,954,954,954,954,954,954,956,956,956,956,956,956,956,956,954,954,954,954,954,954,951,951,951,951,948,948,951,954,954,954,954,954,954,954,954,954,954,954,956,954,954,951,951,954,951,948,948,948,951,948,948,948,948,948,948,948,948,948,948,948,948,948,948,948,948,948,948,948,948,948,948,948,948,948,948,948,948,948,948,948,948,948,946,946,946,946,946,946,946,946,946,946,943,943,946,943,943,943,943,943,943,943,943,943,943,943,943,943,943,943,943,940,940,940,940,938,938,938,938,938,938,938,938,938,938,938,938,938,938,938,938,938,938,938,940,938,938,938,938,938,938,938,935,935,935,935,935,935,935,935,935,935,933,933,935,933,933,933,933,933,933,933,930,930,930,930,930,930,930,930,930,930,930,930,930,930,930,930,930,930,930,930,930,928,928,930,930,930,930,930,930,930,930,930,930,930,928,928,928,928,928,928,928,928,928,928,928,925,925,925,925,925,925,925,925,925,923,923,923,923,923,923,923,923,923,923,923,923,923,923,923,920,920,920,923,920,920,920,923,923,923,923,923,923,920,918,918,918,918,918,918,918,918,915,915,918,918,918,915,915,918,918,918,915,915,915,915,915,915,915,915,915,915,915,915,915,915,915,915,915,915,915,915,915,915,915,915,918,918,918,918,915,915,915,913,913,913,913,913,913,913,913,913,913,913,913,910,910,910,910,910,910,910,908,908,910,908,908,908,908,908,910,0,0,0,0,0,0,0,0,0,0,0,0,0,0,0,0,0,0,0,0,0,0,0,0,0,0,0,0,0,0,0,0,0,0,0,0
0,0,0,0,1001,1001,1001,1001,998,998,998,998,998,998,998,998,998,998,998,998,998,998,995,995,995,992,992,989,989,989,989,989,992,992,992,992,992,992,989,989,989,989,989,989,989,989,989,989,987,987,987,987,987,989,989,989,989,989,989,989,989,987,987,987,987,987,987,987,987,987,987,987,987,987,984,984,984,984,984,984,987,987,987,984,984,984,987,987,987,987,987,987,987,987,987,987,987,984,984,984,984,984,984,984,984,984,984,984,984,984,984,984,984,981,981,981,981,981,981,981,984,984,984,984,984,984,981,981,981,981,978,978,978,978,978,978,978,978,978,978,978,978,978,978,978,978,975,975,975,975,975,975,975,975,975,975,975,973,973,973,975,975,975,975,973,973,975,975,973,973,973,970,970,970,970,970,967,967,967,967,967,967,967,967,967,970,970,970,970,970,970,967,967,970,970,970,970,967,967,967,967,967,967,967,967,967,964,964,964,964,964,964,964,964,964,964,964,964,964,964,964,964,964,964,964,964,964,964,964,964,962,962,962,959,956,821,819,819,819,815,813,811,809,807,807,805,803,803,802,802,802,802,803,803,807,809,809,809,811,813,819,819,823,823,825,825,956,956,956,956,956,956,956,956,956,956,956,954,954,954,954,954,954,951,951,951,951,954,954,951,951,954,954,954,954,954,954,954,951,951,951,951,951,951,951,948,948,948,951,954,951,951,951,951,951,951,951,951,951,951,954,951,951,951,951,951,948,948,948,948,948,948,948,948,948,948,948,946,946,946,946,946,946,946,946,946,946,946,946,946,946,946,948,948,948,948,948,948,948,948,946,946,946,946,946,946,946,943,943,943,943,943,943,940,940,940,940,940,940,940,940,938,938,940,940,940,940,940,940,940,940,940,940,938,938,938,938,938,935,935,935,938,938,938,935,935,935,935,935,938,938,938,938,938,938,938,938,938,935,935,935,935,935,935,935,935,933,933,933,933,933,933,933,933,930,930,930,930,930,930,930,930,930,930,930,930,930,928,928,928,928,928,928,928,928,928,930,930,928,928,928,928,925,925,928,925,925,928,928,928,928,928,928,928,928,928,928,928,928,928,925,925,925,925,925,925,925,925,925,925,925,925,923,923,923,923,923,920,920,920,920,920,920,920,920,920,920,920,920,920,920,920,920,918,918,918,920,920,920,920,920,920,920,920,920,918,918,918,915,915,915,915,915,915,915,915,915,918,915,915,915,915,915,915,915,915,915,913,913,915,915,915,915,915,915,915,915,915,913,913,915,915,915,915,915,913,913,915,915,915,915,915,915,915,915,913,913,913,913,913,913,910,910,910,910,910,910,910,910,910,910,910,910,908,908,908,908,908,908,908,908,908,908,908,0,0,0,0,0,0,0,0,0,0,0,0,0,0,0,0,0,0,0,0,0,0,0,0,0,0,0,0,0,0,0,0,0,0,0,0
0,0,0,0,1001,998,998,998,998,998,998,998,998,995,995,995,995,995,998,998,995,995,995,995,992,992,989,989,989,989,989,989,992,992,992,992,989,989,989,989,989,989,987,987,987,987,987,987,987,987,987,987,987,987,987,987,987,987,987,987,987,987,987,987,987,987,987,987,987,987,987,984,984,984,984,984,981,981,981,981,981,981,981,981,981,981,981,981,984,984,987,987,987,984,984,984,984,984,984,981,981,981,981,981,978,978,978,981,981,981,981,981,981,981,981,978,978,981,981,981,981,981,981,981,981,981,981,981,981,978,978,978,978,978,978,978,978,975,975,975,975,975,975,975,975,975,975,975,975,975,975,975,975,975,973,973,973,970,970,970,970,970,970,973,973,973,973,973,970,970,970,970,970,970,967,967,967,967,967,967,967,967,967,967,967,967,967,967,967,967,967,967,967,967,967,967,967,967,967,967,967,967,964,964,964,964,964,962,962,962,962,962,962,962,962,962,962,962,964,962,962,962,962,962,962,962,962,962,962,962,962,962,959,959,956,823,821,819,819,817,815,813,811,809,807,805,803,803,803,802,802,802,803,803,807,809,809,809,811,813,819,819,823,825,825,825,956,956,956,954,954,954,954,954,954,956,956,954,954,954,954,954,951,951,951,951,951,951,951,948,948,948,948,951,951,951,951,951,951,951,948,948,948,948,948,946,946,946,951,951,948,948,948,948,951,951,948,948,948,948,948,948,948,948,948,946,946,946,946,946,946,946,946,946,946,946,946,946,946,943,943,943,943,943,943,943,943,943,943,943,943,943,943,943,943,946,946,946,946,946,946,946,943,943,943,943,943,943,940,940,940,940,940,938,938,938,938,940,938,938,938,938,938,938,938,938,938,938,938,938,938,938,938,938,935,935,935,935,935,935,935,935,935,935,935,935,935,935,933,933,933,935,935,935,935,935,935,935,935,935,935,935,935,933,933,933,933,930,930,930,930,930,930,930,930,930,930,930,930,930,928,928,928,928,928,928,928,928,928,928,928,928,928,928,928,928,928,928,925,925,925,925,925,923,923,923,925,925,925,925,925,925,925,925,925,925,925,925,925,925,925,925,925,925,925,925,925,923,923,923,923,923,920,920,920,920,920,918,918,918,918,918,918,918,918,918,920,918,918,918,918,918,918,918,915,915,918,918,918,918,918,918,920,918,918,918,918,915,915,913,913,913,913,913,913,913,915,915,915,915,913,913,913,913,915,915,915,913,913,913,913,913,913,913,913,913,913,913,913,913,913,913,913,913,913,913,913,913,913,913,913,913,913,913,913,910,910,910,910,910,910,910,910,910,908,908,908,908,910,910,908,908,908,908,908,906,906,906,906,906,906,906,906,906,0,0,0,0,0,0,0,0,0,0,0,0,0,0,0,0,0,0,0,0,0,0,0,0,0,0,0,0,0,0,0,0,0,0,0,0
0,0,0,0,998,998,998,995,995,995,995,992,992,992,992,992,992,992,995,995,992,992,995,992,992,989,989,989,989,989,987,987,989,989,989,989,989,989,987,987,987,987,987,987,987,987,987,987,987,987,984,984,987,987,987,987,987,987,987,987,987,987,987,987,987,984,984,984,984,984,984,981,981,981,981,981,978,978,978,978,981,981,981,981,981,981,978,978,981,981,981,981,981,981,984,984,981,981,981,978,978,978,978,978,978,978,978,978,978,978,978,978,978,978,978,978,978,978,978,978,978,978,978,978,978,978,978,978,978,978,978,978,975,975,975,975,975,973,973,973,973,970,970,973,973,973,973,973,973,973,973,973,973,970,970,970,970,970,967,967,967,967,967,967,967,967,967,970,967,967,967,967,967,967,967,967,967,967,964,964,964,964,964,964,964,964,964,964,964,964,964,964,964,964,964,964,964,964,964,964,964,964,964,962,962,962,962,962,962,959,959,959,959,959,959,959,959,959,962,959,959,959,959,959,956,956,956,959,959,959,956,956,956,956,956,825,823,819,819,817,817,815,813,811,809,807,805,805,803,803,803,803,803,805,807,809,809,809,813,813,819,819,823,825,827,827,954,954,954,954,954,954,954,954,954,954,954,954,951,951,951,951,951,948,948,948,948,948,948,948,948,948,948,948,948,948,946,946,948,948,946,946,946,946,946,946,946,946,948,948,948,948,948,948,948,948,948,948,946,946,946,943,943,943,943,943,943,943,943,943,946,946,946,946,943,943,943,943,943,940,940,940,940,940,940,940,940,940,940,940,940,940,940,940,940,943,940,940,943,943,943,940,940,940,940,940,940,940,938,938,938,938,938,938,938,938,938,938,938,938,938,938,938,938,938,938,938,938,938,938,935,935,935,935,933,933,933,933,933,933,933,933,935,935,933,933,933,933,930,930,930,930,933,933,935,933,933,933,933,933,933,933,933,933,930,930,930,928,928,928,928,928,928,928,928,928,928,928,928,928,928,928,928,928,925,925,925,925,925,925,925,925,925,925,925,925,925,925,925,923,923,923,923,920,920,920,920,920,925,925,925,925,925,925,925,923,923,923,923,923,923,923,923,923,923,923,923,920,920,923,920,920,920,920,920,918,918,918,918,918,918,918,918,918,918,918,918,918,915,915,915,915,915,915,915,915,915,915,915,913,913,915,915,915,915,915,915,913,913,910,910,913,910,910,910,913,913,915,915,915,910,910,910,910,910,913,910,910,910,910,910,910,908,908,910,913,910,910,910,910,910,910,910,910,910,910,910,910,908,908,908,910,913,913,913,910,910,910,910,908,908,908,908,908,908,908,908,908,908,908,908,908,908,908,906,906,906,906,906,903,901,901,903,903,0,0,0,0,0,0,0,0,0,0,0,0,0,0,0,0,0,0,0,0,0,0,0,0,0,0,0,0,0,0,0,0,0,0,0,0
0,0,0,0,998,995,995,992,992,995,992,992,992,989,989,989,989,989,989,989,989,989,992,992,989,989,989,989,989,987,987,987,987,984,984,987,987,987,987,987,987,987,987,987,987,987,987,987,984,984,984,984,984,984,984,987,987,987,987,987,984,984,984,984,984,984,984,984,981,981,981,981,981,981,978,978,978,978,978,978,978,978,978,978,978,978,978,975,975,975,978,978,978,978,978,978,978,978,978,978,978,978,978,978,975,975,975,975,975,975,975,975,978,975,975,975,975,975,975,975,975,975,975,975,975,975,975,975,973,973,975,975,975,975,973,973,973,970,970,970,970,970,970,970,970,970,970,970,970,970,970,970,970,967,967,967,967,967,967,967,967,967,967,964,964,964,964,964,964,964,964,964,964,964,964,964,964,964,964,964,962,962,964,964,964,964,964,964,964,964,964,964,962,962,962,962,964,964,962,962,964,964,962,962,962,962,959,959,959,956,956,959,959,959,959,959,956,956,959,956,956,954,954,956,956,956,956,956,956,956,956,954,954,954,954,954,823,821,819,817,817,815,813,811,809,809,807,805,805,803,803,803,803,805,807,809,809,809,813,813,819,819,825,827,829,831,831,954,954,954,954,954,954,951,951,951,951,951,948,948,948,948,948,946,946,948,948,948,946,946,948,946,946,946,946,946,946,943,943,943,943,946,946,946,943,943,943,943,946,946,946,946,946,946,946,946,946,946,946,943,943,940,940,940,940,940,940,940,940,940,943,943,943,943,943,943,940,940,940,940,940,940,938,938,938,938,938,938,938,938,938,938,938,938,938,940,938,938,938,938,940,940,938,938,938,938,938,938,938,938,938,938,938,938,938,938,938,938,935,935,935,935,935,935,935,935,935,935,935,935,935,933,933,933,933,930,930,930,930,930,930,930,933,933,933,930,930,930,930,928,928,928,930,930,930,928,928,930,930,930,930,930,930,930,930,928,928,928,928,928,928,928,928,928,928,928,928,928,928,925,925,925,925,925,925,925,925,925,925,925,925,925,925,925,925,925,925,923,923,923,920,920,918,918,918,918,920,920,920,920,920,923,923,923,923,923,923,923,920,920,923,920,920,920,920,920,920,918,918,918,918,918,918,918,918,918,918,918,918,918,918,915,915,915,915,915,915,915,915,913,913,913,913,913,913,913,913,913,913,913,913,913,913,913,913,913,913,913,910,910,910,910,910,910,910,913,910,910,910,910,908,908,910,910,910,910,908,908,908,908,908,908,908,908,908,910,908,908,908,908,908,908,908,908,908,908,908,908,908,908,908,908,908,908,910,908,908,908,908,906,906,906,906,906,906,906,906,906,906,908,906,906,906,906,903,903,903,901,901,901,898,898,901,901,0,0,0,0,0,0,0,0,0,0,0,0,0,0,0,0,0,0,0,0,0,0,0,0,0,0,0,0,0,0,0,0,0,0,0,0
0,0,0,0,995,995,992,992,992,992,992,989,989,989,987,987,987,987,987,987,987,989,989,989,989,989,987,987,987,987,984,984,984,984,984,984,984,984,984,984,984,984,987,984,984,984,984,984,984,981,981,981,984,984,984,984,984,984,984,984,984,984,984,981,981,981,981,981,978,978,978,978,978,978,978,978,978,975,975,978,978,978,978,975,975,975,975,975,975,975,975,975,978,978,978,978,975,975,975,975,975,975,975,975,975,975,975,975,975,975,975,975,975,975,975,973,973,975,975,973,973,973,973,973,973,973,973,970,970,970,973,973,973,973,970,970,970,970,970,970,970,967,967,967,967,967,967,967,967,967,967,967,967,967,964,964,964,964,964,964,964,964,964,964,964,964,962,962,962,962,962,962,962,962,964,962,962,962,962,962,962,962,962,962,962,962,962,962,962,962,962,962,962,962,962,959,959,959,959,959,959,959,959,959,959,959,956,956,956,956,956,956,956,956,956,956,956,956,956,954,954,954,954,954,954,954,954,954,954,954,954,954,954,951,951,946,823,819,819,819,817,817,815,813,811,809,807,805,805,803,803,803,803,807,807,809,809,811,813,815,823,823,825,829,829,831,831,951,951,951,951,954,951,951,951,951,951,948,946,946,946,946,946,946,946,946,943,943,943,943,946,946,946,946,943,943,943,943,940,940,940,938,938,938,940,943,940,940,943,946,946,946,946,946,946,946,943,943,943,943,940,940,938,938,938,938,938,938,938,938,940,940,940,940,940,940,940,938,938,938,938,938,938,938,938,938,938,938,938,938,938,938,938,938,938,938,938,938,938,938,938,938,938,938,938,938,938,938,935,935,935,935,935,935,935,935,935,935,935,935,935,935,933,933,933,933,933,933,933,933,933,933,930,930,930,930,928,928,928,928,928,928,928,930,930,930,928,928,928,928,928,928,928,928,928,928,928,928,928,928,928,928,928,928,928,928,925,925,925,925,925,925,925,925,925,925,925,925,925,925,925,925,925,925,925,925,925,925,923,923,925,923,923,923,923,923,923,920,920,920,918,918,918,918,918,918,918,918,918,918,918,918,918,918,920,920,920,920,920,920,920,918,918,918,918,918,918,918,918,915,915,915,915,915,915,915,915,915,915,915,915,915,915,915,913,913,913,913,913,910,910,910,910,910,910,910,910,910,913,910,910,910,910,908,908,910,910,910,908,908,908,908,910,910,910,910,910,910,908,908,908,908,910,908,908,908,908,908,906,906,906,906,906,906,908,908,908,908,908,908,908,906,906,906,906,906,906,906,906,906,906,906,906,903,903,906,908,906,906,906,906,903,903,903,903,903,903,903,906,906,906,906,903,903,901,901,901,898,898,898,898,898,898,898,0,0,0,0,0,0,0,0,0,0,0,0,0,0,0,0,0,0,0,0,0,0,0,0,0,0,0,0,0,0,0,0,0,0,0,0
0,0,0,992,992,992,989,989,989,989,989,989,987,987,987,984,984,987,987,987,987,987,987,987,987,987,987,987,987,987,984,984,981,981,981,981,981,981,981,981,981,981,984,984,981,981,981,981,981,978,978,978,978,978,978,978,978,978,978,978,978,981,981,981,978,978,978,978,978,978,975,975,975,975,975,975,975,975,975,975,975,975,975,973,973,973,973,973,973,975,975,975,975,975,975,975,975,975,975,975,975,973,973,973,973,973,973,973,973,973,975,975,975,975,973,973,973,973,970,970,970,970,970,970,970,967,967,967,967,967,967,967,967,967,967,967,967,967,967,967,967,964,964,964,964,967,967,967,967,967,967,967,964,964,964,964,964,964,964,962,962,964,964,962,962,962,962,962,959,959,959,959,959,956,956,956,956,959,959,959,959,959,959,959,959,959,959,959,959,959,959,959,959,959,959,959,956,956,956,956,956,956,956,956,956,956,954,954,954,954,954,954,956,956,956,956,954,954,954,954,951,951,951,951,954,954,951,951,954,951,951,951,948,948,946,946,823,819,819,819,817,817,815,813,811,809,809,807,807,805,803,803,805,807,809,809,809,811,815,817,819,823,827,829,831,831,831,951,951,951,951,951,948,948,948,948,946,946,943,943,943,943,943,943,943,943,940,940,940,940,943,943,943,943,943,943,940,940,938,938,938,938,935,935,938,938,938,938,940,943,943,943,943,943,943,943,940,940,940,940,938,938,938,938,938,935,935,938,938,938,938,938,938,938,938,938,938,938,938,938,938,938,935,935,935,935,935,935,935,935,935,935,938,935,935,935,935,935,935,935,935,935,935,935,935,935,935,935,935,935,935,935,935,935,935,933,933,933,933,933,933,933,933,933,933,933,933,930,930,930,930,930,928,928,930,928,928,928,928,928,928,928,928,928,928,928,928,925,925,925,925,925,925,925,925,925,925,925,925,925,925,925,925,925,925,925,925,925,925,925,925,925,923,923,923,923,923,923,923,923,923,923,923,923,923,923,923,923,920,920,923,920,920,920,920,920,920,918,918,918,918,918,918,918,918,918,918,918,918,918,918,918,918,915,915,915,915,918,918,918,918,918,918,918,915,915,915,915,915,915,915,915,915,915,915,915,915,915,913,913,915,913,913,913,913,910,910,910,910,908,908,908,908,908,908,908,908,908,908,908,908,908,908,908,908,906,906,906,908,908,908,908,908,908,908,908,908,908,908,908,908,908,908,908,908,908,906,906,906,906,906,906,906,906,906,906,908,906,906,906,906,906,906,906,906,906,906,903,903,903,903,903,901,901,901,901,901,903,906,903,903,903,903,901,901,901,901,901,901,901,901,901,901,901,898,898,898,898,896,896,896,896,896,896,0,0,0,0,0,0,0,0,0,0,0,0,0,0,0,0,0,0,0,0,0,0,0,0,0,0,0,0,0,0,0,0,0,0,0,0
0,0,0,989,989,989,989,989,989,987,987,987,987,987,984,978,978,984,984,984,984,984,984,984,984,984,984,981,981,981,981,981,981,978,978,978,978,978,978,978,978,981,981,981,978,978,978,978,978,975,975,978,978,978,978,978,975,975,975,975,975,978,978,978,978,978,978,975,975,975,973,973,975,973,973,973,973,973,973,973,973,973,973,970,970,970,970,970,973,973,973,973,973,973,973,973,973,973,973,973,973,970,970,970,970,970,970,970,967,967,973,973,973,973,970,970,970,970,967,967,967,967,967,967,967,967,967,967,967,967,967,964,964,964,964,964,964,964,964,964,964,964,964,964,964,964,964,964,964,962,962,964,962,962,962,962,962,962,962,962,962,962,962,962,962,959,959,959,959,959,956,956,956,956,956,956,956,956,956,956,956,956,959,956,956,956,956,959,956,956,956,956,956,956,956,956,956,956,956,956,954,954,954,954,954,954,954,954,954,954,954,954,954,954,954,954,951,951,951,951,948,948,948,948,951,951,951,951,951,951,948,948,946,946,946,943,940,821,821,819,819,817,817,815,813,811,809,809,807,807,805,805,807,809,809,809,811,815,817,819,819,823,829,829,831,831,833,833,948,948,948,948,946,946,946,946,946,943,943,943,940,940,943,940,940,940,938,938,938,938,938,938,940,940,940,938,938,938,935,935,935,935,935,935,935,935,935,935,938,938,940,940,940,940,940,940,938,938,938,938,938,935,935,935,935,935,935,935,935,935,935,935,935,935,935,935,935,935,935,935,935,935,935,935,935,935,935,935,935,935,935,935,935,935,935,935,933,933,935,933,933,933,933,933,933,930,930,930,930,933,933,933,933,933,933,933,933,930,930,933,933,933,930,930,930,930,930,928,928,928,928,928,928,928,928,928,928,928,928,925,925,925,925,925,925,925,925,925,925,925,925,925,925,925,925,925,923,923,925,925,923,923,923,923,923,923,923,923,923,923,923,923,923,923,923,920,920,920,920,920,920,923,923,923,920,920,920,920,918,918,918,918,918,918,918,918,918,918,918,918,915,915,915,915,918,918,918,918,918,918,915,915,915,915,913,913,913,915,915,915,915,915,915,915,913,913,913,913,910,910,913,913,913,913,913,913,913,913,913,913,913,910,910,910,910,910,908,908,908,908,908,908,908,908,906,906,908,908,908,908,906,906,908,906,906,906,906,906,903,903,906,906,908,908,908,908,908,908,906,906,906,906,906,906,906,906,906,906,906,903,903,903,903,903,903,906,906,906,906,906,906,906,906,906,903,903,903,903,903,903,903,901,901,898,898,901,901,901,901,898,898,901,901,901,901,901,898,898,898,898,898,898,898,898,898,898,898,896,896,896,896,896,896,896,0,0,0,0,0,0,0,0,0,0,0,0,0,0,0,0,0,0,0,0,0,0,0,0,0,0,0,0,0,0,0,0,0,0,0,0
0,0,0,987,987,989,989,989,987,984,984,984,981,981,978,978,978,978,978,981,981,981,981,984,981,981,981,981,981,978,978,978,978,978,978,978,978,978,978,978,978,978,978,978,975,975,975,975,975,975,975,975,975,975,975,975,975,975,975,975,975,975,975,975,975,975,975,975,975,973,973,973,973,970,970,970,970,970,970,970,970,970,970,970,970,967,967,970,970,970,970,970,973,973,970,970,970,970,970,970,970,970,967,967,967,967,967,967,967,967,970,970,967,967,967,967,967,967,967,964,964,964,964,964,964,964,964,964,964,962,962,962,962,962,962,962,962,962,962,962,962,962,962,962,962,962,962,962,962,959,959,962,962,959,959,959,959,959,959,959,959,959,959,956,956,959,956,956,956,956,956,956,956,954,954,954,954,954,954,954,954,954,954,954,956,956,956,956,956,956,956,956,956,956,956,956,954,954,954,954,954,954,954,951,951,951,951,951,951,951,951,951,951,951,951,951,948,948,948,948,948,946,946,948,948,948,946,946,948,948,946,946,946,946,943,943,940,935,825,821,821,819,817,817,815,813,811,811,809,809,807,807,807,809,809,811,811,817,819,819,821,823,829,831,831,833,833,833,946,946,946,946,943,943,940,940,943,943,940,940,940,940,940,938,938,938,938,938,935,935,935,935,938,938,935,935,935,935,935,933,933,933,935,935,935,935,935,935,938,938,938,938,938,938,938,938,938,938,938,938,935,935,935,935,935,933,933,935,933,933,933,933,933,933,933,933,935,935,935,935,935,935,933,933,933,933,933,933,933,933,933,933,935,933,933,933,933,933,933,933,933,930,930,930,928,928,928,928,928,928,928,928,930,930,930,930,930,930,930,930,930,930,928,928,928,928,928,925,925,925,925,925,925,925,928,925,925,925,925,925,925,925,925,925,923,923,923,923,923,923,923,923,923,923,920,920,920,920,920,923,923,920,920,920,920,918,918,918,920,920,920,920,920,918,918,918,918,918,918,918,918,920,920,918,918,918,918,918,915,915,915,915,915,915,915,915,915,915,915,915,915,915,915,915,915,915,915,915,915,915,915,915,913,913,913,910,910,910,910,910,910,910,913,910,910,910,910,910,910,910,910,910,910,910,910,910,910,910,910,910,910,908,908,908,908,908,908,908,906,906,906,906,906,906,906,906,906,906,906,906,906,906,906,906,906,903,903,903,901,901,903,903,906,906,906,906,906,906,906,903,903,903,903,903,903,903,903,903,903,903,903,903,903,901,901,903,903,903,903,903,903,901,901,901,901,901,901,901,901,901,901,898,898,898,898,898,898,898,898,898,898,898,898,898,898,898,898,898,898,898,898,898,896,896,896,896,896,894,894,894,894,894,894,894,0,0,0,0,0,0,0,0,0,0,0,0,0,0,0,0,0,0,0,0,0,0,0,0,0,0,0,0,0,0,0,0,0,0,0,0
0,0,0,987,987,987,987,987,987,984,984,981,981,981,978,978,978,978,978,978,978,978,981,978,978,978,978,978,978,975,975,975,975,975,975,975,975,975,975,975,975,975,975,975,975,973,970,970,973,973,973,973,975,975,975,975,975,973,973,973,973,973,973,973,973,973,975,973,973,973,970,970,970,970,970,970,967,967,970,970,967,967,967,967,967,967,967,967,967,970,970,970,970,970,970,967,967,967,967,967,967,967,964,964,964,967,967,964,964,964,967,967,967,967,964,964,964,964,964,964,964,964,964,964,964,964,964,962,962,962,959,959,959,959,962,959,959,962,962,959,959,962,962,959,959,959,959,959,959,956,956,959,956,956,956,956,956,956,959,956,956,956,956,956,956,956,956,956,956,956,956,954,954,954,954,954,954,954,954,954,954,954,954,951,951,951,951,954,954,954,954,954,954,956,954,954,954,954,954,954,951,951,951,951,951,951,951,951,951,951,948,948,948,948,946,946,946,946,946,946,946,946,946,946,946,946,946,946,946,946,946,946,943,943,943,943,940,935,827,825,825,825,821,819,817,815,813,813,811,809,809,809,809,809,811,811,811,817,819,819,821,825,829,831,831,833,833,833,938,938,938,940,940,940,938,938,940,940,938,938,938,938,938,935,935,935,935,935,935,935,935,935,935,935,933,933,933,933,933,933,933,933,933,933,933,933,933,933,935,935,935,935,935,935,935,935,935,935,935,935,935,935,933,933,933,933,933,933,930,930,930,930,930,930,930,930,933,933,933,933,933,933,930,930,930,928,928,930,930,930,930,930,933,933,933,930,930,930,930,930,930,930,928,928,928,928,925,925,925,925,925,925,925,925,925,928,928,925,925,928,928,928,928,925,925,925,925,925,925,925,925,925,925,925,925,925,925,923,923,923,923,923,920,920,923,923,920,920,923,923,923,920,920,920,920,920,918,918,920,920,920,920,918,918,918,918,918,918,918,918,918,918,918,918,918,918,918,918,918,918,918,918,918,918,915,915,913,913,913,913,913,913,913,915,915,913,913,913,913,913,913,913,913,913,913,913,915,915,913,913,913,913,913,910,910,910,910,908,908,908,908,908,908,908,908,908,908,908,908,908,908,910,910,908,908,908,908,908,908,908,908,908,908,908,908,906,906,906,906,906,906,906,906,906,906,906,906,906,906,906,906,906,903,903,903,901,901,901,898,898,901,903,903,903,901,901,903,906,903,901,901,901,901,898,898,898,898,901,901,901,901,901,901,901,901,901,901,901,901,898,898,898,898,898,898,898,898,898,898,898,898,898,898,898,898,898,898,898,898,898,896,896,896,896,896,898,898,898,896,896,896,896,896,896,896,896,894,894,894,894,891,891,891,891,0,0,0,0,0,0,0,0,0,0,0,0,0,0,0,0,0,0,0,0,0,0,0,0,0,0,0,0,0,0,0,0,0,0,0,0
0,0,0,984,984,984,978,978,978,978,978,981,978,978,978,978,978,978,978,978,975,975,978,975,973,973,973,973,970,970,973,973,973,975,973,973,973,975,975,975,973,973,975,973,973,973,970,970,973,970,970,973,973,973,973,973,973,973,970,970,970,970,970,970,970,970,973,970,970,970,970,970,967,967,967,967,967,967,967,967,967,967,967,967,967,964,964,967,967,967,967,967,967,967,967,964,964,964,964,964,964,964,964,964,964,964,964,962,962,962,962,962,962,962,962,962,959,959,959,959,959,962,962,962,962,962,962,962,962,959,959,959,959,959,959,959,959,959,959,959,959,959,959,956,956,956,956,956,956,956,956,956,956,956,956,956,956,956,956,956,956,956,956,956,956,956,954,954,954,954,954,954,954,954,954,954,954,951,951,951,951,948,948,951,951,948,948,951,951,951,951,951,954,954,951,951,951,951,948,948,948,948,951,948,948,948,948,948,948,948,946,946,946,946,946,946,946,946,946,946,946,946,946,946,946,946,946,946,946,946,943,943,943,940,940,940,938,935,829,827,827,827,825,823,821,819,817,817,811,811,809,809,809,811,811,811,811,817,819,819,821,827,829,831,831,833,833,833,933,933,935,938,938,938,938,938,938,938,935,935,935,935,935,935,935,935,935,935,933,933,933,933,933,933,933,930,930,930,933,933,933,933,933,933,933,933,930,930,933,933,933,933,933,930,930,930,933,933,933,933,933,933,930,930,930,930,930,930,930,930,930,930,930,930,930,930,930,930,933,933,930,930,928,928,928,928,928,928,928,928,928,928,930,928,928,928,928,930,930,928,928,928,925,925,925,925,925,923,923,923,923,923,923,923,923,923,923,923,925,925,925,925,925,925,925,925,925,923,923,923,923,923,923,923,923,920,920,920,920,920,920,920,920,920,920,918,918,920,920,920,920,918,918,918,918,918,918,918,918,918,918,918,918,918,915,915,915,915,915,915,915,915,915,915,915,915,915,915,915,915,913,913,915,915,913,910,910,910,910,910,910,910,913,913,913,913,913,913,913,910,910,910,910,910,910,913,913,913,913,913,913,913,910,910,908,908,908,908,908,906,906,908,908,908,906,906,908,908,908,908,908,908,908,908,908,908,908,908,908,908,908,908,908,906,906,906,906,906,903,903,903,903,906,906,901,901,903,903,903,906,906,906,903,901,898,898,898,898,898,898,898,901,901,901,898,898,898,898,901,898,898,898,898,896,896,896,898,898,898,898,898,898,898,898,898,898,898,898,898,898,898,898,896,896,896,896,898,896,896,896,896,896,896,896,896,896,896,896,896,896,894,894,894,894,894,894,894,896,896,896,896,896,894,894,894,894,891,891,891,891,891,889,889,889,0,0,0,0,0,0,0,0,0,0,0,0,0,0,0,0,0,0,0,0,0,0,0,0,0,0,0,0,0,0,0,0,0,0,0,0
0,0,0,981,981,978,978,978,978,978,978,978,978,978,978,975,975,975,975,975,975,975,975,973,973,973,973,973,970,970,970,970,970,973,973,973,973,973,973,973,973,973,967,967,967,967,970,970,970,970,970,970,970,970,970,970,970,970,967,967,967,967,967,967,967,967,967,970,967,967,967,967,967,967,964,964,964,964,964,964,964,964,964,964,964,964,964,964,964,967,967,964,964,964,964,964,962,962,962,962,962,962,962,959,959,962,962,959,959,959,959,959,959,956,956,959,959,956,956,959,956,956,959,959,959,959,959,959,959,959,956,956,956,956,959,956,956,956,956,956,956,956,956,956,956,956,956,956,954,954,954,954,954,954,954,954,954,954,954,954,954,954,954,954,954,954,954,954,954,954,954,951,951,951,951,951,948,948,948,948,948,948,948,948,948,948,948,948,948,948,948,948,948,948,948,948,948,946,946,948,946,946,948,946,946,946,946,946,946,946,946,946,943,943,943,943,943,943,943,943,943,943,943,943,943,943,943,943,943,943,943,943,943,940,940,940,938,935,831,829,827,827,825,825,823,821,821,819,815,813,811,811,811,811,811,811,815,819,819,821,823,827,829,831,831,833,835,933,933,933,935,935,935,935,935,935,935,935,935,935,935,933,933,933,933,933,933,933,933,933,930,930,930,930,930,930,928,928,933,930,930,930,930,930,930,930,928,928,930,930,930,930,930,930,930,930,930,930,930,928,928,928,928,928,928,928,928,928,928,928,928,928,928,928,930,930,930,930,930,930,930,928,928,928,928,925,925,925,925,925,925,925,925,925,925,925,925,928,928,925,925,925,925,925,923,923,923,920,920,920,920,920,920,920,920,920,923,923,923,923,923,925,925,925,925,923,923,923,923,923,920,920,920,920,920,920,920,918,918,918,918,918,918,918,918,918,918,918,918,918,918,918,915,915,915,915,915,915,915,915,918,915,915,915,915,915,915,915,915,915,915,915,915,913,913,913,913,913,913,910,910,913,910,910,910,910,908,908,910,910,910,910,910,910,913,910,910,910,910,908,908,908,908,908,908,908,910,910,910,910,910,910,910,908,908,908,908,908,906,906,906,906,906,906,906,906,906,906,906,908,908,908,908,908,908,906,906,906,906,906,906,906,906,903,903,903,903,903,901,901,901,901,901,898,898,898,901,901,901,903,903,903,898,898,898,898,898,898,896,896,898,898,898,898,896,896,896,898,896,896,896,896,896,896,896,896,896,896,896,896,898,898,898,898,898,898,898,898,898,896,896,896,894,894,894,894,896,896,896,894,894,896,896,894,894,894,894,894,894,894,891,891,894,894,894,894,894,894,894,896,894,894,894,894,891,891,889,889,889,889,889,889,887,887,0,0,0,0,0,0,0,0,0,0,0,0,0,0,0,0,0,0,0,0,0,0,0,0,0,0,0,0,0,0,0,0,0,0,0,0
0,0,0,978,978,978,975,975,975,975,975,975,975,975,975,970,970,970,973,973,973,973,973,973,970,970,970,970,967,967,967,967,967,970,970,970,970,970,970,970,970,970,964,964,964,964,967,967,967,964,964,967,967,967,967,967,967,967,967,964,964,964,964,964,964,964,964,967,967,967,967,967,964,964,964,964,964,964,964,964,964,964,964,964,964,964,964,964,964,964,962,962,962,962,962,962,959,959,959,959,959,959,959,956,956,959,959,959,956,956,956,956,956,956,956,956,956,956,956,956,956,956,956,956,956,956,956,956,956,956,956,956,956,956,956,956,956,956,956,956,956,956,956,956,956,956,956,954,954,954,954,954,954,951,951,954,954,951,951,951,951,951,951,951,951,951,951,951,951,951,951,948,948,948,948,948,948,948,946,946,946,946,946,946,946,946,946,946,946,946,946,946,946,946,946,943,943,943,946,946,946,946,946,946,946,946,946,946,946,943,943,943,943,943,940,940,940,940,940,940,940,940,940,940,940,940,940,940,940,940,940,940,940,938,938,938,935,933,831,831,829,827,827,825,825,823,821,819,817,815,813,811,811,811,813,813,817,819,819,821,823,827,829,831,831,833,835,933,933,933,933,935,935,935,935,933,933,933,933,933,930,930,930,933,933,933,933,933,933,933,930,930,928,928,928,928,928,928,930,930,928,928,930,930,928,928,928,928,930,928,928,928,928,928,928,928,928,928,928,928,928,928,925,925,925,928,928,928,928,928,928,928,928,928,928,928,928,928,928,928,928,925,925,925,925,925,925,925,925,923,923,923,923,925,925,923,923,923,923,925,923,923,920,920,920,920,920,918,918,918,918,918,918,918,918,918,920,920,920,920,920,920,920,920,923,923,920,920,920,920,918,918,918,918,918,918,918,918,918,918,918,915,915,915,915,915,915,915,915,915,915,915,915,915,915,915,915,915,915,915,915,915,915,913,913,913,913,913,913,913,913,913,913,910,910,908,908,908,908,908,908,910,910,910,908,908,908,908,908,908,908,908,908,910,910,910,910,910,908,908,908,908,906,906,906,906,906,908,908,908,908,908,908,906,906,906,906,906,906,906,906,906,906,906,903,903,903,903,903,903,903,903,906,906,906,906,906,906,903,903,903,901,901,901,901,901,901,901,898,898,898,898,898,898,898,898,898,898,898,898,898,898,896,896,896,896,896,896,896,896,896,896,896,896,896,894,894,896,896,896,894,894,896,894,894,894,894,894,896,896,896,896,896,896,896,896,896,896,896,896,894,894,894,894,894,894,894,894,894,891,891,894,894,891,891,891,891,891,891,891,891,891,891,891,891,891,891,891,891,891,891,891,891,891,889,889,889,889,887,887,889,887,887,887,0,0,0,0,0,0,0,0,0,0,0,0,0,0,0,0,0,0,0,0,0,0,0,0,0,0,0,0,0,0,0,0,0,0,0,0
0,0,0,975,975,975,975,973,973,973,975,975,975,975,975,970,970,970,970,970,970,970,970,970,970,967,967,967,967,967,967,967,967,967,967,967,967,964,964,967,967,964,964,962,962,964,964,964,964,964,964,964,964,964,964,964,964,964,964,964,964,962,962,964,964,962,962,964,964,964,964,964,964,962,962,962,962,962,962,962,962,962,962,962,962,962,959,959,959,959,959,959,959,959,959,959,956,956,956,956,956,956,956,956,956,956,956,956,956,956,956,956,956,954,954,956,956,956,956,956,954,954,954,954,954,954,954,954,954,954,954,956,956,956,956,956,956,956,956,956,956,956,956,954,954,954,954,954,954,954,951,951,951,951,951,951,951,948,948,948,948,948,948,948,948,948,948,948,948,948,948,946,946,946,946,946,946,946,946,946,946,946,946,946,946,946,946,946,946,943,943,943,943,943,943,943,943,943,943,943,943,943,943,943,943,943,943,943,943,943,943,940,940,940,940,940,938,938,938,938,938,938,938,938,938,938,938,940,940,940,940,940,940,938,935,935,935,933,831,831,829,829,827,827,825,823,821,819,817,815,813,813,813,813,815,815,819,819,819,821,823,829,831,831,833,835,837,933,933,933,933,933,933,933,933,933,933,933,930,930,928,928,930,930,930,930,930,930,930,930,928,928,928,928,928,925,925,925,928,928,928,928,928,928,928,928,925,925,928,928,928,928,928,928,928,928,925,925,928,925,925,925,925,925,925,925,925,925,925,925,925,925,925,925,925,925,925,925,925,923,923,923,923,923,923,923,923,923,923,923,920,920,920,923,923,920,920,920,920,923,923,923,920,918,918,918,918,915,915,918,918,918,918,918,915,915,918,918,918,918,918,918,918,918,918,918,918,918,918,918,918,918,915,915,915,915,915,915,915,915,915,915,915,915,915,913,913,913,913,915,915,915,913,913,913,913,913,913,913,913,913,913,913,910,910,910,910,910,910,910,910,910,910,910,908,908,908,908,908,906,906,908,908,908,908,908,908,908,908,908,908,908,908,908,908,908,908,908,908,906,906,906,903,903,901,901,901,903,903,903,903,903,906,903,901,901,903,903,903,903,903,903,903,903,903,903,903,901,901,901,901,903,903,906,906,906,906,906,903,901,901,901,898,898,898,898,898,898,898,898,898,898,898,898,896,896,898,898,898,896,896,896,894,894,894,894,894,896,894,894,894,896,894,891,891,891,894,894,894,894,894,894,894,894,894,894,894,894,894,894,894,894,894,894,891,891,891,891,891,891,891,891,891,891,891,891,891,891,891,891,891,891,891,891,889,889,889,889,889,889,889,889,889,889,889,889,889,889,889,887,887,885,885,887,889,887,887,887,887,887,887,887,885,885,0,0,0,0,0,0,0,0,0,0,0,0,0,0,0,0,0,0,0,0,0,0,0,0,0,0,0,0,0,0,0,0,0,0,0,0
0,0,0,975,975,975,973,970,970,970,973,973,973,973,973,973,970,970,970,967,967,967,967,967,967,967,967,967,967,964,964,964,964,964,964,962,962,962,962,962,962,959,959,959,959,962,962,962,962,962,962,962,962,962,959,959,959,959,962,962,962,962,962,962,962,959,959,959,962,962,962,962,962,959,959,959,959,959,959,959,959,959,959,959,959,959,959,959,956,956,956,956,956,956,956,956,956,956,954,954,954,954,954,954,954,956,956,954,954,954,954,954,954,954,954,954,954,954,954,954,954,951,951,951,948,948,951,951,951,954,954,954,951,951,954,954,954,954,954,954,954,954,954,954,954,954,954,954,951,951,951,951,948,948,948,948,948,948,948,948,946,946,946,946,946,946,946,946,946,946,946,946,946,946,946,946,946,946,943,943,943,943,946,946,946,946,946,943,943,943,943,940,940,943,940,940,940,940,940,940,940,940,940,940,940,943,943,943,943,943,940,938,938,938,938,938,938,938,938,935,935,935,935,935,935,935,935,935,935,935,938,938,938,935,935,933,933,933,831,831,829,829,829,827,825,823,823,819,819,817,815,815,815,815,815,817,819,819,819,823,827,829,831,833,835,837,837,933,933,933,933,933,933,933,933,930,930,930,928,928,925,925,925,928,928,928,928,928,928,928,928,925,925,925,925,925,925,925,925,925,925,925,925,925,925,925,925,925,925,925,925,925,925,925,925,925,925,925,925,923,923,923,923,923,923,925,925,925,925,925,925,925,925,925,925,925,923,923,923,920,920,920,920,920,920,920,920,920,920,920,920,920,920,920,920,918,918,918,918,920,920,920,918,918,918,918,918,915,915,915,915,915,915,915,915,915,915,918,918,918,918,918,918,918,918,915,915,915,915,915,915,915,915,915,915,915,915,915,915,913,913,913,913,913,913,913,913,913,913,913,913,913,913,910,910,910,910,910,910,910,910,910,910,908,908,908,908,910,910,910,910,910,910,908,908,906,906,906,906,906,906,906,906,906,908,906,906,906,906,906,906,906,906,906,906,906,906,906,906,906,906,903,901,901,901,901,901,901,901,901,901,901,901,901,901,901,901,903,903,903,903,903,903,903,901,901,901,898,898,898,898,898,898,901,901,903,906,903,901,901,898,898,898,896,896,896,896,896,896,896,896,896,896,896,896,896,896,896,896,894,894,894,894,894,894,894,894,894,891,891,891,891,891,889,889,889,891,891,891,891,891,891,891,891,889,889,889,891,891,891,891,891,891,891,891,889,889,889,891,891,889,889,889,889,889,889,889,889,889,889,889,891,891,889,889,889,889,889,887,887,887,887,889,889,887,887,889,887,885,882,882,882,882,885,885,885,887,887,887,887,885,885,885,885,0,0,0,0,0,0,0,0,0,0,0,0,0,0,0,0,0,0,0,0,0,0,0,0,0,0,0,0,0,0,0,0,0,0,0,0
0,0,0,973,973,973,973,970,970,970,970,970,970,973,973,973,970,970,970,967,967,967,967,967,967,964,964,964,964,964,964,964,962,962,962,962,959,959,959,959,959,959,959,956,956,959,959,959,959,959,959,959,959,959,959,959,959,959,959,956,956,956,959,959,959,959,959,959,959,959,962,959,959,959,956,956,956,956,956,956,956,956,956,956,956,956,956,956,956,956,956,954,954,954,954,954,954,954,954,954,954,954,954,954,954,954,954,954,951,951,951,954,954,954,954,954,954,954,951,951,948,948,948,948,948,948,948,948,948,951,951,951,948,948,948,948,948,948,948,951,951,951,951,951,951,951,951,951,948,948,948,948,948,946,946,946,946,946,946,946,946,946,946,946,946,946,946,946,946,946,946,946,943,943,943,943,943,943,943,943,943,943,943,943,943,943,943,943,943,940,940,940,940,940,938,938,938,938,938,938,938,938,938,938,938,938,938,938,938,940,940,938,938,938,938,938,935,935,935,935,935,933,933,933,933,933,935,935,935,935,935,935,935,933,933,933,933,930,833,833,831,829,829,827,827,825,823,821,819,817,817,817,817,817,817,817,819,819,821,823,829,831,833,835,839,839,841,843,843,930,930,928,928,928,930,930,928,928,925,925,925,925,925,925,925,925,925,925,925,925,925,923,923,923,925,925,925,925,925,925,925,925,923,923,923,923,923,923,925,925,923,923,923,923,923,923,923,923,923,923,923,923,923,923,923,923,923,923,925,925,925,923,923,923,923,923,920,920,920,918,918,918,918,918,918,918,918,920,920,920,918,918,918,918,918,918,918,918,918,918,918,918,918,915,915,915,915,915,915,915,915,915,915,915,915,915,915,915,915,915,915,915,915,915,915,913,913,913,910,910,913,913,913,913,913,913,913,913,913,913,910,910,910,910,910,910,910,910,910,910,910,910,910,910,910,910,910,910,908,908,908,908,908,908,908,908,908,908,908,908,908,908,908,908,906,906,906,906,906,906,906,906,906,906,906,906,906,906,906,906,906,903,903,906,906,906,906,906,903,903,903,903,901,901,898,898,898,898,898,898,898,898,898,898,898,898,898,901,901,901,901,901,901,901,898,898,898,898,898,896,896,896,898,898,898,896,896,896,896,898,898,898,896,896,896,896,896,896,896,896,896,896,896,896,896,896,894,894,894,891,891,891,891,891,891,891,891,891,891,891,889,889,889,889,889,889,889,889,889,889,889,889,889,889,889,889,887,887,887,889,889,889,889,889,889,889,889,889,889,889,889,889,889,889,889,889,889,889,889,889,889,889,889,889,889,887,887,887,887,887,887,887,887,887,885,885,882,882,882,882,882,882,882,882,882,882,882,882,885,885,885,885,882,882,0,0,0,0,0,0,0,0,0,0,0,0,0,0,0,0,0,0,0,0,0,0,0,0,0,0,0,0,0,0,0,0,0,0,0,0
0,0,0,970,970,970,970,970,970,970,970,970,970,970,967,967,967,967,967,967,964,964,964,964,964,964,964,964,964,962,962,962,959,959,959,959,959,959,959,956,956,956,956,956,956,956,956,956,956,956,956,956,956,956,956,956,956,956,956,956,956,956,956,956,956,956,956,956,959,959,959,956,956,956,956,954,954,954,954,954,954,954,954,954,956,956,954,954,954,954,954,954,954,954,954,954,954,951,951,951,951,951,951,951,951,954,954,951,951,948,948,951,951,951,951,951,951,951,948,948,946,946,946,946,946,948,948,948,948,948,948,948,946,946,946,946,946,946,946,946,946,946,948,948,948,948,948,948,946,946,946,946,946,946,946,943,943,943,943,943,943,943,943,943,943,943,943,943,943,943,943,943,943,940,940,940,940,940,940,940,940,940,940,940,940,940,940,940,938,938,938,938,938,938,938,938,935,935,938,938,935,935,935,935,935,935,935,935,935,935,935,935,935,935,935,935,933,933,933,933,933,933,933,930,930,930,930,930,930,930,930,930,930,930,930,930,930,930,833,833,833,831,831,829,829,827,825,821,819,819,817,817,817,817,817,817,819,819,821,823,831,831,833,835,839,841,841,843,843,930,928,928,928,925,925,925,925,925,925,923,923,923,923,923,923,925,923,923,925,923,923,923,923,923,923,923,923,923,923,923,923,923,923,923,923,923,923,923,923,923,923,923,923,920,920,923,920,920,920,920,920,920,920,920,920,920,920,923,923,923,923,923,920,920,918,918,918,918,918,918,918,918,918,918,918,918,918,918,918,918,915,915,915,915,915,915,915,915,915,915,918,915,915,915,915,915,915,913,913,913,913,913,913,913,913,913,913,913,915,915,913,913,913,913,913,910,910,910,910,910,910,910,910,910,910,910,910,910,910,910,908,908,908,908,908,908,908,908,908,908,908,908,908,908,908,908,908,908,906,906,906,906,906,906,906,906,906,906,906,906,906,906,906,903,903,903,903,903,903,903,906,906,906,906,906,903,903,901,901,903,903,903,903,903,903,903,903,903,901,901,901,901,898,898,898,898,898,898,898,896,896,898,898,896,896,896,898,898,898,898,898,898,898,898,898,896,896,896,896,896,896,896,896,894,894,896,896,891,891,894,894,896,894,894,894,894,894,894,894,894,894,894,894,894,894,894,891,891,891,891,891,891,891,891,891,891,891,891,889,889,889,887,887,887,887,887,889,889,889,889,889,889,889,889,887,887,885,885,885,887,887,887,887,887,887,887,887,887,887,887,887,887,887,887,887,887,889,887,887,887,887,887,887,887,887,885,885,885,885,885,885,885,885,885,882,882,882,882,882,880,880,880,880,880,882,882,880,880,880,880,882,880,880,880,0,0,0,0,0,0,0,0,0,0,0,0,0,0,0,0,0,0,0,0,0,0,0,0,0,0,0,0,0,0,0,0,0,0,0,0
0,0,0,970,970,967,967,967,967,967,967,967,967,967,967,964,964,967,967,964,964,964,962,962,962,962,962,962,962,962,962,959,959,956,956,956,956,956,956,956,956,956,956,954,954,954,954,954,954,954,956,956,956,956,956,954,954,954,954,954,954,954,954,954,954,954,954,954,954,954,956,956,956,956,954,954,954,951,951,954,954,954,954,954,954,954,954,954,951,951,954,951,951,951,951,951,948,948,948,948,948,948,951,951,951,951,951,951,948,948,948,948,948,951,948,948,948,951,948,948,946,946,946,946,946,946,946,946,948,948,948,946,946,946,943,943,943,943,943,943,943,943,943,943,943,943,946,946,946,946,943,943,943,943,943,943,943,943,940,940,940,940,940,940,940,940,940,940,940,940,940,940,940,940,938,938,938,938,938,938,938,938,938,938,938,938,938,938,935,935,935,935,935,935,935,935,935,935,935,935,935,935,933,933,933,933,933,933,933,933,933,933,933,933,933,933,933,933,930,930,933,930,930,930,930,930,928,928,928,928,928,928,928,928,928,928,928,928,930,833,833,833,833,831,829,827,825,823,821,821,819,819,817,817,819,819,819,819,821,827,831,831,833,835,839,841,841,843,843,930,928,925,925,925,923,923,923,923,923,923,923,923,923,923,923,923,923,923,923,923,923,920,920,920,920,920,920,920,920,923,920,920,920,920,920,920,920,920,920,920,918,918,918,918,918,920,918,918,918,918,918,918,918,918,918,918,918,918,920,920,920,918,918,918,918,918,918,918,915,915,915,918,918,918,915,915,915,915,915,915,913,913,913,915,913,913,913,913,913,915,915,915,915,913,913,915,913,913,913,910,910,910,910,910,910,910,910,910,910,910,910,910,910,910,910,908,908,908,908,908,908,908,908,908,908,906,906,906,908,908,908,908,908,908,906,906,906,906,906,906,906,906,906,903,903,906,903,903,903,903,903,903,903,903,903,903,903,903,903,903,903,903,903,903,901,901,903,903,901,901,903,903,903,903,901,901,901,898,898,898,898,898,898,901,901,901,901,901,901,901,898,898,898,896,896,896,896,896,896,896,896,896,896,896,896,896,894,894,896,896,896,898,898,898,898,896,896,896,896,894,891,891,891,891,889,889,889,889,889,891,891,894,891,891,894,894,894,891,891,894,891,891,891,891,891,891,889,889,889,889,889,889,889,889,889,889,889,889,889,889,889,887,887,887,887,887,887,887,887,887,887,887,887,887,885,885,885,882,882,885,885,885,885,885,887,887,887,887,885,885,887,887,887,887,887,887,887,887,887,885,885,885,885,885,885,885,882,882,885,882,882,882,882,882,882,882,880,880,880,880,880,878,878,880,880,880,880,878,878,878,875,875,878,880,0,0,0,0,0,0,0,0,0,0,0,0,0,0,0,0,0,0,0,0,0,0,0,0,0,0,0,0,0,0,0,0,0,0,0,0
0,0,0,967,967,967,967,967,967,964,964,964,964,964,964,964,964,964,964,964,964,962,962,959,959,959,959,962,962,962,959,956,956,956,956,956,956,956,956,956,956,956,954,954,954,951,951,951,951,951,954,954,954,954,954,954,954,954,954,954,954,954,954,954,954,954,954,954,954,954,951,951,954,954,954,954,951,951,951,951,951,951,951,951,951,951,951,948,948,948,948,948,948,948,948,948,948,946,946,946,946,946,948,948,948,948,948,948,946,946,946,946,946,946,946,946,946,948,946,946,946,946,946,946,946,946,946,946,946,946,946,946,946,943,943,940,940,940,940,940,940,940,940,940,940,940,940,940,938,938,943,943,943,943,940,940,940,940,940,938,938,938,938,938,938,938,938,938,938,938,938,938,938,938,935,935,935,935,935,935,935,935,935,935,935,935,935,935,935,935,935,935,935,935,935,935,935,935,935,933,933,933,933,933,933,933,933,930,930,930,930,930,930,928,928,928,928,928,928,928,930,928,928,928,928,928,928,928,928,928,925,925,925,928,928,925,925,925,925,833,833,833,833,833,831,829,827,825,823,821,821,819,819,819,819,819,819,821,823,829,831,831,835,837,841,841,843,843,843,925,925,925,923,923,920,920,920,920,918,918,920,920,920,923,923,923,923,923,920,920,918,918,918,918,915,915,918,918,918,918,918,918,918,915,915,915,915,915,918,918,918,918,915,915,915,915,915,915,915,918,918,918,918,918,918,918,918,918,918,918,918,918,915,915,915,915,915,915,915,913,913,913,913,915,915,915,915,915,913,913,913,910,910,913,910,910,910,910,910,910,913,913,913,913,913,913,913,910,910,908,908,910,910,908,908,908,908,908,910,910,910,910,908,908,908,908,908,906,906,906,906,906,906,906,906,906,906,906,906,906,906,906,906,906,906,906,906,903,903,903,903,903,903,901,901,901,901,901,901,901,901,901,901,901,901,901,901,901,901,901,901,901,901,901,901,901,901,901,898,898,898,898,898,898,898,898,898,896,896,896,896,896,896,896,898,898,898,898,898,898,898,896,896,896,896,896,896,896,894,894,896,896,894,894,894,894,891,891,894,894,896,896,896,896,896,896,894,894,891,891,891,889,889,889,889,889,889,889,889,889,889,891,889,889,889,889,891,891,891,891,891,891,889,889,889,889,889,889,889,889,887,887,887,887,889,889,889,889,889,889,889,887,887,887,887,885,885,885,885,885,885,882,882,882,882,882,882,882,882,882,882,882,882,882,882,882,885,885,885,885,885,885,887,887,885,885,885,885,885,882,882,882,882,882,882,882,882,882,882,882,880,880,880,880,880,880,880,880,880,880,878,878,878,878,878,878,878,878,875,875,875,873,873,0,0,0,0,0,0,0,0,0,0,0,0,0,0,0,0,0,0,0,0,0,0,0,0,0,0,0,0,0,0,0,0,0,0,0,0,0
0,0,0,967,967,967,967,964,964,964,964,964,964,964,964,964,964,964,964,964,962,962,959,956,956,956,956,956,956,956,956,954,954,954,954,954,954,954,954,954,954,954,954,951,951,948,948,948,948,948,951,951,954,954,954,951,951,951,951,951,948,948,948,948,948,948,948,948,948,951,948,948,951,951,948,948,948,948,948,948,948,948,948,948,948,951,951,948,948,948,948,948,948,946,946,946,946,946,946,946,946,946,946,946,946,946,946,946,943,943,943,943,943,943,943,943,943,946,946,943,943,946,946,943,943,943,943,943,943,943,943,943,943,943,940,940,938,938,940,940,940,940,940,938,938,938,938,938,935,935,935,935,938,938,938,938,938,938,935,935,935,935,935,935,935,935,935,935,935,935,938,938,935,935,935,935,935,935,933,933,933,933,933,933,933,933,933,933,933,933,933,933,933,933,933,933,933,933,933,933,933,930,930,930,930,928,928,928,928,928,928,928,928,928,925,925,925,925,925,925,925,925,925,925,925,925,925,925,925,925,925,925,925,925,925,925,923,923,923,925,833,833,835,833,833,831,827,825,823,823,821,821,819,819,819,821,821,823,825,831,831,833,835,839,841,843,843,843,843,920,920,920,918,918,918,918,918,918,918,918,918,918,918,918,918,918,920,920,918,915,915,915,915,915,915,915,915,915,915,915,915,915,915,915,913,913,913,913,915,915,915,915,915,915,915,915,915,913,913,915,915,915,915,915,915,915,915,915,913,913,915,915,913,913,910,910,913,913,913,910,910,913,913,913,910,910,913,913,910,910,910,908,908,910,908,908,908,908,908,910,910,910,910,910,910,910,910,908,908,908,908,908,908,908,908,908,908,908,908,908,908,908,908,908,908,906,906,906,906,906,906,906,906,906,903,903,903,903,903,903,903,903,906,903,903,903,903,901,901,901,901,901,901,901,901,898,898,898,898,898,898,898,898,898,898,898,901,901,898,898,898,898,898,898,898,898,898,898,898,898,896,896,896,896,894,894,896,894,894,896,896,896,896,896,896,896,896,896,896,896,896,896,896,894,894,894,894,894,894,894,894,894,894,894,891,891,891,891,891,891,891,891,894,894,894,891,891,891,889,889,889,889,889,887,887,887,887,887,887,887,887,889,889,889,887,887,887,887,887,887,887,887,887,887,887,887,887,887,887,887,887,887,887,887,887,887,887,887,887,887,887,885,885,885,885,882,882,882,882,885,882,880,880,880,880,880,880,880,880,880,880,880,880,880,882,882,882,882,882,882,885,885,885,885,885,885,882,882,882,880,880,880,880,880,880,880,880,880,880,880,880,880,880,880,878,878,878,878,878,878,878,878,878,878,878,878,878,875,873,873,873,871,871,0,0,0,0,0,0,0,0,0,0,0,0,0,0,0,0,0,0,0,0,0,0,0,0,0,0,0,0,0,0,0,0,0,0,0,0,0
0,0,0,964,964,964,964,964,962,962,962,962,962,962,962,962,964,962,962,962,959,959,956,956,954,954,954,954,954,954,954,951,951,951,951,954,954,954,954,954,954,954,951,951,948,948,948,948,948,948,948,951,951,951,951,948,948,948,948,948,946,946,946,946,946,943,943,946,946,946,946,946,946,948,946,946,946,946,946,946,946,946,946,946,948,948,948,946,946,946,946,946,946,943,943,943,943,943,943,943,943,943,943,943,943,943,943,943,943,940,940,940,940,940,940,940,940,940,943,943,943,943,943,943,943,943,943,943,943,943,940,940,940,940,938,938,935,935,938,938,938,938,940,938,938,938,935,935,935,935,935,935,935,935,935,935,935,935,935,935,935,935,933,933,933,935,935,935,935,935,935,935,935,935,933,933,933,933,933,930,930,930,930,930,930,930,930,930,930,930,930,930,930,930,930,930,930,930,930,930,930,928,928,928,928,928,928,925,925,925,925,925,925,925,925,925,925,925,925,925,925,925,923,923,923,925,923,923,925,925,925,923,923,925,925,923,923,920,920,920,920,837,837,835,833,833,829,827,825,823,821,821,821,821,821,821,821,825,829,831,831,833,835,839,841,843,843,843,843,915,915,918,918,918,915,915,915,915,915,915,915,915,915,915,915,913,913,913,913,915,915,913,913,913,913,913,913,913,913,915,915,915,915,913,913,913,913,913,913,913,913,913,913,913,913,913,913,910,910,913,913,913,913,913,913,913,913,910,910,910,910,913,910,910,910,910,910,910,910,908,908,910,910,910,910,908,908,908,908,908,908,908,908,908,908,908,908,908,908,908,908,908,908,908,908,908,908,908,906,906,906,906,906,906,906,906,906,906,906,906,906,906,906,906,906,906,906,906,903,903,903,903,903,903,903,903,903,901,901,901,901,901,901,901,901,901,901,901,901,901,901,901,901,898,898,898,898,898,898,898,898,898,898,898,898,898,898,898,898,898,896,896,896,896,896,896,896,896,896,896,896,894,894,894,891,891,891,891,894,894,894,894,894,894,894,894,894,891,891,894,894,891,891,891,891,891,891,891,891,891,891,891,891,891,891,891,889,889,889,889,889,889,891,889,889,889,889,887,887,887,887,887,887,887,887,887,887,887,887,887,887,887,887,887,887,887,887,887,885,885,885,885,887,885,885,885,885,885,885,885,885,885,885,885,885,885,885,882,882,885,885,882,882,882,882,882,880,880,882,882,882,880,880,880,880,880,880,880,880,880,880,880,880,880,880,880,880,880,882,882,885,885,885,882,882,882,880,880,880,880,878,878,880,880,880,880,880,880,880,878,878,878,878,878,878,878,878,878,878,878,878,878,878,878,878,875,873,873,871,871,871,871,871,0,0,0,0,0,0,0,0,0,0,0,0,0,0,0,0,0,0,0,0,0,0,0,0,0,0,0,0,0,0,0,0,0,0,0,0,0
0,0,0,964,964,964,964,962,959,959,959,959,959,956,956,956,956,956,956,956,956,956,954,954,954,954,951,951,951,951,951,951,951,951,951,951,954,951,951,951,951,951,948,948,948,946,946,948,948,948,948,948,948,948,948,946,946,946,946,946,946,946,943,943,940,940,940,940,940,940,943,943,946,946,946,946,946,943,943,943,943,943,943,940,940,946,946,946,943,943,943,943,943,943,943,943,943,943,943,943,940,940,943,940,940,940,940,940,940,938,938,938,938,938,938,938,938,938,940,940,940,940,943,943,943,940,940,940,940,940,938,938,938,938,935,935,935,935,935,935,935,938,938,935,935,935,935,935,933,933,933,933,933,933,933,933,933,933,933,933,933,933,933,933,933,933,933,933,933,933,933,933,933,933,933,933,933,933,930,930,930,930,928,928,928,928,928,928,928,928,928,928,928,928,928,928,928,928,928,928,928,928,925,925,925,925,925,925,925,925,925,925,925,925,925,925,923,923,923,923,923,923,923,923,920,920,923,923,923,923,923,923,923,923,923,923,923,920,920,920,843,839,839,837,835,833,831,829,827,825,823,823,821,821,821,821,821,825,829,833,833,833,835,839,841,843,843,843,915,915,915,915,915,915,915,915,915,915,913,913,913,913,913,910,910,910,910,910,910,910,910,910,910,910,913,913,913,913,913,913,913,913,913,910,910,910,910,910,910,910,910,910,910,910,910,910,910,910,910,910,910,910,910,910,910,910,910,910,908,908,910,910,908,908,908,908,908,908,908,908,908,908,908,908,908,908,908,908,908,906,906,906,906,906,906,906,906,906,906,906,908,908,908,908,908,908,906,906,906,906,906,906,906,903,903,903,903,903,903,901,901,901,903,903,903,903,903,903,901,901,901,901,901,901,901,901,901,901,901,901,898,898,898,898,898,898,898,898,901,898,898,898,898,898,898,898,896,896,896,896,896,896,896,896,896,896,896,896,896,896,896,896,894,894,894,891,891,891,891,891,891,891,889,889,889,889,889,889,891,891,891,891,891,891,889,889,889,889,889,889,889,889,891,889,889,889,889,889,889,889,889,889,889,889,889,889,889,887,887,887,887,887,887,887,887,887,887,887,887,887,887,887,887,887,887,885,885,887,887,887,885,885,887,887,885,885,885,885,882,882,882,882,882,885,885,885,885,885,885,885,882,882,882,882,882,882,882,880,880,880,880,880,880,880,880,880,880,880,880,880,880,880,880,880,880,880,880,878,878,878,878,878,878,878,878,878,878,880,880,880,880,880,880,882,880,880,878,878,878,878,878,878,878,878,878,878,878,878,878,878,878,878,878,878,878,878,878,875,875,875,875,875,875,875,873,873,871,871,871,869,869,869,869,0,0,0,0,0,0,0,0,0,0,0,0,0,0,0,0,0,0,0,0,0,0,0,0,0,0,0,0,0,0,0,0,0,0,0,0,0
0,0,0,959,959,959,959,959,959,959,959,956,956,956,956,954,954,954,954,954,954,954,951,951,948,948,948,948,948,946,946,948,948,946,946,946,951,948,948,948,948,948,946,946,946,946,946,946,946,946,946,946,946,946,946,946,943,943,946,946,943,943,943,940,940,938,938,938,938,938,940,943,943,943,943,943,943,943,943,943,943,940,940,940,940,940,940,940,940,940,940,943,943,940,940,940,940,940,940,940,940,940,940,940,940,938,938,940,938,938,935,935,938,935,935,938,938,938,938,938,938,938,940,940,940,940,940,940,940,938,935,935,935,935,933,933,933,935,935,935,935,935,935,935,935,933,933,933,933,933,933,930,930,930,933,933,933,933,933,933,933,933,930,930,933,933,933,933,933,933,933,933,933,930,930,930,930,930,930,928,928,928,928,925,925,925,925,925,925,925,928,928,928,925,925,925,925,925,928,925,925,925,925,925,923,923,923,923,923,923,925,925,923,923,923,923,923,923,923,923,923,923,920,920,918,918,920,920,920,920,920,920,923,923,923,920,918,918,918,918,843,841,841,837,835,835,833,831,827,827,825,825,823,823,823,823,823,825,829,833,833,835,837,839,841,843,843,843,915,915,915,915,915,915,913,913,913,913,913,910,910,908,908,908,908,908,908,908,908,908,908,908,908,908,908,910,910,910,910,910,910,910,910,908,908,908,908,908,908,908,908,908,908,908,908,908,908,908,908,908,908,908,908,908,908,908,908,908,908,908,908,908,908,908,906,906,906,906,906,906,906,906,906,906,906,906,906,906,906,906,906,906,906,906,906,906,906,906,906,906,906,906,906,906,906,906,903,903,903,903,903,903,903,903,901,901,901,901,901,898,898,901,901,901,901,901,901,901,898,898,898,898,898,898,898,898,898,898,898,898,898,898,898,896,896,896,896,896,896,896,896,898,898,898,896,896,896,896,896,896,896,896,896,896,896,896,896,896,896,894,894,894,894,894,891,889,889,889,889,889,889,889,889,889,889,889,889,889,889,889,891,891,889,889,889,889,889,889,889,889,889,889,889,889,889,889,887,887,887,889,889,889,889,889,889,889,887,887,887,887,887,887,885,885,885,885,885,885,885,885,885,885,885,885,885,885,885,885,885,885,885,885,885,885,885,885,882,882,882,880,880,880,880,880,882,882,882,882,882,882,882,880,880,880,880,880,880,880,880,880,880,880,878,878,878,878,878,878,880,880,880,880,880,880,880,878,878,878,878,878,878,878,878,878,878,878,878,878,878,878,878,878,878,878,878,878,878,878,878,878,878,878,875,875,875,875,875,875,875,875,875,875,875,875,875,875,875,873,873,873,873,873,873,873,871,871,871,869,869,869,869,869,869,0,0,0,0,0,0,0,0,0,0,0,0,0,0,0,0,0,0,0,0,0,0,0,0,0,0,0,0,0,0,0,0,0,0,0,0,0
0,0,0,959,959,956,956,956,956,956,959,956,956,954,954,951,951,951,951,951,951,951,948,948,946,946,946,946,946,946,946,946,946,943,943,943,946,946,946,946,946,946,946,946,946,946,946,946,946,946,946,946,946,946,946,943,943,943,943,943,943,943,940,938,938,935,935,938,935,935,938,940,940,940,943,943,940,940,940,940,940,940,938,938,938,938,938,938,938,938,938,938,938,940,940,938,938,938,938,938,938,938,938,938,938,935,935,935,935,935,935,935,935,935,935,935,935,935,935,935,935,935,938,938,938,938,938,938,938,935,935,935,933,933,933,933,933,933,933,933,933,933,933,933,933,933,930,930,930,930,928,928,928,928,930,930,930,930,930,930,930,930,930,928,928,928,928,928,930,930,930,930,930,930,930,930,930,930,928,928,928,928,925,925,925,925,925,923,923,923,923,923,925,925,925,925,925,925,925,925,923,923,923,923,923,923,920,920,920,920,920,923,923,923,923,923,923,920,920,920,920,918,918,918,918,918,918,918,918,920,920,920,920,920,920,918,915,915,915,915,915,843,841,839,837,835,835,831,829,827,827,825,825,825,823,823,825,827,829,831,833,835,839,841,843,843,843,845,913,913,913,913,913,913,913,910,910,910,910,908,908,906,906,906,906,906,906,906,906,906,906,906,906,906,908,908,908,908,910,908,908,908,908,906,906,906,906,906,908,908,908,908,908,908,908,908,908,908,908,908,908,908,908,908,908,908,908,908,908,906,906,906,906,906,903,903,903,903,903,903,903,906,906,906,906,906,906,906,906,906,906,903,903,903,903,903,903,903,903,903,903,903,903,903,903,901,901,901,901,901,901,901,901,901,898,898,898,898,898,898,898,898,901,901,898,898,898,898,898,896,896,896,896,896,896,896,898,896,896,896,896,896,896,896,896,896,896,896,896,894,894,894,894,896,896,896,896,896,896,896,894,894,894,894,894,894,894,894,891,891,891,891,891,891,891,889,889,889,889,889,889,889,889,889,889,889,887,887,889,889,889,889,889,889,887,887,887,887,887,887,887,887,887,887,887,887,887,887,887,887,887,887,887,887,887,887,885,885,885,885,885,885,885,882,882,882,882,882,885,885,885,885,885,882,882,882,882,882,882,882,882,882,882,882,882,882,880,880,880,880,880,880,880,880,880,880,880,880,880,880,880,880,880,880,880,880,878,878,878,878,878,878,878,878,878,875,875,875,878,878,878,878,878,878,878,878,878,878,875,875,875,875,875,875,875,875,875,875,875,875,875,873,873,875,875,875,875,875,875,875,875,875,875,875,875,875,873,873,873,873,873,873,873,873,873,873,873,873,873,871,871,871,871,871,871,869,869,869,869,867,867,867,867,0,0,0,0,0,0,0,0,0,0,0,0,0,0,0,0,0,0,0,0,0,0,0,0,0,0,0,0,0,0,0,0,0,0,0,0,0
0,0,0,956,956,956,956,956,956,956,956,956,954,948,948,948,951,951,948,948,948,946,946,946,946,946,946,943,943,943,943,943,943,943,943,943,943,943,943,943,943,943,943,943,943,943,943,943,943,943,943,946,946,946,943,943,943,943,943,940,940,940,938,938,935,935,935,935,935,935,938,938,940,940,940,940,940,940,938,938,938,938,938,935,935,935,935,935,935,935,935,935,935,935,935,935,935,935,935,935,935,935,935,935,935,935,935,935,935,935,935,935,935,935,933,933,935,935,935,933,933,935,935,935,935,935,935,935,935,933,933,933,933,933,933,933,933,933,930,930,930,930,930,930,930,930,928,928,928,928,925,925,925,928,928,928,928,928,928,928,928,928,925,925,925,925,925,925,925,925,928,928,928,925,925,928,928,928,925,925,925,925,925,923,923,923,923,923,920,920,920,923,923,923,923,923,923,923,923,923,923,920,920,920,920,920,918,918,918,918,918,920,920,920,920,920,920,918,918,918,918,915,915,915,915,915,915,915,915,915,915,918,918,918,918,915,915,915,913,913,913,847,841,841,839,837,835,833,829,827,827,827,825,825,825,825,825,829,831,831,833,835,839,841,843,843,843,845,913,913,910,910,910,913,910,910,910,910,908,908,908,906,906,906,906,906,906,906,906,906,906,906,906,906,906,906,906,906,906,906,906,906,906,906,906,906,906,906,908,908,908,906,906,906,906,906,906,908,908,908,908,908,908,906,906,906,906,906,906,906,906,906,903,903,903,901,901,901,901,901,903,903,903,903,903,901,901,901,901,901,901,901,901,901,901,901,901,901,901,901,901,901,901,901,901,901,898,898,898,898,898,898,898,898,898,898,898,898,898,898,898,898,898,898,896,896,896,896,896,896,896,896,896,896,896,896,896,896,894,894,894,894,894,894,894,891,891,894,894,894,894,894,894,894,891,891,894,894,894,894,894,894,894,891,891,891,891,891,891,891,891,889,889,889,889,887,887,887,887,887,887,887,887,887,887,887,887,887,887,887,887,887,887,887,887,887,887,887,887,887,887,887,887,887,887,885,885,882,882,885,882,882,882,885,885,885,885,885,885,885,885,885,882,882,882,882,882,882,880,880,882,880,880,880,880,880,880,878,878,880,880,880,880,880,880,880,880,880,880,880,878,878,878,878,878,878,878,878,878,878,880,878,878,878,878,878,878,878,878,878,878,878,875,875,875,875,875,875,875,875,875,875,875,875,875,875,875,875,875,875,875,875,875,875,875,875,875,875,873,873,873,871,871,871,871,871,871,871,873,875,873,873,873,873,873,873,871,871,871,871,871,871,871,871,871,871,871,871,871,869,869,869,869,869,869,867,867,867,867,867,864,864,864,0,0,0,0,0,0,0,0,0,0,0,0,0,0,0,0,0,0,0,0,0,0,0,0,0,0,0,0,0,0,0,0,0,0,0,0,0
0,0,0,954,954,954,954,954,954,954,954,954,954,946,946,946,946,946,946,946,946,946,946,946,943,943,943,943,943,943,943,943,943,943,943,943,943,943,943,943,943,943,943,943,943,943,943,943,943,943,943,943,943,943,943,943,940,940,940,940,938,938,935,935,935,935,935,935,935,935,935,938,938,938,938,938,938,938,935,935,935,935,935,935,935,935,933,933,933,933,933,933,933,933,933,933,933,933,933,933,935,935,935,933,933,933,933,935,933,933,933,933,933,933,933,933,933,933,933,933,933,933,933,933,933,933,933,933,933,933,933,930,930,930,930,930,930,930,930,928,928,928,928,928,928,928,925,925,925,925,925,925,925,925,925,925,925,925,925,925,925,925,925,925,925,925,925,925,925,925,923,923,923,923,923,925,923,923,925,923,923,923,923,923,923,920,920,920,920,920,920,920,923,923,923,920,920,920,920,920,920,918,918,920,920,918,918,918,918,918,918,918,918,918,918,918,918,915,915,915,915,915,915,915,915,915,913,913,913,913,913,915,915,915,915,913,913,913,910,908,908,845,845,841,841,839,837,835,831,829,829,827,827,825,825,825,827,829,831,831,833,837,839,841,843,843,843,845,845,908,908,908,910,910,910,908,908,908,908,906,906,906,906,906,906,906,906,906,906,903,903,903,903,903,903,903,903,903,903,903,903,903,903,903,906,906,906,906,906,906,906,906,906,906,906,906,906,906,906,906,906,906,906,906,903,903,903,903,903,903,903,901,901,901,901,898,898,898,898,898,901,901,901,901,901,901,901,898,898,898,898,898,898,898,898,898,898,898,898,898,898,898,898,898,898,898,898,898,898,898,898,896,896,898,896,896,898,898,896,896,896,896,896,896,896,896,896,896,896,896,896,896,896,894,894,896,896,896,894,891,891,891,891,891,891,889,889,891,889,889,889,889,889,891,889,889,889,889,891,891,891,891,891,889,889,889,889,889,889,889,889,889,889,887,887,887,885,885,887,887,887,887,887,887,887,887,885,885,885,885,887,887,887,887,887,887,885,885,885,885,885,885,885,885,885,882,882,882,880,880,880,880,880,882,882,882,882,880,880,882,882,882,880,880,880,880,880,880,880,880,880,878,878,878,878,875,875,875,875,875,878,878,878,878,878,878,878,878,878,878,878,878,878,878,878,878,875,875,875,875,875,875,875,878,878,878,878,878,875,875,875,875,875,873,873,873,873,873,873,873,873,875,873,873,875,875,873,873,873,873,873,873,873,873,873,873,873,871,871,871,871,871,871,871,871,871,869,869,871,871,871,871,871,871,871,871,869,869,869,869,869,869,869,869,869,869,869,869,869,867,867,867,867,867,867,864,864,864,864,864,862,862,862,0,0,0,0,0,0,0,0,0,0,0,0,0,0,0,0,0,0,0,0,0,0,0,0,0,0,0,0,0,0,0,0,0,0,0,0,0
0,0,0,954,954,954,954,951,951,951,951,951,951,946,943,943,946,946,943,943,943,943,943,943,943,943,943,943,943,940,940,940,940,940,940,938,938,940,940,940,940,940,940,940,940,940,940,940,940,940,940,940,938,938,938,938,938,938,938,938,935,935,935,935,935,933,933,933,933,933,933,935,935,935,935,935,935,935,935,935,935,935,933,933,933,933,933,933,933,933,933,933,933,933,933,933,933,933,933,933,933,933,933,933,933,933,933,933,933,933,933,933,933,930,930,930,933,930,930,930,930,930,933,930,930,930,930,930,928,928,930,930,930,930,928,928,928,928,928,925,925,925,925,925,925,925,925,925,923,923,925,925,925,925,923,923,923,923,923,923,923,923,923,923,923,923,923,923,923,923,923,923,920,920,920,918,918,918,920,920,920,920,920,920,918,918,918,918,918,918,918,920,920,920,920,918,918,918,918,918,918,915,915,915,915,915,915,915,913,913,915,915,915,915,915,915,915,913,913,913,913,913,913,913,913,913,913,913,913,910,910,910,910,913,910,910,910,910,908,908,908,845,845,843,841,839,839,835,835,831,831,829,827,827,827,827,827,829,831,831,833,837,841,843,843,843,847,847,851,906,906,906,908,908,906,906,906,906,906,906,906,906,906,903,903,903,903,903,903,903,903,903,903,903,903,903,901,901,901,903,903,903,903,903,903,903,903,906,906,906,906,903,903,903,903,903,903,903,903,906,906,903,903,903,903,901,901,901,901,901,901,901,898,898,898,898,898,898,898,898,898,898,898,898,898,898,898,898,898,898,898,898,898,898,898,896,896,896,896,898,896,896,896,896,896,896,896,896,896,896,896,896,896,896,896,896,896,896,896,894,894,894,894,894,894,894,894,894,894,894,894,896,894,894,894,894,894,894,891,891,891,891,889,889,889,889,887,887,889,889,889,889,889,889,889,889,889,889,889,889,889,889,889,889,889,889,887,887,887,887,887,887,887,887,887,885,885,885,885,885,885,885,885,885,885,885,885,885,885,885,885,885,885,885,885,885,882,882,882,882,882,882,882,882,882,880,880,880,880,880,880,880,880,880,880,880,880,880,880,880,880,880,880,880,880,880,880,880,878,878,878,878,875,875,875,875,873,873,873,873,875,875,875,878,878,878,875,875,878,878,875,875,875,875,875,873,873,873,871,871,873,873,873,873,873,875,875,875,875,873,873,873,873,873,873,873,871,871,871,871,871,873,873,871,871,871,871,871,871,871,871,871,871,869,869,869,869,869,869,869,869,869,869,869,869,869,869,869,869,869,869,869,869,869,869,869,867,867,867,867,867,869,869,869,869,867,867,869,867,864,864,864,864,864,864,862,862,862,862,862,862,860,860,0,0,0,0,0,0,0,0,0,0,0,0,0,0,0,0,0,0,0,0,0,0,0,0,0,0,0,0,0,0,0,0,0,0,0,0,0
0,0,0,954,951,951,951,951,948,948,948,948,948,943,943,943,943,943,943,940,940,940,938,938,938,938,940,943,940,940,940,940,940,940,940,938,938,938,938,940,938,938,940,938,938,938,938,935,935,935,935,935,933,933,933,935,935,935,935,935,935,933,933,933,933,933,933,933,933,933,933,933,933,933,933,933,933,933,933,933,933,933,933,933,933,933,933,930,930,930,930,930,928,928,928,930,930,930,930,930,930,930,930,930,930,930,930,930,930,930,930,930,928,928,928,928,930,928,928,928,928,928,928,928,928,928,925,925,925,925,928,928,928,928,925,925,928,925,925,925,925,923,923,923,923,923,923,923,923,923,923,923,923,923,923,923,920,920,920,920,920,920,920,920,920,920,920,920,920,920,920,920,920,918,918,918,918,918,918,915,915,918,918,918,915,915,915,918,915,915,915,918,918,918,918,915,915,915,915,915,915,915,913,913,913,913,913,913,913,913,913,913,913,913,913,913,913,913,913,913,910,910,910,910,913,910,910,910,910,908,908,908,908,908,908,908,908,908,908,906,906,847,847,845,843,841,841,839,837,833,833,831,829,827,827,827,829,831,831,831,835,839,841,843,843,843,847,849,851,854,906,906,906,906,906,906,906,906,906,906,906,903,903,903,903,903,903,903,903,903,903,901,901,901,898,898,898,898,898,901,901,901,901,901,901,901,901,903,901,901,903,903,901,901,901,901,903,901,901,903,903,903,901,901,901,901,901,898,898,898,898,898,898,896,896,896,896,896,896,896,896,896,896,896,896,896,896,896,896,896,896,896,896,896,896,896,896,896,896,896,896,896,896,896,896,896,896,896,896,896,894,894,894,894,894,894,894,894,894,894,894,894,891,891,891,891,891,891,894,894,894,894,894,891,891,891,891,891,889,889,889,889,889,887,887,887,887,887,887,887,887,887,887,887,887,887,887,887,887,887,887,887,887,887,887,887,887,887,887,887,887,887,885,885,885,885,882,882,882,882,885,885,882,882,885,882,882,882,882,882,882,882,882,882,882,882,880,880,880,880,880,878,878,878,878,878,880,878,878,878,878,878,878,878,878,878,880,880,880,880,880,878,878,878,878,878,878,878,878,878,875,875,873,873,873,873,873,873,873,873,873,873,873,875,875,875,875,875,873,873,873,873,873,873,871,871,871,871,871,871,871,871,871,871,871,871,873,873,873,873,873,873,871,871,871,871,871,871,871,871,871,871,871,871,871,871,871,869,869,869,869,869,869,869,869,869,869,867,867,869,869,869,869,869,869,867,867,867,867,867,867,867,867,867,867,867,867,864,864,864,864,867,867,867,867,864,864,867,864,862,862,862,862,862,862,862,862,862,862,862,860,860,860,0,0,0,0,0,0,0,0,0,0,0,0,0,0,0,0,0,0,0,0,0,0,0,0,0,0,0,0,0,0,0,0,0,0,0,0,0
0,0,0,951,948,948,948,948,946,946,946,946,946,943,940,940,940,940,940,938,938,938,938,938,938,938,938,938,938,938,938,938,938,940,940,938,935,935,935,935,938,938,938,938,938,938,935,935,935,935,933,933,930,930,933,933,933,933,933,933,933,933,933,933,933,933,933,930,930,930,930,930,930,930,930,930,930,930,930,930,930,930,930,930,930,930,930,928,928,930,928,928,925,925,925,928,928,928,928,928,928,928,928,928,928,928,928,928,928,928,925,925,928,928,925,925,928,928,928,925,925,925,925,925,925,923,923,923,925,925,925,925,925,925,925,925,925,923,923,923,923,923,923,923,923,920,920,920,920,920,920,920,920,920,920,920,918,918,918,918,918,918,918,918,918,918,918,918,918,918,918,918,918,918,915,915,915,915,915,915,915,915,915,915,915,915,915,915,915,915,915,915,918,918,915,915,915,915,915,913,913,913,913,913,913,913,913,913,910,910,910,910,910,910,910,910,910,910,910,910,908,908,910,910,910,910,908,908,908,906,906,906,906,906,906,906,906,906,906,906,906,906,847,845,845,843,841,841,839,837,835,833,831,829,829,829,829,831,831,831,835,839,841,843,843,845,849,851,854,854,903,903,903,903,903,903,903,903,903,903,903,903,903,903,903,903,903,901,901,901,901,898,898,898,898,898,896,896,898,898,898,898,898,898,898,898,898,901,898,898,898,898,898,901,901,901,901,901,901,901,901,901,901,898,898,898,898,898,896,896,896,896,896,896,896,896,896,896,896,896,896,896,896,896,896,896,896,896,896,894,894,894,894,894,894,894,894,894,894,894,894,896,894,894,894,894,894,894,891,889,889,894,891,891,891,891,891,891,891,891,891,891,889,889,891,889,889,891,891,891,891,889,889,889,889,889,889,889,887,887,887,887,887,887,887,887,885,885,887,887,887,885,885,885,885,885,885,885,885,885,885,885,885,882,882,882,885,885,885,885,885,885,882,882,882,882,882,882,882,882,882,882,882,882,882,880,880,880,880,880,880,880,880,880,880,880,880,878,878,878,878,878,878,878,878,878,878,878,878,878,878,878,878,878,878,878,878,878,878,878,878,875,875,875,878,875,875,875,875,875,873,873,873,871,871,871,871,871,871,871,871,871,871,871,873,873,873,871,871,871,871,871,871,871,871,871,871,871,869,869,869,869,869,869,869,869,869,869,869,871,871,871,871,871,871,871,871,871,871,869,869,871,871,869,869,869,869,869,869,869,869,869,869,867,867,867,867,864,864,867,867,867,867,867,867,867,864,864,864,867,864,864,864,864,864,862,862,862,862,862,862,864,864,864,864,864,864,864,862,862,862,860,860,860,860,860,860,860,860,860,860,858,858,0,0,0,0,0,0,0,0,0,0,0,0,0,0,0,0,0,0,0,0,0,0,0,0,0,0,0,0,0,0,0,0,0,0,0,0,0
0,0,0,948,948,948,948,948,946,946,946,946,946,943,940,940,940,940,938,938,938,938,935,935,935,935,935,935,935,935,935,938,938,938,938,935,935,935,935,935,935,935,935,935,935,935,935,933,933,933,933,930,928,928,928,930,930,930,930,930,933,930,930,930,930,930,930,930,930,930,928,928,928,928,928,928,928,928,928,928,928,928,928,928,928,928,928,925,925,928,928,925,925,925,925,925,925,925,925,925,925,925,925,925,925,925,925,925,925,925,923,923,923,923,923,925,925,925,925,925,925,925,923,923,923,923,923,923,923,923,923,923,923,923,923,923,923,923,923,923,923,923,923,923,923,920,918,918,918,918,918,918,918,918,918,918,918,915,915,915,915,915,915,915,915,915,915,915,915,915,915,915,915,915,915,915,915,915,915,913,913,913,915,915,915,915,915,915,915,915,915,915,915,915,915,915,915,913,913,913,913,913,910,910,910,910,910,910,908,908,908,908,908,908,910,910,910,910,910,908,908,908,908,908,908,906,906,906,906,906,906,906,906,906,906,906,906,906,906,906,903,903,847,847,845,843,843,841,839,837,835,833,831,831,831,831,831,831,831,831,835,839,841,843,843,847,849,851,854,854,901,901,901,901,901,901,901,901,903,903,903,903,903,901,901,901,901,898,898,898,898,896,896,896,896,896,896,896,896,896,896,896,896,896,896,896,896,898,898,898,898,898,896,896,896,896,898,898,898,898,898,898,898,898,898,898,896,896,896,894,894,894,894,894,894,894,894,894,894,894,894,894,894,894,894,894,894,894,894,894,891,891,891,891,891,891,891,891,891,891,891,894,891,891,894,891,891,891,889,889,887,887,887,887,889,887,887,889,889,889,889,889,887,887,889,887,887,889,889,889,889,887,887,887,885,885,887,887,887,887,887,887,887,885,885,882,882,885,885,885,885,882,882,882,885,885,885,885,885,885,885,885,882,882,882,882,882,882,882,882,882,882,880,880,880,880,880,880,880,880,880,880,880,880,880,880,878,878,878,880,880,880,878,878,878,878,878,875,873,873,875,875,875,875,875,875,875,875,875,875,875,875,875,875,875,875,875,875,875,875,875,873,873,871,871,873,871,871,873,871,871,871,871,871,871,871,871,871,871,871,871,871,871,871,871,871,871,871,871,871,871,871,871,869,869,869,869,869,869,869,869,869,869,869,869,869,869,867,867,869,869,871,871,871,869,869,869,869,869,869,869,869,869,869,869,869,869,867,867,867,867,867,867,864,864,864,864,864,864,864,864,864,864,864,864,864,864,864,864,864,864,864,862,862,862,862,860,860,860,860,862,862,862,862,862,862,862,862,860,860,860,858,858,858,860,858,858,858,858,858,856,856,856,0,0,0,0,0,0,0,0,0,0,0,0,0,0,0,0,0,0,0,0,0,0,0,0,0,0,0,0,0,0,0,0,0,0,0,0,0
0,0,946,946,946,946,946,946,943,943,943,943,943,943,938,938,938,938,935,935,935,935,935,935,935,935,935,935,935,935,935,935,935,935,933,933,933,930,930,933,933,933,930,930,933,933,933,930,930,930,930,928,928,928,928,928,928,928,930,930,930,930,930,930,930,930,928,928,928,928,928,925,925,925,925,925,925,925,925,925,925,925,925,925,925,925,925,925,925,925,925,925,925,925,923,923,923,923,923,923,923,923,923,923,925,923,923,923,923,923,920,920,920,920,923,923,923,923,923,923,923,923,923,923,923,920,920,920,920,923,920,920,923,923,920,920,918,918,918,920,920,920,920,920,918,918,918,918,918,918,918,918,918,915,915,915,915,915,915,915,915,913,913,913,913,913,913,913,913,915,915,915,915,915,915,915,913,913,913,913,913,913,913,913,913,913,913,913,913,913,913,913,915,913,913,913,913,913,910,910,910,910,908,908,908,908,910,908,908,908,908,908,908,908,908,908,908,908,908,908,906,906,906,906,906,906,906,906,903,903,903,903,906,903,903,903,906,906,903,903,903,903,847,847,847,845,843,843,841,839,837,835,833,833,833,833,833,833,833,833,835,841,843,843,845,849,851,854,854,854,858,898,898,898,898,898,898,898,901,901,901,901,901,901,901,898,898,898,898,896,896,896,896,896,896,896,896,896,896,896,894,894,894,894,894,896,896,896,896,896,896,896,896,896,894,894,894,894,894,896,896,896,896,896,896,896,894,894,894,891,891,891,891,891,891,891,891,891,891,891,891,891,891,891,891,891,891,894,894,891,891,891,889,889,889,889,889,889,889,889,889,889,889,889,891,891,891,889,889,887,887,887,887,885,885,885,885,887,887,887,887,885,885,885,887,887,885,885,887,885,885,885,885,882,882,882,882,882,885,885,885,885,885,885,885,882,882,882,882,882,882,882,880,880,880,880,882,882,882,882,882,882,882,880,880,880,880,880,878,878,878,880,878,878,878,878,878,878,878,878,878,878,878,878,878,878,878,878,878,878,878,878,878,878,875,875,875,873,873,873,873,873,873,873,873,873,873,873,873,873,873,873,873,873,873,873,873,873,873,871,871,871,871,871,871,871,871,871,871,869,869,871,869,869,869,869,869,869,869,869,871,871,871,871,871,871,869,869,869,869,869,869,869,869,869,869,869,869,869,869,869,867,867,867,864,864,864,864,864,867,867,867,867,869,869,869,869,867,867,867,867,867,867,867,867,867,867,867,864,864,867,864,864,864,864,864,864,862,862,862,864,864,864,862,862,862,862,862,862,864,862,862,862,862,860,860,860,860,860,858,858,860,862,860,860,860,858,858,860,860,858,858,856,856,856,856,856,856,856,854,854,854,854,0,0,0,0,0,0,0,0,0,0,0,0,0,0,0,0,0,0,0,0,0,0,0,0,0,0,0,0,0,0,0,0,0,0,0,0,0
0,0,946,946,946,943,943,943,943,943,943,940,940,940,935,935,935,935,935,935,935,935,935,935,933,933,933,933,933,933,933,933,933,933,933,930,930,928,928,928,930,928,928,928,930,930,930,925,925,930,930,928,928,928,928,928,928,928,928,928,930,928,928,928,928,928,925,925,925,925,925,925,925,925,925,925,925,925,925,925,925,925,923,923,925,923,923,923,923,923,925,923,923,923,923,923,920,920,920,920,920,920,920,923,923,920,920,920,920,920,920,920,920,920,920,920,920,920,920,918,918,918,918,920,918,918,918,918,920,920,918,918,920,920,918,918,918,918,918,918,918,918,915,915,918,915,915,915,915,915,915,915,915,915,915,915,913,913,913,913,913,913,913,913,913,913,913,913,913,913,913,913,913,913,913,913,913,913,913,910,910,910,913,913,910,910,910,910,910,910,908,908,908,910,910,910,910,910,910,910,908,908,908,906,906,908,908,908,906,906,906,906,906,906,906,906,906,906,906,906,906,906,906,906,903,903,903,903,903,903,903,903,903,903,903,903,903,903,903,903,901,901,901,849,849,847,845,843,843,841,839,837,835,835,833,833,833,833,833,833,839,841,843,843,847,849,851,854,854,854,858,896,896,896,896,896,896,898,898,898,901,898,898,896,896,896,896,896,896,896,896,896,896,896,894,894,894,894,894,894,891,891,891,891,891,891,891,894,894,894,894,894,894,891,891,891,891,891,891,891,891,894,894,894,894,894,891,891,891,891,891,889,889,889,889,889,889,889,889,891,891,891,891,891,891,891,891,891,891,891,889,889,889,889,889,889,889,889,889,889,889,889,887,887,887,887,887,887,887,885,885,885,885,885,882,882,882,882,885,885,882,882,882,885,885,885,882,882,882,882,882,882,882,882,882,882,882,882,882,882,882,882,882,882,882,880,880,880,882,880,880,880,880,880,880,880,880,880,880,880,880,880,880,878,878,880,878,878,875,875,875,875,875,875,878,878,878,878,878,878,878,875,875,875,875,875,875,873,873,875,875,875,875,875,873,873,873,871,871,871,871,871,871,871,871,871,871,871,871,871,871,871,871,871,871,871,871,871,871,871,871,869,869,869,869,869,869,869,869,869,869,869,869,869,869,869,869,869,869,869,869,869,869,869,869,869,869,867,867,867,867,867,867,867,867,867,864,864,867,867,864,864,864,864,864,864,864,864,864,864,864,864,864,864,864,864,867,867,864,864,864,864,864,864,864,864,864,864,862,862,862,862,862,862,862,862,862,862,862,862,862,862,862,860,860,860,860,860,862,862,862,862,862,860,860,860,860,860,860,858,858,860,860,860,860,860,858,858,856,856,856,856,856,856,854,854,856,854,854,854,854,851,851,0,0,0,0,0,0,0,0,0,0,0,0,0,0,0,0,0,0,0,0,0,0,0,0,0,0,0,0,0,0,0,0,0,0,0,0,0
