0,0,0,0,0,0,0,0,0,0,0,0,0,0,1926,1926,1926,1926,1926,1926,1915,1915,1915,1915,1904,1904,1904,1904,1904,1904,1904,1904,1904,1894,1894,1894,1894,1894,1894,1894,1904,1883,1883,1883,1883,1883,1873,1873,1873,1873,1873,1873,1873,1873,1873,1863,1863,1863,1863,1863,1853,1853,1853,1853,1853,1853,1843,1843,1853,1843,1843,1843,1843,1843,1843,1833,1833,1833,1833,1823,1823,1823,1823,1813,1813,1813,1804,1804,1804,1804,1804,1804,1804,1804,1804,1804,1794,1794,1794,1794,1794,1785,1785,1785,1776,1776,1776,1776,1766,1766,1766,1766,1766,1766,1766,1757,1757,1757,1757,1757,1757,1757,1757,1757,1748,1748,1739,1739,1739,1731,1731,1731,1731,1731,1731,1731,1731,1731,1722,1722,1722,1731,1731,1731,1739,1739,1748,1748,1757,1757,1757,1757,1883,1883,1883,1883,1883,1883,1883,1883,1883,1883,1883,1883,1883,1883,1894,1894,1713,1713,1713,1722,1722,1722,1722,1722,1722,1722,1722,1722,1722,1731,1731,1731,1731,1731,1731,1739,1739,1739,1739,1748,1748,1748,1094,1090,1090,1090,1087,1084,1080,1080,1077,1077,1077,1077,1077,1077,1077,1077,1077,1080,1080,1084,1084,1087,1087,1087,1087,1090,1090,1094,1094,0,0,0,1843,1833,1833,1843,1843,1843,1843,1853,1853,1863,1863,1863,1873,1873,1873,1873,1873,1873,1883,1883,1883,1883,1883,1883,1883,1883,1894,1894,1904,1904,1904,1904,1915,1904,1904,1904,1904,1904,1894,1883,1883,1873,1873,1853,1843,1843,1843,1843,1843,0,0,0,0,0,0,0,0,0,0,0,843,843,843,841,841,839,837,835,833,829,827,827,827,827,827,827,827,827,829,831,831,831,833,835,837,839,839,841,841,841,843,845,845,845,847,847,0,0,0,0,0,0,1594,1594,1594,1586,1579,1579,1572,1572,1572,1564,1564,1557,1550,1543,1543,1536,1529,1529,1523,1523,1516,1516,1516,1509,1503,1496,1496,1489,1489,1483,1483,1477,1477,1470,1470,1464,1464,1464,1458,1452,1445,1445,1445,1439,1439,1439,1433,1427,1427,1421,1421,1421,1415,1410,1404,1404,1398,1398,1392,1392,1387,1387,1381,1376,1376,1376,1370,1370,1365,1365,1359,1354,1354,1354,1349,1349,1343,1343,1338,1333,1333,1328,1328,1322,1322,1317,1312,1312,1307,1307,1307,1307,1307,1297,1297,1292,1292,1288,1288,1283,1283,1283,1278,1273,1268,1268,1264,1259,1259,1255,1255,1255,1250,1250,1245,1236,1236,1236,1236,1232,1232,1232,1227,1223,1223,1219,1219,1219,1214,1214,1210,1206,1206,1202,1202,1202,1197,1197,1197,1193,1189,1185,1185,1181,1181,1177,1177,1173,1169,1169,1165,1165,1165,1161,1157,1157,1153,1153,1149,1145,1145,1141,1138,1138,1138,1134,1134,1134,1134,1130,1130,1123,1123,1119,1119,1115,1115,1112,1112,1108,1108,1108,1105,1101,1097,1094,1094,1090,1090,1090,1087,1087,1084,1080,1080,1080,1077,1077,1073,1070,1067,1067,1063,1063,1063,1060,1060,1057,1057,1054,1054,1047,1044,1044,1041,1041,1041,1038,1038,1038,1034,1031,1031,1028,1028,1025,1025,1022,1022,1019,1019,1016,1016,1016,1013,1013,1010,1007,1004,1004,1004,1001,1001,1001,998,998,995,992,992,989,989,989,987,987,984,981,981,978,978,975,973,973,970,970,967,967,967,964,964,962,959,959,956,956,954,954,951,951,951,0,0,0,0,0,0,0,0,0,0,0,0,0,0,0,0,0,0,0,0,0,0,0,0,0,0,0,0,0,0,0,0,0
0,0,0,0,0,0,0,0,0,0,0,0,0,0,1936,1936,1936,1926,1926,1926,1926,1926,1915,1915,1915,1915,1915,1915,1915,1904,1904,1904,1904,1894,1894,1894,1894,1894,1904,1904,1904,1894,1894,1894,1883,1883,1883,1883,1883,1883,1873,1873,1873,1873,1873,1863,1863,1863,1863,1863,1853,1853,1853,1853,1853,1853,1853,1853,1853,1853,1853,1843,1843,1843,1843,1833,1833,1833,1833,1823,1823,1823,1823,1823,1813,1813,1804,1804,1804,1804,1804,1804,1804,1804,1804,1804,1804,1794,1794,1794,1794,1794,1794,1785,1785,1785,1776,1776,1776,1766,1766,1766,1766,1766,1766,1757,1757,1757,1757,1757,1757,1757,1757,1757,1748,1748,1748,1739,1739,1731,1731,1731,1731,1731,1731,1731,1731,1731,1731,1731,1731,1731,1731,1731,1739,1739,1748,1748,1757,1757,1757,1766,1873,1873,1883,1883,1883,1883,1883,1883,1883,1883,1883,1883,1883,1883,1883,1894,1713,1713,1713,1722,1722,1722,1722,1722,1722,1722,1722,1731,1731,1731,1731,1731,1731,1731,1731,1739,1739,1739,1739,1748,1748,1757,1094,1090,1090,1090,1087,1084,1080,1080,1077,1077,1077,1077,1077,1077,1077,1077,1077,1080,1080,1084,1084,1087,1087,1087,1090,1090,1090,1094,0,0,0,0,1833,1833,1833,1833,1843,1843,1843,1853,1853,1863,1863,1873,1873,1873,1873,1873,1873,1873,1883,1883,1883,1883,1883,1883,1883,1883,1894,1894,1904,1904,1904,1904,1915,1915,1904,1904,1904,1904,1894,1883,1883,1873,1873,1853,1853,1853,1843,1843,1843,0,0,0,0,0,0,0,0,0,0,0,843,843,843,841,841,839,837,835,833,829,827,827,827,827,827,827,827,827,829,831,831,833,835,835,837,839,841,841,843,843,843,845,847,847,849,0,0,0,0,0,0,0,1594,1594,1594,1586,1579,1579,1572,1572,1572,1564,1564,1557,1550,1543,1543,1543,1536,1529,1523,1523,1516,1516,1516,1509,1509,1503,1496,1496,1489,1489,1483,1483,1477,1470,1470,1470,1464,1464,1458,1452,1445,1445,1445,1439,1439,1439,1433,1427,1427,1421,1421,1421,1415,1410,1410,1404,1398,1398,1392,1392,1392,1387,1381,1381,1376,1376,1370,1370,1365,1365,1359,1354,1354,1354,1349,1349,1349,1343,1338,1333,1333,1333,1328,1322,1322,1317,1312,1312,1312,1307,1307,1307,1302,1302,1297,1292,1292,1288,1288,1283,1283,1283,1278,1278,1268,1268,1264,1259,1259,1255,1255,1255,1250,1250,1245,1241,1236,1236,1236,1236,1232,1232,1232,1227,1223,1219,1219,1219,1219,1214,1210,1210,1206,1202,1202,1202,1197,1197,1197,1193,1189,1185,1185,1181,1181,1181,1177,1173,1169,1169,1165,1165,1165,1161,1157,1157,1153,1153,1149,1149,1145,1145,1141,1138,1138,1138,1134,1134,1134,1130,1130,1123,1123,1119,1119,1115,1115,1112,1112,1108,1108,1108,1105,1101,1097,1097,1094,1094,1090,1090,1090,1087,1084,1084,1080,1080,1077,1077,1073,1073,1070,1067,1067,1067,1063,1063,1060,1060,1057,1054,1054,1047,1044,1044,1041,1041,1041,1038,1038,1038,1034,1031,1031,1028,1028,1025,1025,1022,1022,1019,1019,1016,1016,1016,1013,1013,1010,1010,1007,1004,1004,1001,1001,1001,998,998,995,995,992,989,989,989,989,987,984,981,981,978,978,975,973,973,973,970,970,967,967,967,964,962,959,959,956,956,954,954,951,951,951,0,0,0,0,0,0,0,0,0,0,0,0,0,0,0,0,0,0,0,0,0,0,0,0,0,0,0,0,0,0,0,0,0
0,0,0,0,0,0,0,0,0,0,0,0,0,0,1936,1936,1936,1936,1936,1926,1926,1926,1915,1915,1915,1915,1915,1915,1915,1904,1904,1904,1904,1904,1894,1894,1894,1894,1904,1904,1904,1894,1894,1894,1883,1883,1883,1883,1883,1883,1883,1873,1873,1873,1873,1873,1863,1863,1873,1863,1853,1853,1853,1853,1853,1853,1853,1853,1853,1853,1853,1843,1843,1843,1833,1833,1833,1833,1833,1833,1833,1823,1823,1813,1813,1813,1804,1804,1804,1804,1804,1804,1804,1804,1804,1804,1804,1794,1794,1794,1794,1794,1794,1794,1794,1785,1785,1785,1776,1776,1766,1766,1766,1766,1766,1757,1757,1757,1757,1757,1757,1757,1757,1757,1757,1757,1748,1748,1748,1739,1739,1739,1731,1731,1731,1731,1731,1731,1731,1731,1731,1731,1731,1739,1739,1739,1748,1748,1757,1757,1757,1766,1873,1873,1883,1883,1883,1883,1883,1883,1883,1883,1883,1883,1883,1883,1883,1894,1713,1713,1713,1722,1722,1722,1722,1722,1722,1722,1722,1731,1731,1731,1731,1731,1739,1739,1739,1739,1748,1748,1748,1748,1748,1757,1090,1090,1090,1090,1090,1084,1080,1080,1077,1077,1077,1077,1077,1077,1077,1077,1080,1080,1084,1084,1087,1087,1087,1087,1090,1090,1090,1094,0,0,0,1833,1833,1833,1833,1833,1843,1843,1843,1853,1853,1863,1863,1873,1873,1873,1873,1873,1873,1873,1883,1883,1883,1883,1883,1883,1894,1894,1894,1894,1904,1904,1915,1915,1915,1915,1915,1915,1915,1904,1894,1894,1883,1873,1873,1853,1853,1853,1853,1853,1853,0,0,0,0,0,0,0,0,0,0,0,843,843,843,843,841,839,837,835,833,829,827,827,827,827,827,827,827,829,831,833,833,833,835,835,839,839,841,841,843,843,843,845,847,847,849,0,0,0,0,0,0,1594,1594,1594,1594,1586,1579,1579,1572,1572,1572,1564,1564,1557,1550,1550,1543,1543,1536,1529,1523,1523,1516,1516,1516,1509,1509,1503,1496,1496,1489,1489,1489,1483,1477,1470,1470,1470,1464,1464,1464,1458,1452,1445,1445,1439,1439,1439,1433,1433,1427,1421,1421,1421,1415,1410,1410,1404,1398,1398,1392,1392,1392,1387,1381,1381,1376,1376,1370,1370,1370,1365,1365,1359,1354,1354,1349,1349,1349,1343,1338,1333,1333,1333,1328,1322,1322,1317,1312,1312,1312,1307,1307,1307,1302,1302,1297,1292,1292,1288,1288,1288,1283,1283,1278,1278,1273,1268,1264,1264,1259,1255,1255,1255,1255,1250,1250,1241,1236,1236,1236,1236,1232,1232,1232,1227,1227,1223,1219,1219,1219,1214,1210,1210,1206,1202,1202,1202,1202,1197,1197,1193,1189,1189,1185,1181,1181,1181,1177,1173,1169,1169,1165,1165,1165,1161,1157,1157,1153,1153,1149,1149,1149,1145,1141,1141,1138,1138,1138,1134,1134,1134,1130,1123,1123,1123,1119,1115,1115,1112,1112,1108,1108,1108,1105,1101,1101,1097,1094,1094,1094,1090,1090,1090,1087,1084,1080,1080,1077,1077,1073,1073,1070,1067,1067,1067,1063,1063,1060,1060,1057,1054,1054,1047,1044,1044,1041,1041,1041,1041,1038,1038,1038,1034,1031,1031,1028,1025,1025,1022,1022,1019,1019,1016,1016,1016,1013,1013,1010,1010,1007,1004,1004,1004,1001,1001,998,998,995,992,992,989,989,989,989,987,984,984,981,981,978,978,975,973,973,970,970,970,967,967,964,962,959,959,956,956,954,954,951,951,951,0,0,0,0,0,0,0,0,0,0,0,0,0,0,0,0,0,0,0,0,0,0,0,0,0,0,0,0,0,0,0,0,0
0,0,0,0,0,0,0,0,0,0,0,0,0,0,1926,1926,1936,1936,1936,1936,1926,1926,1926,1915,1915,1915,1915,1915,1915,1915,1915,1904,1904,1904,1904,1894,1894,1904,1904,1904,1894,1894,1894,1894,1883,1883,1894,1883,1883,1883,1883,1883,1873,1873,1873,1873,1873,1873,1873,1873,1863,1863,1863,1863,1863,1853,1853,1853,1853,1853,1853,1853,1843,1843,1833,1833,1833,1833,1833,1833,1833,1823,1823,1813,1813,1813,1804,1804,1804,1804,1804,1804,1804,1804,1804,1804,1804,1794,1794,1794,1794,1794,1794,1794,1794,1785,1785,1785,1785,1776,1776,1766,1766,1766,1766,1766,1766,1757,1757,1766,1766,1757,1757,1757,1757,1757,1757,1748,1748,1739,1739,1739,1739,1731,1731,1731,1731,1731,1731,1731,1731,1731,1731,1739,1739,1739,1748,1748,1757,1757,1757,1873,1873,1873,1883,1883,1883,1883,1883,1883,1883,1883,1883,1883,1883,1883,1894,1894,1713,1713,1713,1722,1722,1722,1722,1722,1722,1722,1731,1731,1731,1731,1731,1731,1739,1739,1739,1739,1748,1748,1748,1748,1757,1757,1090,1090,1090,1090,1090,1087,1084,1080,1080,1077,1077,1077,1077,1077,1077,1080,1080,1084,1084,1084,1087,1087,1087,1090,1090,1090,1094,1097,0,0,0,0,1833,1833,1833,1833,1833,1843,1843,1843,1853,1863,1863,1863,1873,1873,1873,1873,1873,1873,1883,1883,1883,1883,1883,1883,1894,1894,1904,1904,1904,1904,1915,1915,1915,1915,1915,1915,1904,1904,1894,1894,1883,1883,1873,1873,1853,1853,1853,1853,1853,0,0,0,0,0,0,0,0,0,0,0,843,843,843,843,841,839,837,835,833,829,827,827,827,827,827,827,827,829,831,833,833,833,835,835,839,839,841,843,843,843,845,845,847,847,0,0,0,0,0,0,1601,1594,1594,1594,1594,1594,1579,1579,1572,1572,1572,1564,1564,1557,1550,1550,1543,1543,1536,1529,1523,1523,1523,1516,1516,1509,1509,1503,1496,1496,1489,1489,1489,1483,1477,1477,1470,1470,1470,1464,1464,1458,1452,1445,1445,1439,1439,1439,1433,1433,1427,1427,1421,1421,1415,1415,1410,1404,1398,1398,1392,1392,1392,1387,1387,1381,1376,1376,1370,1370,1370,1365,1365,1359,1354,1354,1349,1349,1349,1343,1338,1333,1333,1333,1328,1322,1322,1317,1312,1312,1312,1307,1307,1307,1302,1302,1297,1292,1292,1288,1288,1288,1283,1283,1278,1278,1273,1268,1264,1264,1259,1255,1255,1255,1255,1250,1250,1241,1241,1236,1236,1236,1236,1232,1232,1232,1227,1227,1223,1223,1219,1214,1214,1210,1206,1202,1202,1202,1202,1197,1197,1197,1193,1189,1185,1185,1181,1181,1177,1173,1169,1169,1165,1165,1165,1161,1161,1157,1157,1153,1153,1149,1149,1149,1145,1141,1138,1138,1138,1134,1134,1134,1130,1123,1123,1123,1119,1115,1115,1115,1112,1108,1108,1108,1105,1105,1101,1097,1097,1094,1094,1094,1090,1090,1087,1084,1084,1080,1080,1077,1073,1073,1070,1070,1067,1067,1067,1063,1060,1060,1057,1054,1054,1050,1047,1044,1044,1041,1041,1041,1038,1038,1038,1034,1031,1031,1028,1025,1025,1022,1022,1019,1019,1016,1016,1016,1013,1013,1010,1010,1007,1004,1004,1004,1001,1001,998,998,995,992,992,992,992,989,989,987,987,984,981,981,978,978,975,973,973,970,970,970,967,967,964,962,962,959,956,956,954,954,951,948,948,0,0,0,0,0,0,0,0,0,0,0,0,0,0,0,0,0,0,0,0,0,0,0,0,0,0,0,0,0,0,0,0,0
0,0,0,0,0,0,0,0,0,0,0,0,0,0,1926,1926,1936,1936,1936,1936,1926,1926,1926,1926,1915,1915,1915,1915,1915,1915,1915,1904,1904,1904,1904,1904,1904,1904,1904,1904,1894,1894,1894,1894,1883,1883,1894,1883,1883,1883,1883,1883,1883,1873,1873,1873,1873,1873,1873,1873,1863,1863,1863,1863,1863,1863,1863,1853,1853,1853,1853,1853,1843,1843,1843,1843,1833,1833,1833,1833,1833,1823,1823,1823,1823,1813,1813,1813,1804,1804,1804,1804,1804,1804,1804,1804,1804,1794,1794,1794,1794,1794,1794,1794,1794,1785,1785,1785,1785,1776,1776,1776,1776,1766,1766,1766,1766,1766,1766,1766,1766,1766,1766,1766,1757,1757,1757,1757,1748,1748,1748,1748,1739,1731,1731,1731,1731,1731,1731,1731,1731,1731,1739,1739,1739,1748,1748,1748,1757,1757,1757,1873,1873,1873,1883,1883,1883,1883,1883,1883,1883,1883,1883,1883,1883,1883,1883,1894,1713,1713,1713,1722,1722,1722,1722,1722,1722,1722,1731,1731,1731,1731,1731,1731,1739,1739,1739,1739,1739,1739,1739,1748,1757,1757,1090,1090,1090,1090,1090,1087,1084,1080,1080,1077,1077,1077,1077,1077,1077,1080,1080,1084,1084,1087,1087,1087,1087,1090,1090,1090,1094,1097,0,0,0,0,0,1823,1823,1833,1833,1843,1843,1843,1853,1863,1863,1863,1873,1873,1873,1873,1873,1873,1883,1883,1883,1883,1894,1894,1904,1904,1904,1904,1904,1915,1915,1915,1915,1915,1915,1915,1904,1904,1894,1894,1894,1883,1873,1873,1863,1853,1853,1853,1863,0,0,0,0,0,0,0,0,0,0,0,843,843,843,843,841,839,837,835,833,829,827,827,827,827,827,827,829,829,831,833,833,835,835,835,839,841,843,843,843,845,845,845,847,0,0,0,0,0,0,1601,1601,1601,1601,1594,1594,1594,1579,1579,1572,1572,1572,1564,1564,1557,1550,1550,1550,1543,1536,1529,1523,1523,1523,1516,1516,1509,1509,1503,1503,1496,1496,1489,1489,1483,1477,1477,1470,1470,1470,1464,1464,1458,1452,1445,1445,1445,1439,1439,1439,1433,1433,1427,1421,1421,1415,1415,1410,1404,1398,1398,1392,1392,1392,1387,1387,1381,1376,1376,1370,1370,1370,1365,1365,1359,1354,1354,1354,1349,1349,1349,1338,1338,1333,1333,1328,1322,1322,1317,1312,1312,1312,1312,1307,1307,1302,1302,1297,1292,1292,1288,1288,1288,1288,1283,1278,1278,1273,1268,1268,1264,1259,1259,1255,1255,1255,1250,1250,1245,1241,1236,1236,1236,1236,1232,1232,1232,1227,1227,1223,1223,1219,1214,1214,1210,1206,1202,1202,1202,1202,1197,1197,1197,1193,1189,1185,1185,1181,1181,1181,1177,1173,1169,1169,1165,1165,1165,1161,1161,1157,1153,1153,1149,1149,1149,1145,1141,1141,1138,1138,1138,1134,1134,1134,1126,1123,1123,1119,1119,1119,1115,1112,1108,1108,1108,1105,1105,1101,1097,1097,1094,1094,1094,1090,1090,1087,1084,1084,1080,1080,1077,1077,1073,1070,1070,1067,1067,1067,1063,1060,1060,1057,1054,1054,1050,1047,1044,1044,1044,1041,1041,1038,1038,1038,1034,1034,1028,1028,1028,1025,1025,1022,1022,1019,1019,1016,1016,1016,1013,1010,1010,1007,1004,1004,1004,1001,1001,998,998,995,995,992,992,992,989,989,987,987,984,981,981,978,978,975,975,973,970,970,970,967,967,964,964,962,959,956,956,954,954,951,948,948,0,0,0,0,0,0,0,0,0,0,0,0,0,0,0,0,0,0,0,0,0,0,0,0,0,0,0,0,0,0,0,0,0
0,0,0,0,0,0,0,0,0,0,0,0,0,0,1936,1936,1947,1947,1936,1936,1926,1926,1926,1926,1926,1915,1915,1915,1915,1915,1915,1915,1915,1915,1915,1915,1915,1915,1904,1904,1894,1894,1894,1894,1894,1894,1894,1883,1883,1883,1883,1883,1883,1873,1873,1873,1873,1873,1873,1873,1873,1873,1863,1863,1863,1863,1863,1853,1853,1853,1853,1853,1853,1843,1843,1843,1843,1833,1833,1833,1833,1833,1833,1823,1823,1813,1813,1813,1813,1813,1813,1813,1813,1813,1804,1804,1804,1804,1794,1794,1794,1794,1794,1794,1794,1794,1785,1785,1785,1776,1776,1776,1776,1776,1766,1766,1766,1766,1766,1766,1766,1766,1766,1766,1757,1757,1757,1757,1757,1748,1748,1748,1748,1739,1739,1739,1739,1731,1731,1731,1731,1731,1739,1739,1739,1748,1748,1748,1757,1757,1757,1873,1873,1883,1883,1883,1883,1883,1883,1883,1883,1883,1883,1883,1883,1883,1883,1894,1713,1713,1722,1722,1722,1722,1722,1722,1722,1722,1731,1731,1731,1731,1731,1731,1739,1739,1739,1739,1739,1739,1739,1748,1757,1757,1094,1094,1090,1090,1090,1087,1084,1084,1080,1077,1077,1077,1077,1077,1077,1080,1080,1084,1084,1087,1087,1087,1090,1090,1090,1094,1097,1101,0,0,0,0,0,1823,1823,1833,1833,1843,1843,1843,1853,1863,1863,1863,1873,1873,1873,1873,1873,1873,1883,1883,1883,1883,1883,1894,1894,1904,1904,1904,1904,1915,1915,1915,1915,1915,1915,1915,1904,1904,1894,1894,1894,1883,1883,1873,1873,1863,1863,1863,1863,0,0,0,0,0,0,0,0,0,0,843,843,843,843,843,841,839,839,835,833,829,827,827,827,827,827,827,829,831,833,833,833,835,835,835,839,841,843,843,845,845,845,845,0,0,0,0,0,0,0,1601,1601,1601,1601,1594,1594,1594,1579,1579,1579,1572,1572,1572,1564,1564,1550,1550,1550,1543,1543,1536,1529,1523,1523,1516,1516,1509,1509,1503,1503,1496,1496,1489,1489,1483,1483,1477,1470,1470,1470,1464,1464,1458,1452,1452,1445,1445,1439,1439,1439,1433,1433,1427,1427,1421,1415,1415,1410,1410,1404,1398,1398,1392,1392,1387,1387,1381,1376,1376,1370,1370,1370,1365,1365,1359,1354,1354,1354,1349,1349,1349,1343,1338,1333,1333,1328,1322,1322,1317,1312,1312,1312,1312,1307,1307,1307,1302,1297,1292,1292,1288,1288,1288,1288,1283,1278,1278,1273,1268,1268,1264,1264,1259,1259,1255,1255,1255,1250,1250,1241,1236,1236,1236,1236,1232,1232,1232,1232,1227,1223,1223,1219,1219,1214,1210,1210,1206,1202,1202,1202,1202,1197,1197,1193,1189,1185,1185,1185,1181,1181,1177,1173,1169,1169,1169,1165,1165,1161,1161,1157,1153,1153,1153,1149,1149,1145,1145,1141,1138,1138,1138,1134,1134,1130,1126,1123,1123,1119,1119,1119,1115,1115,1112,1108,1108,1105,1105,1101,1097,1097,1094,1094,1090,1090,1087,1087,1084,1084,1080,1080,1077,1077,1073,1073,1070,1070,1067,1067,1063,1063,1060,1057,1057,1054,1050,1047,1047,1044,1044,1041,1041,1038,1038,1038,1034,1034,1028,1028,1028,1025,1025,1025,1022,1019,1019,1019,1016,1016,1013,1013,1010,1007,1007,1004,1004,1001,1001,1001,998,998,995,992,992,992,989,989,987,987,984,981,978,978,978,975,975,975,970,970,970,970,967,967,964,962,962,959,956,954,954,951,951,951,0,0,0,0,0,0,0,0,0,0,0,0,0,0,0,0,0,0,0,0,0,0,0,0,0,0,0,0,0,0,0,0,0
0,0,0,0,0,0,0,0,0,0,0,0,0,0,1947,1947,1947,1947,1947,1947,1936,1936,1936,1936,1926,1926,1926,1926,1915,1915,1915,1915,1915,1915,1915,1915,1915,1915,1904,1904,1894,1894,1894,1894,1894,1894,1894,1894,1894,1883,1883,1883,1883,1873,1873,1873,1873,1873,1873,1873,1873,1873,1863,1863,1863,1863,1863,1863,1863,1853,1853,1853,1853,1843,1843,1843,1843,1833,1833,1833,1833,1833,1833,1823,1823,1823,1813,1813,1813,1813,1813,1813,1813,1813,1804,1804,1804,1804,1804,1794,1794,1794,1794,1794,1794,1794,1785,1785,1794,1785,1785,1785,1785,1776,1776,1766,1766,1766,1766,1766,1766,1766,1766,1766,1757,1757,1757,1757,1757,1748,1748,1748,1748,1739,1739,1739,1739,1739,1739,1739,1739,1739,1739,1739,1739,1748,1748,1748,1757,1757,1757,1873,1873,1883,1883,1883,1883,1883,1883,1883,1883,1883,1883,1883,1883,1883,1883,1894,1713,1713,1722,1722,1722,1722,1722,1722,1731,1731,1731,1731,1731,1731,1739,1739,1739,1739,1739,1748,1748,1748,1748,1748,1757,1757,1094,1094,1094,1090,1090,1090,1084,1084,1080,1077,1077,1077,1077,1077,1077,1080,1080,1084,1084,1087,1087,1087,1090,1090,1090,1094,1097,1101,0,0,0,0,0,1823,1823,1833,1833,1843,1843,1843,1853,1863,1873,1873,1873,1873,1873,1873,1873,1873,1883,1883,1883,1883,1883,1894,1894,1904,1904,1904,1904,1915,1915,1915,1915,1915,1915,1915,1904,1904,1894,1894,1894,1883,1883,1883,1873,1873,1873,1863,1863,0,0,0,0,0,0,0,0,0,0,843,843,843,843,843,841,841,839,837,833,829,829,827,827,827,827,829,829,831,833,833,835,835,835,837,839,841,843,845,845,845,845,845,0,0,0,0,0,0,0,1601,1601,1601,1601,1601,1601,1594,1586,1579,1579,1572,1572,1572,1564,1564,1557,1550,1550,1543,1543,1536,1529,1523,1523,1523,1516,1516,1516,1509,1503,1503,1496,1489,1489,1489,1483,1477,1470,1470,1470,1464,1464,1464,1458,1452,1452,1445,1445,1439,1439,1433,1427,1427,1427,1421,1421,1415,1410,1410,1404,1398,1398,1392,1392,1392,1387,1387,1376,1376,1376,1370,1370,1365,1365,1359,1354,1354,1354,1349,1349,1349,1343,1338,1333,1333,1328,1328,1322,1317,1317,1312,1312,1312,1312,1307,1307,1302,1297,1297,1292,1288,1288,1288,1288,1283,1278,1278,1273,1268,1268,1264,1264,1264,1259,1255,1255,1255,1250,1250,1241,1241,1236,1236,1236,1236,1232,1232,1232,1227,1227,1223,1219,1219,1214,1214,1210,1210,1206,1202,1202,1202,1197,1197,1193,1193,1185,1185,1185,1181,1181,1177,1173,1169,1169,1169,1165,1165,1161,1161,1157,1153,1153,1153,1149,1149,1149,1145,1141,1138,1138,1138,1134,1134,1130,1126,1123,1123,1119,1119,1119,1115,1115,1112,1108,1108,1105,1105,1101,1101,1097,1094,1094,1090,1090,1087,1087,1084,1084,1080,1077,1077,1077,1073,1073,1070,1070,1067,1067,1063,1063,1060,1057,1057,1054,1050,1047,1047,1044,1044,1044,1041,1038,1038,1038,1034,1034,1028,1028,1028,1025,1025,1025,1022,1019,1019,1019,1016,1016,1016,1013,1010,1010,1007,1004,1004,1001,1001,1001,998,998,995,992,992,992,989,989,987,987,984,981,978,978,978,975,975,975,970,970,970,970,967,967,967,964,962,959,956,956,956,954,951,951,0,0,0,0,0,0,0,0,0,0,0,0,0,0,0,0,0,0,0,0,0,0,0,0,0,0,0,0,0,0,0,0,0
0,0,0,0,0,0,0,0,0,0,0,0,0,0,1947,1947,1947,1947,1947,1947,1936,1936,1936,1936,1926,1926,1926,1926,1915,1915,1915,1915,1915,1915,1915,1915,1915,1915,1915,1904,1904,1904,1894,1894,1894,1894,1894,1894,1894,1883,1883,1883,1883,1883,1873,1873,1873,1873,1873,1873,1873,1873,1863,1863,1863,1863,1863,1853,1853,1853,1853,1853,1853,1843,1843,1843,1843,1833,1833,1833,1833,1833,1833,1833,1833,1833,1823,1823,1823,1823,1813,1813,1813,1813,1813,1804,1804,1804,1804,1804,1794,1794,1794,1794,1794,1794,1794,1794,1794,1785,1785,1785,1785,1785,1776,1776,1766,1766,1766,1766,1766,1766,1766,1766,1766,1757,1757,1757,1757,1757,1757,1757,1748,1748,1748,1739,1739,1739,1739,1739,1739,1739,1739,1739,1739,1748,1748,1757,1757,1757,1757,1776,1873,1883,1883,1883,1883,1883,1883,1883,1883,1883,1883,1883,1883,1883,1883,1894,1722,1722,1722,1722,1722,1722,1722,1722,1731,1731,1731,1731,1731,1731,1739,1739,1739,1739,1748,1748,1748,1748,1748,1757,1757,1757,0,1094,1094,1090,1090,1090,1084,1084,1080,1080,1077,1077,1077,1077,1077,1080,1080,1084,1087,1087,1087,1090,1090,1090,1094,1094,1097,1101,0,0,0,0,0,1823,1823,1833,1833,1843,1843,1853,1863,1863,1873,1873,1873,1873,1873,1873,1873,1873,1883,1883,1883,1883,1883,1894,1904,1904,1904,1904,1904,1915,1915,1915,1915,1915,1915,1915,1904,1904,1894,1894,1894,1883,1883,1883,1873,1873,1873,1873,1873,0,0,0,0,0,0,0,0,0,0,0,845,845,843,843,843,841,839,837,833,829,829,827,827,827,829,829,831,831,833,833,835,835,835,837,841,841,843,845,845,845,845,845,0,0,0,0,0,0,0,1601,1601,1601,1601,1601,1601,1594,1586,1586,1579,1572,1572,1572,1564,1564,1557,1550,1550,1543,1543,1536,1529,1523,1523,1523,1516,1516,1516,1509,1509,1503,1503,1489,1489,1489,1483,1477,1477,1470,1470,1464,1464,1464,1458,1452,1452,1445,1445,1439,1439,1433,1427,1427,1427,1421,1421,1415,1415,1410,1404,1398,1398,1392,1392,1392,1387,1387,1376,1376,1376,1370,1370,1365,1365,1359,1354,1354,1354,1354,1349,1349,1343,1338,1333,1333,1328,1328,1328,1322,1317,1312,1312,1312,1312,1307,1307,1302,1297,1297,1292,1292,1288,1288,1288,1283,1278,1278,1273,1273,1268,1268,1264,1264,1259,1255,1255,1255,1250,1250,1250,1241,1241,1236,1236,1236,1232,1232,1232,1227,1227,1223,1223,1219,1214,1214,1210,1210,1206,1206,1202,1202,1202,1197,1197,1189,1185,1185,1185,1185,1181,1181,1177,1173,1169,1169,1165,1165,1165,1161,1157,1153,1153,1153,1153,1149,1149,1145,1141,1138,1138,1138,1134,1134,1130,1126,1123,1123,1119,1119,1119,1119,1115,1112,1108,1108,1105,1105,1101,1101,1097,1094,1094,1090,1090,1087,1087,1084,1080,1080,1077,1077,1077,1073,1073,1070,1070,1067,1067,1063,1063,1060,1057,1057,1054,1050,1050,1047,1047,1044,1044,1041,1041,1038,1038,1034,1034,1028,1028,1028,1025,1025,1025,1022,1022,1019,1019,1016,1016,1013,1013,1013,1010,1007,1004,1004,1001,1001,1001,998,998,995,992,992,992,989,989,987,987,984,981,978,978,978,975,975,975,973,970,970,970,967,967,967,964,962,959,956,956,956,956,954,954,0,0,0,0,0,0,0,0,0,0,0,0,0,0,0,0,0,0,0,0,0,0,0,0,0,0,0,0,0,0,0,0,0
0,0,0,0,0,0,0,0,0,0,0,0,0,0,1947,1947,1947,1947,1947,1936,1936,1936,1936,1936,1926,1926,1926,1926,1926,1926,1926,1915,1915,1915,1915,1915,1915,1915,1915,1904,1904,1904,1894,1894,1883,1883,1883,1883,1883,1883,1883,1883,1883,1883,1873,1873,1873,1873,1873,1873,1873,1873,1863,1863,1873,1863,1863,1853,1853,1853,1853,1853,1853,1843,1843,1843,1843,1843,1843,1843,1843,1833,1833,1833,1833,1833,1823,1823,1823,1823,1823,1813,1813,1813,1813,1804,1804,1804,1804,1804,1804,1794,1794,1794,1794,1794,1794,1794,1794,1785,1785,1785,1785,1785,1776,1776,1776,1766,1766,1766,1766,1766,1766,1766,1766,1766,1757,1757,1757,1757,1757,1757,1748,1748,1748,1739,1739,1739,1739,1739,1739,1739,1739,1739,1739,1748,1748,1757,1757,1757,1766,1776,1873,1873,1883,1883,1883,1883,1883,1883,1883,1883,1883,1883,1883,1883,1883,1883,1722,1722,1731,1731,1722,1722,1722,1731,1731,1731,1731,1731,1731,1731,1739,1739,1739,1739,1748,1748,1748,1748,1748,1757,1757,0,1090,1090,1090,1090,1090,1090,1087,1084,1084,1080,1080,1080,1077,1077,1080,1084,1084,1084,1087,1087,1087,1090,1090,1094,1094,1094,1097,1101,0,0,0,0,0,1833,1833,1833,1843,1843,1843,1853,1863,1863,1873,1873,1873,1873,1873,1873,1873,1873,1883,1883,1883,1883,1894,1894,1904,1904,1904,1915,1915,1915,1915,1915,1915,1915,1915,1915,1904,1904,1894,1894,1894,1883,1883,1883,1873,1873,1873,1873,1873,0,0,0,0,0,0,0,0,0,0,847,845,845,843,843,843,841,841,839,835,833,829,829,829,829,829,829,831,833,833,835,835,835,837,837,841,843,843,845,845,845,845,845,0,0,0,0,0,0,0,1601,1601,1601,1601,1601,1601,1594,1594,1586,1579,1579,1572,1572,1564,1564,1557,1550,1550,1550,1543,1536,1529,1529,1523,1523,1523,1516,1516,1516,1509,1509,1503,1496,1489,1489,1483,1477,1477,1470,1470,1464,1464,1464,1464,1452,1452,1445,1445,1439,1439,1439,1433,1433,1427,1421,1421,1415,1415,1410,1410,1404,1398,1398,1392,1392,1387,1387,1381,1376,1376,1370,1370,1370,1365,1359,1359,1354,1354,1354,1349,1349,1343,1338,1338,1333,1333,1328,1328,1322,1317,1317,1312,1312,1312,1307,1307,1302,1302,1297,1292,1292,1292,1288,1288,1283,1278,1278,1273,1273,1268,1268,1268,1264,1259,1255,1255,1255,1255,1250,1250,1241,1241,1236,1236,1236,1232,1232,1232,1232,1227,1223,1223,1219,1214,1214,1214,1210,1210,1206,1206,1202,1202,1197,1197,1189,1185,1185,1185,1185,1181,1181,1177,1173,1169,1169,1169,1165,1165,1161,1157,1153,1153,1153,1153,1149,1149,1145,1141,1141,1138,1138,1134,1134,1130,1126,1123,1123,1123,1119,1119,1119,1115,1112,1108,1108,1105,1105,1101,1101,1097,1094,1094,1094,1090,1087,1087,1084,1080,1080,1077,1077,1077,1073,1073,1070,1070,1067,1067,1063,1063,1060,1057,1057,1054,1050,1050,1047,1047,1047,1044,1044,1041,1038,1038,1034,1034,1031,1028,1028,1025,1025,1025,1022,1022,1019,1019,1016,1016,1013,1013,1013,1010,1007,1004,1004,1001,1001,1001,1001,998,995,992,992,992,989,989,987,987,987,981,978,978,978,975,975,975,973,970,970,970,967,967,967,964,962,959,959,956,956,956,954,954,0,0,0,0,0,0,0,0,0,0,0,0,0,0,0,0,0,0,0,0,0,0,0,0,0,0,0,0,0,0,0,0,0
0,0,0,0,0,0,0,0,0,0,0,0,0,0,1959,1959,1947,1947,1947,1936,1936,1936,1936,1936,1926,1926,1926,1926,1926,1926,1926,1926,1926,1926,1926,1926,1926,1915,1915,1915,1904,1904,1894,1894,1883,1883,1883,1883,1883,1883,1883,1883,1883,1883,1883,1883,1873,1873,1873,1873,1873,1873,1863,1863,1873,1863,1863,1863,1863,1853,1853,1853,1853,1843,1843,1843,1843,1843,1843,1843,1843,1843,1843,1833,1833,1833,1833,1833,1833,1823,1823,1823,1823,1813,1813,1813,1813,1804,1804,1804,1804,1794,1794,1794,1794,1794,1794,1794,1794,1794,1794,1785,1785,1785,1776,1776,1776,1776,1766,1766,1766,1766,1766,1757,1757,1757,1757,1757,1757,1757,1757,1757,1757,1748,1748,1748,1739,1739,1739,1739,1739,1739,1739,1739,1739,1748,1748,1757,1757,1757,1766,1776,1776,1873,1883,1883,1883,1883,1883,1883,1883,1883,1883,1883,1883,1883,1883,1883,1883,1731,1731,1731,1731,1731,1731,1731,1731,1731,1731,1731,1731,1731,1739,1739,1739,1739,1748,1748,1748,1748,1748,1757,1757,0,1090,1090,1090,1090,1090,1090,1087,1087,1084,1080,1080,1080,1080,1080,1080,1084,1084,1087,1087,1087,1090,1090,1090,1094,1094,1097,1097,1101,0,0,0,0,1833,1833,1833,1833,1843,1843,1853,1853,1863,1863,1873,1873,1873,1873,1883,1883,1883,1883,1883,1883,1883,1894,1894,1904,1904,1904,1904,1915,1915,1915,1915,1915,1915,1915,1915,1915,1904,1904,1894,1894,1894,1883,1883,1883,1883,1873,1873,1873,1873,0,0,0,0,0,0,0,0,0,0,847,845,845,845,843,843,841,841,839,835,833,831,829,829,829,829,831,831,833,833,833,835,835,837,839,843,843,845,845,845,845,845,845,0,0,0,0,0,0,0,1609,1601,1601,1601,1601,1601,1594,1594,1586,1579,1579,1572,1572,1564,1564,1557,1550,1550,1550,1543,1536,1536,1529,1523,1523,1523,1516,1516,1516,1509,1509,1503,1496,1489,1489,1483,1483,1477,1470,1470,1464,1464,1464,1464,1452,1452,1452,1445,1445,1439,1439,1433,1433,1427,1427,1421,1415,1415,1415,1410,1404,1398,1398,1392,1392,1392,1387,1381,1376,1376,1376,1370,1370,1365,1359,1359,1354,1354,1354,1349,1349,1343,1338,1338,1333,1333,1328,1328,1328,1322,1317,1317,1312,1312,1307,1307,1302,1302,1297,1292,1292,1292,1288,1288,1288,1283,1278,1273,1273,1273,1268,1268,1264,1259,1259,1255,1255,1255,1250,1250,1241,1241,1236,1236,1236,1232,1232,1232,1232,1227,1223,1223,1219,1214,1214,1214,1210,1210,1206,1206,1202,1202,1197,1197,1189,1185,1185,1185,1185,1181,1181,1177,1173,1169,1169,1169,1165,1165,1157,1157,1153,1153,1153,1153,1149,1149,1149,1145,1141,1141,1138,1134,1134,1130,1126,1123,1123,1119,1119,1119,1119,1115,1115,1112,1108,1105,1105,1101,1101,1097,1094,1094,1094,1090,1087,1087,1084,1080,1080,1077,1077,1077,1073,1073,1070,1067,1067,1067,1063,1063,1060,1057,1057,1054,1050,1050,1050,1050,1047,1047,1044,1041,1041,1038,1038,1034,1031,1028,1028,1025,1025,1025,1022,1022,1022,1019,1016,1016,1016,1013,1013,1010,1007,1004,1004,1004,1001,1001,1001,998,995,995,992,992,989,989,989,987,984,981,978,978,978,975,975,975,973,970,970,970,967,967,967,964,962,959,959,959,956,956,956,956,0,0,0,0,0,0,0,0,0,0,0,0,0,0,0,0,0,0,0,0,0,0,0,0,0,0,0,0,0,0,0,0,0
0,0,0,0,0,0,0,0,0,0,0,0,0,0,1959,1959,1959,1959,1959,1947,1936,1936,1936,1936,1926,1926,1926,1926,1926,1926,1926,1926,1915,1915,1915,1915,1926,1915,1915,1915,1904,1904,1894,1894,1894,1894,1894,1883,1883,1883,1883,1883,1883,1883,1883,1883,1883,1873,1873,1873,1873,1873,1873,1873,1873,1873,1873,1873,1873,1863,1863,1853,1853,1843,1843,1843,1843,1843,1843,1843,1843,1843,1833,1833,1833,1833,1833,1833,1833,1823,1823,1823,1823,1823,1823,1823,1813,1804,1804,1804,1804,1794,1794,1794,1794,1794,1794,1794,1794,1794,1794,1785,1785,1785,1776,1776,1776,1776,1766,1766,1766,1766,1766,1757,1757,1757,1757,1757,1757,1757,1757,1757,1757,1748,1748,1748,1748,1739,1739,1739,1739,1748,1748,1748,1748,1748,1757,1757,1757,1757,1766,1776,1776,1883,1883,1883,1883,1883,1883,1883,1883,1883,1883,1883,1883,1883,1883,1883,1883,1731,1731,1731,1731,1731,1731,1731,1731,1731,1731,1731,1731,1731,1739,1739,1739,1748,1748,1748,1748,1748,1757,1757,1757,0,1090,1090,1090,1090,1090,1090,1087,1087,1084,1084,1080,1080,1080,1080,1080,1084,1084,1087,1087,1090,1090,1094,1094,1097,1097,1097,1097,1101,0,0,0,0,1833,1833,1833,1843,1843,1843,1853,1853,1863,1863,1873,1873,1873,1873,1883,1883,1883,1883,1883,1883,1894,1894,1894,1904,1904,1904,1915,1915,1915,1915,1915,1915,1915,1915,1915,1915,1915,1915,1904,1904,1894,1894,1894,1883,1883,1873,1873,1873,1873,0,0,0,0,0,0,0,0,0,849,847,845,845,845,843,843,841,841,839,835,833,831,831,829,829,829,831,831,833,833,833,835,835,837,839,843,845,845,847,847,847,845,845,845,0,0,0,0,0,0,1609,1609,1601,1601,1601,1601,1594,1594,1586,1579,1579,1572,1572,1564,1564,1557,1550,1550,1550,1543,1536,1536,1529,1523,1523,1523,1516,1516,1516,1509,1509,1496,1496,1496,1489,1489,1483,1477,1470,1470,1464,1464,1464,1464,1452,1452,1452,1445,1445,1439,1439,1439,1433,1427,1427,1421,1415,1415,1415,1410,1404,1398,1398,1392,1392,1392,1387,1381,1381,1376,1376,1370,1370,1365,1365,1359,1354,1354,1354,1349,1349,1343,1338,1338,1333,1333,1333,1328,1328,1322,1322,1317,1317,1312,1307,1307,1302,1302,1297,1292,1292,1292,1288,1288,1288,1283,1278,1273,1273,1273,1268,1268,1268,1264,1259,1259,1255,1255,1255,1250,1245,1241,1241,1236,1236,1232,1232,1232,1227,1227,1223,1223,1219,1214,1214,1214,1210,1210,1206,1206,1202,1202,1197,1197,1189,1185,1185,1185,1185,1181,1181,1177,1173,1173,1169,1169,1165,1165,1157,1157,1153,1153,1153,1153,1149,1149,1149,1145,1141,1141,1138,1134,1134,1130,1126,1123,1123,1119,1119,1119,1119,1115,1112,1112,1108,1105,1105,1105,1101,1101,1097,1094,1094,1090,1090,1087,1084,1080,1080,1077,1077,1077,1073,1073,1070,1067,1067,1067,1063,1063,1060,1060,1057,1054,1050,1050,1050,1050,1047,1047,1044,1041,1041,1038,1038,1038,1034,1028,1028,1028,1025,1025,1025,1022,1022,1019,1016,1016,1016,1013,1013,1010,1007,1004,1004,1004,1001,1001,1001,998,995,995,992,992,992,989,989,987,984,981,981,978,978,978,975,975,973,973,970,970,967,967,967,964,962,959,959,959,956,956,956,956,0,0,0,0,0,0,0,0,0,0,0,0,0,0,0,0,0,0,0,0,0,0,0,0,0,0,0,0,0,0,0,0,0
0,0,0,0,0,0,0,0,0,0,0,0,0,0,1959,1959,1959,1959,1959,1947,1947,1936,1936,1936,1926,1926,1926,1926,1926,1926,1926,1926,1915,1915,1915,1915,1926,1915,1915,1915,1904,1904,1904,1904,1894,1894,1894,1894,1883,1883,1883,1883,1883,1883,1883,1883,1883,1873,1873,1873,1873,1873,1873,1873,1873,1873,1873,1873,1873,1863,1863,1853,1853,1843,1843,1843,1843,1843,1843,1843,1843,1843,1833,1833,1833,1833,1833,1833,1833,1823,1823,1823,1823,1823,1823,1823,1823,1813,1813,1804,1804,1804,1804,1794,1794,1794,1794,1794,1794,1794,1794,1785,1785,1785,1785,1776,1776,1776,1766,1766,1766,1766,1766,1766,1766,1766,1766,1766,1766,1757,1757,1757,1757,1757,1748,1748,1748,1748,1739,1739,1748,1748,1748,1748,1748,1748,1757,1757,1757,1766,1766,1776,1776,1883,1883,1883,1883,1883,1883,1883,1883,1883,1883,1883,1883,1883,1883,1883,1883,1731,1731,1731,1731,1731,1731,1731,1731,1731,1731,1731,1731,1739,1739,1739,1739,1748,1748,1748,1748,1748,1757,1757,1757,0,1090,1090,1090,1090,1090,1090,1087,1087,1084,1084,1084,1084,1080,1080,1084,1084,1084,1087,1087,1090,1090,1094,1094,1097,1097,1097,1097,0,0,0,0,0,1843,1843,1843,1843,1843,1843,1853,1853,1873,1873,1873,1873,1873,1873,1883,1883,1883,1883,1883,1883,1894,1894,1904,1904,1904,1904,1915,1915,1915,1915,1915,1915,1915,1915,1915,1915,1915,1915,1904,1904,1894,1894,1894,1883,1883,1873,1873,1873,1873,0,0,0,0,0,0,0,0,851,849,847,845,845,845,843,843,841,841,839,835,833,831,831,831,831,831,831,833,833,833,833,835,837,837,839,843,845,845,845,845,845,845,845,845,0,0,0,0,0,0,0,1609,1609,1609,1601,1601,1594,1594,1586,1579,1579,1579,1572,1564,1564,1557,1550,1550,1543,1543,1536,1536,1529,1523,1523,1523,1516,1516,1516,1509,1509,1496,1496,1496,1489,1489,1483,1477,1470,1470,1464,1464,1464,1464,1452,1452,1452,1445,1445,1445,1439,1439,1433,1427,1427,1421,1415,1415,1415,1410,1404,1398,1398,1398,1392,1392,1392,1381,1381,1376,1376,1370,1370,1365,1365,1359,1354,1354,1354,1349,1349,1343,1338,1338,1333,1333,1333,1328,1328,1322,1322,1317,1312,1312,1312,1307,1302,1302,1297,1292,1292,1292,1292,1288,1288,1283,1278,1278,1273,1273,1268,1268,1268,1264,1259,1259,1255,1255,1255,1250,1245,1241,1241,1236,1236,1232,1232,1232,1227,1227,1223,1223,1219,1214,1214,1214,1210,1210,1206,1206,1202,1202,1197,1197,1189,1189,1185,1185,1185,1181,1181,1177,1173,1173,1169,1169,1165,1165,1161,1157,1153,1153,1153,1153,1149,1149,1149,1145,1141,1141,1138,1138,1134,1130,1126,1123,1123,1123,1119,1119,1119,1115,1112,1112,1108,1105,1105,1105,1105,1101,1097,1094,1094,1090,1090,1090,1087,1084,1080,1080,1077,1077,1073,1073,1070,1070,1067,1067,1063,1063,1060,1060,1057,1054,1054,1050,1050,1050,1050,1047,1044,1044,1041,1038,1038,1038,1034,1034,1031,1028,1025,1025,1025,1022,1022,1019,1019,1016,1016,1013,1013,1010,1007,1007,1004,1004,1001,1001,1001,1001,998,995,992,992,992,989,989,989,984,981,981,978,978,978,978,975,975,973,973,970,967,967,967,964,962,959,959,959,959,956,956,956,0,0,0,0,0,0,0,0,0,0,0,0,0,0,0,0,0,0,0,0,0,0,0,0,0,0,0,0,0,0,0,0,0
0,0,0,0,0,0,0,0,0,0,0,0,0,0,1970,1970,1959,1959,1959,1959,1947,1936,1936,1936,1936,1926,1926,1926,1926,1926,1926,1915,1915,1915,1915,1915,1926,1915,1915,1915,1904,1904,1904,1904,1894,1894,1894,1894,1883,1883,1883,1883,1883,1883,1883,1883,1883,1873,1873,1873,1873,1873,1873,1873,1873,1873,1873,1873,1873,1863,1863,1853,1853,1843,1843,1843,1843,1843,1843,1843,1843,1843,1833,1833,1833,1833,1833,1833,1833,1823,1823,1823,1823,1823,1823,1823,1823,1813,1813,1804,1804,1804,1804,1804,1804,1794,1794,1794,1794,1794,1794,1785,1785,1785,1785,1776,1776,1776,1766,1766,1766,1766,1766,1766,1766,1766,1766,1766,1766,1757,1757,1757,1757,1757,1757,1748,1748,1748,1748,1748,1748,1748,1748,1748,1748,1757,1757,1757,1766,1766,1776,1776,1776,1883,1894,1894,1894,1883,1883,1883,1883,1883,1883,1883,1883,1894,1894,1894,1894,1731,1731,1731,1731,1731,1731,1731,1731,1731,1731,1731,1731,1739,1739,1739,1748,1748,1748,1748,1748,1748,1757,1757,1766,0,1097,1094,1094,1094,1090,1090,1087,1087,1084,1084,1084,1084,1080,1080,1084,1084,1087,1087,1090,1090,1094,1094,1094,1097,1097,1097,1097,0,0,0,0,0,1843,1843,1853,1853,1853,1853,1853,1863,1873,1873,1873,1873,1883,1883,1883,1883,1883,1883,1883,1883,1894,1904,1904,1904,1915,1915,1915,1915,1915,1915,1915,1926,1926,1926,1926,1915,1915,1915,1904,1904,1894,1894,1894,1883,1883,1873,1873,1873,0,0,0,0,0,0,0,0,0,851,851,849,847,845,845,843,843,841,841,839,837,833,833,831,831,831,831,831,833,833,833,835,835,837,839,839,843,845,845,845,845,845,845,845,845,0,0,0,0,0,0,0,1609,1609,1609,1601,1601,1594,1594,1586,1579,1579,1579,1572,1564,1564,1557,1550,1550,1543,1543,1536,1536,1529,1523,1523,1523,1523,1516,1516,1516,1509,1503,1496,1496,1489,1489,1483,1477,1477,1470,1470,1464,1464,1464,1458,1452,1452,1445,1445,1445,1439,1439,1433,1427,1421,1421,1415,1415,1415,1410,1404,1398,1398,1398,1392,1392,1392,1387,1381,1376,1376,1370,1370,1370,1365,1359,1359,1354,1354,1349,1349,1343,1338,1338,1333,1333,1333,1328,1328,1328,1322,1317,1312,1312,1312,1307,1302,1302,1297,1297,1292,1292,1292,1288,1288,1288,1278,1278,1278,1273,1273,1268,1268,1264,1264,1264,1259,1255,1255,1250,1245,1245,1241,1236,1236,1236,1232,1232,1227,1227,1223,1223,1219,1214,1214,1214,1214,1210,1206,1206,1202,1202,1202,1197,1189,1185,1185,1185,1185,1181,1181,1177,1173,1173,1173,1169,1169,1165,1161,1157,1157,1153,1153,1153,1149,1149,1149,1149,1145,1141,1138,1138,1134,1130,1126,1123,1123,1123,1119,1119,1119,1115,1112,1108,1108,1105,1105,1105,1105,1101,1097,1094,1094,1090,1090,1090,1087,1084,1080,1080,1077,1077,1073,1073,1070,1070,1067,1067,1063,1063,1060,1060,1057,1054,1054,1050,1050,1050,1050,1047,1047,1044,1041,1041,1038,1038,1034,1034,1034,1028,1028,1025,1025,1025,1022,1022,1019,1016,1016,1013,1013,1010,1010,1007,1004,1004,1004,1001,1001,1001,998,995,992,992,992,989,989,987,984,981,981,981,978,978,978,975,975,973,973,970,970,967,967,964,962,962,959,959,959,956,956,956,0,0,0,0,0,0,0,0,0,0,0,0,0,0,0,0,0,0,0,0,0,0,0,0,0,0,0,0,0,0,0,0,0
0,0,0,0,0,0,0,0,0,0,0,0,0,0,1970,1970,1959,1959,1959,1959,1947,1936,1936,1936,1936,1936,1936,1936,1926,1926,1926,1915,1915,1915,1915,1915,1926,1915,1904,1904,1904,1904,1904,1894,1894,1894,1894,1894,1894,1883,1883,1883,1883,1883,1883,1883,1883,1873,1873,1883,1883,1883,1873,1873,1873,1873,1873,1873,1873,1873,1863,1853,1853,1843,1843,1843,1843,1843,1843,1843,1843,1843,1833,1833,1833,1833,1833,1833,1833,1833,1833,1833,1833,1833,1823,1823,1823,1813,1813,1804,1804,1804,1804,1804,1804,1794,1794,1794,1794,1794,1794,1794,1794,1794,1785,1776,1776,1776,1766,1766,1766,1766,1766,1766,1766,1766,1766,1766,1766,1766,1766,1757,1757,1757,1757,1748,1748,1748,1748,1748,1748,1748,1748,1748,1748,1757,1757,1757,1766,1766,1776,1776,1776,1883,1894,1894,1894,1894,1894,1894,1883,1883,1883,1883,1894,1904,1904,1904,1904,1731,1731,1731,1731,1731,1731,1731,1731,1731,1731,1739,1739,1748,1748,1748,1748,1748,1757,1748,1748,1757,1757,1766,1766,0,1097,1097,1094,1090,1090,1090,1087,1087,1084,1084,1084,1084,1084,1084,1084,1084,1087,1087,1090,1090,1094,1097,1097,1101,1097,1097,1101,0,0,0,0,0,1853,1853,1853,1853,1863,1863,1863,1873,1873,1873,1873,1873,1883,1883,1883,1883,1883,1883,1883,1894,1894,1904,1904,1915,1915,1915,1915,1915,1915,1915,1915,1926,1926,1926,1926,1926,1915,1915,1904,1904,1894,1894,1894,1883,1883,1883,1873,1873,0,0,0,0,0,0,0,0,0,0,851,849,849,847,845,843,843,841,841,839,837,833,833,831,831,831,831,831,833,833,833,835,837,837,839,841,843,845,845,847,847,847,845,845,845,0,0,0,0,0,0,0,1609,1609,1609,1609,1601,1594,1594,1586,1579,1579,1579,1572,1572,1564,1557,1550,1550,1543,1543,1543,1536,1536,1529,1523,1523,1523,1516,1516,1516,1503,1503,1496,1496,1489,1489,1489,1483,1477,1470,1470,1464,1464,1464,1458,1452,1452,1445,1445,1445,1439,1439,1433,1427,1421,1421,1415,1415,1415,1410,1404,1398,1398,1398,1392,1392,1392,1387,1381,1376,1376,1376,1370,1370,1365,1365,1359,1359,1354,1354,1349,1343,1338,1338,1333,1333,1333,1333,1328,1328,1322,1322,1317,1312,1312,1307,1307,1302,1302,1297,1297,1292,1292,1292,1288,1288,1283,1278,1278,1273,1273,1268,1268,1264,1264,1264,1259,1255,1255,1255,1250,1245,1241,1241,1236,1236,1232,1232,1232,1227,1223,1223,1219,1214,1214,1214,1210,1210,1206,1206,1202,1202,1202,1197,1189,1185,1185,1185,1185,1181,1181,1181,1177,1173,1173,1169,1169,1165,1161,1161,1157,1153,1153,1153,1149,1149,1149,1149,1145,1141,1138,1138,1134,1130,1130,1126,1123,1123,1123,1119,1119,1115,1112,1108,1108,1105,1105,1105,1105,1101,1097,1094,1094,1090,1090,1090,1087,1084,1080,1080,1077,1077,1077,1073,1073,1070,1067,1067,1063,1063,1060,1060,1057,1054,1054,1054,1050,1050,1050,1047,1047,1044,1041,1041,1038,1038,1034,1034,1034,1028,1028,1028,1025,1025,1022,1022,1019,1016,1016,1013,1013,1010,1010,1007,1004,1004,1004,1001,1001,1001,998,995,992,992,992,989,989,987,987,984,981,981,981,978,978,975,975,973,973,970,970,967,967,967,962,962,959,959,959,959,956,956,0,0,0,0,0,0,0,0,0,0,0,0,0,0,0,0,0,0,0,0,0,0,0,0,0,0,0,0,0,0,0,0,0
0,0,0,0,0,0,0,0,0,0,0,0,0,0,1970,1970,1959,1959,1959,1959,1959,1947,1947,1936,1936,1936,1936,1936,1926,1926,1926,1926,1926,1915,1915,1915,1926,1915,1904,1904,1904,1904,1904,1894,1894,1894,1894,1894,1894,1883,1883,1894,1883,1883,1883,1883,1883,1873,1873,1873,1873,1873,1873,1873,1873,1873,1873,1873,1873,1873,1873,1863,1853,1853,1853,1843,1843,1843,1843,1843,1843,1843,1833,1833,1833,1833,1833,1833,1833,1833,1833,1833,1833,1823,1823,1813,1813,1813,1813,1804,1804,1804,1804,1804,1804,1794,1794,1794,1794,1794,1794,1794,1794,1794,1794,1776,1776,1776,1776,1766,1766,1766,1766,1766,1766,1766,1766,1766,1757,1757,1757,1757,1757,1757,1757,1748,1748,1748,1748,1748,1748,1748,1748,1748,1748,1757,1757,1766,1766,1766,1776,1776,1776,1883,1894,1894,1894,1894,1894,1894,1894,1894,1894,1894,1894,1904,1904,1904,1915,1731,1731,1731,1731,1731,1731,1731,1731,1731,1731,1739,1739,1748,1748,1748,1748,1748,1757,1748,1748,1757,1757,1757,1757,1766,1097,1097,1094,1090,1090,1090,1087,1087,1084,1084,1084,1084,1084,1084,1084,1087,1087,1087,1090,1090,1094,1097,1097,1101,1101,1101,1101,0,0,0,0,0,1853,1853,1853,1853,1863,1863,1863,1873,1873,1873,1873,1873,1883,1883,1883,1883,1883,1883,1883,1894,1894,1904,1904,1915,1915,1915,1915,1915,1915,1915,1915,1926,1926,1926,1926,1926,1926,1915,1915,1904,1904,1894,1894,1894,1883,1883,1873,1873,0,0,0,0,0,0,0,0,0,858,854,851,849,847,845,843,843,841,839,837,835,833,833,831,831,831,831,831,833,833,833,835,837,837,839,841,843,845,845,847,847,847,845,845,845,0,0,0,0,0,0,0,1616,1609,1609,1601,1601,1594,1594,1586,1579,1579,1579,1572,1572,1564,1557,1550,1550,1550,1543,1543,1536,1536,1529,1523,1523,1523,1516,1516,1509,1503,1503,1496,1496,1489,1489,1489,1483,1477,1470,1470,1470,1464,1464,1458,1452,1452,1445,1445,1445,1439,1439,1433,1427,1421,1421,1415,1415,1415,1410,1404,1398,1398,1398,1392,1392,1392,1387,1381,1376,1376,1376,1370,1370,1370,1365,1365,1359,1354,1349,1349,1343,1343,1338,1333,1333,1333,1333,1328,1328,1328,1322,1317,1312,1312,1312,1307,1307,1302,1297,1297,1292,1292,1292,1292,1288,1288,1283,1278,1273,1273,1273,1268,1264,1264,1264,1259,1255,1255,1250,1250,1245,1245,1241,1236,1236,1232,1232,1232,1227,1223,1223,1219,1214,1214,1214,1210,1210,1206,1206,1202,1202,1202,1197,1189,1189,1185,1185,1185,1181,1181,1181,1177,1177,1173,1169,1169,1165,1165,1161,1161,1157,1153,1153,1149,1149,1149,1149,1145,1141,1138,1138,1134,1134,1130,1126,1126,1123,1123,1119,1119,1115,1112,1112,1108,1105,1105,1105,1105,1101,1097,1094,1094,1094,1090,1090,1087,1084,1080,1080,1080,1077,1077,1077,1073,1070,1067,1067,1063,1063,1060,1060,1054,1054,1054,1054,1050,1050,1050,1050,1047,1044,1041,1041,1038,1038,1038,1034,1034,1031,1028,1028,1025,1025,1022,1022,1019,1016,1016,1013,1013,1010,1010,1007,1004,1004,1004,1001,1001,1001,998,995,992,992,992,992,989,989,987,984,981,981,981,978,978,975,975,975,973,973,970,967,967,967,962,962,962,959,959,959,956,956,0,0,0,0,0,0,0,0,0,0,0,0,0,0,0,0,0,0,0,0,0,0,0,0,0,0,0,0,0,0,0,0,0
0,0,0,0,0,0,0,0,0,0,0,0,0,0,1970,1970,1970,1970,1959,1959,1959,1947,1947,1936,1936,1936,1926,1926,1926,1926,1915,1915,1926,1915,1915,1926,1926,1915,1904,1904,1904,1904,1904,1904,1904,1904,1904,1894,1894,1894,1894,1894,1894,1883,1883,1883,1883,1873,1873,1873,1873,1873,1873,1873,1873,1873,1873,1873,1873,1873,1873,1863,1863,1853,1853,1843,1843,1843,1843,1843,1843,1843,1843,1843,1843,1833,1833,1833,1833,1833,1833,1833,1833,1823,1823,1813,1813,1813,1813,1804,1804,1804,1804,1804,1804,1794,1794,1794,1794,1794,1794,1794,1794,1794,1794,1776,1776,1776,1776,1776,1766,1766,1766,1766,1766,1766,1766,1766,1757,1757,1757,1757,1757,1757,1757,1757,1757,1748,1748,1748,1748,1748,1748,1748,1748,1757,1757,1766,1766,1766,1766,1776,1776,1894,1904,1904,1894,1894,1894,1894,1894,1894,1894,1894,1894,1904,1904,1904,1915,1731,1731,1731,1731,1731,1731,1731,1731,1731,1731,1739,1739,1748,1748,1748,1748,1757,1757,1757,1757,1757,1757,1757,1766,0,1094,1094,1094,1090,1090,1090,1087,1087,1084,1084,1084,1084,1084,1084,1084,1087,1087,1087,1090,1094,1094,1097,1097,1101,1101,1101,1101,1101,0,0,0,0,1863,1853,1853,1853,1863,1863,1873,1873,1873,1873,1873,1883,1883,1883,1883,1883,1883,1883,1883,1894,1904,1904,1915,1915,1915,1915,1915,1915,1915,1915,1926,1926,1926,1926,1926,1926,1926,1915,1915,1904,1904,1894,1894,1883,1883,1883,1873,1873,0,0,0,0,0,0,0,0,0,858,854,851,849,847,845,843,843,841,839,837,833,833,833,833,831,831,831,833,833,833,835,835,839,839,841,841,845,845,845,847,847,847,849,847,847,0,0,0,0,0,0,0,1616,1609,1609,1601,1601,1601,1594,1586,1579,1579,1579,1572,1572,1564,1557,1557,1550,1550,1543,1543,1543,1536,1529,1523,1523,1523,1516,1516,1509,1503,1503,1496,1496,1489,1489,1489,1483,1477,1477,1470,1470,1464,1464,1458,1458,1452,1445,1445,1445,1439,1439,1433,1427,1427,1421,1421,1415,1415,1410,1404,1398,1398,1398,1392,1392,1392,1392,1381,1376,1376,1376,1370,1370,1370,1365,1365,1359,1354,1349,1349,1343,1343,1338,1333,1333,1333,1333,1328,1328,1322,1322,1317,1312,1312,1312,1307,1307,1302,1297,1297,1292,1292,1292,1292,1288,1288,1288,1283,1278,1278,1273,1268,1268,1268,1264,1259,1255,1255,1250,1250,1250,1245,1241,1236,1236,1232,1232,1232,1227,1223,1223,1219,1214,1214,1214,1210,1210,1210,1206,1206,1202,1202,1197,1193,1189,1185,1185,1185,1185,1181,1181,1177,1177,1173,1169,1169,1165,1165,1161,1161,1157,1153,1153,1149,1149,1149,1149,1145,1141,1141,1138,1138,1134,1134,1130,1126,1123,1123,1119,1119,1115,1115,1112,1112,1105,1105,1105,1105,1101,1097,1097,1094,1094,1090,1090,1087,1087,1084,1080,1080,1080,1077,1077,1073,1070,1070,1067,1067,1063,1063,1060,1054,1054,1054,1054,1054,1050,1050,1050,1047,1044,1041,1041,1038,1038,1038,1034,1031,1031,1028,1028,1028,1025,1022,1022,1019,1016,1016,1016,1013,1013,1010,1007,1007,1004,1004,1001,1001,1001,998,995,992,992,992,992,989,989,987,984,984,981,981,978,978,975,975,975,975,973,970,967,967,967,962,962,962,959,959,959,956,956,0,0,0,0,0,0,0,0,0,0,0,0,0,0,0,0,0,0,0,0,0,0,0,0,0,0,0,0,0,0,0,0,0
0,0,0,0,0,0,0,0,0,0,0,0,0,0,1970,1970,1970,1970,1959,1959,1947,1947,1947,1936,1936,1936,1926,1926,1926,1926,1915,1915,1926,1915,1915,1926,1915,1915,1904,1904,1904,1904,1904,1904,1904,1904,1904,1904,1894,1894,1894,1894,1894,1894,1883,1883,1883,1883,1883,1883,1873,1873,1873,1873,1873,1873,1873,1873,1873,1873,1873,1873,1873,1863,1853,1843,1843,1843,1843,1843,1843,1843,1843,1843,1843,1843,1833,1833,1833,1833,1833,1833,1833,1823,1823,1823,1823,1813,1813,1804,1804,1804,1804,1804,1804,1804,1804,1804,1804,1794,1794,1794,1794,1794,1794,1785,1785,1776,1776,1776,1776,1766,1766,1766,1766,1766,1766,1766,1766,1757,1757,1757,1757,1757,1757,1757,1757,1757,1748,1748,1748,1748,1748,1748,1748,1757,1766,1766,1766,1766,1766,1766,1766,1904,1904,1904,1904,1904,1904,1894,1894,1894,1894,1894,1904,1904,1904,1904,1915,1731,1731,1731,1731,1731,1731,1731,1731,1731,1731,1739,1748,1748,1748,1757,1757,1757,1757,1757,1757,1757,1757,1766,1766,0,1094,1094,1094,1090,1090,1090,1087,1087,1084,1084,1084,1084,1084,1084,1084,1087,1087,1090,1090,1094,1094,1097,1097,1101,1101,1101,1101,1101,0,0,0,0,0,1853,1853,1853,1863,1863,1873,1873,1873,1873,1873,1883,1883,1883,1883,1883,1883,1894,1894,1894,1904,1904,1915,1915,1915,1915,1915,1915,1915,1926,1926,1926,1926,1926,1926,1926,1926,1915,1915,1904,1904,1894,1894,1883,1883,1883,1873,1873,0,0,0,0,0,0,0,0,0,858,854,851,849,847,845,843,843,841,839,837,833,833,833,833,833,833,833,833,833,833,835,835,839,841,841,841,845,845,847,847,847,849,849,849,0,0,0,0,0,0,0,1624,1616,1609,1609,1601,1601,1601,1594,1586,1579,1579,1579,1572,1572,1564,1564,1557,1550,1550,1543,1543,1543,1536,1529,1529,1523,1523,1516,1516,1516,1503,1503,1496,1496,1489,1489,1489,1483,1477,1477,1470,1470,1464,1464,1458,1458,1452,1445,1445,1445,1439,1439,1433,1427,1427,1421,1421,1415,1415,1410,1404,1398,1398,1398,1392,1392,1392,1392,1381,1381,1376,1376,1370,1370,1370,1370,1365,1359,1354,1354,1349,1343,1343,1338,1333,1333,1333,1333,1328,1328,1322,1322,1317,1312,1312,1312,1307,1307,1307,1302,1297,1297,1292,1292,1292,1288,1288,1288,1283,1278,1278,1273,1273,1268,1268,1264,1259,1255,1255,1250,1250,1250,1245,1241,1236,1236,1232,1232,1232,1227,1223,1223,1219,1214,1214,1214,1210,1210,1210,1206,1206,1202,1202,1197,1197,1189,1189,1185,1185,1185,1181,1181,1177,1177,1173,1169,1169,1165,1165,1165,1161,1157,1157,1153,1149,1149,1149,1149,1145,1141,1141,1138,1138,1134,1134,1134,1130,1123,1123,1123,1119,1119,1115,1112,1112,1108,1105,1105,1105,1101,1097,1097,1094,1094,1090,1090,1090,1087,1084,1080,1080,1080,1077,1077,1073,1070,1070,1067,1067,1063,1063,1063,1057,1057,1054,1054,1054,1050,1050,1050,1047,1044,1041,1041,1038,1038,1038,1034,1031,1031,1028,1028,1028,1025,1025,1022,1019,1016,1016,1016,1013,1013,1010,1007,1007,1004,1004,1001,1001,1001,1001,995,995,992,992,992,989,989,987,984,984,981,981,978,978,978,975,975,975,973,970,970,967,967,962,962,962,959,959,959,956,956,0,0,0,0,0,0,0,0,0,0,0,0,0,0,0,0,0,0,0,0,0,0,0,0,0,0,0,0,0,0,0,0,0
0,0,0,0,0,0,0,0,0,0,0,0,0,0,1970,1970,1970,1959,1959,1959,1947,1947,1947,1936,1936,1936,1926,1926,1926,1926,1926,1926,1926,1926,1926,1926,1915,1915,1904,1904,1915,1915,1904,1904,1904,1904,1904,1904,1904,1904,1904,1904,1904,1894,1883,1883,1883,1883,1883,1883,1883,1883,1873,1873,1883,1873,1873,1873,1873,1873,1873,1873,1873,1863,1853,1853,1853,1853,1843,1843,1843,1843,1843,1843,1843,1843,1843,1833,1833,1833,1833,1833,1833,1823,1823,1813,1813,1813,1813,1813,1804,1804,1804,1804,1804,1804,1804,1804,1804,1794,1794,1794,1794,1794,1794,1785,1785,1785,1776,1776,1776,1776,1776,1766,1766,1766,1766,1766,1766,1757,1757,1757,1757,1757,1757,1757,1757,1757,1748,1748,1748,1748,1748,1748,1757,1757,1757,1766,1766,1766,1766,1766,1766,1915,1915,1915,1904,1904,1904,1904,1904,1904,1904,1904,1904,1904,1904,1904,1915,1731,1731,1731,1731,1731,1731,1731,1731,1739,1739,1739,1748,1757,1757,1757,1757,1757,1757,1757,1757,1757,1766,1766,1766,1766,1094,1094,1094,1094,1094,1090,1087,1087,1084,1084,1084,1084,1084,1084,1084,1087,1087,1090,1090,1094,1097,1097,1101,1101,1101,1101,1101,1101,0,0,0,0,0,1853,1853,1853,1863,1863,1873,1873,1873,1873,1873,1883,1883,1883,1883,1883,1883,1894,1894,1894,1904,1915,1915,1915,1915,1915,1915,1915,1915,1926,1926,1926,1926,1936,1936,1926,1926,1926,1915,1904,1904,1894,1894,1883,1883,1883,1883,0,0,0,0,0,0,0,0,0,0,858,858,851,849,847,845,843,843,841,839,837,835,833,833,833,833,833,833,833,835,835,835,837,839,841,841,841,845,845,847,849,849,849,851,851,0,0,0,0,0,0,0,1624,1616,1616,1609,1601,1601,1601,1594,1586,1579,1579,1579,1572,1572,1572,1564,1557,1550,1550,1543,1543,1543,1536,1536,1529,1523,1523,1523,1516,1509,1509,1503,1496,1496,1489,1489,1489,1483,1477,1477,1470,1470,1464,1464,1458,1458,1452,1445,1445,1445,1439,1439,1433,1427,1427,1421,1421,1415,1415,1415,1404,1398,1398,1398,1398,1392,1392,1392,1381,1381,1376,1376,1376,1370,1370,1370,1365,1365,1354,1354,1349,1349,1343,1338,1338,1333,1333,1333,1328,1328,1328,1322,1317,1317,1312,1312,1307,1307,1307,1302,1302,1297,1292,1292,1288,1288,1288,1288,1283,1278,1278,1273,1273,1268,1268,1264,1259,1255,1255,1250,1250,1250,1245,1241,1236,1236,1232,1232,1232,1227,1223,1223,1219,1219,1214,1214,1210,1210,1210,1206,1206,1202,1202,1197,1197,1189,1189,1185,1185,1185,1181,1181,1181,1177,1173,1173,1169,1165,1165,1165,1161,1157,1157,1153,1149,1149,1149,1149,1145,1141,1141,1138,1138,1134,1134,1134,1130,1123,1123,1123,1119,1119,1119,1115,1112,1108,1108,1105,1105,1105,1101,1097,1097,1094,1094,1090,1090,1087,1084,1080,1080,1080,1077,1077,1073,1073,1070,1070,1067,1067,1063,1063,1057,1057,1054,1054,1054,1050,1050,1050,1047,1044,1041,1041,1038,1038,1038,1034,1034,1031,1028,1028,1028,1025,1025,1022,1019,1016,1016,1016,1013,1013,1010,1007,1007,1004,1004,1004,1001,1001,1001,995,995,992,992,992,989,989,989,987,984,984,981,981,978,978,978,975,975,973,970,970,967,967,964,962,962,962,959,959,956,956,0,0,0,0,0,0,0,0,0,0,0,0,0,0,0,0,0,0,0,0,0,0,0,0,0,0,0,0,0,0,0,0,0
0,0,0,0,0,0,0,0,0,0,0,0,0,0,1970,1970,1970,1959,1959,1959,1947,1947,1947,1936,1936,1936,1936,1926,1926,1926,1926,1926,1926,1926,1926,1926,1915,1915,1915,1915,1915,1915,1915,1904,1904,1904,1915,1904,1904,1904,1904,1904,1904,1904,1894,1883,1883,1883,1883,1883,1883,1883,1883,1883,1883,1873,1873,1873,1873,1873,1873,1873,1873,1873,1863,1853,1853,1853,1853,1853,1843,1843,1843,1843,1843,1843,1843,1833,1833,1833,1833,1833,1833,1823,1823,1813,1813,1813,1813,1813,1804,1804,1804,1804,1804,1804,1804,1804,1804,1804,1804,1804,1794,1794,1794,1785,1785,1785,1776,1776,1776,1776,1776,1776,1776,1766,1766,1766,1766,1757,1757,1757,1757,1757,1757,1757,1757,1757,1748,1748,1748,1748,1748,1748,1757,1757,1757,1766,1766,1766,1766,1766,1766,1766,1915,1915,1915,1915,1904,1904,1904,1904,1904,1904,1904,1904,1904,1915,1915,1731,1731,1731,1731,1731,1731,1731,1731,1739,1739,1739,1748,1757,1757,1757,1757,1757,1757,1766,1766,1766,1766,1766,1766,1766,1097,1097,1094,1094,1094,1090,1087,1087,1084,1084,1084,1084,1084,1084,1084,1087,1087,1090,1090,1094,1097,1097,1101,1101,1101,1101,1101,1101,0,0,0,0,0,1853,1853,1863,1863,1873,1873,1873,1873,1873,1873,1883,1883,1883,1883,1894,1894,1894,1894,1894,1904,1915,1915,1915,1915,1915,1915,1915,1926,1926,1926,1926,1926,1936,1936,1926,1926,1926,1915,1904,1904,1904,1894,1883,1883,1883,1883,0,0,0,0,0,0,0,0,0,0,0,851,851,849,847,845,843,843,841,839,837,835,833,833,833,833,833,833,835,835,835,837,839,839,841,841,843,845,845,847,849,849,849,851,851,0,0,0,0,0,0,0,1616,1616,1609,1609,1601,1601,1601,1594,1586,1586,1579,1579,1572,1572,1572,1564,1557,1550,1550,1543,1543,1543,1536,1536,1529,1523,1523,1523,1516,1509,1509,1503,1496,1496,1489,1489,1489,1489,1483,1477,1477,1470,1464,1464,1464,1458,1452,1445,1445,1445,1439,1439,1433,1433,1427,1421,1421,1415,1415,1415,1404,1398,1398,1398,1398,1392,1392,1392,1381,1381,1376,1376,1376,1370,1370,1370,1365,1365,1354,1354,1349,1349,1343,1343,1338,1333,1333,1333,1328,1328,1328,1322,1317,1317,1312,1312,1307,1307,1307,1302,1302,1297,1292,1292,1288,1288,1288,1288,1283,1278,1278,1273,1273,1268,1268,1264,1259,1259,1255,1250,1250,1250,1245,1241,1241,1236,1236,1232,1232,1227,1227,1223,1219,1219,1214,1214,1214,1210,1210,1206,1206,1202,1202,1197,1197,1189,1189,1185,1185,1185,1181,1181,1181,1177,1173,1173,1169,1165,1165,1165,1161,1161,1157,1153,1149,1149,1149,1149,1145,1141,1141,1138,1138,1134,1134,1134,1130,1126,1123,1123,1123,1119,1119,1119,1115,1108,1108,1105,1105,1105,1101,1097,1097,1094,1094,1090,1090,1090,1084,1084,1080,1080,1077,1077,1077,1073,1070,1070,1067,1067,1063,1060,1057,1057,1054,1054,1054,1050,1050,1050,1047,1044,1041,1041,1041,1038,1038,1034,1034,1031,1028,1028,1028,1025,1025,1022,1019,1016,1016,1016,1013,1013,1010,1010,1007,1007,1004,1004,1001,1001,1001,995,995,995,992,992,989,989,989,987,984,984,981,981,978,978,978,975,975,973,973,970,970,967,964,964,962,962,959,959,956,956,0,0,0,0,0,0,0,0,0,0,0,0,0,0,0,0,0,0,0,0,0,0,0,0,0,0,0,0,0,0,0,0,0
0,0,0,0,0,0,0,0,0,0,0,0,0,0,1959,1959,1959,1959,1959,1959,1959,1947,1947,1936,1936,1936,1936,1926,1926,1926,1926,1926,1926,1926,1926,1926,1915,1915,1915,1915,1915,1915,1915,1915,1915,1915,1915,1915,1915,1904,1904,1904,1904,1904,1894,1883,1883,1883,1883,1883,1883,1883,1883,1883,1883,1883,1883,1873,1873,1873,1873,1873,1873,1873,1863,1863,1863,1863,1853,1853,1853,1853,1853,1853,1843,1843,1843,1843,1833,1833,1833,1833,1833,1823,1823,1823,1823,1823,1813,1813,1813,1813,1804,1804,1804,1804,1804,1804,1804,1804,1804,1804,1804,1794,1794,1785,1785,1785,1785,1776,1776,1776,1776,1776,1776,1766,1766,1766,1766,1766,1766,1757,1757,1757,1757,1757,1757,1757,1757,1757,1757,1757,1748,1748,1757,1757,1757,1766,1766,1766,1766,1766,1766,1766,1915,1915,1915,1915,1915,1904,1904,1904,1904,1904,1904,1904,1904,1915,1915,1731,1731,1731,1731,1731,1731,1731,1739,1739,1739,1748,1748,1757,1757,1757,1757,1757,1766,1766,1766,1766,1766,1766,1766,1766,1097,1097,1094,1094,1094,1090,1090,1087,1084,1084,1084,1084,1084,1084,1087,1087,1090,1090,1094,1094,1097,1097,1101,1101,1101,1101,1101,1101,0,0,0,0,0,1863,1863,1863,1873,1873,1873,1873,1873,1873,1873,1883,1883,1883,1883,1894,1894,1894,1904,1904,1904,1915,1915,1915,1915,1915,1915,1915,1926,1926,1926,1926,1936,1936,1936,1926,1926,1926,1915,1915,1904,1904,1894,1883,1883,1883,1883,0,0,0,0,0,0,0,0,0,0,0,851,851,849,849,847,843,843,841,839,835,835,833,833,833,833,833,835,835,835,837,837,839,839,841,841,843,847,847,849,849,849,851,851,854,0,0,0,0,0,0,0,1616,1616,1609,1609,1601,1601,1601,1594,1586,1586,1579,1579,1572,1572,1572,1564,1557,1550,1550,1543,1543,1543,1543,1536,1529,1523,1523,1523,1516,1509,1509,1503,1496,1496,1496,1489,1489,1489,1483,1477,1477,1470,1470,1464,1464,1464,1458,1452,1445,1445,1439,1439,1433,1433,1427,1421,1421,1421,1415,1415,1410,1404,1398,1398,1398,1392,1392,1392,1387,1381,1376,1376,1376,1370,1370,1370,1370,1365,1354,1354,1349,1349,1349,1343,1338,1338,1333,1333,1333,1328,1322,1322,1317,1317,1312,1312,1312,1307,1307,1307,1302,1302,1297,1292,1292,1288,1288,1288,1283,1283,1278,1273,1273,1268,1268,1264,1259,1259,1255,1255,1250,1250,1250,1245,1241,1241,1236,1236,1232,1227,1227,1223,1219,1219,1219,1214,1214,1210,1210,1210,1206,1202,1202,1197,1197,1197,1189,1185,1185,1185,1181,1181,1181,1177,1173,1169,1169,1169,1165,1165,1165,1161,1157,1153,1149,1149,1149,1149,1145,1145,1141,1138,1138,1134,1134,1134,1126,1123,1123,1123,1119,1119,1119,1119,1115,1108,1108,1105,1105,1105,1101,1101,1097,1094,1094,1090,1090,1090,1084,1084,1080,1080,1080,1077,1077,1073,1070,1070,1067,1067,1063,1060,1057,1057,1057,1054,1054,1050,1050,1050,1047,1044,1044,1041,1041,1038,1038,1034,1034,1031,1028,1028,1028,1025,1025,1022,1022,1016,1016,1016,1013,1013,1010,1010,1007,1007,1004,1004,1001,1001,1001,998,995,995,992,992,989,989,989,987,987,984,984,981,978,978,978,975,975,973,973,970,970,967,967,964,964,962,959,959,956,956,0,0,0,0,0,0,0,0,0,0,0,0,0,0,0,0,0,0,0,0,0,0,0,0,0,0,0,0,0,0,0,0,0
0,0,0,0,0,0,0,0,0,0,0,0,0,0,1959,1959,1959,1959,1959,1959,1959,1947,1947,1936,1936,1936,1936,1936,1936,1936,1936,1936,1926,1926,1926,1926,1915,1915,1915,1915,1915,1915,1915,1915,1915,1915,1915,1915,1915,1915,1915,1915,1915,1904,1904,1894,1883,1883,1883,1883,1883,1883,1883,1883,1883,1883,1883,1873,1873,1873,1873,1873,1873,1873,1873,1863,1863,1863,1853,1853,1853,1853,1853,1853,1843,1843,1843,1843,1843,1833,1833,1833,1833,1833,1833,1823,1823,1823,1823,1813,1813,1813,1804,1804,1804,1804,1804,1804,1804,1804,1804,1804,1804,1794,1794,1785,1785,1785,1785,1785,1785,1785,1785,1785,1776,1776,1776,1766,1766,1766,1766,1757,1757,1757,1757,1757,1757,1757,1757,1757,1757,1757,1748,1748,1757,1757,1757,1766,1766,1766,1766,1766,1766,1915,1915,1915,1915,1915,1915,1904,1904,1904,1904,1904,1904,1904,1904,1915,1915,1731,1731,1731,1731,1731,1731,1731,1739,1739,1739,1748,1748,1757,1757,1757,1757,1766,1766,1766,1766,1766,1766,1766,1766,1766,1097,1097,1097,1094,1094,1090,1090,1087,1087,1084,1084,1084,1084,1087,1087,1087,1090,1090,1094,1094,1097,1097,1101,1101,1101,1101,1101,1101,0,0,0,0,0,1863,1863,1863,1873,1873,1873,1873,1873,1873,1873,1883,1883,1883,1883,1894,1894,1904,1904,1904,1904,1915,1915,1915,1915,1915,1915,1915,1926,1926,1926,1926,1936,1936,1936,1926,1926,1926,1915,1915,1915,1904,1894,1894,1883,1883,0,0,0,0,0,0,0,0,0,0,0,0,851,851,849,849,847,845,843,841,839,835,835,835,835,833,833,835,835,835,835,837,837,839,841,841,843,843,847,849,851,851,851,851,854,854,0,0,0,0,0,0,0,1616,1616,1609,1609,1601,1601,1601,1594,1594,1586,1586,1579,1579,1572,1572,1564,1557,1550,1550,1550,1543,1543,1536,1536,1529,1523,1523,1523,1516,1509,1509,1503,1496,1496,1496,1496,1489,1489,1483,1483,1477,1470,1470,1464,1464,1464,1458,1452,1445,1445,1439,1439,1433,1433,1427,1421,1421,1421,1415,1415,1410,1404,1398,1398,1398,1392,1392,1392,1387,1381,1381,1376,1376,1370,1370,1370,1370,1365,1359,1354,1354,1349,1349,1349,1343,1338,1333,1333,1333,1328,1322,1322,1317,1317,1312,1312,1312,1307,1307,1307,1302,1302,1297,1292,1292,1288,1288,1288,1283,1283,1278,1273,1273,1268,1268,1264,1264,1259,1255,1255,1250,1250,1250,1245,1245,1241,1236,1236,1232,1232,1227,1223,1219,1219,1219,1214,1214,1210,1210,1210,1206,1202,1202,1197,1197,1197,1189,1189,1185,1185,1185,1181,1181,1181,1177,1169,1169,1169,1165,1165,1165,1161,1157,1153,1153,1149,1149,1149,1145,1145,1141,1138,1138,1134,1134,1134,1126,1123,1123,1123,1119,1119,1119,1119,1115,1108,1108,1108,1105,1105,1101,1101,1101,1097,1094,1094,1090,1090,1084,1084,1080,1080,1080,1077,1077,1073,1070,1070,1067,1067,1063,1063,1060,1060,1057,1054,1054,1054,1050,1050,1047,1044,1044,1041,1041,1038,1038,1034,1034,1031,1028,1028,1028,1025,1025,1022,1022,1019,1016,1016,1013,1013,1013,1010,1010,1007,1004,1004,1001,1001,1001,998,998,995,992,992,989,989,989,989,987,987,984,981,981,978,978,975,975,973,973,970,970,967,967,964,964,962,959,959,956,956,0,0,0,0,0,0,0,0,0,0,0,0,0,0,0,0,0,0,0,0,0,0,0,0,0,0,0,0,0,0,0,0,0
0,0,0,0,0,0,0,0,0,0,0,0,0,0,1959,1959,1959,1959,1959,1959,1959,1947,1947,1947,1936,1936,1936,1936,1936,1936,1936,1936,1936,1936,1936,1936,1926,1915,1915,1915,1915,1915,1915,1915,1915,1915,1915,1915,1915,1915,1915,1915,1915,1915,1904,1894,1894,1883,1883,1883,1883,1883,1883,1883,1883,1883,1883,1873,1873,1873,1873,1873,1873,1873,1873,1863,1863,1863,1853,1853,1853,1853,1853,1853,1853,1843,1843,1843,1843,1833,1833,1833,1833,1833,1833,1833,1833,1823,1823,1823,1813,1813,1813,1813,1813,1804,1804,1804,1804,1804,1804,1804,1804,1794,1794,1785,1785,1785,1785,1785,1785,1785,1785,1785,1785,1776,1776,1766,1766,1766,1766,1766,1766,1766,1766,1766,1766,1757,1757,1757,1757,1757,1757,1757,1757,1757,1766,1766,1766,1766,1766,1776,1776,1776,1915,1915,1915,1915,1915,1915,1904,1904,1904,1904,1904,1904,1904,1915,1915,1731,1731,1731,1731,1731,1739,1739,1739,1739,1739,1748,1757,1757,1757,1757,1757,1766,1757,1757,1757,1757,1757,1766,1766,1097,1097,1097,1097,1097,1094,1094,1090,1087,1087,1084,1084,1087,1087,1087,1087,1090,1090,1090,1094,1094,1097,1097,1101,1101,1101,1101,1097,1097,0,0,0,0,0,1863,1863,1863,1873,1873,1873,1873,1873,1883,1883,1883,1883,1883,1894,1894,1894,1904,1904,1904,1915,1915,1915,1915,1915,1915,1915,1926,1926,1926,1926,1926,1936,1936,1936,1926,1926,1926,1915,1915,1915,1915,1894,1894,1883,1883,0,0,0,0,0,0,0,0,0,0,0,849,849,851,849,849,847,845,843,841,839,835,835,835,835,835,835,835,835,835,837,837,839,839,841,843,843,845,849,849,851,851,851,851,854,854,0,0,0,0,0,0,1624,1616,1616,1616,1609,1609,1601,1601,1594,1594,1586,1586,1579,1579,1572,1572,1564,1557,1550,1550,1550,1543,1543,1536,1536,1529,1523,1523,1523,1516,1509,1509,1503,1503,1496,1496,1496,1489,1489,1489,1483,1477,1470,1470,1464,1464,1464,1458,1452,1452,1445,1439,1439,1433,1433,1427,1421,1421,1421,1415,1415,1410,1404,1404,1398,1398,1398,1392,1392,1387,1381,1381,1376,1376,1376,1370,1370,1370,1365,1359,1354,1354,1349,1349,1349,1343,1343,1338,1333,1333,1328,1322,1322,1317,1317,1312,1312,1312,1307,1307,1307,1302,1302,1297,1292,1292,1288,1288,1288,1288,1283,1278,1273,1273,1268,1268,1268,1264,1259,1255,1255,1255,1250,1250,1245,1241,1241,1236,1236,1236,1232,1227,1223,1223,1219,1219,1219,1214,1214,1210,1210,1206,1206,1202,1202,1202,1197,1193,1189,1189,1185,1185,1181,1181,1181,1177,1169,1169,1169,1165,1165,1165,1161,1157,1157,1153,1149,1149,1149,1145,1145,1141,1141,1138,1134,1134,1130,1126,1123,1123,1123,1119,1119,1119,1119,1115,1108,1108,1108,1105,1105,1105,1101,1101,1097,1097,1094,1090,1090,1084,1084,1080,1080,1080,1077,1077,1073,1073,1070,1070,1067,1063,1063,1060,1060,1060,1057,1054,1054,1050,1050,1047,1047,1044,1041,1041,1038,1038,1034,1034,1031,1028,1028,1028,1025,1025,1022,1022,1019,1016,1016,1013,1013,1013,1010,1010,1007,1007,1004,1001,1001,1001,998,998,995,992,992,992,989,989,989,987,987,984,984,981,978,978,975,975,973,973,970,970,970,967,967,964,962,959,959,956,956,0,0,0,0,0,0,0,0,0,0,0,0,0,0,0,0,0,0,0,0,0,0,0,0,0,0,0,0,0,0,0,0,0
0,0,0,0,0,0,0,0,0,0,0,0,0,0,1959,1959,1959,1959,1959,1959,1959,1947,1947,1947,1947,1947,1936,1936,1936,1936,1936,1936,1936,1936,1936,1936,1926,1926,1915,1915,1915,1915,1915,1915,1915,1915,1915,1915,1915,1915,1915,1915,1915,1915,1904,1894,1894,1894,1894,1894,1883,1883,1883,1883,1883,1883,1883,1883,1883,1883,1883,1883,1873,1873,1873,1863,1863,1863,1853,1853,1853,1853,1863,1853,1853,1853,1853,1843,1843,1843,1843,1833,1833,1833,1833,1833,1833,1823,1823,1823,1823,1823,1813,1813,1813,1813,1813,1804,1804,1804,1804,1804,1804,1794,1794,1794,1794,1794,1785,1785,1785,1785,1785,1785,1776,1776,1776,1776,1766,1766,1766,1766,1766,1766,1766,1766,1766,1757,1757,1757,1757,1757,1757,1757,1757,1757,1766,1766,1766,1766,1766,1776,1776,1776,1915,1915,1915,1915,1904,1904,1904,1904,1904,1904,1904,1904,1904,1915,1915,1915,1739,1731,1731,1739,1739,1739,1739,1739,1748,1748,1757,1757,1757,1757,1757,1757,1757,1757,1757,1757,1757,1757,1757,1097,1097,1097,1097,1097,1094,1090,1090,1090,1087,1087,1087,1087,1087,1087,1087,1090,1090,1090,1094,1097,1097,1101,1101,1101,1101,1101,1097,1097,0,0,0,0,0,1863,1863,1873,1873,1873,1873,1873,1883,1883,1883,1883,1883,1883,1894,1894,1894,1904,1904,1904,1915,1915,1915,1915,1915,1915,1915,1926,1926,1926,1926,1926,1936,1936,1936,1926,1926,1926,1915,1915,1915,1915,1904,1894,1894,1894,0,0,0,0,0,0,0,0,0,0,0,849,849,851,849,849,847,845,843,841,839,835,835,835,835,835,835,835,835,835,837,837,839,841,841,843,845,847,849,851,851,851,851,851,854,0,0,0,0,0,0,0,1624,1624,1624,1616,1609,1609,1601,1601,1601,1594,1594,1586,1579,1579,1572,1572,1564,1557,1557,1550,1550,1543,1543,1543,1536,1536,1529,1523,1523,1516,1509,1509,1503,1503,1496,1496,1496,1496,1489,1489,1483,1477,1470,1470,1470,1464,1464,1458,1452,1452,1445,1445,1439,1433,1433,1427,1421,1421,1421,1415,1415,1410,1410,1404,1398,1398,1398,1392,1392,1387,1381,1381,1376,1376,1376,1370,1370,1370,1365,1365,1354,1354,1349,1349,1349,1343,1343,1338,1333,1333,1328,1322,1322,1322,1317,1312,1312,1312,1312,1307,1307,1307,1302,1297,1292,1292,1288,1288,1288,1288,1283,1278,1273,1273,1273,1268,1268,1264,1259,1259,1255,1255,1250,1250,1245,1241,1241,1236,1236,1236,1232,1232,1223,1223,1219,1219,1219,1214,1214,1210,1210,1206,1202,1202,1202,1197,1197,1193,1189,1189,1185,1185,1181,1181,1181,1177,1173,1169,1169,1165,1165,1165,1165,1161,1157,1153,1153,1149,1149,1145,1145,1141,1141,1138,1138,1134,1130,1126,1126,1123,1123,1119,1119,1119,1119,1115,1112,1108,1108,1105,1105,1105,1105,1101,1101,1097,1094,1090,1090,1084,1084,1080,1080,1080,1077,1077,1073,1073,1070,1070,1067,1063,1063,1060,1060,1060,1057,1054,1054,1050,1050,1047,1047,1044,1041,1041,1041,1038,1038,1034,1031,1028,1028,1028,1025,1025,1025,1022,1019,1016,1016,1016,1013,1013,1013,1010,1007,1007,1004,1004,1001,1001,998,998,995,992,992,992,989,989,989,987,987,984,984,981,978,978,978,975,975,973,970,970,970,967,967,964,962,959,959,959,959,0,0,0,0,0,0,0,0,0,0,0,0,0,0,0,0,0,0,0,0,0,0,0,0,0,0,0,0,0,0,0,0,0
0,0,0,0,0,0,0,0,0,0,0,0,0,0,1970,1970,1959,1959,1959,1959,1959,1959,1959,1959,1947,1947,1947,1936,1936,1936,1936,1936,1936,1936,1936,1936,1926,1926,1926,1926,1926,1915,1915,1915,1915,1915,1915,1915,1915,1915,1915,1915,1915,1915,1904,1894,1894,1894,1894,1894,1894,1894,1883,1883,1894,1894,1883,1883,1883,1883,1883,1873,1873,1873,1873,1873,1863,1863,1863,1863,1863,1863,1863,1853,1853,1853,1853,1843,1843,1843,1843,1833,1833,1833,1833,1833,1833,1833,1823,1823,1823,1823,1813,1813,1813,1813,1813,1813,1804,1804,1804,1804,1804,1794,1794,1794,1794,1794,1794,1785,1785,1785,1785,1785,1776,1776,1776,1776,1766,1766,1766,1766,1766,1766,1766,1766,1766,1766,1766,1757,1757,1757,1757,1757,1757,1757,1766,1766,1766,1766,1766,1776,1776,1776,1915,1915,1915,1915,1904,1904,1904,1904,1904,1904,1904,1904,1904,1915,1915,1915,1739,1739,1739,1739,1739,1739,1739,1739,1748,1748,1757,1757,1757,1757,1757,1757,1757,1757,1757,1757,1757,1757,1757,1097,1097,1097,1097,1097,1094,1090,1090,1090,1087,1087,1087,1087,1087,1087,1087,1090,1090,1090,1094,1097,1097,1101,1101,1101,1101,1101,1097,1097,0,0,0,0,1873,1863,1863,1873,1873,1873,1873,1873,1883,1883,1883,1883,1883,1894,1894,1894,1894,1904,1915,1915,1915,1915,1915,1915,1915,1915,1915,1926,1926,1926,1926,1936,1936,1936,1936,1926,1926,1926,1926,1915,1915,1915,1904,1894,1894,0,0,0,0,0,0,0,0,0,0,0,851,849,849,851,849,849,847,845,843,841,837,835,835,835,835,835,835,835,835,837,837,839,841,841,843,843,845,847,849,851,851,851,851,851,854,0,0,0,0,0,0,0,1624,1624,1624,1616,1609,1609,1601,1601,1601,1594,1594,1586,1579,1579,1572,1572,1564,1557,1557,1550,1550,1543,1543,1543,1536,1536,1529,1523,1523,1516,1516,1509,1509,1503,1496,1496,1496,1496,1489,1489,1483,1477,1470,1470,1470,1464,1464,1464,1458,1452,1452,1445,1439,1439,1433,1427,1421,1421,1421,1415,1415,1415,1410,1404,1404,1398,1398,1392,1392,1387,1381,1381,1376,1376,1376,1376,1370,1370,1370,1365,1354,1354,1349,1349,1349,1349,1343,1338,1333,1333,1328,1322,1322,1322,1317,1312,1312,1312,1312,1307,1307,1307,1302,1297,1292,1292,1288,1288,1288,1288,1283,1278,1278,1273,1273,1268,1268,1268,1259,1259,1259,1255,1255,1250,1245,1245,1241,1236,1236,1236,1232,1232,1227,1227,1223,1219,1219,1219,1214,1210,1210,1206,1202,1202,1202,1197,1197,1193,1193,1189,1185,1185,1181,1181,1181,1177,1177,1169,1169,1169,1165,1165,1165,1161,1157,1153,1153,1149,1149,1145,1145,1141,1141,1138,1138,1134,1134,1130,1126,1123,1123,1123,1119,1119,1119,1115,1112,1108,1108,1108,1105,1105,1105,1101,1097,1097,1094,1090,1090,1090,1084,1084,1080,1080,1080,1077,1077,1073,1070,1070,1067,1063,1063,1060,1060,1060,1057,1057,1054,1050,1050,1047,1047,1044,1041,1041,1041,1038,1038,1034,1034,1031,1028,1028,1025,1025,1025,1022,1019,1016,1016,1016,1013,1013,1013,1010,1007,1007,1007,1004,1004,1001,1001,998,995,992,992,992,989,989,989,987,987,984,984,981,978,978,978,975,975,973,970,970,970,967,967,964,962,959,959,959,959,0,0,0,0,0,0,0,0,0,0,0,0,0,0,0,0,0,0,0,0,0,0,0,0,0,0,0,0,0,0,0,0,0
0,0,0,0,0,0,0,0,0,0,0,0,0,0,1970,1970,1970,1970,1970,1970,1970,1970,1959,1959,1959,1959,1947,1947,1936,1936,1936,1936,1936,1936,1936,1936,1936,1926,1926,1926,1926,1915,1915,1926,1926,1915,1915,1915,1915,1915,1915,1915,1915,1915,1904,1904,1894,1894,1894,1894,1894,1894,1894,1894,1894,1894,1883,1883,1883,1883,1883,1873,1873,1873,1873,1873,1863,1863,1863,1863,1863,1863,1863,1853,1853,1853,1853,1843,1843,1843,1843,1843,1833,1833,1833,1833,1833,1833,1833,1833,1823,1823,1823,1813,1813,1813,1813,1813,1813,1813,1813,1804,1804,1804,1794,1794,1794,1794,1794,1794,1794,1785,1785,1785,1785,1785,1785,1776,1776,1766,1766,1766,1766,1766,1766,1766,1766,1766,1766,1757,1757,1757,1757,1757,1757,1757,1766,1766,1766,1766,1766,1776,1776,1776,1785,1915,1915,1904,1904,1904,1904,1904,1904,1904,1904,1904,1904,1915,1915,1915,1748,1739,1739,1739,1748,1748,1748,1748,1748,1748,1757,1757,1757,1757,1757,1757,1757,1757,1757,1757,1757,1757,1097,1097,1097,1097,1097,1097,1094,1090,1090,1090,1087,1087,1087,1087,1087,1087,1090,1090,1090,1090,1094,1097,1097,1101,1101,1101,1101,1101,1101,0,0,0,0,0,1873,1873,1873,1873,1873,1873,1873,1873,1883,1883,1883,1883,1883,1894,1894,1894,1904,1904,1915,1915,1915,1915,1915,1915,1915,1915,1926,1926,1926,1926,1926,1936,1936,1936,1936,1936,1926,1926,1926,1915,1915,1915,1904,1894,1894,0,0,0,0,0,0,0,0,0,0,0,851,851,851,851,851,849,849,845,843,841,837,835,835,835,835,835,835,835,835,837,837,839,841,841,843,843,845,847,851,851,851,851,851,851,854,0,0,0,0,0,0,0,1624,1624,1624,1616,1609,1609,1601,1601,1601,1601,1594,1594,1586,1579,1579,1572,1564,1564,1557,1550,1550,1543,1543,1543,1536,1536,1529,1529,1523,1516,1516,1509,1509,1503,1503,1496,1496,1496,1496,1489,1489,1483,1477,1470,1470,1470,1464,1464,1458,1458,1452,1445,1439,1439,1433,1427,1421,1421,1421,1421,1415,1415,1415,1410,1404,1398,1398,1398,1392,1387,1381,1381,1381,1376,1376,1376,1370,1370,1370,1365,1354,1354,1349,1349,1349,1349,1343,1338,1338,1333,1333,1322,1322,1322,1317,1312,1312,1312,1312,1307,1307,1307,1302,1292,1292,1292,1288,1288,1288,1288,1283,1278,1278,1273,1273,1268,1268,1264,1264,1259,1259,1255,1255,1250,1250,1245,1241,1241,1236,1236,1232,1232,1227,1227,1223,1219,1219,1219,1214,1214,1210,1206,1206,1202,1202,1197,1197,1193,1193,1189,1185,1185,1181,1181,1181,1177,1177,1173,1169,1169,1169,1165,1165,1161,1161,1157,1153,1153,1149,1145,1145,1141,1141,1138,1138,1134,1134,1130,1126,1126,1123,1123,1123,1119,1119,1115,1112,1112,1108,1108,1105,1105,1105,1101,1097,1097,1094,1090,1090,1090,1087,1084,1084,1080,1080,1077,1077,1077,1073,1070,1067,1063,1063,1060,1060,1060,1060,1057,1054,1054,1050,1047,1047,1044,1044,1041,1041,1038,1038,1038,1034,1031,1028,1028,1025,1025,1025,1022,1019,1019,1016,1016,1016,1013,1013,1013,1010,1007,1007,1004,1004,1004,1001,998,998,992,992,992,992,989,989,987,987,984,984,981,978,978,978,975,975,973,970,970,970,967,967,964,962,959,959,959,959,0,0,0,0,0,0,0,0,0,0,0,0,0,0,0,0,0,0,0,0,0,0,0,0,0,0,0,0,0,0,0,0,0
0,0,0,0,0,0,0,0,0,0,0,0,0,0,1970,1970,1970,1970,1970,1970,1970,1970,1970,1970,1959,1959,1947,1947,1936,1936,1936,1936,1936,1936,1936,1936,1936,1926,1926,1926,1926,1926,1926,1926,1926,1926,1926,1915,1915,1915,1915,1915,1915,1915,1904,1904,1904,1904,1904,1904,1894,1894,1894,1894,1894,1894,1883,1883,1883,1883,1883,1883,1873,1873,1873,1873,1863,1863,1863,1863,1863,1863,1863,1853,1853,1853,1853,1843,1843,1843,1843,1843,1833,1833,1833,1833,1833,1833,1833,1833,1833,1833,1823,1823,1823,1813,1813,1813,1813,1813,1813,1804,1804,1804,1804,1794,1794,1794,1794,1794,1794,1794,1794,1785,1785,1785,1785,1776,1766,1766,1766,1766,1766,1766,1766,1766,1766,1766,1766,1757,1757,1757,1757,1757,1757,1757,1766,1766,1766,1766,1776,1776,1776,1776,1776,1915,1915,1904,1904,1904,1904,1904,1904,1904,1904,1904,1904,1915,1915,1915,1748,1748,1748,1748,1748,1748,1739,1739,1748,1748,1757,1757,1757,1757,1757,1757,1757,1757,1757,1757,1757,1766,1105,1097,1097,1097,1097,1094,1090,1090,1090,1087,1087,1087,1087,1087,1087,1087,1090,1090,1090,1094,1094,1097,1097,1101,1101,1105,1101,1101,1101,0,0,0,0,0,1883,1873,1873,1873,1873,1873,1873,1873,1883,1883,1883,1883,1894,1894,1894,1894,1904,1915,1915,1915,1915,1915,1915,1915,1915,1915,1926,1926,1926,1926,1926,1936,1936,1936,1936,1936,1936,1926,1926,1926,1915,1915,1904,1894,1894,0,0,0,0,0,0,0,0,0,867,864,851,851,851,851,849,849,847,845,843,841,837,837,835,835,835,835,835,835,835,837,839,839,841,843,843,845,847,849,851,851,851,851,851,851,854,0,0,0,0,0,0,0,1632,1624,1624,1616,1609,1609,1609,1601,1601,1601,1594,1594,1586,1579,1579,1579,1572,1564,1557,1550,1550,1543,1543,1543,1536,1536,1529,1529,1523,1516,1516,1516,1509,1509,1503,1503,1496,1496,1496,1496,1489,1483,1477,1470,1470,1470,1464,1464,1458,1458,1452,1445,1445,1439,1439,1433,1427,1421,1421,1421,1421,1415,1415,1410,1410,1398,1398,1398,1392,1392,1387,1381,1381,1376,1376,1376,1370,1370,1370,1365,1354,1354,1354,1349,1349,1349,1349,1343,1338,1333,1333,1328,1322,1322,1317,1317,1312,1312,1312,1307,1307,1307,1302,1292,1292,1292,1292,1288,1288,1288,1283,1278,1278,1273,1273,1273,1268,1264,1264,1264,1259,1255,1255,1250,1250,1245,1245,1241,1236,1236,1232,1232,1227,1227,1223,1223,1219,1219,1214,1214,1210,1206,1206,1202,1202,1197,1197,1193,1193,1189,1185,1185,1181,1181,1181,1177,1177,1177,1173,1169,1169,1169,1165,1161,1161,1157,1153,1153,1149,1149,1145,1141,1141,1138,1138,1134,1134,1130,1130,1126,1126,1123,1123,1123,1119,1115,1112,1112,1108,1108,1105,1105,1105,1101,1101,1097,1094,1094,1090,1090,1087,1084,1084,1080,1080,1077,1077,1077,1073,1070,1067,1063,1063,1063,1063,1060,1060,1057,1054,1054,1050,1050,1047,1044,1044,1041,1041,1041,1038,1038,1034,1031,1031,1028,1028,1025,1025,1025,1022,1019,1016,1016,1016,1013,1013,1013,1010,1007,1007,1004,1004,1004,1001,1001,998,992,992,992,992,989,989,987,987,984,984,981,981,978,978,975,975,973,970,970,970,967,967,964,964,962,959,959,959,0,0,0,0,0,0,0,0,0,0,0,0,0,0,0,0,0,0,0,0,0,0,0,0,0,0,0,0,0,0,0,0,0
0,0,0,0,0,0,0,0,0,0,0,0,0,0,1970,1970,1970,1970,1970,1970,1970,1970,1970,1970,1959,1959,1947,1947,1936,1936,1936,1936,1936,1936,1936,1936,1936,1936,1936,1926,1926,1926,1926,1926,1926,1926,1926,1926,1915,1915,1915,1915,1915,1915,1904,1904,1904,1904,1904,1904,1904,1904,1904,1894,1883,1883,1883,1883,1883,1883,1883,1883,1873,1873,1873,1873,1863,1863,1863,1863,1863,1863,1863,1853,1853,1853,1853,1843,1843,1843,1843,1843,1833,1833,1833,1833,1833,1833,1833,1833,1833,1833,1823,1823,1823,1823,1823,1813,1813,1813,1813,1813,1804,1804,1804,1804,1804,1794,1794,1794,1794,1794,1794,1794,1794,1785,1785,1776,1766,1766,1766,1766,1766,1766,1766,1766,1766,1766,1766,1757,1757,1757,1757,1757,1757,1757,1766,1766,1766,1766,1776,1776,1776,1776,1776,1915,1915,1904,1904,1904,1904,1904,1904,1904,1904,1904,1904,1915,1915,1915,1748,1748,1748,1748,1748,1748,1739,1739,1748,1748,1757,1757,1757,1757,1094,1094,1090,1090,1757,1757,1757,1108,1105,1101,1101,1097,1097,1094,1090,1090,1090,1087,1087,1087,1087,1087,1090,1090,1090,1090,1090,1094,1094,1097,1101,1101,1105,1105,1101,1101,1101,0,0,0,0,0,1873,1873,1873,1873,1873,1883,1883,1883,1883,1883,1883,1894,1894,1894,1894,1904,1904,1915,1915,1915,1915,1915,1915,1915,1915,1926,1926,1926,1926,1926,1926,1936,1936,1947,1947,1936,1936,1926,1926,1926,1926,1915,1915,1915,0,0,0,0,0,0,0,0,0,867,864,860,851,851,851,851,849,849,847,845,843,841,837,835,835,835,835,835,835,835,837,839,839,841,841,843,845,845,847,849,851,851,851,851,851,851,0,0,0,0,0,0,0,0,1632,1632,1632,1624,1609,1609,1609,1601,1601,1601,1601,1594,1594,1586,1579,1579,1572,1564,1564,1557,1550,1550,1543,1543,1536,1536,1536,1529,1523,1516,1516,1516,1509,1509,1503,1503,1503,1496,1496,1496,1489,1483,1477,1470,1470,1470,1464,1464,1458,1458,1452,1445,1445,1439,1439,1433,1427,1427,1421,1421,1421,1421,1415,1415,1410,1404,1398,1398,1392,1392,1387,1381,1381,1376,1376,1376,1370,1370,1370,1365,1359,1354,1354,1349,1349,1349,1349,1343,1338,1338,1333,1328,1322,1322,1317,1317,1312,1312,1312,1307,1307,1307,1302,1297,1292,1292,1292,1288,1288,1288,1283,1283,1278,1273,1273,1273,1268,1268,1268,1264,1259,1259,1255,1250,1250,1245,1245,1241,1236,1236,1232,1232,1232,1227,1227,1223,1219,1219,1219,1214,1214,1210,1206,1206,1202,1197,1197,1193,1193,1189,1189,1185,1185,1181,1181,1181,1177,1177,1173,1169,1169,1169,1165,1165,1161,1157,1153,1153,1149,1149,1145,1141,1141,1138,1138,1134,1134,1130,1130,1126,1126,1123,1123,1123,1119,1115,1115,1112,1108,1108,1105,1105,1105,1101,1101,1097,1094,1094,1090,1087,1087,1087,1084,1084,1080,1080,1077,1077,1073,1070,1067,1063,1063,1063,1063,1060,1060,1057,1057,1054,1050,1050,1050,1047,1044,1044,1041,1041,1041,1038,1034,1031,1031,1028,1028,1025,1025,1025,1022,1019,1016,1016,1016,1013,1013,1013,1010,1007,1007,1004,1004,1004,1001,1001,998,992,992,992,992,989,989,987,987,984,984,981,981,978,978,975,975,973,970,970,970,967,967,964,964,962,962,959,959,0,0,0,0,0,0,0,0,0,0,0,0,0,0,0,0,0,0,0,0,0,0,0,0,0,0,0,0,0,0,0,0,0
0,0,0,0,0,0,0,0,0,0,0,0,0,0,1970,1970,1970,1970,1970,1970,1970,1970,1970,1970,1959,1959,1959,1947,1947,1936,1936,1936,1936,1936,1936,1947,1947,1936,1936,1926,1926,1926,1926,1926,1926,1926,1926,1926,1926,1926,1915,1915,1915,1915,1915,1915,1904,1904,1904,1904,1904,1904,1904,1894,1883,1883,1883,1883,1883,1883,1883,1883,1873,1873,1873,1873,1863,1863,1863,1863,1863,1863,1863,1863,1863,1853,1853,1843,1843,1843,1843,1843,1843,1833,1833,1843,1843,1833,1833,1833,1833,1833,1833,1833,1833,1823,1823,1823,1823,1823,1813,1813,1813,1804,1804,1804,1804,1794,1794,1794,1794,1785,1785,1785,1785,1785,1785,1776,1776,1766,1766,1766,1766,1766,1766,1766,1766,1766,1766,1766,1757,1757,1757,1757,1766,1766,1766,1766,1766,1776,1776,1776,1785,1785,1785,1915,1915,1904,1904,1904,1904,1904,1904,1904,1904,1915,1915,1915,1915,1915,1748,1748,1748,1748,1748,1748,1748,1748,1748,1757,1757,1094,1094,1094,1090,1090,1090,1090,1094,1097,1097,1101,1105,1101,1101,1097,1094,1094,1090,1090,1090,1090,1087,1087,1087,1087,1090,1090,1090,1090,1090,1094,1094,1097,1101,1105,1105,1105,1105,1105,1105,0,0,0,0,0,1873,1873,1873,1873,1873,1883,1883,1883,1883,1883,1894,1894,1894,1894,1894,1904,1904,1915,1915,1915,1915,1915,1915,1915,1926,1926,1926,1926,1926,1926,1936,1936,1936,1947,1947,1936,1936,1936,1926,1926,1926,1915,1915,1915,0,0,0,0,0,0,0,0,0,867,864,860,858,851,851,851,849,849,847,845,843,839,837,835,835,835,835,835,835,837,837,839,839,841,841,843,845,847,847,849,851,851,851,851,851,851,0,0,0,0,0,0,0,1639,1639,1632,1632,1624,1624,1609,1609,1609,1601,1601,1601,1594,1594,1586,1579,1579,1572,1572,1564,1557,1550,1550,1550,1543,1543,1543,1536,1529,1523,1516,1516,1516,1516,1509,1509,1503,1503,1496,1496,1496,1489,1483,1477,1477,1470,1470,1464,1464,1464,1458,1452,1452,1445,1439,1439,1433,1433,1427,1421,1421,1421,1421,1415,1415,1410,1404,1404,1398,1392,1392,1387,1381,1381,1376,1376,1376,1370,1370,1370,1365,1359,1354,1354,1349,1349,1349,1349,1343,1343,1338,1338,1333,1328,1322,1322,1317,1317,1312,1312,1312,1312,1307,1302,1302,1292,1292,1292,1288,1288,1288,1283,1283,1278,1273,1273,1273,1268,1268,1268,1264,1264,1259,1255,1255,1250,1245,1245,1241,1236,1236,1232,1232,1232,1227,1227,1223,1219,1219,1219,1214,1214,1210,1206,1202,1202,1197,1197,1193,1193,1189,1189,1185,1185,1185,1181,1181,1181,1177,1177,1173,1169,1169,1165,1165,1161,1161,1157,1153,1149,1149,1145,1141,1141,1138,1138,1134,1134,1130,1130,1130,1126,1126,1123,1123,1119,1119,1115,1112,1112,1108,1108,1105,1105,1101,1101,1097,1094,1094,1090,1087,1087,1087,1084,1084,1080,1080,1077,1077,1077,1073,1070,1067,1063,1063,1063,1060,1060,1060,1057,1054,1054,1050,1050,1047,1047,1044,1041,1041,1041,1038,1038,1034,1031,1028,1028,1025,1025,1025,1022,1022,1019,1016,1016,1013,1013,1013,1010,1010,1007,1004,1004,1004,1001,1001,998,992,992,992,992,989,989,989,987,984,984,981,981,981,978,978,975,973,970,970,970,970,967,967,964,962,962,962,962,0,0,0,0,0,0,0,0,0,0,0,0,0,0,0,0,0,0,0,0,0,0,0,0,0,0,0,0,0,0,0,0,0
0,0,0,0,0,0,0,0,0,0,0,0,0,0,1981,1981,1981,1970,1970,1970,1970,1970,1970,1970,1970,1959,1959,1947,1947,1947,1936,1936,1936,1936,1947,1947,1947,1936,1936,1936,1926,1926,1926,1926,1926,1926,1926,1926,1926,1926,1915,1915,1915,1915,1915,1915,1904,1904,1915,1915,1904,1904,1904,1904,1883,1883,1883,1883,1883,1883,1883,1883,1883,1883,1873,1873,1873,1873,1873,1863,1863,1863,1863,1863,1863,1853,1853,1843,1843,1843,1843,1843,1843,1843,1843,1843,1843,1833,1833,1833,1833,1833,1833,1833,1823,1823,1823,1823,1813,1813,1813,1813,1813,1804,1804,1804,1804,1794,1794,1794,1794,1785,1785,1785,1785,1785,1785,1776,1776,1766,1766,1766,1766,1766,1766,1766,1766,1776,1766,1766,1757,1757,1757,1757,1766,1766,1766,1766,1766,1776,1776,1776,1785,1785,1785,1926,1915,1915,1904,1904,1904,1904,1915,1904,1904,1915,1915,1915,1915,1915,1748,1748,1748,1748,1748,1748,1748,1748,1748,1757,1090,1090,1090,1090,1090,1090,1090,1090,1094,1097,1097,1101,1101,1101,1097,1097,1094,1094,1090,1090,1090,1090,1087,1087,1090,1090,1090,1090,1090,1090,1090,1094,1094,1094,1097,1101,1105,1105,1105,1105,1105,1105,0,0,0,0,1873,1873,1873,1873,1883,1883,1883,1883,1883,1883,1894,1894,1894,1904,1904,1904,1904,1915,1915,1915,1915,1915,1915,1915,1926,1926,1926,1926,1926,1926,1936,1936,1936,1947,1947,1947,1936,1936,1936,1926,1926,1915,1915,1915,0,0,0,0,0,0,0,0,0,0,0,0,0,854,851,851,851,849,847,845,843,839,837,837,835,835,835,835,835,837,837,839,839,841,841,843,845,847,847,849,851,851,854,851,851,0,0,0,0,0,0,0,0,1639,1639,1632,1632,1632,1624,1609,1609,1609,1601,1601,1601,1601,1594,1586,1579,1579,1579,1572,1564,1557,1557,1550,1550,1543,1543,1543,1536,1536,1523,1523,1516,1516,1516,1509,1509,1503,1503,1496,1496,1496,1489,1483,1483,1477,1470,1470,1470,1464,1464,1458,1452,1452,1445,1439,1439,1439,1433,1427,1427,1427,1421,1421,1415,1415,1415,1404,1404,1398,1398,1392,1392,1387,1381,1376,1376,1376,1376,1370,1370,1370,1359,1354,1354,1349,1349,1349,1349,1349,1343,1338,1338,1333,1333,1328,1328,1322,1317,1317,1312,1312,1312,1307,1307,1302,1292,1292,1292,1288,1288,1288,1288,1283,1278,1273,1273,1273,1268,1268,1268,1264,1264,1259,1255,1255,1250,1250,1245,1241,1236,1236,1232,1232,1232,1227,1227,1223,1223,1219,1219,1214,1214,1210,1206,1202,1202,1197,1197,1197,1193,1189,1189,1185,1185,1185,1181,1181,1181,1181,1177,1173,1169,1169,1165,1165,1161,1161,1157,1153,1153,1149,1145,1145,1141,1138,1138,1134,1134,1134,1134,1130,1130,1126,1126,1123,1119,1119,1115,1115,1112,1108,1108,1105,1105,1101,1101,1097,1094,1094,1090,1090,1087,1087,1087,1084,1080,1080,1077,1077,1077,1073,1070,1067,1063,1063,1063,1060,1060,1060,1054,1054,1054,1050,1050,1047,1047,1044,1041,1041,1041,1038,1038,1034,1031,1031,1028,1028,1028,1025,1025,1022,1019,1019,1016,1013,1013,1013,1010,1010,1007,1007,1004,1004,1001,1001,998,992,992,992,992,992,989,989,987,987,984,981,981,981,978,978,975,973,970,970,970,970,967,967,964,964,962,962,962,0,0,0,0,0,0,0,0,0,0,0,0,0,0,0,0,0,0,0,0,0,0,0,0,0,0,0,0,0,0,0,0,0
0,0,0,0,0,0,0,0,0,0,0,0,0,0,1970,1970,1970,1970,1970,1970,1970,1970,1970,1970,1970,1959,1959,1959,1947,1947,1947,1947,1947,1947,1947,1947,1947,1936,1936,1936,1926,1926,1926,1926,1926,1926,1926,1926,1926,1926,1915,1915,1915,1915,1915,1915,1904,1904,1915,1915,1915,1904,1904,1904,1904,1894,1894,1894,1894,1883,1883,1883,1883,1883,1873,1873,1873,1873,1873,1863,1863,1863,1863,1863,1863,1853,1853,1853,1853,1843,1843,1843,1843,1843,1843,1843,1843,1833,1833,1833,1833,1833,1833,1833,1823,1823,1823,1823,1813,1813,1813,1813,1813,1813,1804,1804,1804,1794,1794,1794,1794,1794,1785,1785,1785,1785,1785,1776,1776,1766,1766,1766,1766,1766,1766,1766,1766,1776,1766,1766,1766,1766,1766,1766,1766,1766,1766,1766,1776,1776,1776,1776,1776,1776,1926,1926,1915,1915,1915,1915,1915,1915,1915,1915,1915,1915,1915,1915,1915,1915,1915,1757,1748,1748,1748,1748,1748,1748,1090,1090,1090,1090,1090,1090,1090,1090,1090,1090,1094,1094,1097,1097,1101,1097,1094,1094,1090,1090,1090,1090,1090,1090,1090,1090,1090,1090,1090,1090,1090,1090,1090,1094,1094,1094,1097,1101,1101,1101,1105,1105,1101,1101,0,0,0,0,0,1883,1883,1883,1883,1883,1883,1883,1883,1883,1894,1894,1894,1904,1904,1904,1915,1915,1915,1915,1915,1915,1926,1926,1926,1926,1926,1926,1926,1926,1936,1936,1936,1947,1947,1947,1936,1936,1936,1926,1926,1926,1915,1915,1926,0,0,0,0,0,0,0,0,0,0,0,0,854,851,851,849,849,847,845,843,839,837,837,835,835,835,835,835,837,837,839,841,841,843,843,845,847,847,849,851,851,854,851,851,854,0,0,0,0,0,0,0,1639,1639,1639,1632,1632,1624,1616,1609,1609,1601,1601,1601,1601,1594,1586,1586,1579,1579,1572,1564,1557,1557,1550,1550,1550,1543,1543,1536,1536,1523,1523,1523,1516,1516,1516,1509,1503,1503,1503,1496,1496,1489,1483,1483,1477,1477,1470,1470,1464,1464,1458,1452,1452,1445,1439,1439,1439,1439,1433,1427,1427,1421,1421,1421,1415,1415,1410,1398,1398,1398,1392,1392,1387,1381,1381,1376,1376,1376,1370,1370,1370,1359,1354,1354,1349,1349,1349,1349,1349,1343,1343,1338,1333,1333,1328,1328,1322,1322,1317,1317,1312,1312,1307,1307,1302,1292,1292,1292,1288,1288,1288,1288,1283,1278,1278,1273,1273,1268,1268,1268,1264,1264,1259,1255,1255,1250,1250,1245,1241,1236,1236,1232,1232,1232,1232,1227,1223,1223,1219,1219,1219,1214,1210,1206,1206,1202,1202,1197,1197,1197,1193,1189,1185,1185,1185,1185,1181,1181,1181,1177,1173,1169,1169,1165,1165,1161,1161,1157,1153,1153,1149,1149,1145,1141,1138,1138,1134,1134,1134,1134,1130,1130,1130,1126,1123,1119,1119,1119,1115,1112,1108,1108,1108,1105,1105,1101,1097,1094,1094,1090,1090,1090,1087,1087,1084,1080,1080,1077,1077,1077,1073,1070,1067,1063,1063,1063,1060,1060,1060,1054,1054,1054,1054,1050,1050,1047,1044,1041,1041,1041,1038,1038,1034,1034,1031,1028,1028,1028,1028,1025,1022,1019,1016,1016,1013,1013,1013,1010,1010,1007,1007,1004,1004,1004,1001,998,998,995,992,992,992,989,989,989,987,984,981,981,981,978,978,975,973,970,970,970,970,967,967,964,964,962,962,962,0,0,0,0,0,0,0,0,0,0,0,0,0,0,0,0,0,0,0,0,0,0,0,0,0,0,0,0,0,0,0,0,0
0,0,0,0,0,0,0,0,0,0,0,0,0,0,1970,1970,1970,1970,1970,1970,1970,1970,1970,1970,1970,1959,1959,1959,1959,1947,1947,1947,1947,1947,1947,1947,1947,1947,1947,1947,1936,1936,1936,1926,1926,1926,1926,1926,1926,1926,1915,1915,1915,1915,1915,1915,1915,1915,1915,1915,1915,1915,1915,1904,1904,1894,1894,1894,1894,1883,1883,1883,1883,1883,1873,1873,1873,1873,1873,1873,1863,1863,1863,1863,1863,1853,1853,1853,1853,1843,1843,1843,1843,1843,1843,1843,1843,1843,1843,1833,1833,1833,1833,1833,1833,1823,1823,1823,1813,1813,1813,1813,1813,1813,1804,1804,1804,1804,1804,1794,1794,1794,1794,1794,1785,1785,1785,1785,1776,1776,1776,1776,1776,1776,1776,1776,1776,1776,1766,1766,1766,1766,1766,1766,1766,1766,1766,1766,1776,1776,1776,1776,1776,1776,1926,1926,1926,1915,1915,1915,1915,1915,1915,1915,1915,1070,1070,1067,1067,1067,1063,1063,1063,1748,1748,1748,1748,1748,1087,1087,1087,1087,1087,1087,1087,1087,1087,1087,1090,1090,1094,1094,1097,1094,1094,1090,1090,1090,1090,1090,1090,1090,1090,1090,1090,1090,1090,1090,1090,1090,1090,1094,1094,1094,1094,1097,1097,1101,1101,1101,1101,1101,1101,0,0,0,1883,1883,1883,1883,1883,1883,1883,1883,1894,1894,1894,1894,1904,1904,1904,1915,1915,1915,1915,1915,1915,1915,1926,1926,1926,1926,1926,1926,1926,1926,1936,1936,1947,1947,1947,1947,1947,1936,1936,1926,1926,1926,1926,1926,1926,0,0,0,0,0,0,0,0,0,0,0,0,854,851,851,849,849,847,845,841,839,837,837,835,835,835,837,837,839,839,841,841,841,843,845,845,847,849,849,851,851,854,854,854,854,0,0,0,0,0,0,1639,1639,1639,1639,1639,1632,1632,1624,1609,1609,1609,1601,1601,1601,1594,1586,1586,1579,1579,1572,1564,1564,1557,1550,1550,1550,1543,1543,1543,1536,1529,1523,1523,1523,1516,1516,1509,1509,1509,1503,1496,1496,1489,1483,1483,1477,1477,1470,1470,1464,1464,1458,1452,1452,1445,1439,1439,1439,1439,1433,1427,1427,1421,1421,1421,1415,1415,1410,1398,1398,1398,1392,1392,1392,1387,1381,1376,1376,1376,1370,1370,1365,1359,1354,1354,1349,1349,1349,1349,1349,1343,1343,1338,1333,1333,1328,1328,1328,1322,1317,1317,1312,1312,1312,1307,1302,1297,1292,1292,1292,1288,1288,1288,1283,1283,1278,1273,1273,1268,1268,1268,1264,1264,1259,1255,1255,1250,1250,1245,1245,1241,1236,1236,1232,1232,1232,1227,1223,1223,1219,1219,1219,1214,1210,1206,1206,1202,1202,1202,1197,1197,1193,1189,1185,1185,1185,1185,1185,1181,1181,1177,1173,1173,1169,1169,1165,1165,1161,1157,1157,1153,1153,1149,1145,1141,1138,1138,1134,1134,1134,1134,1130,1130,1130,1126,1123,1119,1119,1119,1115,1115,1112,1108,1108,1105,1105,1101,1097,1094,1094,1090,1090,1090,1087,1087,1084,1080,1080,1077,1077,1077,1077,1073,1070,1063,1063,1063,1060,1060,1060,1054,1054,1054,1050,1050,1050,1047,1044,1041,1041,1041,1038,1038,1034,1034,1031,1028,1028,1028,1028,1025,1025,1022,1016,1016,1013,1013,1013,1010,1010,1007,1007,1004,1004,1001,1001,1001,998,995,992,992,992,989,989,989,987,987,984,981,981,978,978,975,975,973,970,970,970,967,967,964,964,962,962,962,0,0,0,0,0,0,0,0,0,0,0,0,0,0,0,0,0,0,0,0,0,0,0,0,0,0,0,0,0,0,0,0,0
0,0,0,0,0,0,0,0,0,0,0,0,0,0,1981,1970,1970,1970,1970,1970,1970,1970,1970,1970,1970,1959,1959,1959,1959,1959,1959,1959,1947,1947,1959,1959,1959,1947,1947,1947,1936,1936,1936,1936,1936,1926,1926,1926,1926,1926,1915,1915,1915,1915,1915,1915,1915,1915,1915,1915,1915,1915,1915,1904,1904,1904,1894,1894,1894,1883,1883,1883,1883,1883,1873,1873,1873,1873,1873,1873,1873,1863,1863,1863,1863,1853,1853,1853,1853,1853,1843,1843,1843,1843,1843,1843,1843,1843,1843,1843,1833,1833,1833,1833,1833,1823,1823,1823,1823,1823,1823,1813,1813,1813,1804,1804,1804,1804,1804,1804,1794,1794,1794,1794,1794,1794,1785,1785,1785,1776,1776,1776,1776,1776,1776,1776,1776,1776,1766,1766,1766,1766,1766,1766,1766,1766,1766,1766,1766,1766,1766,1766,1766,1766,1936,1936,1926,1926,1915,1915,1067,1067,1067,1067,1067,1067,1067,1063,1063,1063,1063,1063,1063,1070,1070,1073,1077,1084,1084,1084,1084,1084,1084,1084,1084,1087,1087,1087,1087,1090,1087,1087,1090,1090,1090,1090,1090,1090,1087,1087,1087,1087,1087,1087,1087,1090,1090,1090,1090,1090,1090,1090,1090,1090,1094,1094,1097,1097,1097,1097,1101,0,1101,0,0,0,1883,1883,1883,1873,1873,1883,1883,1883,1894,1894,1894,1904,1904,1904,1904,1915,1915,1915,1915,1915,1915,1915,1926,1926,1926,1926,1926,1926,1926,1926,1936,1947,1947,1947,1947,1947,1947,1936,1936,1926,1926,1926,1926,1926,1926,0,0,0,0,0,0,0,0,0,0,0,0,854,851,851,849,849,847,845,841,839,839,837,837,837,837,837,837,839,841,841,841,841,843,845,847,849,849,849,854,854,854,854,854,0,0,0,0,0,0,0,1639,1639,1639,1639,1639,1632,1632,1624,1616,1609,1609,1601,1601,1601,1594,1594,1586,1579,1579,1579,1572,1564,1564,1557,1557,1550,1543,1543,1543,1536,1529,1523,1523,1523,1516,1516,1516,1509,1509,1503,1496,1489,1489,1489,1483,1477,1477,1470,1470,1464,1464,1458,1452,1452,1445,1439,1439,1439,1439,1433,1433,1427,1427,1421,1421,1415,1415,1410,1404,1398,1398,1398,1392,1392,1392,1387,1381,1376,1376,1376,1370,1365,1365,1359,1354,1354,1349,1349,1349,1349,1343,1343,1338,1333,1333,1328,1328,1328,1322,1322,1317,1317,1312,1312,1307,1307,1302,1292,1292,1292,1288,1288,1288,1283,1283,1278,1273,1273,1268,1268,1268,1264,1264,1259,1255,1255,1250,1250,1245,1245,1241,1236,1236,1232,1232,1232,1227,1223,1223,1219,1219,1219,1214,1210,1210,1206,1202,1202,1202,1197,1197,1193,1189,1185,1185,1185,1185,1185,1181,1181,1177,1173,1173,1169,1169,1165,1165,1161,1161,1157,1153,1153,1153,1145,1141,1138,1138,1134,1134,1134,1134,1130,1130,1130,1126,1123,1123,1119,1119,1115,1115,1112,1108,1108,1105,1105,1101,1097,1097,1094,1090,1090,1090,1087,1087,1084,1080,1080,1077,1077,1077,1077,1073,1070,1063,1063,1063,1060,1060,1060,1054,1054,1054,1050,1050,1050,1047,1044,1041,1041,1041,1038,1038,1034,1034,1031,1031,1028,1028,1028,1025,1025,1022,1019,1016,1016,1013,1013,1013,1010,1010,1007,1004,1004,1001,1001,1001,998,995,995,995,992,989,989,989,987,987,984,981,981,978,978,975,975,973,970,970,970,967,967,967,964,964,962,962,0,0,0,0,0,0,0,0,0,0,0,0,0,0,0,0,0,0,0,0,0,0,0,0,0,0,0,0,0,0,0,0,0
