0,0,0,0,0,0,0,1197,1197,1193,1193,1193,1193,1193,1193,1197,1193,1193,1193,1193,1193,1197,1193,1193,1197,1193,1193,1193,1193,1193,1193,1193,1193,1189,1189,1189,1189,1189,1189,1189,1185,1185,1185,1185,1185,1181,1181,1181,1181,1181,1181,1181,1181,1181,1181,1181,1181,1181,1181,1185,1181,1181,1181,1181,1181,1181,1181,1181,1181,1181,1177,1177,1177,1177,1177,1177,1177,1177,1177,1177,1177,1177,1177,1173,1173,1173,1169,1169,1173,1173,1173,1173,1173,1173,1173,1173,1173,1169,1169,1165,1165,1165,1165,1161,1153,1141,1138,1134,1134,1134,1134,1134,1134,1134,1138,1141,1145,1145,1145,1149,1149,1149,1157,1161,1161,1161,1161,1161,1157,1157,0,0,0,0,0,0,0,0,0,794,794,773,773,774,774,774,774,776,776,778,778,780,780,780,780,781,781,783,785,787,789,789,789,790,790,0,0,0,1157,1157,1149,1149,1149,1149,1149,1149,1149,1149,1145,1145,1145,1145,1145,1145,1145,1149,1145,1145,1145,1145,1145,1145,1141,1141,1145,1145,1145,1145,1141,1141,1141,1138,1138,1138,1138,1138,1134,1134,1134,1134,1134,1134,1134,1134,1138,1138,1138,1138,1138,1138,1138,1138,1138,1141,903,903,1138,908,908,906,906,906,906,906,906,906,908,908,908,910,908,908,908,908,908,908,908,908,910,913,913,915,915,918,918,920,923,923,923,925,925,928,930,933,933,933,935,935,935,938,940,940,943,946,1115,1115,1115,1115,1115,1115,1115,1115,1115,1115,1115,1115,1115,1115,1115,1115,1115,1115,1115,1115,1115,1115,1115,1115,1115,1115,1112,1112,1112,1112,1112,1112,1112,1112,1115,1115,1115,1115,1112,1112,1112,1108,1108,1108,1108,1108,1108,1105,1105,1105,1105,1105,1105,1105,1105,1105,1105,1105,1105,1101,1101,1105,1105,1105,1101,1101,1105,1105,1101,1101,1101,1101,1101,1097,1097,1094,1094,1094,1094,1094,1094,1094,1094,1094,1094,1094,1094,1094,1094,1094,1094,1094,1094,1094,1094,1094,1094,1094,1094,1094,1094,1094,1090,1090,1090,1090,1090,1090,1087,1087,1087,1087,1090,1087,1087,1087,1087,1087,1087,1087,1087,1087,1087,1087,1087,1087,1087,1087,1087,1084,1084,1084,1080,1080,1080,1080,1080,1080,1080,1080,1080,1084,1084,1080,1080,1080,1080,1080,1080,1080,1080,1080,1080,1080,1077,1077,1077,1077,1077,1077,1077,1073,1073,1073,1073,1070,1070,1073,1070,1070,1070,1070,1070,1070,1070,1070,1070,1070,1070,1070,1070,1070,1067,1067,1067,1067,1067,1067,1063,1063,1063,1063,1063,1063,1067,1067,1067,1067,1067,1067,1063,1063,1063,1063,1063,1063,1060,1060,1060,1060,1060,1060,1060,1060,1060,1060,1060,1057,1057,1057,1054,1054,1054,1054,1054,1054,1054,1054,1054,1054,1050,1050,1054,1050,1050,1050,1050,1050,1050,1050,1050,1050,1050,1050,1047,1047,1047,1054,1050,1050,1050,1050,1050,1050,1047,1047,1047,1047,1047,1050,1047,1047,1047,1047,1044,1044,1044,1041,1041,1041,1041,1041,1041,1041,1041,1041,1041,1041,1041,805,805,805,805,805,805,807,805,805,807,807,807,807,805,805,805,805,805,805,805,805,805,805,805,805,805,805,805,805,805,805,805,805,805,805,805,805,807,807,807,807,809,809,811,811,811,811,811,811,0,0,0,0,0,0,0,0,0,0,0,0,0,0,0,0,0,0,0,0,0,0,0,0,0,0,0,0,0,0,0,0,0,0,0,0,0,0
0,0,0,0,0,0,0,1197,1197,1193,1193,1193,1189,1189,1189,1185,1185,1193,1193,1189,1189,1193,1193,1193,1193,1193,1193,1193,1189,1189,1189,1189,1189,1189,1189,1189,1185,1185,1185,1185,1185,1185,1181,1181,1181,1181,1181,1181,1181,1181,1181,1181,1181,1181,1181,1181,1181,1181,1181,1181,1181,1181,1181,1181,1181,1181,1177,1177,1177,1177,1177,1177,1177,1173,1173,1173,1173,1173,1173,1173,1173,1173,1173,1173,1173,1173,1169,1169,1169,1169,1169,1169,1169,1169,1173,1173,1169,1169,1169,1165,1165,1165,1161,1161,1157,1145,1138,1138,1134,1134,1134,1134,1134,1141,1141,1141,1145,1145,1149,1149,1149,1153,1153,1157,1157,1157,1157,1161,1153,1153,0,0,0,0,0,0,0,792,792,792,792,774,774,774,774,774,774,776,778,778,780,780,780,780,781,781,783,785,785,787,789,789,790,790,790,0,0,0,0,0,1149,1149,1149,1149,1145,1145,1145,1145,1145,1145,1141,1141,1141,1141,1141,1145,1141,1141,1141,1141,1141,1141,1141,1141,1141,1141,1141,1141,1138,1138,1138,1134,1134,1134,1134,1134,1134,1134,1134,1134,1134,1134,1134,1134,1134,1134,1134,1134,1138,1138,1138,1138,1138,901,901,901,903,906,906,906,906,906,906,906,906,906,906,906,906,906,906,906,906,906,906,906,908,908,910,913,913,915,915,918,918,920,923,923,923,925,925,928,930,933,933,933,933,935,938,938,940,943,946,946,1112,1112,1112,1112,1112,1112,1112,1112,1112,1112,1112,1112,1112,1112,1112,1112,1112,1112,1112,1108,1105,1105,1105,1112,1108,1108,1108,1108,1105,1105,1108,1108,1108,1108,1108,1108,1108,1108,1108,1108,1108,1108,1105,1105,1105,1105,1105,1105,1105,1105,1105,1105,1105,1105,1105,1101,1101,1101,1101,1101,1101,1101,1101,1101,1101,1101,1101,1101,1101,1101,1097,1097,1097,1094,1094,1094,1094,1094,1094,1094,1094,1094,1094,1094,1094,1094,1094,1094,1090,1090,1090,1090,1094,1090,1090,1090,1090,1090,1090,1090,1090,1090,1090,1090,1090,1087,1087,1087,1087,1087,1087,1084,1084,1084,1084,1087,1087,1087,1084,1084,1087,1084,1084,1084,1084,1084,1084,1084,1084,1084,1084,1080,1080,1080,1080,1080,1080,1080,1077,1077,1077,1080,1080,1080,1080,1080,1077,1077,1077,1077,1077,1077,1077,1077,1077,1077,1073,1073,1073,1073,1073,1073,1070,1070,1070,1070,1070,1070,1067,1067,1067,1067,1067,1070,1067,1067,1067,1067,1067,1067,1067,1067,1067,1067,1067,1063,1063,1063,1063,1063,1063,1063,1060,1060,1060,1063,1063,1063,1063,1063,1063,1060,1060,1060,1060,1060,1057,1057,1057,1057,1057,1057,1054,1054,1057,1054,1054,1054,1054,1054,1050,1050,1050,1050,1050,1050,1050,1050,1050,1050,1050,1050,1050,1050,1050,1047,1047,1047,1047,1047,1047,1047,1047,1047,1044,1044,1044,1044,1044,1044,1047,1047,1047,1047,1047,1044,1044,1044,1044,1047,1044,1044,1044,1044,1044,1041,1041,1041,1041,1041,1041,1041,1041,1041,1041,1041,1038,1038,1038,0,805,805,805,805,807,807,807,807,807,807,807,807,805,805,805,805,805,805,805,805,805,805,805,805,805,805,805,805,805,805,805,805,805,805,807,807,807,807,809,809,809,811,811,811,811,811,813,813,0,0,0,0,0,0,0,0,0,0,0,0,0,0,0,0,0,0,0,0,0,0,0,0,0,0,0,0,0,0,0,0,0,0,0,0,0,0
0,0,0,0,0,0,0,1197,1197,1193,1189,1189,1185,1185,1185,1185,1185,1185,1185,1181,1181,1185,1185,1185,1189,1189,1189,1189,1189,1189,1185,1185,1185,1185,1185,1185,1185,1181,1181,1181,1181,1181,1181,1181,1181,1181,1177,1177,1177,1177,1177,1177,1177,1177,1177,1177,1177,1177,1177,1177,1177,1177,1177,1177,1177,1177,1177,1177,1177,1173,1173,1173,1173,1169,1169,1169,1169,1169,1169,1169,1169,1169,1169,1169,1169,1169,1165,1165,1169,1169,1165,1165,1165,1165,1165,1165,1165,1165,1165,1165,1161,1161,1161,1157,1157,1149,1145,1138,1134,1134,1138,1138,1138,1141,1141,1145,1145,1145,1149,1149,1149,1153,1153,1153,1153,1153,1153,1157,1149,1149,1149,0,0,0,0,0,0,792,792,792,790,789,776,774,774,774,776,778,778,780,780,780,781,781,781,783,785,787,787,789,790,790,790,790,792,0,0,0,0,0,1145,1145,1145,1145,1145,1145,1141,1141,1141,1141,1141,1138,1138,1138,1138,1141,1138,1138,1141,1138,1138,1138,1138,1138,1138,1138,1138,1138,1138,1134,1134,1134,1134,1134,1134,1134,1134,1130,1130,1130,1130,1130,1130,1130,1134,1134,1134,1134,1134,1134,1138,894,894,896,898,898,898,901,903,903,903,903,903,903,903,903,903,903,903,903,906,906,906,906,906,906,908,908,910,913,913,915,915,918,918,923,923,923,925,925,925,928,930,933,933,933,933,935,938,943,943,943,1108,1108,1108,1112,1112,1112,1112,1112,1112,1112,1112,1112,1108,1108,1112,1108,1108,1108,1108,1108,1108,1105,1105,1105,1105,1105,1105,1105,1105,1105,1105,1105,1105,1105,1105,1105,1108,1105,1105,1105,1105,1105,1105,1105,1105,1105,1105,1105,1105,1105,1105,1105,1105,1105,1101,1101,1101,1097,1097,1097,1097,1097,1097,1097,1097,1101,1097,1097,1097,1097,1097,1097,1094,1094,1094,1094,1094,1094,1094,1094,1090,1090,1094,1090,1090,1090,1090,1090,1090,1090,1090,1090,1090,1090,1090,1090,1087,1087,1087,1087,1087,1087,1087,1087,1087,1087,1087,1087,1087,1087,1084,1084,1084,1084,1080,1080,1084,1084,1084,1084,1084,1084,1080,1080,1080,1080,1080,1080,1080,1080,1080,1084,1080,1080,1080,1080,1080,1080,1077,1077,1077,1077,1077,1077,1077,1077,1077,1077,1077,1077,1077,1077,1077,1073,1070,1070,1073,1070,1070,1070,1070,1070,1070,1070,1067,1067,1067,1067,1067,1067,1067,1067,1067,1067,1067,1067,1067,1063,1063,1067,1067,1063,1063,1067,1067,1063,1063,1063,1063,1063,1060,1060,1060,1060,1057,1057,1057,1060,1060,1060,1060,1060,1060,1060,1060,1057,1057,1057,1057,1057,1057,1057,1054,1054,1054,1054,1054,1054,1054,1054,1054,1050,1050,1050,1050,1047,1047,1047,1047,1047,1050,1050,1047,1047,1047,1047,1047,1047,1047,1047,1047,1047,1047,1044,1044,1044,1041,1041,1041,1041,1041,1041,1041,1041,1041,1044,1044,1044,1044,1041,1041,1041,1041,1041,1041,1041,1041,1038,1038,1041,1041,1041,1041,1041,1041,1038,1038,1038,1038,1038,1038,807,807,807,807,807,807,807,807,807,807,807,807,807,805,805,805,805,805,805,805,805,805,805,805,805,805,805,805,805,805,805,805,805,807,807,807,807,809,809,809,809,811,811,811,811,811,811,813,813,0,0,0,0,0,0,0,0,0,0,0,0,0,0,0,0,0,0,0,0,0,0,0,0,0,0,0,0,0,0,0,0,0,0,0,0,0,0
0,0,0,0,0,0,0,1193,1189,1189,1185,1185,1185,1185,1185,1185,1185,1185,1185,1181,1181,1181,1181,1181,1181,1181,1185,1185,1185,1185,1181,1181,1181,1181,1181,1181,1181,1181,1181,1181,1181,1177,1177,1177,1177,1177,1177,1177,1177,1177,1177,1177,1177,1177,1177,1177,1177,1177,1177,1177,1173,1173,1169,1169,1169,1169,1169,1173,1173,1173,1173,1173,1173,1169,1169,1169,1169,1169,1169,1169,1169,1169,1169,1169,1169,1169,1165,1165,1165,1165,1165,1165,1161,1161,1161,1161,1161,1161,1161,1161,1161,1161,1161,1157,1157,1153,1145,1141,1138,1138,1138,1138,1138,1141,1141,1145,1145,1145,1149,1149,1149,1149,1153,1153,1153,1153,1153,1153,1149,1145,1145,0,0,0,0,0,0,0,790,790,790,789,776,776,776,776,776,778,778,780,780,781,781,781,783,785,787,787,787,789,790,790,790,790,792,0,0,0,0,1145,1141,1141,1141,1145,1141,1141,1141,1138,1138,1138,1138,1138,1138,1138,1138,1138,1134,1134,1138,1134,1134,1134,1134,1134,1134,1134,1134,1134,1134,1134,1134,1134,1134,1134,1134,1130,1130,1130,1130,1130,1130,1130,1130,1130,1130,1130,1130,1130,889,889,889,894,894,896,896,896,896,898,898,898,898,898,901,901,901,901,901,901,901,903,903,903,903,906,906,906,908,908,910,913,913,915,915,918,918,923,923,923,925,925,925,928,930,933,933,933,933,938,940,946,1105,1105,1105,1105,1105,1105,1108,1108,1108,1108,1108,1108,1108,1108,1108,1108,1108,1105,1105,1105,1105,1105,1105,1101,1101,1101,1101,1101,1101,1101,1101,1101,1101,1101,1101,1101,1101,1101,1105,1101,1101,1105,1105,1101,1101,1101,1105,1101,1101,1101,1101,1101,1101,1101,1101,1101,1097,1097,1097,1094,1094,1094,1094,1094,1094,1094,1094,1097,1097,1097,1097,1094,1094,1094,1094,1090,1090,1090,1090,1090,1090,1090,1090,1090,1090,1090,1090,1087,1087,1087,1087,1087,1087,1090,1090,1087,1087,1087,1084,1084,1084,1084,1084,1084,1084,1084,1084,1084,1084,1084,1084,1084,1084,1080,1080,1080,1080,1080,1080,1080,1080,1080,1080,1080,1080,1077,1077,1077,1077,1077,1080,1080,1080,1080,1080,1080,1080,1077,1077,1077,1077,1077,1073,1073,1073,1073,1073,1073,1073,1073,1073,1073,1073,1073,1073,1070,1067,1067,1070,1070,1067,1067,1067,1067,1067,1067,1067,1067,1067,1067,1067,1067,1063,1063,1063,1063,1063,1063,1063,1063,1060,1060,1063,1063,1063,1063,1063,1063,1063,1060,1060,1060,1057,1057,1057,1057,1057,1054,1054,1054,1054,1054,1054,1054,1054,1054,1054,1054,1054,1054,1054,1054,1054,1054,1054,1054,1050,1050,1050,1050,1050,1050,1050,1050,1047,1047,1047,1047,1044,1044,1044,1044,1047,1047,1047,1047,1047,1047,1047,1044,1044,1044,1044,1044,1044,1041,1041,1041,1041,1041,1041,1041,1041,1038,1038,1038,1038,1038,1038,1038,1041,1041,1041,1041,1041,1038,1038,1038,1038,1038,1038,1038,1038,1038,1038,1038,1038,1038,1038,1038,1038,1038,807,807,807,807,807,807,807,807,807,807,807,807,807,807,805,805,805,805,805,805,805,805,805,805,805,805,805,805,805,805,805,805,805,807,807,807,807,809,809,811,811,811,811,811,813,813,813,813,813,813,0,0,0,0,0,0,0,0,0,0,0,0,0,0,0,0,0,0,0,0,0,0,0,0,0,0,0,0,0,0,0,0,0,0,0,0,0,0
0,0,0,0,0,0,1189,1189,1185,1185,1185,1185,1181,1181,1181,1181,1181,1181,1181,1181,1181,1181,1177,1177,1177,1177,1177,1177,1177,1181,1181,1181,1181,1181,1181,1181,1181,1177,1177,1177,1177,1177,1177,1177,1177,1177,1173,1173,1177,1173,1173,1173,1177,1177,1173,1173,1173,1173,1169,1169,1169,1169,1165,1165,1165,1165,1165,1169,1169,1169,1169,1169,1169,1169,1169,1165,1165,1165,1165,1165,1165,1165,1165,1165,1165,1165,1161,1161,1161,1161,1161,1161,1161,1161,1161,1161,1161,1157,1157,1157,1161,1161,1157,1157,1153,1149,1145,1145,1141,1138,1138,1138,1141,1141,1145,1145,1145,1145,1149,1149,1149,1149,1149,1149,1149,1149,1149,1149,1145,1145,1145,0,0,0,0,0,0,0,790,790,790,789,778,776,776,776,776,778,780,780,780,781,781,781,783,785,787,787,787,789,790,790,792,792,792,0,794,0,1145,1145,1141,1141,1138,1138,1138,1138,1138,1138,1138,1138,1134,1134,1134,1134,1134,1134,1134,1134,1134,1134,1134,1134,1134,1134,1134,1130,1130,1130,1130,1130,1130,1130,1130,1130,1130,1130,1130,1130,1130,1130,1126,1126,1126,1130,1130,1130,1130,889,889,889,889,894,894,894,896,896,896,896,894,894,896,896,896,896,898,898,898,898,898,901,901,903,903,906,906,906,908,908,910,913,915,915,915,918,920,923,923,923,925,925,928,928,930,930,933,933,933,1105,1101,1101,1105,1105,1105,1105,1105,1105,1108,1108,1105,1105,1105,1105,1105,1105,1105,1105,1105,1105,1105,1105,1105,1105,1105,1101,1101,1101,1101,1101,1101,1101,1101,1101,1097,1097,1097,1097,1097,1097,1101,1101,1101,1101,1101,1101,1101,1101,1101,1101,1101,1097,1097,1097,1097,1097,1097,1097,1094,1094,1094,1094,1090,1090,1090,1090,1094,1094,1094,1094,1094,1094,1094,1090,1090,1090,1090,1090,1087,1087,1087,1087,1090,1090,1090,1090,1090,1087,1087,1087,1084,1084,1084,1084,1084,1084,1084,1084,1087,1087,1084,1084,1084,1084,1080,1080,1080,1080,1084,1084,1084,1080,1080,1080,1080,1080,1080,1080,1080,1080,1080,1080,1080,1077,1077,1077,1077,1077,1073,1073,1077,1077,1077,1077,1077,1077,1077,1077,1077,1077,1077,1073,1073,1073,1070,1070,1070,1067,1067,1070,1067,1067,1067,1067,1070,1070,1070,1067,1067,1067,1067,1067,1067,1063,1063,1063,1063,1067,1063,1063,1063,1063,1063,1063,1063,1063,1063,1063,1060,1060,1060,1057,1057,1057,1060,1060,1060,1063,1063,1060,1060,1060,1057,1057,1054,1054,1054,1054,1054,1050,1050,1050,1050,1050,1050,1050,1050,1050,1050,1050,1050,1050,1050,1050,1050,1050,1050,1050,1050,1050,1050,1050,1050,1050,1047,1047,1047,1044,1044,1044,1044,1044,1044,1044,1047,1047,1044,1044,1044,1044,1044,1041,1041,1041,1041,1041,1041,1041,1041,1041,1038,1038,1038,1038,1038,1038,1038,1034,1034,1034,1034,1034,1034,1034,1038,1038,1038,1038,1038,1038,1038,1034,1034,1034,1034,1034,1038,1038,1038,1038,1034,1034,1038,1038,807,807,807,807,807,807,807,807,807,807,807,807,807,807,805,805,805,805,805,805,805,805,805,805,805,805,805,805,805,805,805,807,807,807,807,807,809,809,811,811,811,811,811,813,813,813,813,815,815,817,819,0,0,0,0,0,0,0,0,0,0,0,0,0,0,0,0,0,0,0,0,0,0,0,0,0,0,0,0,0,0,0,0,0,0,0,0,0
0,0,0,0,0,0,1189,1189,1185,1185,1181,1181,1181,1181,1181,1181,1181,1181,1181,1177,1177,1177,1177,1173,1173,1173,1173,1173,1177,1177,1177,1177,1177,1177,1181,1177,1177,1177,1177,1177,1177,1173,1173,1173,1173,1173,1173,1173,1173,1173,1173,1173,1173,1173,1173,1173,1173,1173,1169,1165,1165,1165,1165,1165,1165,1165,1165,1165,1165,1165,1165,1169,1169,1165,1165,1165,1165,1165,1165,1165,1165,1165,1165,1161,1161,1161,1161,1161,1157,1157,1157,1157,1161,1161,1161,1161,1157,1157,1157,1157,1157,1157,1157,1157,1153,1149,1145,1145,1141,1141,1141,1141,1141,1145,1145,1145,1145,1145,1149,1145,1145,1149,1149,1149,1149,1145,1145,1145,1145,1145,0,0,0,0,0,0,0,0,792,792,790,789,781,778,778,778,778,778,780,780,780,781,781,781,783,785,787,787,789,789,790,790,792,794,794,794,794,0,1141,0,1141,1138,1134,1134,1134,1134,1134,1134,1130,1130,1130,1134,1134,1134,1134,1134,1130,1130,1130,1130,1130,1130,1130,1130,1130,1130,1130,1130,1130,1130,1126,1126,1126,1126,1126,1126,1126,1126,1126,1126,1126,1126,1126,1126,1126,1130,887,887,889,889,891,894,894,894,894,894,894,894,894,894,894,894,896,896,896,896,896,898,898,901,901,903,903,906,906,906,908,910,913,913,915,915,918,918,920,923,923,923,925,925,928,928,930,930,933,1101,1105,1105,1101,1101,1101,1105,1101,1101,1101,1101,1105,1101,1101,1101,1101,1101,1101,1101,1101,1101,1101,1101,1101,1101,1101,1101,1101,1101,1097,1097,1097,1097,1097,1097,1097,1097,1094,1094,1097,1097,1094,1094,1097,1097,1101,1097,1097,1097,1097,1097,1097,1094,1094,1094,1094,1094,1094,1094,1094,1094,1090,1090,1090,1090,1090,1090,1090,1090,1090,1090,1090,1090,1090,1090,1090,1087,1087,1087,1087,1087,1087,1087,1087,1087,1087,1087,1087,1087,1087,1087,1087,1084,1084,1084,1084,1084,1084,1080,1080,1080,1080,1080,1080,1084,1080,1080,1080,1080,1080,1080,1080,1080,1080,1080,1080,1080,1080,1080,1080,1077,1077,1077,1077,1077,1077,1077,1077,1077,1073,1073,1073,1073,1073,1073,1073,1073,1073,1073,1077,1077,1077,1077,1073,1073,1073,1070,1070,1067,1067,1067,1067,1067,1067,1067,1067,1067,1067,1067,1067,1067,1063,1063,1063,1063,1063,1063,1063,1063,1063,1063,1063,1063,1063,1063,1063,1063,1063,1060,1060,1060,1057,1057,1057,1057,1054,1054,1057,1057,1057,1057,1060,1057,1057,1057,1054,1054,1054,1050,1050,1050,1054,1050,1050,1050,1050,1050,1050,1050,1050,1050,1050,1047,1047,1047,1047,1047,1047,1047,1047,1047,1047,1047,1047,1047,1047,1047,1047,1044,1044,1044,1044,1041,1041,1041,1041,1041,1041,1041,1041,1041,1041,1041,1041,1041,1041,1041,1041,1041,1041,1038,1038,1038,1038,1038,1038,1038,1034,1034,1034,1034,1034,1031,1031,1031,1031,1031,1034,1034,1038,1038,1038,1034,1034,1034,1034,1031,1031,1034,1034,1034,1034,1034,1034,1034,1034,807,807,807,807,807,807,807,807,807,807,807,807,807,807,807,805,805,805,805,805,805,805,805,805,805,805,805,805,805,805,805,805,807,807,807,807,809,809,811,811,811,811,811,811,813,813,813,813,815,817,819,819,0,0,0,0,0,0,0,0,0,0,0,0,0,0,0,0,0,0,0,0,0,0,0,0,0,0,0,0,0,0,0,0,0,0,0,0,0
0,0,0,0,0,0,1185,1185,1181,1181,1181,1181,1181,1181,1177,1177,1177,1177,1177,1177,1173,1173,1173,1169,1169,1173,1173,1173,1173,1173,1173,1173,1173,1173,1173,1169,1169,1173,1173,1173,1173,1173,1173,1173,1173,1169,1169,1169,1169,1169,1169,1169,1169,1169,1165,1165,1165,1165,1165,1161,1161,1161,1161,1161,1161,1161,1161,1161,1161,1165,1165,1165,1165,1165,1165,1165,1165,1161,1161,1161,1161,1161,1161,1157,1153,1153,1157,1157,1157,1157,1153,1153,1157,1157,1157,1157,1157,1157,1153,1153,1153,1153,1153,1149,1149,1145,1145,1145,1141,1141,1141,1141,1141,1145,1145,1145,1145,1145,1145,1145,1145,1149,1149,1145,1145,1145,1145,1145,1145,1145,0,0,0,0,0,0,0,0,0,790,790,789,785,780,778,778,778,778,780,780,780,781,781,783,785,787,787,789,789,789,790,792,794,794,794,794,0,0,0,0,1134,1134,1134,1134,1130,1130,1130,1130,1130,1130,1130,1130,1130,1130,1130,1130,1130,1130,1130,1126,1126,1126,1126,1126,1126,1126,1126,1126,1126,1123,1123,1123,1123,1123,1123,1123,1123,1123,1126,1126,1123,1123,1123,1126,887,887,887,887,889,889,891,894,894,894,894,894,894,894,891,891,891,891,894,894,896,896,896,896,898,898,901,903,903,906,906,906,906,910,913,913,915,915,918,920,920,923,923,925,925,925,928,928,928,1101,1101,1101,1101,1101,1101,1101,1101,1101,1101,1101,1101,1101,1101,1097,1097,1097,1101,1101,1097,1097,1097,1097,1097,1097,1097,1097,1097,1097,1097,1097,1094,1094,1094,1094,1094,1094,1094,1094,1090,1090,1094,1094,1090,1090,1094,1094,1094,1094,1094,1094,1094,1094,1094,1094,1094,1094,1094,1094,1094,1094,1090,1090,1090,1090,1087,1087,1087,1087,1087,1087,1090,1090,1087,1087,1087,1087,1087,1084,1084,1084,1084,1084,1084,1080,1080,1084,1084,1084,1084,1084,1084,1084,1084,1080,1080,1080,1080,1080,1080,1080,1080,1080,1080,1080,1080,1080,1080,1080,1080,1080,1077,1077,1077,1077,1077,1077,1077,1077,1077,1077,1077,1077,1077,1077,1077,1077,1073,1073,1070,1070,1070,1070,1070,1070,1070,1070,1070,1070,1073,1073,1073,1073,1073,1073,1070,1070,1067,1067,1067,1063,1063,1063,1063,1063,1063,1063,1063,1063,1063,1063,1063,1063,1063,1063,1063,1063,1063,1060,1060,1060,1060,1063,1063,1063,1063,1063,1063,1060,1060,1060,1057,1057,1054,1054,1054,1054,1054,1054,1054,1054,1054,1054,1054,1054,1054,1054,1054,1054,1050,1050,1050,1050,1050,1047,1047,1047,1047,1047,1047,1047,1047,1047,1047,1047,1047,1047,1044,1044,1044,1044,1047,1047,1047,1047,1047,1044,1044,1044,1044,1041,1041,1041,1041,1041,1038,1038,1038,1038,1038,1038,1038,1038,1038,1038,1038,1038,1038,1038,1038,1038,1038,1038,1038,1038,1034,1034,1034,1034,1034,1034,1034,1031,1028,1028,1028,1028,1028,1028,1031,1031,1031,1031,1031,1031,1031,1031,1031,1031,1031,1031,1031,1031,1031,1031,1031,1031,809,807,807,807,807,807,807,807,807,807,807,807,807,807,807,805,805,805,805,805,805,805,805,805,805,805,805,805,805,805,805,807,807,807,807,807,809,809,809,811,811,811,811,811,813,813,813,813,815,819,819,821,821,0,0,0,0,0,0,0,0,0,0,0,0,0,0,0,0,0,0,0,0,0,0,0,0,0,0,0,0,0,0,0,0,0,0,0,0,0
0,0,0,0,0,0,1177,1177,1177,1177,1177,1177,1177,1177,1177,1177,1177,1177,1177,1173,1173,1173,1173,1169,1169,1169,1169,1169,1169,1169,1169,1173,1169,1169,1165,1165,1165,1165,1165,1165,1165,1169,1169,1169,1169,1169,1165,1165,1165,1165,1165,1165,1165,1165,1161,1161,1161,1161,1161,1161,1161,1161,1157,1157,1157,1157,1157,1157,1161,1161,1161,1161,1161,1161,1161,1161,1161,1161,1161,1157,1157,1157,1157,1153,1149,1149,1149,1149,1149,1149,1149,1149,1153,1153,1153,1153,1153,1153,1149,1149,1149,1149,1149,1149,1145,1145,1145,1145,1141,1141,1141,1141,1141,1141,1141,1141,1145,1145,1145,1145,1145,1145,1145,1145,1145,1145,1145,1145,1141,1141,0,0,0,0,0,0,0,0,0,790,790,789,785,781,780,780,780,780,780,780,781,781,781,783,785,787,787,789,789,790,790,792,794,794,794,0,0,0,0,0,1134,1134,1134,1130,1130,1126,1126,1126,1126,1126,1126,1126,1126,1126,1126,1123,1123,1123,1126,1126,1123,1123,1123,1123,1123,1123,1123,1123,1123,1123,1119,1119,1119,1119,1119,1119,1119,1119,1119,1123,1123,887,887,887,887,887,887,887,887,889,891,891,891,894,894,891,891,891,891,891,891,891,891,894,894,894,896,896,896,898,901,901,903,906,906,906,906,910,913,913,915,915,918,920,920,923,923,925,925,925,925,925,928,1101,1101,1101,1101,1101,1101,1101,1101,1101,1101,1097,1097,1097,1097,1094,1094,1097,1097,1097,1094,1094,1094,1094,1094,1094,1094,1094,1094,1094,1094,1094,1094,1090,1090,1090,1090,1090,1090,1090,1090,1090,1090,1090,1090,1090,1094,1094,1094,1094,1090,1090,1090,1090,1090,1090,1090,1090,1090,1090,1090,1090,1090,1087,1087,1087,1087,1087,1084,1084,1084,1084,1087,1087,1087,1084,1084,1087,1084,1084,1080,1080,1080,1080,1080,1080,1080,1080,1080,1080,1080,1080,1080,1080,1080,1077,1077,1080,1080,1077,1077,1077,1077,1077,1077,1077,1077,1077,1077,1077,1077,1077,1077,1077,1073,1073,1077,1077,1077,1073,1073,1077,1077,1073,1073,1073,1073,1073,1070,1070,1067,1067,1067,1067,1067,1067,1067,1067,1067,1067,1067,1070,1070,1070,1070,1070,1070,1067,1067,1067,1063,1063,1063,1063,1063,1063,1063,1063,1063,1063,1063,1063,1060,1060,1060,1060,1057,1057,1057,1057,1060,1060,1060,1060,1060,1060,1060,1060,1060,1057,1057,1057,1054,1054,1054,1054,1054,1050,1050,1050,1050,1050,1050,1050,1050,1050,1050,1050,1050,1050,1050,1047,1047,1047,1047,1047,1047,1047,1047,1047,1047,1047,1047,1047,1047,1047,1047,1044,1044,1044,1044,1044,1044,1041,1041,1044,1044,1044,1044,1041,1041,1041,1041,1038,1038,1038,1038,1038,1038,1038,1034,1034,1034,1031,1031,1034,1034,1034,1038,1038,1038,1038,1038,1038,1034,1034,1034,1034,1034,1034,1031,1031,1028,1028,1028,1028,1028,1028,1028,1028,1028,1028,1028,1028,1028,1028,1028,1031,1031,1028,1028,1028,1028,1028,1025,1025,1031,1031,809,809,807,807,807,807,807,807,807,807,807,807,807,807,807,805,805,805,805,805,805,805,805,805,805,805,805,805,805,807,807,807,807,807,807,809,809,809,809,811,811,811,811,811,813,813,813,813,815,821,821,823,825,0,0,0,0,0,0,0,0,0,0,0,0,0,0,0,0,0,0,0,0,0,0,0,0,0,0,0,0,0,0,0,0,0,0,0,0,0
0,0,0,0,0,0,1177,1177,1177,1177,1177,1173,1173,1177,1173,1173,1173,1173,1169,1169,1169,1169,1169,1165,1165,1165,1165,1165,1169,1169,1169,1169,1165,1165,1165,1161,1161,1161,1161,1161,1161,1161,1161,1161,1161,1165,1165,1165,1165,1165,1165,1161,1161,1161,1161,1161,1157,1157,1157,1157,1157,1157,1157,1157,1157,1157,1157,1157,1157,1157,1157,1157,1157,1161,1161,1161,1161,1161,1157,1153,1153,1153,1153,1149,1149,1149,1149,1149,1149,1149,1149,1149,1149,1149,1149,1149,1149,1149,1145,1145,1145,1145,1145,1145,1145,1141,1141,1141,1141,1141,1138,1138,1141,1141,1141,1141,1141,1141,1141,1138,1138,1141,1141,1145,1141,1141,1141,1141,1138,1134,1134,0,0,0,0,0,0,0,0,0,790,789,785,781,781,780,780,780,780,781,781,781,783,785,785,787,787,789,789,790,792,794,794,794,796,0,0,0,0,0,1134,1134,1130,1126,1123,1123,1123,1123,1123,1123,1123,1126,1126,1123,1123,1123,1119,1119,1119,1119,1119,1119,1119,1119,1119,1119,1119,1119,1119,1119,1119,1119,1119,1119,1119,1119,1119,1119,1119,1119,887,887,887,887,887,887,887,887,887,889,889,889,889,891,891,891,891,891,891,891,891,891,891,894,894,894,896,896,896,898,901,901,903,906,906,906,908,910,913,913,915,915,918,920,920,923,923,925,925,925,925,925,1101,1101,1101,1101,1101,1101,1101,1101,1101,1097,1097,1097,1097,1097,1094,1094,1094,1094,1094,1094,1094,1090,1090,1090,1090,1090,1090,1090,1090,1090,1090,1090,1090,1087,1087,1087,1087,1087,1087,1087,1087,1087,1087,1087,1087,1087,1090,1090,1087,1087,1087,1087,1087,1087,1087,1087,1087,1090,1090,1090,1090,1090,1087,1084,1084,1084,1084,1084,1080,1080,1084,1084,1084,1084,1080,1080,1080,1080,1080,1080,1080,1080,1080,1080,1080,1077,1077,1077,1080,1080,1077,1077,1080,1077,1077,1077,1077,1077,1077,1077,1073,1073,1073,1073,1077,1073,1073,1077,1077,1077,1073,1073,1070,1070,1070,1067,1067,1070,1070,1070,1070,1073,1073,1073,1070,1070,1070,1070,1067,1067,1067,1067,1067,1067,1067,1067,1063,1063,1063,1063,1063,1067,1067,1067,1067,1067,1063,1063,1063,1060,1060,1060,1060,1060,1060,1060,1060,1060,1060,1060,1060,1060,1057,1057,1057,1057,1054,1054,1054,1054,1054,1054,1057,1057,1057,1057,1057,1057,1057,1054,1054,1054,1054,1054,1050,1050,1050,1050,1050,1050,1050,1050,1047,1047,1047,1047,1047,1047,1047,1047,1047,1047,1044,1044,1044,1044,1044,1044,1044,1044,1044,1044,1044,1044,1044,1044,1044,1041,1041,1041,1041,1041,1041,1041,1041,1041,1041,1041,1041,1041,1041,1038,1038,1038,1038,1038,1034,1034,1034,1034,1031,1031,1028,1028,1031,1031,1031,1031,1034,1034,1034,1034,1034,1034,1031,1031,1031,1031,1031,1031,1028,1028,1028,1028,1028,1028,1025,1025,1025,1025,1025,1025,1028,1028,1028,1028,1028,1025,1025,1028,1028,1028,1025,1025,1022,1022,1022,811,811,809,807,807,807,807,809,809,807,807,807,807,805,805,805,805,805,805,805,805,805,805,805,805,805,805,805,805,805,805,807,807,807,807,807,809,809,809,811,811,811,811,813,813,813,813,813,813,821,821,825,829,829,0,0,0,0,0,0,0,0,0,0,0,0,0,0,0,0,0,0,0,0,0,0,0,0,0,0,0,0,0,0,0,0,0,0,0,0,0
0,0,0,0,0,0,1173,1173,1169,1169,1173,1169,1169,1173,1173,1169,1169,1169,1169,1165,1165,1165,1165,1165,1165,1161,1161,1161,1161,1165,1165,1165,1165,1165,1161,1161,1157,1157,1161,1157,1157,1157,1157,1157,1157,1157,1157,1157,1157,1161,1161,1157,1157,1157,1157,1157,1153,1153,1157,1157,1157,1153,1153,1153,1153,1153,1153,1153,1153,1153,1153,1153,1153,1157,1157,1157,1157,1157,1153,1149,1149,1149,1149,1145,1145,1145,1145,1145,1145,1145,1145,1145,1145,1145,1145,1145,1145,1145,1145,1141,1141,1145,1141,1141,1141,1141,1141,1141,1138,1138,1138,1138,1138,1138,1138,1138,1138,1138,1138,1134,1134,1134,1134,1138,1138,1138,1138,1138,1134,1134,1134,1134,0,0,0,0,0,0,0,0,0,0,785,783,781,780,780,780,780,781,781,783,783,785,787,787,787,789,790,790,792,794,794,794,796,798,798,0,0,0,1138,1126,1123,1123,1119,1119,1119,1119,1119,1119,1123,1123,1123,1123,1119,1119,1119,1119,1119,1119,1119,1115,1115,1115,1119,1119,1119,1115,1115,1115,1115,1115,1115,1115,1115,1115,1115,1115,885,885,885,885,887,887,887,887,887,887,887,887,887,887,889,889,891,891,891,891,891,891,891,891,891,894,894,894,896,896,896,898,901,903,906,906,906,906,908,910,913,915,915,918,920,920,923,923,923,925,925,925,925,1097,1097,1097,1097,1097,1101,1101,1101,1101,1097,1097,1097,1094,1094,1094,1094,1090,1090,1090,1090,1090,1090,1090,1090,1090,1090,1090,1090,1090,1090,1090,1090,1087,1087,1087,1084,1084,1087,1084,1084,1087,1087,1084,1084,1084,1084,1084,1084,1084,1084,1084,1084,1084,1084,1084,1084,1084,1087,1084,1084,1084,1084,1087,1084,1080,1080,1080,1080,1080,1080,1080,1080,1080,1080,1080,1077,1077,1077,1080,1080,1080,1077,1077,1077,1077,1077,1077,1077,1077,1077,1077,1077,1077,1077,1077,1077,1077,1077,1073,1073,1070,1070,1070,1070,1070,1070,1070,1070,1073,1073,1073,1070,1070,1067,1067,1067,1067,1067,1067,1067,1067,1067,1070,1070,1070,1067,1067,1067,1067,1067,1067,1067,1067,1067,1063,1063,1063,1063,1063,1063,1060,1060,1060,1060,1060,1060,1060,1060,1060,1060,1060,1060,1060,1060,1060,1060,1057,1057,1057,1057,1057,1057,1057,1054,1054,1054,1054,1054,1054,1054,1054,1054,1054,1054,1054,1054,1054,1054,1054,1054,1054,1054,1054,1050,1050,1050,1050,1050,1050,1050,1047,1047,1047,1044,1044,1044,1044,1044,1044,1044,1044,1044,1044,1044,1041,1041,1041,1041,1041,1041,1041,1041,1041,1041,1041,1041,1041,1041,1041,1041,1041,1041,1038,1038,1038,1038,1038,1038,1038,1038,1038,1038,1038,1034,1034,1034,1034,1034,1031,1031,1031,1028,1028,1028,1028,1028,1028,1028,1028,1031,1031,1031,1031,1031,1031,1028,1028,1028,1028,1028,1028,1028,1028,1028,1028,1028,1025,1025,1025,1025,1025,1025,1025,1025,1025,1025,1025,1025,1025,1025,1025,1025,1025,1025,1022,1022,1022,809,809,809,809,807,807,807,809,807,807,807,807,807,807,805,805,805,805,805,805,805,805,805,805,805,805,805,805,805,805,805,805,807,807,807,807,809,809,809,809,811,811,811,813,813,813,813,813,813,813,821,821,829,827,827,0,0,0,0,0,0,0,0,0,0,0,0,0,0,0,0,0,0,0,0,0,0,0,0,0,0,0,0,0,0,0,0,0,0,0,0,0
0,0,0,0,0,0,1169,1169,1169,1169,1169,1165,1165,1169,1169,1169,1169,1169,1165,1165,1165,1165,1165,1161,1161,1161,1161,1157,1157,1161,1161,1161,1161,1161,1157,1157,1157,1157,1157,1153,1149,1149,1153,1153,1149,1149,1153,1153,1153,1153,1153,1153,1149,1149,1153,1153,1153,1153,1153,1153,1153,1153,1149,1149,1153,1153,1153,1149,1149,1149,1149,1149,1149,1145,1145,1145,1145,1145,1145,1145,1145,1145,1145,1145,1145,1145,1145,1145,1145,1145,1145,1145,1145,1141,1141,1141,1141,1141,1141,1138,1138,1141,1138,1138,1138,1138,1138,1138,1138,1138,1138,1138,1138,1138,1138,1138,1138,1134,1134,1134,1134,1134,1134,1134,1134,1134,1134,1134,1134,1134,1134,1134,0,0,0,0,0,0,0,0,0,0,785,783,781,781,781,781,781,781,783,783,785,785,787,787,789,789,790,790,792,794,794,796,796,798,798,0,0,0,0,1123,1119,1119,1119,1119,1115,1115,1119,1119,1119,1119,1119,1119,1119,1119,1119,1115,1115,1115,1115,1115,1115,1115,1115,1115,1115,1115,1115,1115,1115,1115,1115,1115,1115,1115,1115,882,882,885,885,885,885,885,885,885,885,887,887,887,887,887,889,889,889,889,889,891,891,891,891,891,891,894,894,894,896,896,896,898,901,903,906,906,906,908,910,913,913,915,915,918,920,920,923,923,923,925,928,928,1090,1090,1090,1097,1097,1097,1097,1097,1097,1097,1097,1097,1094,1094,1094,1090,1090,1090,1090,1090,1090,1090,1090,1090,1090,1087,1087,1087,1087,1087,1087,1087,1087,1087,1084,1084,1084,1084,1084,1080,1080,1084,1084,1080,1080,1084,1084,1084,1084,1084,1084,1084,1080,1080,1080,1080,1080,1084,1084,1080,1080,1080,1080,1080,1077,1077,1080,1080,1080,1080,1077,1077,1077,1077,1077,1077,1077,1077,1077,1077,1077,1077,1077,1077,1077,1073,1073,1073,1073,1073,1073,1073,1073,1073,1073,1073,1073,1073,1070,1070,1067,1067,1067,1067,1067,1067,1067,1067,1067,1070,1067,1067,1067,1067,1067,1067,1063,1063,1063,1063,1063,1063,1063,1063,1067,1067,1067,1067,1067,1067,1067,1067,1063,1063,1063,1063,1063,1063,1063,1060,1060,1057,1057,1057,1057,1057,1057,1057,1057,1057,1057,1057,1057,1057,1057,1057,1057,1057,1057,1057,1054,1054,1054,1054,1054,1054,1050,1050,1050,1050,1050,1050,1050,1050,1050,1050,1050,1050,1050,1050,1050,1050,1050,1050,1050,1050,1047,1047,1047,1047,1047,1047,1047,1044,1044,1041,1041,1041,1041,1041,1041,1041,1041,1041,1041,1041,1041,1041,1041,1041,1041,1041,1038,1038,1038,1038,1038,1038,1038,1038,1038,1038,1034,1034,1034,1034,1034,1034,1034,1034,1034,1034,1034,1034,1031,1031,1031,1031,1031,1028,1028,1028,1028,1028,1025,1025,1028,1028,1028,1028,1028,1028,1028,1028,1028,1028,1028,1028,1028,1028,1028,1028,1025,1025,1025,1025,1025,1025,1025,1025,1025,1025,1025,1022,1022,1022,1022,1025,1025,1022,1022,1022,1025,1025,1025,1022,1022,1022,809,809,809,809,807,807,807,809,807,807,807,807,807,807,805,805,805,805,805,805,805,805,805,805,805,805,805,805,805,805,805,805,807,807,807,807,809,809,811,811,811,811,811,813,813,813,815,815,815,815,821,823,825,823,823,0,0,0,0,0,0,0,0,0,0,0,0,0,0,0,0,0,0,0,0,0,0,0,0,0,0,0,0,0,0,0,0,0,0,0,0,0
0,0,0,0,0,0,1169,1169,1165,1165,1165,1165,1165,1165,1165,1165,1165,1165,1165,1161,1161,1161,1161,1161,1161,1161,1157,1157,1157,1157,1157,1157,1157,1157,1153,1153,1153,1153,1153,1149,1149,1149,1149,1149,1149,1149,1149,1149,1149,1149,1149,1149,1149,1149,1149,1149,1149,1149,1149,1149,1153,1149,1149,1149,1149,1149,1149,1149,1149,1149,1145,1141,1141,1138,1138,1141,1141,1141,1141,1141,1145,1145,1145,1141,1141,1141,1141,1141,1141,1141,1141,1141,1141,1141,1141,1141,1138,1138,1138,1138,1138,1138,1134,1134,1138,1138,1138,1134,1134,1134,1134,1138,1134,1134,1134,1134,1134,1134,1134,1130,1130,1130,1130,1134,1130,1130,1130,1130,1130,1130,1130,1130,0,0,0,0,0,0,0,0,0,0,790,785,783,783,781,781,781,781,783,783,785,787,787,789,789,789,790,790,794,794,796,796,796,798,798,0,0,0,0,1123,1119,1119,1119,1115,1115,1115,1115,1115,1115,1115,1115,1119,1115,1115,1115,1115,1115,1115,1115,1112,1112,1112,1112,1112,1112,1112,1112,1112,1112,1112,1115,1115,1115,1115,880,880,882,885,885,885,885,885,885,885,885,885,887,887,887,887,887,887,887,887,889,889,889,891,891,891,891,894,894,894,896,896,896,898,901,906,906,906,908,908,910,910,913,915,915,918,920,920,923,923,923,1084,1087,1087,1087,1087,1087,1090,1090,1090,1090,1094,1094,1094,1094,1094,1094,1090,1090,1090,1090,1090,1090,1090,1090,1087,1087,1087,1087,1087,1087,1087,1084,1084,1084,1084,1084,1084,1084,1084,1080,1080,1080,1080,1080,1080,1084,1080,1080,1080,1080,1080,1080,1080,1080,1080,1080,1077,1077,1080,1080,1080,1080,1080,1080,1080,1077,1077,1077,1073,1073,1073,1077,1077,1077,1077,1073,1073,1073,1077,1073,1073,1073,1073,1073,1073,1073,1073,1073,1073,1070,1070,1070,1070,1070,1070,1070,1070,1070,1070,1070,1070,1067,1063,1063,1063,1063,1063,1063,1063,1067,1067,1067,1067,1067,1067,1067,1063,1063,1063,1063,1063,1060,1060,1060,1060,1060,1060,1060,1060,1063,1063,1063,1063,1063,1063,1063,1063,1063,1060,1060,1060,1060,1057,1057,1057,1057,1057,1057,1054,1054,1054,1054,1054,1054,1054,1054,1054,1054,1054,1054,1054,1054,1054,1054,1054,1054,1054,1050,1050,1050,1047,1047,1047,1050,1050,1050,1050,1050,1050,1050,1050,1050,1050,1047,1047,1047,1050,1050,1047,1047,1047,1047,1044,1044,1044,1044,1044,1041,1041,1041,1041,1041,1041,1041,1041,1041,1041,1041,1041,1038,1038,1038,1038,1038,1038,1034,1034,1034,1034,1034,1031,1031,1031,1031,1031,1031,1031,1031,1031,1031,1031,1031,1031,1031,1031,1031,1031,1028,1028,1028,1028,1028,1028,1028,1028,1028,1028,1025,1025,1025,1025,1025,1025,1025,1025,1025,1025,1025,1028,1025,1025,1025,1025,1025,1025,1025,1025,1025,1025,1025,1025,1022,1022,1022,1022,1022,1022,1022,1019,1019,1019,1019,1019,1019,1019,1022,1022,1022,1022,1022,809,809,807,807,809,807,807,807,809,807,807,807,807,807,807,805,805,805,805,805,805,805,805,805,805,805,805,805,805,805,805,805,807,807,807,807,807,809,809,811,811,811,811,813,813,813,813,815,815,815,815,823,825,823,823,823,0,0,0,0,0,0,0,0,0,0,0,0,0,0,0,0,0,0,0,0,0,0,0,0,0,0,0,0,0,0,0,0,0,0,0,0,0
0,0,0,0,0,0,1169,1165,1165,1165,1165,1161,1161,1165,1161,1161,1161,1161,1161,1161,1161,1161,1161,1161,1157,1157,1153,1153,1153,1149,1149,1153,1153,1153,1153,1149,1149,1153,1149,1149,1149,1149,1149,1149,1145,1145,1149,1149,1149,1149,1149,1149,1145,1145,1145,1145,1145,1141,1141,1145,1145,1149,1149,1149,1149,1149,1149,1145,1145,1145,1145,1141,1141,1138,1138,1141,1141,1141,1141,1141,1141,1141,1141,1141,1141,1141,1141,1141,1141,1141,1141,1138,1138,1138,1138,1138,1134,1134,1134,1134,1134,1134,1134,1134,1134,1134,1134,1134,1134,1134,1134,1134,1134,1134,1130,1130,1130,1130,1130,1130,1130,1130,1130,1130,1130,1130,1130,1130,1130,1130,1130,1126,1123,1123,0,0,0,0,0,0,0,0,0,783,783,783,783,781,781,783,783,785,785,787,789,789,789,790,790,792,794,794,796,798,798,798,800,0,0,0,0,1123,1119,1119,1115,1115,1115,1115,1115,1115,1112,1112,1115,1115,1112,1112,1112,1112,1112,1112,1112,1112,1112,1112,1112,1112,1112,1108,1108,1112,1112,1112,1112,1112,1112,878,878,878,880,882,882,882,885,885,885,885,885,885,885,885,885,885,885,885,885,887,887,887,887,891,891,891,894,894,894,894,896,896,896,898,901,906,906,906,908,908,910,910,913,915,915,918,920,920,923,1084,1084,1084,1087,1087,1087,1087,1087,1087,1087,1087,1087,1087,1087,1087,1087,1090,1090,1087,1087,1087,1087,1087,1087,1087,1087,1087,1087,1087,1087,1087,1084,1084,1084,1084,1084,1080,1080,1080,1080,1080,1077,1077,1077,1077,1077,1077,1080,1077,1077,1077,1077,1077,1077,1077,1077,1077,1077,1077,1077,1077,1077,1077,1077,1077,1077,1077,1077,1073,1073,1073,1070,1070,1070,1070,1070,1070,1070,1070,1070,1070,1070,1070,1070,1070,1070,1070,1070,1070,1070,1070,1070,1070,1067,1067,1067,1070,1070,1067,1067,1067,1067,1063,1063,1063,1063,1063,1063,1063,1063,1063,1063,1063,1063,1063,1063,1063,1063,1063,1063,1060,1060,1060,1057,1057,1060,1057,1057,1057,1057,1057,1060,1060,1057,1057,1060,1060,1060,1060,1060,1060,1060,1057,1057,1054,1054,1054,1054,1054,1054,1054,1054,1054,1054,1054,1054,1050,1050,1054,1054,1050,1050,1050,1050,1050,1050,1050,1050,1050,1050,1050,1047,1047,1047,1047,1047,1047,1047,1047,1047,1047,1047,1047,1047,1047,1047,1044,1044,1044,1044,1044,1044,1044,1044,1041,1041,1041,1041,1041,1041,1041,1041,1041,1038,1038,1038,1038,1038,1038,1038,1038,1038,1038,1038,1038,1038,1034,1034,1031,1031,1031,1031,1031,1031,1031,1031,1028,1028,1028,1028,1028,1028,1028,1028,1028,1028,1028,1028,1028,1028,1025,1025,1025,1028,1028,1028,1028,1028,1025,1025,1025,1025,1025,1022,1022,1022,1022,1022,1025,1025,1025,1025,1022,1022,1025,1025,1025,1025,1025,1025,1022,1022,1022,1022,1022,1022,1022,1019,1019,1019,1019,1016,1016,1019,1019,1016,1016,1019,1019,1022,1022,811,811,809,807,807,809,809,807,807,807,807,807,807,805,805,805,805,805,805,805,805,805,805,805,805,805,805,805,805,805,807,807,807,807,807,809,809,809,809,809,811,811,811,813,813,815,815,815,815,815,815,819,829,829,823,823,823,0,0,0,0,0,0,0,0,0,0,0,0,0,0,0,0,0,0,0,0,0,0,0,0,0,0,0,0,0,0,0,0,0,0,0,0,0
0,0,0,0,0,0,1165,1165,1161,1161,1161,1161,1161,1161,1161,1161,1161,1157,1157,1157,1157,1161,1157,1157,1157,1157,1153,1149,1149,1149,1149,1149,1149,1149,1149,1149,1149,1149,1149,1145,1145,1145,1149,1145,1145,1145,1145,1145,1145,1145,1145,1145,1145,1145,1145,1145,1141,1141,1141,1141,1141,1141,1145,1145,1145,1149,1145,1145,1145,1141,1141,1141,1138,1138,1138,1138,1138,1138,1138,1138,1141,1141,1141,1141,1141,1138,1138,1141,1141,1141,1141,1138,1138,1138,1134,1134,1134,1134,1134,1134,1134,1134,1134,1130,1130,1130,1130,1130,1130,1130,1130,1130,1130,1130,1130,1130,1130,1126,1126,1126,1126,1126,1126,1126,1126,1126,1126,1126,1126,1126,1126,1123,1119,1115,1115,0,0,0,0,0,0,0,0,783,783,783,783,781,781,783,783,785,787,787,789,789,789,790,790,792,794,794,796,798,798,798,800,802,0,0,1119,0,1119,1115,1115,1112,1112,1112,1112,1112,1108,1108,1108,1108,1112,1108,1108,1108,1105,1105,1108,1108,1108,1108,1108,1108,1108,1108,1108,1108,1112,1112,1112,878,875,875,875,878,878,880,880,880,882,882,882,882,882,882,885,885,885,885,885,885,885,885,887,887,887,891,891,891,894,894,894,896,896,896,898,901,903,906,906,906,908,908,910,910,913,915,915,918,920,1084,1084,1084,1084,1084,1084,1084,1084,1084,1084,1084,1084,1084,1084,1084,1084,1084,1084,1084,1084,1084,1087,1087,1087,1084,1084,1084,1084,1080,1080,1080,1080,1080,1080,1080,1080,1080,1080,1077,1077,1077,1077,1077,1077,1077,1077,1077,1077,1077,1077,1077,1077,1073,1073,1073,1077,1077,1073,1073,1073,1073,1073,1073,1073,1073,1073,1073,1073,1073,1073,1070,1070,1070,1070,1070,1067,1067,1067,1067,1067,1067,1067,1067,1067,1067,1067,1067,1067,1067,1067,1067,1067,1067,1067,1067,1067,1067,1067,1067,1067,1067,1067,1067,1063,1063,1063,1060,1060,1060,1060,1060,1060,1060,1060,1060,1063,1063,1060,1060,1060,1060,1060,1060,1060,1057,1057,1057,1057,1057,1057,1057,1057,1057,1057,1057,1054,1054,1054,1054,1057,1057,1057,1057,1057,1057,1054,1054,1054,1050,1050,1054,1054,1054,1054,1050,1050,1050,1050,1050,1050,1050,1050,1047,1047,1050,1050,1050,1050,1047,1047,1050,1050,1047,1047,1044,1044,1044,1044,1044,1044,1044,1044,1047,1047,1044,1044,1044,1044,1041,1041,1041,1041,1041,1041,1041,1041,1041,1041,1041,1041,1041,1038,1038,1038,1038,1038,1038,1038,1038,1038,1038,1038,1038,1038,1034,1034,1034,1034,1034,1031,1031,1031,1031,1028,1028,1028,1028,1028,1028,1028,1028,1028,1028,1028,1028,1028,1025,1025,1025,1025,1025,1025,1025,1025,1025,1025,1025,1025,1025,1025,1025,1022,1022,1022,1022,1022,1022,1019,1019,1022,1022,1022,1022,1022,1022,1022,1019,1019,1019,1019,1019,1019,1022,1019,1019,1016,1016,1016,1016,1016,1016,1016,1016,1013,1013,1013,1016,1010,1010,1019,1019,1022,1022,811,811,811,809,809,809,809,807,807,807,807,807,807,805,805,805,805,805,805,805,805,805,805,805,805,805,805,805,805,805,807,807,807,807,807,809,809,809,809,809,811,811,811,813,813,815,815,817,819,821,823,823,825,823,823,821,821,0,0,0,0,0,0,0,0,0,0,0,0,0,0,0,0,0,0,0,0,0,0,0,0,0,0,0,0,0,0,0,0,0,0,0,0,0
0,0,0,0,0,0,1165,1161,1161,1161,1157,1157,1157,1157,1157,1157,1157,1153,1153,1153,1153,1157,1157,1157,1153,1153,1149,1149,1149,1145,1145,1149,1149,1145,1145,1145,1145,1145,1145,1141,1141,1145,1145,1145,1141,1141,1141,1141,1145,1145,1145,1145,1145,1145,1145,1141,1138,1138,1138,1138,1138,1138,1138,1138,1141,1141,1141,1141,1141,1141,1141,1138,1138,1134,1134,1134,1134,1134,1134,1134,1134,1138,1138,1134,1134,1134,1134,1138,1134,1134,1138,1138,1138,1134,1134,1134,1134,1134,1130,1130,1130,1130,1130,1130,1130,1130,1130,1130,1130,1130,1130,1130,1126,1126,1126,1126,1126,1126,1126,1126,1123,1123,1123,1123,1126,1126,1123,1123,1123,1123,1123,1119,1115,1112,1108,1108,0,0,0,0,0,0,0,783,783,783,783,783,783,783,785,785,787,787,789,789,790,790,792,792,794,794,798,798,798,800,802,802,0,0,0,0,0,1115,1115,1112,1108,1108,1105,1105,1105,1105,1105,1105,1108,1108,1108,1108,1105,1105,1105,1105,1105,1105,1105,1105,1108,1108,1108,1108,1108,873,873,875,875,875,875,875,878,880,880,880,882,882,882,882,882,882,882,882,882,885,885,885,885,885,887,887,889,891,891,894,894,894,894,896,896,896,898,901,903,906,906,906,908,910,910,910,913,915,915,1080,1080,1080,1080,1080,1080,1080,1080,1080,1080,1080,1080,1080,1080,1080,1080,1080,1080,1080,1080,1080,1077,1077,1077,1077,1080,1080,1080,1080,1080,1077,1077,1077,1077,1080,1080,1080,1077,1077,1077,1077,1077,1077,1073,1073,1073,1073,1073,1073,1073,1073,1073,1070,1070,1070,1067,1067,1070,1073,1073,1073,1073,1073,1073,1073,1073,1070,1070,1070,1070,1070,1070,1070,1070,1067,1067,1067,1067,1067,1067,1067,1067,1067,1063,1063,1063,1063,1067,1067,1067,1067,1067,1067,1067,1067,1067,1063,1063,1063,1063,1063,1063,1063,1063,1063,1063,1063,1060,1060,1060,1060,1060,1057,1057,1057,1060,1060,1060,1060,1060,1057,1057,1057,1057,1057,1054,1054,1054,1054,1054,1054,1054,1054,1054,1054,1054,1054,1054,1054,1050,1050,1054,1050,1050,1054,1054,1054,1050,1050,1050,1050,1050,1050,1050,1050,1050,1050,1050,1050,1050,1050,1047,1047,1047,1044,1044,1044,1044,1047,1047,1044,1044,1044,1047,1047,1044,1044,1044,1044,1044,1041,1041,1041,1044,1044,1044,1041,1041,1041,1038,1038,1038,1038,1038,1038,1038,1038,1038,1034,1034,1038,1038,1038,1038,1034,1034,1034,1034,1034,1034,1034,1034,1034,1034,1034,1034,1034,1031,1031,1031,1031,1028,1028,1028,1028,1028,1028,1025,1025,1025,1025,1025,1025,1025,1025,1025,1025,1025,1022,1022,1025,1025,1025,1022,1022,1022,1022,1022,1025,1022,1022,1022,1019,1019,1019,1019,1019,1019,1019,1019,1019,1019,1022,1019,1019,1019,1019,1019,1019,1016,1016,1016,1016,1016,1016,1016,1013,1013,1016,1016,1016,1013,1013,1013,1013,1013,1013,1010,1010,1010,1010,1010,1010,811,811,811,811,811,809,809,811,809,809,807,807,807,807,807,805,805,805,805,805,805,805,805,805,805,805,805,805,805,805,807,807,807,807,807,807,807,809,809,809,809,811,811,811,813,813,815,815,817,819,821,827,829,827,823,823,821,821,821,0,0,0,0,0,0,0,0,0,0,0,0,0,0,0,0,0,0,0,0,0,0,0,0,0,0,0,0,0,0,0,0,0,0,0,0,0
0,0,0,0,0,0,1157,1157,1157,1157,1157,1153,1153,1157,1157,1153,1153,1149,1149,1149,1149,1149,1153,1153,1153,1149,1149,1149,1145,1145,1145,1145,1145,1145,1145,1141,1141,1141,1141,1138,1138,1138,1138,1141,1138,1138,1138,1138,1141,1141,1141,1141,1141,1141,1141,1138,1138,1134,1134,1134,1134,1134,1134,1134,1134,1138,1141,1138,1134,1134,1134,1134,1134,1134,1134,1134,1134,1134,1134,1134,1134,1134,1134,1130,1130,1134,1134,1134,1134,1134,1134,1134,1134,1134,1130,1130,1130,1130,1130,1130,1130,1126,1126,1126,1126,1126,1123,1123,1123,1123,1123,1123,1123,1123,1123,1123,1123,1123,1123,1123,1123,1123,1123,1123,1123,1119,1119,1119,1119,1115,1115,1112,1112,1105,1105,1108,0,0,0,0,0,0,0,0,783,783,783,783,783,785,785,787,787,789,789,790,790,792,792,794,794,796,798,798,800,800,802,802,0,0,0,0,0,1115,1112,1112,1108,1105,1105,1105,1105,1105,1105,1105,1105,1105,1105,1101,1101,1101,1101,1101,1101,1101,1101,1105,1105,1105,871,871,871,871,873,873,873,873,875,875,875,875,875,875,880,880,880,880,880,880,880,880,882,882,882,885,885,885,887,887,889,891,891,894,894,894,896,896,896,898,898,901,903,906,906,906,908,910,910,910,1080,1080,1080,1080,1080,1080,1080,1080,1077,1077,1077,1077,1077,1077,1077,1077,1077,1077,1077,1077,1077,1077,1077,1077,1077,1077,1073,1073,1077,1073,1073,1073,1077,1077,1077,1073,1073,1077,1077,1077,1077,1077,1077,1073,1073,1073,1073,1073,1073,1073,1073,1070,1070,1070,1070,1067,1067,1067,1067,1067,1070,1070,1070,1070,1070,1070,1070,1070,1070,1070,1070,1070,1067,1067,1067,1067,1063,1063,1067,1067,1063,1063,1063,1063,1063,1063,1063,1063,1063,1063,1063,1063,1063,1063,1063,1063,1063,1063,1063,1063,1063,1063,1063,1063,1063,1063,1063,1063,1060,1060,1060,1057,1057,1057,1057,1057,1057,1057,1057,1057,1057,1057,1057,1057,1057,1057,1054,1054,1054,1054,1054,1054,1054,1054,1054,1054,1050,1050,1050,1050,1050,1050,1050,1050,1050,1050,1050,1047,1047,1047,1047,1050,1050,1050,1050,1050,1050,1050,1050,1050,1047,1047,1047,1047,1047,1047,1044,1044,1044,1044,1044,1044,1044,1041,1041,1044,1044,1041,1041,1041,1041,1041,1041,1041,1041,1041,1041,1041,1041,1038,1038,1038,1038,1034,1034,1034,1034,1034,1034,1034,1031,1031,1031,1031,1031,1031,1034,1034,1034,1034,1034,1031,1031,1031,1031,1031,1031,1031,1031,1031,1031,1031,1031,1031,1028,1028,1028,1028,1028,1025,1025,1025,1025,1025,1025,1025,1022,1022,1022,1022,1022,1019,1019,1019,1019,1019,1022,1019,1019,1019,1019,1019,1016,1016,1019,1019,1016,1016,1016,1019,1016,1016,1016,1016,1016,1019,1016,1016,1016,1016,1016,1016,1016,1016,1013,1013,1013,1013,1013,1013,1013,1013,1013,1013,1013,1013,1013,1013,1010,1010,1010,1010,1010,1010,1010,0,0,811,811,811,811,809,809,809,809,807,807,807,807,807,805,805,805,805,805,805,803,803,803,805,805,805,805,805,805,805,807,807,807,807,807,807,809,809,809,809,811,811,811,813,813,815,815,817,819,821,829,829,829,827,823,823,821,821,821,0,0,0,0,0,0,0,0,0,0,0,0,0,0,0,0,0,0,0,0,0,0,0,0,0,0,0,0,0,0,0,0,0,0,0,0,0
0,0,0,0,0,0,1157,1153,1153,1153,1153,1153,1153,1149,1149,1149,1149,1149,1145,1145,1145,1145,1149,1149,1149,1149,1145,1145,1145,1145,1141,1141,1141,1141,1141,1138,1138,1138,1138,1134,1134,1138,1138,1138,1134,1134,1134,1134,1138,1138,1138,1138,1138,1138,1138,1134,1134,1134,1134,1134,1130,1130,1130,1130,1134,1134,1138,1134,1134,1134,1130,1130,1126,1126,1126,1126,1126,1130,1130,1130,1130,1130,1130,1130,1130,1130,1130,1130,1130,1130,1130,1130,1130,1130,1126,1126,1123,1123,1126,1126,1126,1123,1123,1123,1123,1123,1123,1123,1119,1119,1119,1119,1119,1119,1123,1119,1119,1119,1119,1119,1119,1119,1119,1119,1119,1119,1119,1115,1115,1112,1112,1112,1108,1105,1105,1105,1105,0,0,0,0,0,0,0,0,787,785,785,785,785,785,787,787,789,790,790,790,792,792,794,796,796,798,800,800,802,802,803,803,0,0,0,0,1115,1108,1108,1105,1105,1101,1101,1101,1101,1101,1101,1101,1101,1101,1101,1101,1101,1101,1101,1101,1101,1101,1101,867,867,869,871,871,871,873,873,871,871,873,873,873,873,873,873,875,875,875,875,878,878,880,880,880,882,882,882,885,885,885,887,887,891,891,894,894,894,896,896,896,898,901,903,906,906,906,906,910,910,1077,1077,1077,1077,1080,1080,1080,1080,1080,1080,1077,1077,1077,1077,1077,1077,1077,1077,1077,1077,1077,1077,1077,1077,1077,1073,1073,1073,1073,1073,1073,1073,1073,1073,1073,1073,1073,1073,1073,1073,1073,1073,1073,1073,1073,1073,1073,1073,1070,1070,1070,1070,1070,1067,1067,1067,1063,1063,1063,1063,1063,1067,1067,1067,1067,1067,1067,1067,1067,1067,1067,1067,1067,1067,1067,1067,1063,1063,1063,1063,1063,1063,1063,1063,1063,1060,1060,1063,1063,1063,1060,1060,1060,1060,1060,1060,1060,1060,1060,1060,1060,1060,1060,1060,1060,1060,1060,1060,1060,1060,1060,1057,1057,1057,1057,1057,1054,1054,1054,1054,1054,1054,1054,1054,1054,1054,1054,1054,1054,1054,1050,1050,1050,1050,1050,1050,1050,1050,1050,1050,1050,1050,1050,1047,1047,1047,1050,1050,1047,1044,1044,1044,1044,1044,1044,1044,1047,1047,1047,1047,1047,1047,1044,1044,1044,1044,1044,1044,1041,1041,1041,1041,1041,1041,1041,1041,1041,1041,1041,1041,1041,1038,1038,1038,1038,1038,1038,1034,1034,1034,1034,1034,1034,1034,1034,1034,1034,1031,1031,1031,1031,1031,1031,1028,1028,1028,1028,1028,1028,1028,1028,1031,1028,1028,1028,1028,1031,1031,1031,1031,1028,1028,1028,1028,1028,1028,1028,1025,1025,1025,1025,1025,1025,1025,1025,1025,1022,1022,1019,1019,1019,1019,1019,1016,1016,1016,1016,1019,1019,1016,1016,1016,1016,1016,1016,1013,1013,1016,1016,1013,1013,1013,1013,1013,1016,1016,1016,1016,1016,1016,1016,1016,1016,1016,1013,1013,1013,1010,1010,1010,1010,1010,1010,1010,1010,1013,1013,1013,1013,1010,1010,1010,1007,1007,1007,1007,0,811,811,811,811,811,809,809,809,809,807,807,807,807,805,805,805,805,805,805,805,805,803,803,803,805,805,805,805,805,805,805,807,807,809,809,809,809,809,809,811,811,811,811,813,813,815,817,817,819,821,823,829,829,829,827,825,823,821,821,821,0,0,0,0,0,0,0,0,0,0,0,0,0,0,0,0,0,0,0,0,0,0,0,0,0,0,0,0,0,0,0,0,0,0,0,0,0
0,0,0,0,0,0,1153,1153,1149,1149,1149,1149,1149,1149,1149,1149,1145,1145,1145,1141,1141,1141,1145,1145,1145,1145,1141,1141,1141,1141,1141,1141,1138,1138,1138,1134,1134,1134,1134,1134,1134,1134,1134,1134,1134,1134,1134,1134,1134,1134,1134,1134,1134,1134,1134,1134,1130,1130,1130,1130,1130,1130,1130,1130,1130,1130,1130,1130,1130,1130,1130,1126,1123,1123,1123,1119,1119,1123,1119,1119,1123,1126,1126,1126,1126,1126,1126,1126,1126,1126,1126,1123,1123,1123,1123,1123,1119,1119,1123,1123,1123,1123,1123,1123,1123,1119,1119,1119,1119,1119,1119,1115,1115,1115,1119,1119,1119,1119,1119,1119,1115,1115,1115,1115,1115,1115,1115,1112,1112,1108,1108,1108,1108,1105,1105,1105,1105,1108,0,0,0,0,0,0,0,789,787,787,787,787,787,787,787,789,790,792,792,792,794,794,796,796,800,800,802,802,803,803,803,805,0,0,0,0,1105,1105,1101,1101,1101,1101,1101,1101,1101,1101,1101,1101,1101,1101,1097,1097,1097,1097,1097,867,867,867,867,867,869,869,871,871,871,871,871,871,871,871,871,869,869,871,871,873,873,873,875,875,878,878,880,880,880,882,885,885,885,887,887,891,891,894,894,894,896,896,898,901,901,906,906,906,906,908,1077,1077,1077,1077,1077,1077,1077,1080,1080,1077,1077,1077,1077,1077,1077,1077,1077,1077,1073,1073,1073,1073,1073,1073,1073,1073,1073,1073,1073,1073,1073,1073,1073,1070,1070,1070,1070,1070,1070,1070,1070,1067,1067,1073,1070,1070,1070,1070,1070,1070,1067,1067,1067,1067,1067,1067,1063,1063,1063,1063,1063,1063,1063,1067,1067,1067,1067,1067,1067,1067,1067,1067,1067,1067,1067,1063,1063,1063,1063,1063,1060,1060,1060,1060,1060,1060,1060,1057,1057,1060,1060,1060,1057,1057,1057,1057,1057,1057,1054,1054,1054,1054,1054,1057,1057,1057,1057,1057,1057,1057,1057,1057,1057,1057,1054,1054,1054,1054,1054,1054,1054,1050,1050,1050,1050,1050,1050,1050,1050,1050,1050,1050,1050,1050,1047,1047,1050,1047,1047,1047,1047,1047,1047,1047,1047,1047,1044,1044,1044,1044,1044,1044,1044,1041,1041,1041,1041,1041,1041,1041,1041,1044,1044,1044,1041,1041,1041,1041,1041,1041,1041,1041,1038,1038,1038,1038,1038,1038,1038,1038,1038,1034,1034,1034,1034,1034,1034,1034,1034,1034,1031,1031,1031,1031,1031,1031,1028,1028,1028,1028,1028,1028,1028,1028,1028,1028,1028,1025,1025,1028,1028,1025,1025,1025,1025,1025,1028,1028,1025,1025,1028,1028,1025,1025,1025,1025,1025,1025,1025,1025,1025,1025,1025,1025,1022,1022,1022,1022,1022,1019,1019,1019,1019,1016,1016,1016,1016,1016,1016,1016,1016,1016,1013,1013,1016,1013,1013,1013,1013,1013,1013,1013,1013,1013,1013,1013,1010,1010,1010,1010,1013,1010,1010,1013,1013,1013,1013,1010,1010,1010,1007,1007,1007,1007,1007,1010,1010,1010,1010,1010,1010,1007,1007,1007,1004,1004,1007,1007,811,811,811,811,811,811,809,809,809,809,807,807,807,807,805,805,805,805,805,805,805,805,805,803,803,803,803,805,805,805,805,805,807,809,809,809,809,809,811,811,811,811,811,811,813,813,815,819,819,821,823,827,829,829,829,827,825,823,821,821,821,0,0,0,0,0,0,0,0,0,0,0,0,0,0,0,0,0,0,0,0,0,0,0,0,0,0,0,0,0,0,0,0,0,0,0,0,0
0,0,0,0,0,0,1149,1149,1149,1149,1149,1149,1145,1145,1145,1145,1141,1141,1141,1141,1141,1141,1138,1138,1138,1141,1138,1138,1138,1138,1138,1138,1138,1134,1134,1134,1134,1134,1134,1130,1130,1134,1130,1130,1130,1130,1130,1130,1130,1130,1130,1130,1134,1134,1130,1130,1130,1130,1126,1126,1126,1126,1123,1123,1126,1126,1126,1126,1123,1123,1123,1123,1119,1119,1119,1115,1115,1119,1119,1119,1119,1119,1119,1123,1123,1119,1119,1123,1123,1123,1119,1119,1119,1123,1119,1119,1119,1119,1119,1119,1119,1119,1119,1119,1119,1119,1119,1119,1115,1115,1115,1115,1115,1115,1115,1115,1115,1115,1115,1115,1115,1112,1112,1112,1112,1112,1112,1108,1108,1108,1108,1108,1105,1105,1105,1108,1105,1105,0,0,0,0,0,0,0,0,787,787,787,787,787,787,789,789,790,792,792,794,794,796,796,798,800,802,802,802,803,803,803,805,0,0,0,0,1097,1097,1097,1097,1097,1097,1097,1097,1097,1097,1097,1097,1097,1097,1097,1097,860,860,862,867,867,867,867,867,869,869,869,869,871,871,871,869,869,869,869,869,869,871,871,873,873,873,875,875,878,878,880,880,880,882,882,885,885,887,889,891,891,894,894,896,896,898,901,901,903,903,906,906,906,1077,1077,1077,1077,1077,1077,1077,1077,1077,1077,1077,1077,1077,1077,1073,1073,1073,1073,1073,1073,1073,1073,1073,1073,1073,1073,1073,1070,1070,1070,1070,1070,1070,1070,1070,1070,1067,1067,1067,1067,1067,1067,1067,1067,1067,1067,1067,1067,1067,1067,1067,1067,1067,1063,1063,1063,1063,1063,1060,1060,1060,1060,1060,1060,1063,1063,1063,1067,1063,1063,1063,1063,1063,1063,1063,1063,1060,1060,1060,1060,1060,1057,1057,1057,1057,1057,1057,1057,1057,1057,1057,1057,1057,1054,1054,1054,1054,1054,1054,1054,1054,1054,1054,1054,1054,1054,1054,1054,1054,1054,1057,1057,1057,1054,1054,1054,1054,1054,1050,1050,1050,1050,1047,1047,1047,1047,1047,1047,1047,1047,1050,1050,1047,1047,1047,1044,1044,1047,1047,1044,1044,1044,1044,1047,1044,1044,1044,1044,1044,1041,1041,1044,1041,1041,1041,1041,1041,1041,1041,1038,1038,1038,1038,1038,1038,1041,1041,1038,1038,1041,1041,1038,1038,1038,1038,1038,1038,1038,1034,1034,1034,1034,1031,1031,1031,1031,1031,1031,1031,1031,1031,1028,1028,1028,1028,1028,1028,1028,1028,1028,1028,1025,1025,1025,1025,1025,1025,1025,1025,1025,1025,1025,1025,1025,1022,1022,1022,1019,1019,1022,1022,1022,1025,1022,1022,1022,1022,1022,1022,1022,1022,1022,1022,1022,1022,1022,1022,1019,1019,1019,1019,1016,1016,1016,1016,1016,1016,1016,1016,1013,1013,1013,1013,1013,1013,1013,1013,1013,1013,1013,1013,1013,1010,1010,1010,1010,1007,1007,1007,1004,1004,1007,1004,1004,1007,1010,1010,1007,1007,1007,1007,1007,1004,1004,1004,1004,1007,1007,1007,1007,1004,1004,1007,1004,1004,1004,1004,1007,813,811,811,811,811,811,811,809,809,809,809,807,807,807,805,805,805,805,805,805,805,805,803,803,803,803,803,803,803,805,805,805,805,807,807,809,809,809,809,811,811,811,811,811,811,813,815,815,819,821,823,825,829,829,829,827,825,823,821,819,819,0,0,0,0,0,0,0,0,0,0,0,0,0,0,0,0,0,0,0,0,0,0,0,0,0,0,0,0,0,0,0,0,0,0,0,0,0,0
0,0,0,0,0,0,1145,1145,1145,1145,1145,1145,1145,1145,1145,1145,1141,1141,1138,1138,1138,1138,1138,1138,1138,1138,1138,1134,1134,1134,1134,1134,1134,1134,1134,1130,1130,1130,1130,1130,1130,1130,1130,1130,1130,1130,1130,1126,1126,1130,1130,1130,1130,1130,1130,1130,1126,1126,1126,1123,1123,1123,1123,1123,1123,1123,1123,1123,1119,1119,1119,1119,1119,1119,1119,1115,1115,1115,1119,1119,1119,1119,1119,1119,1119,1119,1119,1119,1119,1119,1119,1119,1119,1119,1119,1119,1115,1115,1115,1115,1115,1115,1115,1115,1115,1115,1115,1115,1115,1115,1115,1115,1112,1112,1115,1115,1115,1115,1115,1115,1112,1112,1112,1112,1112,1112,1108,1108,1105,1105,1105,1105,1105,1105,1105,1105,1105,1101,1101,0,0,0,0,0,0,0,789,789,787,787,787,789,789,790,792,792,794,794,796,796,796,798,800,802,802,802,803,803,803,805,0,0,0,0,1094,1094,1094,1094,1094,1094,1094,1094,1094,1094,1094,1094,1097,1097,860,860,860,860,862,864,864,864,864,864,869,869,869,869,869,869,869,869,869,869,869,869,869,869,871,871,873,873,875,875,878,878,880,880,880,882,882,885,885,887,889,891,891,894,894,896,896,898,901,903,903,903,906,906,906,1073,1073,1073,1073,1073,1073,1077,1077,1077,1077,1077,1077,1077,1073,1073,1073,1073,1073,1073,1073,1070,1070,1073,1070,1070,1070,1070,1067,1067,1070,1070,1067,1067,1067,1067,1067,1063,1063,1063,1063,1063,1063,1063,1063,1063,1063,1063,1063,1063,1063,1063,1063,1063,1063,1063,1060,1060,1060,1060,1060,1060,1060,1060,1060,1063,1063,1063,1063,1063,1063,1063,1063,1063,1063,1060,1060,1060,1060,1060,1057,1057,1054,1054,1054,1054,1054,1054,1054,1054,1054,1054,1054,1054,1054,1054,1050,1050,1050,1050,1050,1050,1050,1050,1050,1050,1050,1050,1050,1050,1050,1054,1054,1054,1054,1054,1050,1050,1050,1050,1047,1047,1047,1044,1044,1044,1044,1044,1044,1044,1044,1047,1044,1044,1044,1044,1041,1041,1041,1041,1041,1041,1041,1041,1041,1041,1041,1041,1041,1041,1041,1041,1041,1038,1038,1038,1038,1038,1038,1038,1038,1038,1038,1034,1034,1034,1034,1034,1038,1038,1038,1038,1038,1038,1038,1038,1034,1034,1034,1034,1034,1031,1028,1028,1031,1028,1028,1028,1028,1028,1028,1028,1028,1028,1028,1028,1028,1025,1025,1025,1025,1025,1025,1025,1025,1025,1025,1022,1022,1022,1022,1022,1025,1025,1022,1019,1019,1019,1016,1016,1016,1016,1016,1019,1019,1019,1019,1019,1019,1019,1019,1019,1019,1019,1019,1019,1016,1016,1016,1016,1016,1016,1016,1016,1016,1016,1013,1013,1013,1013,1013,1010,1010,1010,1010,1010,1010,1010,1010,1010,1010,1010,1010,1010,1004,1004,1004,1004,1004,1004,1004,1004,1004,1004,1004,1007,1007,1007,1007,1007,1007,1004,1004,1004,1001,1001,1004,1004,1004,1004,1004,1001,1001,1004,1001,1001,1001,1001,813,813,811,811,811,811,811,809,809,809,807,807,807,807,807,805,805,805,805,805,805,803,803,803,803,803,803,803,803,803,805,805,805,805,807,807,807,809,809,809,811,811,811,811,811,813,813,815,817,821,823,825,827,827,827,827,827,825,823,821,817,817,0,0,0,0,0,0,0,0,0,0,0,0,0,0,0,0,0,0,0,0,0,0,0,0,0,0,0,0,0,0,0,0,0,0,0,0,0,0
0,0,0,0,0,0,1145,1145,1145,1145,1141,1141,1145,1145,1141,1141,1138,1138,1138,1138,1138,1134,1134,1134,1134,1134,1134,1134,1134,1134,1134,1134,1130,1130,1130,1130,1130,1130,1130,1130,1130,1130,1130,1130,1130,1130,1126,1126,1126,1130,1126,1126,1130,1130,1130,1126,1126,1123,1123,1123,1123,1119,1119,1119,1119,1119,1119,1119,1119,1119,1119,1119,1115,1115,1115,1115,1115,1115,1115,1115,1115,1115,1115,1115,1115,1115,1115,1115,1115,1115,1115,1115,1115,1115,1115,1115,1115,1115,1115,1115,1112,1112,1112,1115,1115,1115,1115,1115,1115,1115,1112,1112,1112,1112,1112,1112,1112,1112,1112,1112,1112,1108,1108,1108,1108,1108,1108,1105,1105,1105,1105,1105,1105,1101,1101,1101,1101,1101,1101,0,0,0,0,0,0,0,789,789,789,789,789,789,790,790,792,792,794,794,796,796,796,798,800,802,802,803,803,803,805,805,805,0,0,0,1090,1090,1090,1090,1090,1090,1090,1090,1090,1090,1094,1094,1094,858,858,860,860,860,862,862,864,864,862,862,864,867,867,867,867,869,869,869,867,867,867,867,867,869,869,871,871,873,875,875,878,878,880,880,882,882,885,885,885,887,889,891,891,894,894,896,896,898,901,903,903,906,906,906,1070,1070,1073,1073,1073,1073,1073,1073,1073,1073,1073,1073,1073,1073,1073,1073,1073,1070,1070,1070,1070,1070,1070,1070,1067,1067,1067,1067,1067,1067,1067,1067,1063,1063,1063,1063,1063,1063,1063,1063,1063,1063,1063,1063,1063,1063,1063,1060,1060,1063,1060,1060,1060,1060,1060,1060,1060,1060,1060,1057,1057,1057,1057,1057,1060,1060,1060,1060,1060,1060,1060,1060,1057,1057,1057,1057,1057,1054,1054,1054,1054,1054,1050,1050,1054,1054,1054,1054,1054,1054,1054,1050,1050,1050,1050,1050,1050,1047,1047,1047,1047,1047,1047,1047,1047,1047,1047,1050,1050,1050,1050,1050,1050,1050,1050,1050,1050,1050,1047,1047,1047,1047,1044,1044,1044,1041,1041,1041,1041,1041,1041,1044,1044,1041,1041,1041,1038,1038,1041,1041,1041,1041,1041,1041,1041,1041,1041,1041,1038,1038,1038,1038,1038,1038,1038,1038,1038,1038,1038,1038,1034,1034,1034,1034,1031,1031,1031,1031,1031,1031,1031,1034,1034,1034,1034,1034,1031,1031,1031,1031,1028,1028,1028,1028,1028,1028,1028,1028,1028,1028,1028,1028,1028,1028,1028,1025,1025,1025,1025,1025,1025,1025,1022,1022,1022,1022,1022,1022,1022,1022,1022,1022,1022,1022,1019,1019,1019,1016,1016,1016,1016,1016,1016,1016,1016,1016,1016,1016,1016,1016,1016,1016,1016,1016,1016,1016,1016,1016,1016,1013,1013,1013,1013,1013,1013,1013,1013,1013,1010,1010,1010,1007,1007,1007,1007,1007,1007,1007,1007,1007,1007,1007,1007,1004,1004,1004,1004,1004,1004,1004,1001,1001,1004,1001,1001,1001,1001,1001,1004,1004,1004,1004,1004,1001,1001,1001,1001,1001,1001,1001,1001,1001,1001,1001,1001,998,998,1001,813,813,811,811,811,811,811,809,809,809,807,807,807,807,807,805,805,805,805,805,805,803,803,803,803,803,803,803,803,803,805,805,805,805,807,807,807,809,809,809,811,811,811,811,813,813,815,817,819,821,823,825,825,827,827,827,825,823,821,819,817,817,0,0,0,0,0,0,0,0,0,0,0,0,0,0,0,0,0,0,0,0,0,0,0,0,0,0,0,0,0,0,0,0,0,0,0,0,0,0
0,0,0,0,0,0,1141,1141,1145,1141,1138,1138,1138,1138,1138,1138,1138,1138,1138,1138,1134,1134,1134,1134,1134,1134,1134,1130,1130,1130,1130,1130,1130,1130,1130,1130,1130,1126,1126,1126,1126,1126,1126,1126,1126,1126,1123,1123,1126,1126,1126,1126,1126,1126,1126,1126,1123,1123,1119,1119,1119,1119,1119,1119,1119,1119,1119,1119,1115,1115,1115,1115,1115,1115,1115,1115,1115,1115,1115,1115,1115,1115,1115,1115,1112,1112,1112,1112,1112,1112,1112,1112,1112,1112,1112,1112,1112,1112,1112,1112,1112,1112,1112,1112,1112,1112,1112,1112,1112,1112,1112,1112,1108,1108,1112,1112,1112,1108,1105,1105,1108,1105,1105,1105,1105,1105,1108,1105,1105,1105,1105,1101,1101,1101,1101,1101,1101,1097,1097,0,0,0,0,0,0,0,0,790,789,789,789,789,790,792,792,794,794,794,796,796,798,800,802,802,802,803,803,803,805,805,0,0,0,0,1090,1090,1090,1090,1090,1090,1090,1090,1090,1090,1090,1090,858,858,858,860,860,860,862,862,864,864,862,862,864,867,867,867,867,867,867,867,867,867,867,867,867,869,869,871,871,873,873,875,878,878,880,880,882,882,885,887,887,889,889,891,894,894,894,896,896,898,901,903,903,906,906,1070,1070,1070,1070,1073,1070,1070,1070,1070,1073,1070,1070,1070,1070,1070,1070,1070,1070,1070,1070,1070,1070,1067,1067,1067,1067,1067,1067,1067,1063,1063,1063,1063,1063,1063,1063,1063,1063,1063,1063,1063,1063,1060,1060,1060,1060,1060,1060,1060,1060,1060,1060,1060,1057,1057,1054,1054,1054,1054,1057,1057,1057,1057,1057,1057,1057,1057,1057,1057,1057,1057,1057,1057,1057,1057,1054,1054,1054,1050,1050,1050,1050,1050,1050,1050,1050,1050,1050,1050,1050,1050,1050,1050,1050,1050,1047,1047,1047,1047,1047,1047,1047,1044,1044,1044,1044,1044,1047,1047,1047,1047,1047,1047,1047,1047,1047,1044,1044,1047,1047,1044,1044,1044,1044,1041,1041,1041,1041,1041,1041,1041,1041,1041,1041,1041,1041,1038,1038,1038,1038,1038,1038,1038,1038,1038,1038,1038,1038,1038,1034,1034,1034,1034,1034,1034,1034,1034,1034,1034,1034,1034,1031,1031,1031,1031,1028,1028,1028,1028,1028,1028,1028,1028,1028,1028,1031,1031,1028,1028,1028,1028,1025,1025,1025,1025,1025,1025,1025,1025,1025,1025,1025,1025,1025,1025,1025,1025,1022,1022,1022,1022,1022,1022,1022,1019,1019,1019,1022,1022,1019,1019,1019,1019,1022,1019,1019,1016,1016,1016,1016,1016,1013,1013,1013,1013,1013,1013,1013,1013,1016,1016,1016,1013,1013,1013,1013,1013,1013,1013,1013,1010,1010,1010,1010,1013,1013,1013,1013,1010,1010,1010,1007,1007,1004,1004,1004,1004,1004,1004,1004,1004,1004,1004,1004,1004,1001,1001,1001,1001,1001,1001,1001,1001,1001,1001,1001,1001,1001,1001,1001,1001,1001,1001,1001,1001,998,998,998,998,998,998,998,998,998,998,860,860,860,811,811,813,811,811,811,809,809,809,809,809,807,807,807,807,807,805,805,805,805,805,805,803,803,803,803,803,803,803,805,805,805,805,805,805,807,807,807,809,809,809,811,811,811,811,813,813,817,819,821,821,823,825,825,825,825,825,823,823,821,817,815,815,0,0,0,0,0,0,0,0,0,0,0,0,0,0,0,0,0,0,0,0,0,0,0,0,0,0,0,0,0,0,0,0,0,0,0,0,0,0
0,0,0,0,0,1141,1141,1141,1141,1138,1138,1138,1138,1138,1134,1134,1134,1134,1134,1134,1134,1134,1134,1130,1130,1130,1126,1126,1126,1126,1126,1126,1126,1126,1126,1126,1126,1126,1126,1126,1126,1126,1126,1123,1123,1123,1123,1123,1123,1123,1123,1123,1123,1123,1123,1119,1119,1119,1119,1119,1119,1119,1119,1119,1119,1119,1115,1115,1115,1115,1115,1115,1115,1112,1112,1112,1112,1112,1112,1115,1115,1115,1115,1112,1112,1108,1108,1108,1108,1108,1108,1108,1108,1108,1108,1108,1108,1108,1108,1108,1108,1108,1108,1108,1108,1108,1108,1108,1108,1108,1108,1108,1105,1105,1108,1105,1105,1105,1105,1105,1105,1105,1101,1101,1101,1101,1101,1105,1101,1101,1101,1097,1097,1097,1094,1094,1094,1094,1094,1094,0,0,0,0,0,0,0,792,790,790,790,790,792,792,794,794,794,796,796,798,798,800,802,802,803,803,803,803,805,805,805,0,0,1087,1087,1087,1090,1090,1090,1090,1087,1087,1087,1087,1090,858,858,858,860,860,860,860,860,862,862,862,862,862,862,862,864,864,864,867,867,867,867,867,867,867,867,869,869,871,871,873,873,875,878,878,880,880,882,882,885,887,889,891,891,894,894,894,894,896,896,898,901,903,906,1067,1067,1067,1067,1067,1070,1070,1070,1070,1067,1067,1070,1067,1067,1067,1070,1070,1067,1067,1067,1067,1067,1063,1063,1063,1063,1063,1063,1063,1063,1063,1063,1063,1063,1060,1060,1060,1060,1060,1060,1060,1060,1060,1060,1060,1060,1060,1060,1060,1060,1060,1060,1060,1057,1057,1054,1054,1050,1050,1050,1050,1050,1050,1054,1050,1050,1050,1050,1054,1054,1054,1054,1054,1054,1054,1054,1054,1054,1050,1050,1050,1047,1047,1047,1047,1047,1047,1047,1047,1047,1047,1050,1047,1047,1047,1047,1047,1044,1044,1044,1044,1044,1044,1044,1044,1044,1044,1044,1044,1044,1044,1044,1044,1044,1044,1044,1044,1044,1041,1041,1041,1041,1041,1041,1041,1041,1041,1041,1041,1041,1041,1041,1038,1038,1038,1038,1038,1038,1038,1038,1034,1034,1034,1038,1034,1034,1034,1034,1034,1034,1034,1034,1034,1031,1031,1031,1031,1031,1031,1031,1031,1031,1031,1031,1031,1028,1028,1028,1028,1028,1028,1028,1028,1025,1025,1025,1025,1025,1025,1025,1025,1025,1025,1025,1025,1025,1025,1025,1025,1025,1025,1025,1025,1025,1025,1025,1025,1025,1022,1022,1019,1019,1019,1019,1019,1019,1019,1019,1019,1019,1019,1019,1019,1019,1019,1019,1019,1016,1016,1013,1013,1013,1013,1013,1013,1010,1010,1010,1010,1010,1010,1010,1010,1010,1013,1013,1013,1010,1010,1007,1007,1010,1007,1007,1007,1007,1010,1010,1010,1010,1007,1007,1007,1004,1004,1004,1004,1004,1004,1004,1004,1001,1001,1001,998,998,1001,998,998,998,998,998,1001,998,998,998,998,998,998,998,998,998,998,998,998,998,998,998,995,995,995,995,995,995,995,862,860,860,860,860,811,811,811,811,811,809,809,809,809,809,809,807,807,805,805,805,805,805,805,805,805,805,805,803,803,805,805,805,805,805,805,805,805,805,805,807,807,807,809,809,811,811,811,811,813,815,817,819,821,821,823,823,825,825,825,825,825,821,817,813,813,803,803,0,0,0,0,0,0,0,0,0,0,0,0,0,0,0,0,0,0,0,0,0,0,0,0,0,0,0,0,0,0,0,0,0,0,0,0,0,0
0,0,0,0,0,1138,1138,1141,1138,1138,1134,1134,1134,1134,1134,1130,1130,1130,1130,1130,1130,1130,1130,1126,1126,1130,1126,1123,1123,1123,1123,1123,1123,1123,1123,1123,1123,1123,1123,1126,1123,1123,1123,1123,1123,1119,1119,1119,1119,1119,1119,1119,1119,1119,1119,1115,1115,1115,1115,1115,1115,1115,1115,1115,1115,1115,1115,1112,1112,1112,1112,1112,1112,1108,1108,1108,1112,1108,1108,1112,1112,1112,1108,1108,1108,1105,1105,1105,1105,1105,1105,1105,1105,1105,1105,1105,1105,1105,1105,1105,1105,1105,1105,1105,1105,1105,1105,1105,1105,1105,1105,1105,1101,1101,1105,1105,1101,1101,1101,1101,1101,1101,1101,1101,1097,1097,1097,1101,1101,1101,1097,1097,1097,1094,1094,1094,1094,1094,1090,1090,0,0,0,0,0,0,0,790,790,790,790,790,792,792,794,794,794,796,796,798,798,800,802,802,803,805,805,805,807,807,807,809,0,1084,1084,1084,1087,1087,1087,1087,1087,1087,1087,1087,858,858,858,858,860,860,860,860,860,860,860,860,860,860,860,860,862,862,864,864,864,867,867,867,867,867,867,869,869,871,871,873,875,878,878,878,880,882,882,885,885,887,889,891,891,894,894,894,894,896,896,1067,903,903,1063,1063,1063,1067,1067,1067,1067,1067,1067,1063,1063,1063,1063,1063,1063,1063,1063,1063,1063,1063,1063,1063,1063,1063,1063,1063,1063,1063,1063,1063,1063,1063,1060,1060,1060,1060,1060,1060,1060,1060,1060,1060,1060,1060,1057,1057,1057,1057,1057,1057,1057,1057,1057,1057,1057,1054,1050,1050,1050,1047,1047,1047,1047,1047,1047,1047,1047,1050,1050,1054,1054,1054,1054,1054,1054,1054,1050,1050,1050,1050,1047,1047,1047,1044,1044,1044,1044,1044,1044,1044,1044,1044,1044,1044,1044,1044,1044,1044,1044,1044,1044,1044,1044,1041,1041,1041,1041,1041,1041,1041,1041,1041,1041,1041,1041,1041,1041,1041,1041,1041,1041,1041,1041,1041,1038,1038,1038,1038,1038,1038,1038,1038,1038,1038,1038,1038,1038,1034,1034,1034,1034,1031,1031,1034,1034,1031,1031,1031,1031,1031,1031,1031,1031,1031,1031,1031,1028,1028,1028,1028,1028,1028,1028,1028,1028,1028,1028,1028,1028,1025,1025,1025,1025,1025,1025,1025,1025,1025,1025,1025,1022,1019,1019,1022,1022,1019,1019,1022,1022,1022,1022,1022,1022,1022,1022,1022,1022,1022,1022,1019,1019,1019,1019,1019,1016,1016,1016,1016,1016,1016,1016,1016,1016,1016,1016,1016,1016,1016,1016,1013,1013,1013,1010,1010,1010,1010,1010,1010,1010,1007,1007,1007,1007,1007,1007,1007,1007,1010,1010,1007,1007,1007,1007,1007,1007,1007,1007,1007,1007,1007,1007,1004,1004,1004,1004,1004,1004,1001,1001,1001,1001,1001,1001,998,998,995,995,995,998,998,995,995,995,998,998,998,998,998,998,995,995,998,998,998,998,995,995,992,992,992,992,992,992,992,992,862,860,860,860,860,860,813,811,811,811,811,809,809,809,809,809,809,807,807,805,805,805,805,805,805,805,805,805,805,805,805,805,805,805,805,805,805,805,805,805,805,807,807,807,809,809,811,811,813,813,813,815,819,819,821,821,823,823,823,823,823,823,821,817,815,809,803,800,800,0,0,0,0,0,0,0,0,0,0,0,0,0,0,0,0,0,0,0,0,0,0,0,0,0,0,0,0,0,0,0,0,0,0,0,0,0,0
0,0,0,0,0,1138,1138,1138,1134,1134,1134,1134,1134,1134,1130,1130,1130,1130,1126,1126,1130,1126,1126,1126,1126,1123,1119,1119,1123,1123,1119,1119,1119,1119,1119,1119,1119,1119,1119,1123,1119,1119,1119,1115,1115,1119,1115,1115,1115,1115,1115,1115,1112,1112,1112,1112,1112,1112,1112,1112,1115,1115,1115,1115,1112,1112,1112,1112,1112,1112,1108,1108,1108,1108,1108,1108,1108,1108,1108,1108,1105,1105,1105,1105,1105,1105,1105,1105,1105,1105,1105,1105,1105,1101,1101,1101,1101,1101,1101,1101,1101,1101,1101,1101,1101,1101,1101,1105,1105,1105,1105,1105,1101,1101,1101,1097,1097,1097,1097,1097,1094,1094,1094,1094,1094,1094,1094,1094,1094,1094,1094,1090,1090,1090,1090,1090,1090,1090,1090,1090,0,0,0,0,0,0,0,790,790,790,792,792,792,794,794,794,794,796,796,798,800,802,802,803,805,805,805,805,807,807,809,809,0,1084,1084,1084,1080,1080,1084,1084,1084,1084,1087,858,858,858,858,858,858,860,860,860,860,860,860,860,860,860,860,860,860,860,862,862,862,867,867,867,867,867,869,869,869,871,871,873,875,878,878,878,880,882,885,885,887,889,889,891,891,894,894,894,894,896,1063,1063,1063,1063,1063,1063,1063,1063,1063,1063,1060,1060,1063,1063,1063,1063,1060,1060,1060,1060,1060,1060,1060,1060,1060,1060,1060,1060,1060,1060,1060,1060,1060,1060,1060,1060,1060,1060,1060,1057,1057,1057,1057,1054,1054,1057,1057,1057,1057,1057,1054,1054,1054,1054,1054,1054,1054,1054,1054,1050,1050,1047,1047,1047,1047,1047,1044,1044,1044,1044,1044,1044,1044,1047,1050,1050,1050,1050,1050,1050,1047,1047,1047,1047,1047,1044,1044,1041,1041,1041,1041,1041,1041,1044,1044,1044,1044,1041,1041,1041,1041,1041,1041,1041,1041,1041,1041,1041,1041,1038,1038,1041,1038,1038,1041,1041,1041,1038,1038,1038,1038,1038,1038,1038,1038,1038,1038,1038,1038,1034,1034,1034,1034,1034,1038,1038,1038,1038,1038,1034,1034,1034,1031,1031,1031,1031,1031,1031,1031,1031,1028,1028,1028,1028,1028,1028,1028,1028,1028,1028,1028,1028,1028,1028,1028,1025,1025,1025,1025,1025,1025,1025,1025,1025,1025,1025,1025,1025,1025,1022,1022,1022,1022,1022,1019,1019,1019,1016,1016,1016,1016,1016,1019,1019,1019,1019,1019,1019,1019,1019,1019,1019,1019,1019,1016,1016,1016,1016,1016,1016,1016,1013,1013,1013,1013,1013,1013,1013,1013,1013,1013,1013,1013,1013,1010,1010,1010,1010,1010,1010,1010,1007,1007,1007,1004,1004,1004,1004,1004,1004,1004,1004,1004,1004,1004,1004,1004,1004,1004,1004,1004,1004,1004,1004,1004,1004,1004,1004,1004,1001,1001,1001,1001,1001,998,998,998,995,995,995,992,992,992,992,992,992,995,995,995,995,995,995,995,995,995,995,995,995,995,992,992,992,992,992,992,992,992,992,992,862,860,860,860,860,813,813,811,811,811,811,809,809,809,809,807,807,805,805,805,805,805,805,805,805,805,805,805,803,803,803,805,805,805,805,805,805,805,805,805,805,805,807,807,809,809,811,813,813,813,815,817,819,821,821,823,823,823,821,821,821,817,817,817,813,809,803,800,800,0,0,0,0,0,0,0,0,0,0,0,0,0,0,0,0,0,0,0,0,0,0,0,0,0,0,0,0,0,0,0,0,0,0,0,0,0,0
0,0,0,0,0,1134,1134,1134,1134,1130,1130,1130,1130,1130,1130,1126,1126,1123,1123,1123,1123,1123,1123,1123,1123,1119,1119,1119,1119,1119,1115,1115,1115,1115,1119,1119,1115,1115,1115,1119,1115,1115,1115,1112,1112,1115,1115,1115,1115,1115,1112,1112,1108,1108,1108,1108,1108,1108,1108,1112,1112,1112,1112,1112,1112,1112,1108,1108,1108,1108,1108,1105,1105,1105,1105,1105,1105,1105,1105,1105,1101,1101,1101,1101,1101,1101,1101,1101,1101,1101,1101,1101,1101,1101,1101,1101,1101,1101,1101,1101,1101,1101,1101,1101,1101,1097,1097,1101,1101,1097,1097,1097,1097,1097,1097,1094,1094,1094,1094,1094,1094,1094,1090,1090,1094,1090,1090,1090,1090,1090,1090,1090,1087,1087,1087,1087,1087,1087,1087,1087,1087,0,0,0,0,0,0,790,790,792,792,792,794,794,794,796,796,796,798,800,802,802,802,803,805,805,805,807,809,809,809,809,811,851,1080,1080,1077,1077,1077,1077,1080,854,854,856,856,858,858,858,858,858,860,858,858,858,858,858,858,858,858,858,858,860,860,860,860,864,864,864,867,867,869,869,869,871,873,873,875,878,878,880,882,882,885,885,887,889,889,891,891,894,894,894,894,1060,1060,1060,1063,1063,1063,1060,1060,1060,1060,1060,1060,1060,1060,1060,1060,1060,1060,1060,1057,1057,1057,1057,1057,1057,1057,1057,1060,1060,1060,1060,1060,1060,1060,1060,1060,1057,1057,1057,1057,1057,1054,1054,1054,1054,1054,1054,1054,1050,1050,1050,1050,1050,1047,1047,1047,1050,1050,1050,1050,1047,1047,1047,1047,1047,1044,1044,1044,1044,1041,1041,1041,1041,1041,1044,1047,1044,1044,1044,1047,1047,1047,1047,1044,1044,1044,1041,1041,1041,1041,1041,1041,1041,1041,1041,1041,1041,1038,1038,1038,1038,1041,1041,1041,1041,1041,1041,1041,1038,1038,1038,1038,1038,1038,1038,1038,1038,1038,1038,1038,1038,1034,1034,1038,1034,1034,1034,1031,1031,1034,1031,1031,1031,1031,1031,1031,1031,1034,1034,1034,1031,1031,1031,1031,1031,1031,1031,1031,1028,1028,1028,1028,1025,1025,1025,1028,1028,1028,1028,1028,1025,1025,1025,1025,1025,1025,1025,1025,1022,1022,1022,1022,1022,1022,1022,1022,1022,1022,1022,1022,1019,1019,1019,1019,1019,1016,1016,1016,1016,1016,1013,1013,1013,1013,1016,1016,1016,1016,1016,1019,1019,1019,1019,1019,1016,1016,1016,1016,1013,1013,1013,1013,1013,1010,1010,1010,1007,1007,1007,1007,1007,1010,1010,1010,1010,1010,1010,1007,1007,1007,1007,1007,1007,1007,1004,1004,1004,1004,1004,1004,1004,1004,1004,1001,1001,1001,1001,1001,1001,1001,1001,1001,1001,1001,1001,1001,1001,1001,1001,1001,1001,1001,998,998,998,998,995,995,995,992,992,992,992,992,992,992,992,992,995,992,992,992,992,992,992,992,992,992,992,992,992,989,989,989,989,989,989,992,992,867,862,862,862,862,860,813,813,811,811,809,809,809,809,809,807,807,807,805,805,805,805,805,805,805,805,805,805,803,803,803,803,803,805,805,805,805,805,805,805,805,805,805,807,807,809,809,813,813,813,815,817,819,821,821,823,823,823,821,821,819,817,815,815,813,811,805,800,798,798,0,0,0,0,0,0,0,0,0,0,0,0,0,0,0,0,0,0,0,0,0,0,0,0,0,0,0,0,0,0,0,0,0,0,0,0,0,0
0,0,0,0,0,1126,1126,1130,1126,1119,1119,1119,1119,1119,1126,1123,1123,1119,1119,1119,1119,1119,1119,1119,1123,1119,1119,1115,1115,1115,1115,1115,1112,1112,1115,1115,1115,1112,1112,1115,1112,1112,1108,1108,1108,1108,1108,1108,1108,1112,1112,1112,1108,1108,1108,1105,1105,1108,1108,1108,1108,1108,1108,1108,1108,1105,1105,1105,1105,1105,1105,1105,1105,1105,1105,1101,1101,1101,1101,1101,1101,1097,1097,1097,1097,1097,1101,1101,1101,1101,1101,1101,1101,1097,1097,1097,1097,1097,1097,1097,1097,1097,1097,1097,1097,1097,1097,1097,1097,1094,1094,1090,1090,1090,1090,1090,1090,1090,1090,1090,1090,1090,1090,1090,1090,1090,1087,1087,1087,1087,1087,1087,1087,1087,1087,1087,1087,1087,1087,1084,1084,0,0,0,0,0,0,0,794,794,794,794,794,794,794,796,796,796,798,800,802,802,803,805,805,807,807,807,809,809,809,811,811,851,851,851,849,849,849,849,849,851,854,854,854,856,856,856,856,856,858,858,858,858,858,858,858,858,858,858,858,860,860,860,860,864,864,864,867,867,869,869,871,871,873,875,875,878,878,880,882,885,885,887,887,889,889,891,891,894,894,1054,1057,1057,1057,1057,1057,1060,1060,1057,1057,1060,1057,1057,1057,1057,1060,1057,1057,1057,1057,1054,1054,1054,1054,1054,1054,1054,1054,1054,1054,1054,1054,1054,1054,1054,1054,1054,1054,1054,1054,1054,1054,1054,1054,1050,1050,1050,1050,1050,1050,1047,1047,1047,1047,1047,1044,1044,1044,1047,1047,1047,1044,1044,1047,1044,1044,1044,1044,1041,1041,1041,1041,1041,1041,1041,1041,1044,1044,1044,1044,1041,1041,1041,1044,1044,1044,1044,1044,1041,1041,1041,1041,1041,1041,1038,1038,1038,1038,1038,1038,1038,1038,1038,1038,1038,1038,1038,1038,1038,1038,1038,1038,1038,1038,1038,1038,1038,1038,1038,1038,1034,1034,1034,1034,1034,1034,1031,1031,1031,1028,1028,1028,1028,1028,1028,1028,1028,1028,1028,1028,1028,1028,1028,1028,1028,1028,1028,1028,1028,1028,1028,1025,1025,1025,1025,1025,1025,1025,1025,1025,1025,1025,1025,1025,1025,1025,1025,1025,1022,1022,1019,1019,1019,1019,1019,1019,1019,1019,1019,1019,1019,1019,1016,1016,1016,1016,1016,1016,1016,1016,1013,1013,1013,1013,1013,1013,1013,1013,1013,1013,1013,1016,1016,1016,1016,1016,1013,1013,1013,1013,1013,1010,1010,1010,1007,1007,1004,1004,1004,1004,1004,1004,1007,1007,1007,1007,1007,1007,1007,1004,1004,1004,1004,1007,1007,1004,1004,1004,1004,1001,1001,1001,1001,1001,1001,998,998,998,998,995,995,998,998,998,998,1001,1001,1001,1001,1001,998,998,998,998,998,995,995,995,992,992,992,992,992,992,989,989,989,989,989,992,992,992,992,989,989,989,989,989,989,989,989,989,989,989,989,989,989,989,989,871,869,867,864,864,864,864,862,813,813,811,811,809,809,809,809,809,807,807,805,805,805,805,805,805,805,805,805,805,805,803,803,803,803,803,803,805,805,805,805,807,807,807,807,807,807,807,809,809,813,813,815,815,819,821,821,823,823,823,821,821,819,817,815,815,815,811,809,802,798,798,798,0,0,0,0,0,0,0,0,0,0,0,0,0,0,0,0,0,0,0,0,0,0,0,0,0,0,0,0,0,0,0,0,0,0,0,0,0,0
0,0,0,0,0,1126,1126,1126,1126,1119,1119,1119,1119,1119,1123,1119,1119,1119,1119,1119,1119,1119,1119,1119,1119,1115,1115,1115,1115,1115,1112,1112,1112,1112,1112,1112,1108,1108,1108,1108,1108,1105,1105,1105,1105,1105,1105,1108,1108,1108,1108,1108,1108,1108,1105,1105,1105,1105,1105,1105,1105,1105,1105,1105,1105,1105,1105,1101,1101,1101,1101,1101,1101,1101,1101,1101,1101,1101,1101,1101,1101,1097,1097,1097,1097,1097,1097,1097,1097,1097,1097,1097,1094,1094,1094,1094,1094,1094,1090,1090,1090,1094,1094,1094,1094,1094,1094,1097,1094,1094,1090,1090,1090,1090,1090,1090,1090,1090,1090,1090,1090,1090,1087,1087,1087,1087,1087,1084,1084,1084,1084,1084,1084,1084,1084,1084,1084,1084,1084,1080,1080,0,0,0,0,0,0,0,794,794,794,794,794,794,794,796,796,798,800,802,802,803,803,805,805,807,807,809,811,811,811,811,811,813,851,851,849,849,849,849,849,849,851,851,851,851,854,854,854,854,856,856,856,856,856,856,858,858,858,858,858,858,860,860,860,864,864,867,867,867,869,869,871,871,875,875,875,878,880,880,882,885,885,887,887,889,891,891,891,1057,1054,1054,1054,1054,1054,1054,1057,1057,1057,1057,1057,1057,1054,1054,1054,1054,1054,1054,1054,1054,1054,1050,1050,1050,1050,1050,1050,1050,1050,1050,1050,1050,1050,1050,1050,1050,1050,1050,1050,1050,1050,1050,1050,1050,1050,1050,1047,1047,1047,1047,1047,1044,1044,1041,1041,1041,1041,1041,1041,1041,1041,1041,1041,1041,1041,1044,1041,1041,1041,1041,1041,1041,1038,1038,1038,1038,1038,1041,1041,1041,1041,1041,1041,1038,1038,1038,1038,1038,1041,1041,1041,1041,1038,1038,1038,1038,1034,1034,1034,1034,1034,1034,1034,1034,1038,1038,1038,1038,1038,1034,1034,1034,1034,1034,1034,1034,1034,1034,1034,1034,1034,1034,1031,1031,1031,1031,1031,1031,1028,1028,1028,1028,1025,1025,1025,1025,1025,1028,1025,1025,1025,1025,1025,1025,1025,1025,1025,1025,1025,1025,1025,1025,1025,1025,1025,1025,1025,1025,1022,1022,1022,1022,1022,1022,1022,1022,1022,1022,1022,1019,1019,1016,1016,1016,1016,1016,1016,1016,1016,1016,1016,1016,1016,1016,1016,1016,1016,1016,1016,1016,1013,1013,1013,1013,1010,1010,1010,1010,1010,1010,1010,1007,1007,1013,1013,1013,1013,1013,1013,1013,1010,1010,1007,1007,1007,1007,1004,1004,1004,1004,1004,1004,1004,1004,1004,1004,1004,1004,1004,1004,1004,1004,1004,1004,1004,1004,1004,1004,1001,1001,1001,998,998,998,998,998,995,995,995,995,995,995,995,995,995,995,995,995,998,998,998,995,995,998,995,995,995,995,992,992,992,992,989,989,989,989,989,989,989,989,989,989,989,989,989,989,989,989,989,989,989,989,989,989,989,989,987,987,989,871,871,869,867,867,864,864,864,862,813,813,811,811,809,809,809,809,807,807,805,805,805,805,805,805,805,805,805,805,805,805,803,803,803,803,803,803,803,805,805,805,805,807,807,807,807,807,809,811,811,813,815,815,817,819,821,821,821,821,821,821,821,817,817,815,813,813,811,805,802,798,798,798,0,0,0,0,0,0,0,0,0,0,0,0,0,0,0,0,0,0,0,0,0,0,0,0,0,0,0,0,0,0,0,0,0,0,0,0,0,0
0,0,0,0,0,1123,1123,1123,1123,1119,1119,1119,1119,1119,1119,1119,1115,1115,1115,1115,1115,1115,1112,1112,1112,1108,1108,1112,1112,1112,1112,1108,1108,1108,1108,1108,1108,1108,1105,1105,1105,1105,1105,1105,1105,1105,1105,1105,1105,1105,1105,1105,1105,1105,1105,1101,1101,1101,1105,1105,1101,1101,1101,1105,1101,1101,1101,1101,1101,1101,1101,1101,1097,1097,1101,1101,1101,1101,1097,1097,1097,1097,1094,1094,1094,1094,1097,1094,1094,1094,1094,1094,1090,1090,1090,1090,1090,1090,1090,1090,1090,1090,1090,1090,1090,1090,1090,1090,1090,1090,1087,1087,1087,1087,1087,1087,1087,1087,1087,1087,1087,1087,1087,1087,1087,1084,1084,1084,1084,1084,1084,1084,1084,1084,1084,1084,1084,1084,1080,1080,1080,1080,0,0,0,0,0,802,798,796,794,794,794,794,796,796,796,798,800,802,802,803,803,805,805,807,809,809,811,811,811,811,811,813,851,851,849,849,849,849,849,849,849,849,851,851,851,851,851,851,854,854,854,854,854,854,856,856,858,858,858,858,860,860,862,864,864,867,867,869,869,871,871,873,875,875,878,878,880,880,885,885,887,887,887,887,889,891,1054,1054,1050,1050,1050,1050,1050,1054,1054,1054,1054,1054,1054,1054,1054,1050,1050,1050,1054,1050,1050,1050,1050,1050,1050,1050,1050,1050,1050,1050,1047,1047,1050,1050,1047,1047,1047,1047,1047,1047,1047,1047,1047,1047,1047,1047,1047,1047,1047,1047,1047,1044,1044,1041,1041,1041,1041,1041,1038,1038,1038,1038,1041,1041,1038,1038,1041,1041,1041,1038,1038,1038,1038,1038,1038,1038,1038,1038,1038,1038,1038,1038,1038,1038,1038,1034,1034,1038,1038,1038,1038,1034,1034,1038,1038,1034,1034,1034,1031,1031,1031,1034,1031,1031,1034,1034,1034,1038,1038,1034,1034,1034,1034,1031,1031,1031,1031,1031,1031,1031,1031,1031,1031,1031,1028,1028,1028,1028,1028,1028,1028,1025,1025,1025,1025,1025,1025,1025,1025,1025,1025,1022,1022,1022,1022,1025,1025,1025,1022,1022,1022,1025,1025,1025,1022,1022,1022,1022,1022,1022,1022,1019,1019,1019,1019,1019,1019,1019,1019,1019,1019,1019,1016,1016,1016,1016,1016,1016,1016,1016,1016,1016,1013,1013,1013,1013,1013,1013,1013,1013,1013,1013,1013,1010,1010,1010,1010,1010,1010,1007,1007,1007,1007,1007,1004,1004,1007,1010,1010,1010,1010,1010,1007,1007,1004,1004,1004,1004,1004,1001,1001,1001,1001,1001,1001,1001,1001,1001,1001,1001,1001,1001,1001,1001,1001,1001,1001,1001,1001,1001,1001,1001,998,998,995,995,995,995,992,992,992,992,992,992,992,992,992,992,992,992,995,995,995,995,995,995,995,995,992,992,992,992,992,989,989,989,989,989,989,989,989,989,989,989,989,989,987,987,987,989,989,987,987,987,987,987,987,987,987,869,869,871,871,869,869,867,867,867,864,811,811,811,811,809,809,807,807,807,807,805,805,805,805,805,805,803,803,803,803,803,803,803,803,803,803,803,803,803,803,805,805,805,805,807,807,807,807,807,809,811,811,813,815,817,817,819,821,821,821,821,821,821,819,817,815,813,813,811,809,803,802,800,798,798,0,0,0,0,0,0,0,0,0,0,0,0,0,0,0,0,0,0,0,0,0,0,0,0,0,0,0,0,0,0,0,0,0,0,0,0,0,0
0,0,0,0,0,1119,1119,1119,1119,1119,1119,1119,1115,1115,1115,1115,1115,1115,1115,1112,1112,1112,1108,1108,1108,1105,1105,1108,1108,1108,1108,1105,1105,1105,1105,1105,1105,1105,1105,1101,1101,1101,1101,1101,1101,1101,1101,1101,1101,1105,1105,1105,1101,1101,1101,1101,1101,1101,1097,1097,1101,1097,1097,1097,1101,1097,1097,1097,1097,1097,1097,1097,1094,1094,1097,1097,1097,1097,1097,1097,1097,1094,1094,1094,1094,1094,1094,1090,1090,1090,1090,1090,1090,1087,1087,1087,1087,1087,1087,1087,1087,1087,1087,1087,1087,1087,1087,1087,1087,1084,1080,1080,1084,1087,1084,1084,1084,1084,1084,1084,1084,1084,1084,1080,1080,1080,1080,1080,1080,1080,1080,1084,1084,1084,1084,1080,1080,1080,1080,1080,1080,1080,0,0,0,803,802,802,798,798,796,796,796,796,796,798,798,800,800,802,802,803,803,807,807,809,809,811,811,811,813,813,813,813,851,849,849,849,847,847,847,847,849,849,849,849,849,849,849,849,851,851,851,851,851,854,854,856,856,858,858,860,860,860,862,864,867,867,867,869,869,871,873,873,875,875,878,878,880,882,885,885,887,887,887,887,889,1054,1054,1054,1050,1050,1050,1050,1050,1050,1050,1050,1050,1050,1050,1050,1050,1050,1050,1050,1050,1050,1050,1050,1050,1050,1050,1050,1047,1047,1047,1047,1047,1047,1047,1047,1047,1047,1047,1047,1044,1044,1044,1044,1044,1044,1044,1044,1044,1044,1044,1044,1044,1044,1041,1041,1041,1038,1038,1038,1038,1038,1038,1038,1038,1038,1038,1038,1038,1038,1038,1038,1038,1038,1038,1038,1034,1034,1034,1034,1034,1038,1038,1034,1034,1034,1034,1031,1031,1034,1034,1034,1034,1034,1031,1031,1031,1031,1031,1031,1031,1031,1031,1031,1031,1031,1034,1034,1034,1034,1034,1034,1031,1031,1031,1028,1028,1028,1028,1028,1028,1028,1028,1028,1028,1028,1028,1028,1028,1028,1028,1025,1025,1025,1025,1025,1022,1022,1022,1022,1022,1019,1019,1022,1019,1019,1019,1022,1022,1022,1019,1019,1022,1022,1022,1022,1022,1022,1022,1019,1019,1019,1019,1019,1019,1016,1016,1016,1016,1016,1016,1016,1016,1016,1016,1013,1013,1013,1013,1013,1013,1013,1013,1013,1010,1010,1010,1010,1010,1010,1010,1010,1013,1013,1010,1010,1010,1010,1007,1007,1007,1007,1007,1004,1004,1004,1001,1001,1001,1001,1001,1004,1004,1004,1004,1004,1004,1001,1001,1001,1001,1001,1001,1001,1001,1001,1001,1001,1001,1001,998,998,1001,1001,998,998,998,998,1001,1001,1001,1001,998,998,998,995,992,992,992,992,992,992,992,992,992,992,989,989,992,989,989,989,992,992,992,992,992,992,992,992,992,992,989,989,989,989,989,987,987,987,987,984,984,987,984,984,984,984,984,984,984,987,987,984,984,984,984,984,987,987,987,869,869,871,871,871,869,869,867,867,807,807,809,809,809,809,809,807,807,807,807,805,805,805,805,803,803,803,803,803,803,803,803,803,803,803,803,803,803,803,803,805,805,805,805,807,807,807,807,809,809,811,813,813,815,817,819,819,821,821,821,821,821,821,819,817,813,813,811,809,807,803,800,800,798,798,0,0,0,0,0,0,0,0,0,0,0,0,0,0,0,0,0,0,0,0,0,0,0,0,0,0,0,0,0,0,0,0,0,0,0,0,0,0
0,0,0,0,0,1115,1115,1115,1115,1115,1115,1115,1115,1115,1112,1112,1112,1112,1112,1112,1108,1108,1105,1105,1105,1105,1105,1105,1105,1105,1105,1105,1105,1105,1101,1101,1105,1105,1101,1101,1101,1101,1101,1101,1101,1097,1097,1097,1097,1101,1097,1097,1097,1101,1101,1097,1097,1097,1097,1097,1097,1094,1094,1094,1094,1094,1094,1097,1094,1094,1094,1094,1094,1094,1094,1094,1097,1094,1094,1094,1094,1094,1090,1090,1090,1090,1090,1087,1087,1087,1087,1087,1087,1087,1087,1087,1087,1087,1084,1084,1084,1084,1084,1084,1084,1080,1080,1084,1080,1080,1077,1077,1084,1084,1084,1084,1084,1084,1084,1084,1080,1080,1080,1077,1077,1077,1077,1077,1077,1080,1080,1080,1080,1080,1080,1080,1080,1077,1077,1077,1077,1077,1077,0,0,803,802,802,800,798,798,796,796,796,796,798,798,800,802,802,803,803,807,807,809,809,809,811,811,813,813,811,811,851,849,849,847,847,847,847,847,847,847,849,849,849,849,849,849,849,849,851,851,851,851,851,854,856,856,858,858,860,860,860,862,864,867,867,867,869,871,871,873,875,875,878,878,878,880,880,885,885,887,887,887,887,1054,1054,1054,1054,1050,1050,1050,1050,1050,1050,1050,1050,1050,1050,1050,1050,1047,1047,1047,1047,1047,1047,1047,1047,1047,1047,1047,1047,1047,1047,1047,1047,1047,1044,1044,1044,1044,1044,1044,1044,1044,1044,1041,1041,1041,1041,1041,1041,1041,1041,1038,1038,1038,1038,1038,1038,1038,1038,1038,1038,1038,1038,1034,1034,1034,1038,1034,1034,1038,1038,1038,1034,1034,1034,1034,1034,1034,1034,1034,1034,1034,1034,1034,1034,1034,1031,1031,1031,1031,1031,1031,1031,1031,1031,1028,1028,1028,1028,1028,1028,1028,1028,1028,1028,1028,1031,1031,1031,1031,1034,1031,1031,1028,1028,1028,1028,1028,1025,1025,1025,1025,1025,1025,1025,1025,1025,1025,1025,1025,1025,1025,1025,1025,1022,1022,1022,1022,1019,1019,1019,1019,1019,1019,1019,1016,1016,1016,1019,1019,1019,1016,1016,1019,1019,1019,1019,1016,1016,1019,1019,1016,1016,1016,1016,1016,1016,1016,1016,1016,1016,1016,1016,1016,1013,1013,1013,1013,1010,1010,1010,1010,1010,1010,1010,1007,1007,1007,1007,1007,1007,1007,1007,1010,1010,1010,1007,1007,1007,1007,1007,1007,1004,1004,1004,1004,1001,1001,998,998,998,998,995,995,998,1001,1001,1001,1001,1001,1001,1001,1001,1001,1001,1001,998,998,998,998,998,998,998,995,995,995,995,995,995,995,998,995,995,995,995,992,992,992,992,992,992,989,989,989,989,989,989,989,989,989,989,987,987,987,989,989,989,989,992,992,992,989,989,987,987,987,987,984,984,984,984,981,981,981,981,981,981,981,981,981,981,981,981,981,981,981,981,981,981,984,984,987,871,871,871,871,871,871,871,869,869,807,807,807,809,809,809,807,807,807,807,807,805,805,805,803,803,803,803,803,803,803,803,803,803,803,803,803,803,803,803,803,805,805,805,805,807,807,807,807,809,809,811,813,813,815,817,819,819,821,821,821,821,821,821,819,815,813,811,811,807,805,803,800,800,798,798,0,0,0,0,0,0,0,0,0,0,0,0,0,0,0,0,0,0,0,0,0,0,0,0,0,0,0,0,0,0,0,0,0,0,0,0,0,0
0,0,0,0,0,1112,1112,1112,1112,1112,1115,1115,1112,1105,1105,1112,1108,1108,1108,1108,1105,1105,1105,1105,1105,1101,1101,1105,1101,1101,1101,1101,1101,1097,1097,1097,1097,1097,1097,1097,1097,1097,1097,1097,1097,1097,1097,1097,1097,1094,1094,1094,1090,1090,1090,1094,1094,1094,1090,1090,1094,1094,1090,1090,1094,1090,1090,1094,1094,1090,1090,1090,1090,1090,1090,1090,1090,1090,1090,1090,1090,1090,1090,1087,1087,1087,1084,1084,1084,1084,1084,1084,1084,1084,1084,1084,1084,1084,1084,1080,1080,1080,1084,1084,1080,1080,1080,1080,1080,1077,1077,1077,1080,1084,1080,1080,1080,1080,1080,1080,1077,1077,1077,1077,1077,1077,1077,1077,1077,1077,1077,1077,1077,1077,1080,1077,1077,1077,1077,1077,1077,1077,1077,1077,1077,803,803,802,802,800,800,798,798,798,798,800,800,800,802,803,803,805,807,809,809,809,809,811,811,813,813,811,811,851,849,847,845,845,845,845,845,847,847,847,847,847,849,849,849,849,849,849,851,851,851,851,854,856,856,858,858,860,860,860,864,864,867,867,869,871,871,873,875,875,878,878,878,878,880,880,882,885,887,887,887,1050,1050,1050,1050,1050,1050,1050,1050,1050,1050,1050,1050,1050,1050,1050,1050,1047,1047,1047,1047,1044,1044,1044,1044,1044,1044,1047,1047,1047,1047,1047,1047,1044,1044,1044,1044,1044,1041,1041,1041,1041,1041,1041,1041,1041,1041,1041,1041,1041,1038,1038,1038,1038,1038,1038,1038,1038,1038,1034,1034,1034,1034,1034,1034,1034,1034,1034,1034,1034,1034,1034,1038,1034,1034,1034,1034,1034,1034,1034,1031,1031,1031,1034,1031,1031,1031,1028,1028,1028,1028,1028,1028,1028,1028,1028,1028,1028,1028,1028,1028,1028,1025,1025,1025,1025,1028,1028,1028,1028,1028,1028,1028,1028,1025,1025,1025,1025,1025,1025,1025,1025,1025,1025,1025,1025,1025,1025,1025,1025,1022,1022,1025,1022,1022,1022,1019,1019,1019,1016,1016,1016,1016,1016,1016,1016,1016,1016,1016,1016,1016,1016,1016,1016,1016,1016,1016,1016,1016,1016,1016,1013,1013,1013,1016,1013,1013,1013,1013,1013,1013,1013,1013,1013,1013,1013,1013,1010,1010,1007,1007,1010,1010,1010,1007,1007,1007,1007,1007,1004,1004,1004,1004,1004,1004,1007,1004,1004,1004,1004,1004,1004,1004,1004,1004,1004,1004,1001,998,998,998,998,995,995,995,995,995,995,998,998,998,998,998,1001,998,998,998,998,998,998,998,995,995,995,995,992,992,992,992,992,992,992,992,992,992,992,992,992,989,989,992,992,989,989,989,989,989,989,987,987,987,987,984,984,984,984,987,987,989,989,989,989,989,987,987,984,984,981,981,981,981,981,981,981,981,981,981,981,981,981,981,981,981,978,978,981,978,978,981,981,981,984,878,873,873,873,873,873,873,871,871,871,807,807,807,807,807,807,807,807,807,807,805,805,805,803,803,803,803,803,803,803,803,803,803,803,803,803,803,803,803,803,803,805,805,805,805,807,807,807,807,809,809,811,813,813,815,817,819,819,821,821,821,819,819,819,813,813,813,809,807,805,805,803,800,800,798,798,0,0,0,0,0,0,0,0,0,0,0,0,0,0,0,0,0,0,0,0,0,0,0,0,0,0,0,0,0,0,0,0,0,0,0,0,0,0
0,0,0,0,0,1112,1112,1112,1112,1112,1112,1112,1112,1105,1105,1108,1108,1105,1105,1105,1105,1105,1101,1101,1101,1101,1101,1101,1101,1101,1097,1097,1097,1094,1094,1094,1094,1094,1094,1090,1090,1090,1094,1094,1094,1094,1094,1094,1094,1090,1090,1090,1087,1087,1090,1090,1090,1090,1087,1087,1090,1090,1090,1090,1090,1087,1087,1087,1087,1087,1087,1087,1087,1087,1087,1087,1087,1084,1084,1087,1087,1087,1087,1087,1084,1084,1084,1080,1080,1080,1080,1080,1084,1080,1080,1080,1080,1080,1080,1077,1077,1077,1080,1080,1077,1077,1077,1077,1077,1077,1077,1077,1077,1080,1080,1077,1077,1077,1077,1077,1073,1073,1073,1073,1073,1073,1073,1073,1073,1073,1073,1073,1073,1073,1073,1073,1073,1077,1077,1077,1077,1077,1077,1077,1077,803,803,803,802,802,800,800,798,798,800,800,800,802,802,803,803,805,807,809,809,809,809,811,811,813,813,813,813,849,847,847,845,845,845,845,845,845,845,845,847,847,847,849,849,849,849,849,849,851,851,851,854,856,856,858,858,860,860,862,864,867,867,867,869,871,871,873,875,875,878,878,878,878,880,880,882,885,887,1047,1047,1047,1047,1047,1047,1050,1047,1047,1050,1050,1050,1050,1050,1050,1050,1047,1047,1047,1044,1044,1044,1041,1041,1041,1041,1041,1044,1044,1044,1044,1044,1044,1044,1041,1041,1041,1041,1038,1038,1038,1038,1038,1038,1038,1038,1038,1038,1038,1038,1038,1038,1034,1034,1034,1034,1034,1034,1034,1034,1034,1034,1034,1034,1034,1031,1031,1031,1031,1031,1034,1034,1034,1034,1034,1034,1034,1034,1031,1031,1031,1031,1031,1031,1028,1028,1028,1028,1028,1028,1028,1028,1028,1025,1025,1025,1025,1025,1025,1025,1025,1025,1025,1025,1025,1025,1025,1025,1025,1025,1025,1025,1025,1025,1025,1022,1022,1022,1022,1022,1022,1022,1022,1022,1022,1022,1022,1022,1022,1022,1022,1022,1019,1019,1022,1019,1019,1016,1016,1016,1016,1016,1016,1013,1013,1013,1013,1013,1013,1013,1013,1016,1016,1016,1016,1016,1013,1013,1013,1013,1013,1013,1010,1010,1010,1010,1010,1010,1013,1013,1013,1013,1013,1010,1010,1010,1010,1010,1007,1007,1007,1007,1007,1007,1007,1007,1007,1004,1004,1004,1004,1004,1004,1004,1004,1004,1004,1004,1001,1001,1001,1001,1004,1004,1004,1001,1001,1001,998,998,995,995,995,995,995,995,995,995,995,995,995,995,995,998,998,995,995,995,995,995,995,995,995,995,995,992,992,992,989,989,989,989,989,989,989,989,989,989,989,989,989,989,992,989,989,989,987,987,987,984,984,984,984,984,981,981,981,984,984,984,987,987,987,984,984,984,984,981,981,981,981,981,981,978,978,978,978,978,978,978,978,978,978,978,978,978,978,975,975,975,981,981,984,878,878,878,878,878,878,875,873,873,873,807,807,807,807,807,807,807,807,805,805,805,805,805,803,803,803,803,803,803,803,803,803,803,803,803,803,803,803,803,803,803,805,805,805,805,805,807,807,809,809,811,811,813,815,817,817,819,819,819,819,819,819,819,817,813,811,811,807,805,805,803,803,800,800,798,798,0,0,0,0,0,0,0,0,0,0,0,0,0,0,0,0,0,0,0,0,0,0,0,0,0,0,0,0,0,0,0,0,0,0,0,0,0,0
