0,0,0,0,0,0,0,0,0,0,0,0,0,0,1624,1624,1616,1616,1616,1616,1616,1616,1609,1609,1601,1601,1601,1601,1601,1609,1609,1609,1609,1609,1609,1609,1609,1616,1609,1609,1609,1601,1601,1594,1594,1594,1594,1594,1594,1594,1594,1594,1594,1594,1594,1586,1586,1586,1594,1594,1601,1601,1601,1601,1601,1601,1601,1601,1594,1594,1594,1594,1594,1594,1586,1586,1586,1586,1579,1579,1579,1579,1579,1579,1579,1579,1579,1586,1586,1586,1586,1586,1586,1579,1579,1579,1579,1579,1579,1572,1572,1572,1572,1572,1572,1572,1572,1572,1572,1572,1572,1572,1572,1572,1572,1572,1572,1572,1579,1586,1586,1586,1594,1594,1601,1853,1853,1863,1853,1853,1843,1843,1843,1833,1833,1833,1833,1833,1823,1823,1823,1823,1823,1823,1823,1594,1586,1586,1586,1579,1579,1579,1579,1579,1579,1579,1586,1594,1594,1594,1601,1601,1601,1601,1601,1609,1609,1609,1609,1616,1616,1616,1616,1624,1624,1624,1632,1632,1647,1647,1647,1647,1655,1655,1655,1655,1655,1663,1663,1671,1671,1671,1671,1680,1680,1680,1688,1688,1688,1688,1696,1705,1705,1713,1713,1722,1722,1722,1731,1731,1731,1731,1731,1739,1739,1748,1748,1757,1757,1757,1757,1766,1766,1766,1776,1776,1785,1785,1794,1794,1794,1794,1804,1804,1804,1804,1804,1804,1804,1794,1794,1794,1794,1785,1785,1776,1776,1776,1776,1766,1766,0,0,0,0,0,0,1087,1087,1084,1080,1080,1080,1077,1077,1073,1073,1073,1073,1070,1070,1070,1070,1070,1067,1067,1063,1063,1060,1060,1060,1057,1057,1054,1054,1050,1050,1050,1047,1047,1047,1047,1044,1041,1041,1041,1038,1038,1034,1034,1034,1034,1034,1031,1028,1025,1025,1025,1025,1022,1022,1022,1019,1019,1019,1019,1016,1016,1016,1013,1013,1010,1010,1007,1004,1004,1001,1001,1001,1001,1001,998,992,992,989,989,989,987,987,984,984,978,978,978,978,975,973,973,970,970,967,967,964,964,962,962,959,959,956,956,954,951,951,951,948,946,946,943,943,940,938,938,935,935,933,930,928,928,928,928,925,925,925,923,920,918,918,915,908,901,901,901,898,898,896,896,896,894,891,891,889,889,887,887,887,887,887,887,889,889,891,894,898,898,898,903,901,901,0,0,0,0,0,1392,1387,1387,1381,1381,1376,1376,1376,1376,1376,1370,1370,1370,1365,1365,1359,1359,1359,1354,1354,1354,1349,1349,1349,1343,1343,1343,1338,1338,1338,1333,1333,1333,1333,1328,1328,1322,1322,1322,1317,1317,1317,1312,1312,1312,1312,1307,1307,1307,1307,1302,1302,1302,1297,1297,1292,1292,1292,1288,1288,1288,1288,1283,1283,1278,1278,1273,1273,1273,1273,1273,1268,1268,1268,1268,1264,1264,1259,1255,1255,1255,1255,1255,1255,1250,1250,1250,1250,1245,1245,1241,1236,1236,1236,1236,1232,1232,1232,1227,1227,1223,1223,1219,1219,1219,1219,1219,1219,1219,1214,1214,1210,1210,1202,1202,1202,1202,1202,1197,1197,1197,1197,1197,1193,1193,1193,1189,1189,1185,1185,1181,1181,1181,1181,1177,1177,1177,1173,1173,1173,1169,1169,1169,1169,1169,1165,1165,1161,1161,1157,1157,1157,1157,1153,1153,1153,1153,1153,1149,1149,1149,1149,1145,1145,1141,1138,1138,1138,1134,1134,1134,1134,1134,1134,1130,1130,1126,1126,1123,1123,1123,1123,1119,1119,1119,1119,1119,1119,0,0,0,0,0,0,0,0,0,0,0,0,0,0,0,0,0,0,0,0,0,0,0,0,0,0,0,0,0
0,0,0,0,0,0,0,0,0,0,0,0,0,0,1624,1624,1616,1616,1616,1616,1616,1616,1616,1609,1609,1601,1601,1601,1601,1609,1609,1609,1609,1609,1609,1609,1609,1616,1609,1609,1601,1601,1601,1594,1594,1594,1594,1594,1594,1594,1594,1594,1594,1594,1594,1586,1586,1586,1594,1594,1601,1601,1601,1601,1601,1594,1594,1594,1594,1594,1594,1594,1594,1594,1586,1586,1586,1586,1586,1579,1579,1579,1586,1586,1586,1586,1586,1586,1594,1594,1586,1586,1586,1586,1586,1579,1579,1572,1572,1572,1572,1572,1572,1572,1572,1572,1572,1572,1572,1572,1572,1572,1572,1572,1572,1572,1572,1572,1579,1586,1586,1586,1594,1594,1863,1863,1863,1863,1853,1853,1843,1843,1843,1843,1833,1833,1833,1833,1833,1823,1823,1823,1823,1823,1823,1823,1586,1586,1586,1579,1579,1579,1579,1579,1579,1579,1586,1594,1594,1594,1594,1601,1601,1601,1601,1609,1609,1609,1616,1616,1616,1616,1616,1624,1624,1632,1632,1639,1647,1647,1647,1647,1655,1655,1655,1663,1663,1663,1663,1671,1671,1680,1680,1680,1688,1688,1688,1688,1688,1696,1705,1705,1713,1713,1713,1722,1722,1731,1731,1731,1731,1731,1739,1739,1739,1748,1748,1757,1757,1757,1757,1766,1766,1776,1776,1776,1785,1785,1794,1794,1794,1794,1804,1804,1804,1804,1804,1804,1804,1794,1794,1794,1794,1785,1785,1776,1776,1776,1776,1766,1766,0,0,0,0,0,0,1087,1087,1084,1084,1080,1080,1077,1077,1077,1073,1073,1073,1073,1070,1070,1070,1070,1067,1067,1063,1063,1063,1060,1060,1057,1057,1054,1054,1050,1050,1050,1047,1047,1047,1044,1044,1041,1041,1041,1038,1038,1038,1034,1034,1034,1034,1031,1028,1025,1025,1025,1025,1022,1022,1022,1019,1019,1019,1019,1016,1016,1016,1013,1013,1010,1007,1004,1004,1004,1004,1004,1001,1001,1001,998,995,992,992,989,989,987,987,984,984,981,978,978,978,975,973,973,970,970,967,967,964,964,962,962,959,959,956,956,954,951,951,948,946,946,946,940,940,940,938,938,935,935,933,933,930,930,928,928,925,925,923,920,918,918,915,913,910,901,901,901,898,898,896,896,896,894,891,891,889,889,887,887,887,887,887,887,889,889,891,894,898,898,901,903,901,901,0,0,0,0,1392,1392,1387,1387,1381,1381,1376,1376,1376,1376,1376,1376,1370,1370,1370,1365,1365,1359,1359,1354,1354,1354,1349,1349,1349,1349,1343,1343,1343,1338,1338,1338,1333,1333,1333,1333,1328,1328,1322,1322,1322,1317,1317,1312,1312,1312,1312,1312,1307,1307,1307,1307,1302,1302,1297,1297,1292,1292,1292,1292,1288,1288,1288,1288,1283,1283,1278,1273,1273,1273,1273,1273,1268,1268,1268,1268,1264,1264,1259,1255,1255,1255,1255,1255,1255,1250,1250,1250,1245,1245,1241,1241,1236,1236,1236,1236,1232,1232,1232,1232,1232,1227,1227,1223,1219,1219,1219,1219,1219,1219,1214,1214,1210,1210,1202,1202,1202,1202,1202,1197,1197,1197,1197,1197,1197,1193,1193,1189,1189,1189,1185,1181,1181,1181,1181,1177,1177,1177,1173,1173,1173,1173,1169,1169,1169,1169,1169,1165,1161,1161,1157,1157,1157,1157,1153,1153,1153,1153,1153,1149,1149,1149,1149,1145,1145,1141,1138,1138,1138,1134,1134,1134,1134,1134,1134,1134,1134,1130,1126,1126,1123,1123,1123,1119,1119,1119,1119,1119,1119,0,0,0,0,0,0,0,0,0,0,0,0,0,0,0,0,0,0,0,0,0,0,0,0,0,0,0,0,0
0,0,0,0,0,0,0,0,0,0,0,0,0,0,1624,1624,1616,1616,1616,1616,1616,1616,1616,1609,1609,1609,1609,1609,1609,1609,1609,1609,1609,1609,1609,1609,1609,1616,1609,1609,1601,1601,1601,1594,1594,1594,1594,1594,1594,1594,1594,1594,1594,1594,1594,1594,1594,1594,1601,1601,1601,1601,1601,1601,1601,1594,1594,1594,1594,1594,1594,1594,1594,1594,1594,1594,1586,1586,1586,1579,1579,1586,1586,1586,1586,1586,1586,1586,1594,1594,1586,1586,1586,1586,1586,1579,1579,1572,1572,1572,1572,1572,1572,1572,1572,1579,1579,1579,1579,1572,1572,1572,1572,1572,1572,1572,1572,1579,1579,1579,1586,1586,1594,1594,1863,1863,1863,1863,1853,1853,1843,1843,1843,1843,1843,1843,1833,1833,1833,1833,1833,1823,1823,1823,1823,1823,1594,1594,1586,1579,1579,1579,1579,1579,1579,1579,1586,1594,1594,1594,1594,1601,1601,1601,1601,1609,1609,1609,1616,1616,1616,1616,1616,1624,1624,1632,1632,1639,1647,1647,1647,1647,1655,1655,1655,1663,1663,1663,1671,1680,1680,1680,1688,1688,1688,1688,1688,1688,1696,1696,1705,1705,1713,1722,1722,1722,1731,1731,1731,1731,1731,1731,1739,1748,1748,1748,1757,1757,1757,1757,1757,1766,1766,1766,1776,1785,1794,1794,1794,1794,1794,1804,1804,1804,1804,1804,1804,1804,1804,1794,1794,1794,1794,1785,1785,1776,1776,1776,1776,1776,1776,0,0,0,0,0,1087,1084,1084,1084,1080,1080,1080,1077,1077,1077,1073,1073,1073,1073,1073,1073,1070,1070,1067,1067,1063,1063,1060,1060,1060,1057,1057,1054,1054,1054,1050,1050,1050,1047,1047,1044,1044,1041,1041,1041,1038,1038,1038,1034,1034,1034,1034,1034,1028,1028,1025,1025,1025,1022,1022,1022,1019,1019,1019,1019,1019,1016,1016,1013,1013,1010,1007,1004,1004,1004,1004,1004,1001,1001,1001,998,995,992,992,989,989,987,987,984,984,981,978,978,975,975,973,973,970,970,967,967,964,962,962,962,959,959,956,956,954,951,951,948,946,946,946,940,940,940,938,938,935,935,933,933,930,928,928,928,923,923,920,918,918,915,915,913,910,903,903,901,898,898,896,896,896,894,891,891,889,889,887,887,887,887,887,889,889,889,891,894,898,901,901,903,903,0,0,0,0,0,1392,1392,1387,1387,1381,1381,1376,1376,1376,1376,1376,1376,1376,1370,1370,1365,1365,1359,1359,1354,1354,1354,1349,1349,1349,1349,1343,1343,1343,1338,1338,1333,1333,1333,1333,1333,1333,1328,1328,1328,1322,1322,1317,1317,1312,1312,1312,1312,1307,1307,1307,1307,1302,1302,1302,1297,1297,1292,1292,1292,1292,1288,1288,1288,1283,1283,1278,1273,1273,1273,1273,1273,1273,1268,1268,1264,1264,1264,1259,1259,1255,1255,1255,1255,1255,1250,1250,1250,1245,1245,1241,1241,1236,1236,1236,1236,1236,1236,1232,1232,1232,1227,1227,1223,1223,1219,1219,1219,1219,1214,1214,1214,1214,1206,1206,1202,1202,1202,1202,1197,1197,1197,1197,1197,1197,1193,1193,1193,1189,1189,1185,1181,1181,1181,1181,1177,1177,1177,1173,1173,1173,1173,1169,1169,1169,1169,1169,1165,1165,1161,1161,1161,1157,1157,1153,1153,1153,1153,1153,1153,1149,1149,1149,1145,1145,1141,1141,1138,1138,1138,1138,1134,1134,1134,1134,1134,1134,1130,1130,1126,1126,1123,1123,1123,1123,1119,1119,1119,1119,0,0,0,0,0,0,0,0,0,0,0,0,0,0,0,0,0,0,0,0,0,0,0,0,0,0,0,0,0
0,0,0,0,0,0,0,0,0,0,0,0,0,0,1624,1624,1624,1616,1616,1616,1616,1616,1616,1616,1609,1609,1609,1609,1609,1616,1616,1616,1616,1609,1609,1609,1609,1616,1609,1609,1601,1601,1601,1601,1594,1594,1594,1594,1594,1594,1594,1594,1601,1601,1601,1594,1594,1594,1601,1601,1601,1601,1601,1601,1601,1601,1601,1601,1594,1594,1594,1594,1594,1594,1594,1594,1594,1586,1586,1586,1586,1586,1586,1586,1586,1586,1594,1594,1594,1594,1586,1586,1586,1586,1586,1586,1579,1579,1579,1579,1572,1572,1572,1572,1572,1579,1579,1579,1579,1579,1579,1579,1579,1572,1572,1572,1579,1579,1579,1579,1586,1586,1594,1594,1594,1873,1863,1863,1853,1853,1843,1843,1843,1843,1843,1843,1843,1833,1833,1833,1833,1823,1823,1823,1823,1823,1823,1586,1586,1586,1586,1579,1579,1579,1579,1586,1586,1594,1594,1594,1594,1601,1601,1601,1601,1609,1609,1609,1616,1616,1616,1624,1624,1624,1624,1632,1632,1639,1647,1647,1655,1655,1655,1655,1663,1663,1663,1663,1671,1680,1680,1680,1688,1688,1688,1688,1688,1696,1696,1696,1705,1713,1722,1722,1722,1722,1731,1731,1731,1731,1731,1731,1739,1748,1748,1757,1757,1757,1757,1757,1757,1766,1766,1766,1776,1785,1794,1794,1794,1794,1794,1804,1804,1804,1804,1804,1804,1804,1804,1794,1794,1794,1794,1785,1785,1785,1785,1776,1776,1776,1776,0,0,0,0,0,1087,1084,1084,1084,1080,1080,1077,1077,1077,1077,1073,1073,1073,1073,1073,1073,1070,1070,1070,1070,1063,1063,1060,1060,1060,1060,1057,1057,1054,1054,1054,1050,1050,1047,1047,1047,1044,1044,1041,1041,1038,1038,1038,1034,1034,1034,1034,1034,1031,1028,1025,1025,1025,1022,1022,1022,1019,1019,1019,1019,1016,1016,1013,1013,1013,1010,1007,1004,1004,1004,1004,1004,1001,1001,1001,998,995,992,992,989,989,987,987,984,984,981,978,978,975,975,973,973,970,970,967,967,964,962,962,959,959,959,956,956,954,951,951,948,948,946,943,940,940,938,938,938,935,935,933,933,930,928,928,925,923,920,920,918,918,915,915,913,910,908,903,901,898,898,896,896,896,894,891,891,889,889,887,887,887,887,887,889,889,889,891,894,898,901,903,906,906,0,0,0,0,0,1387,1387,1387,1387,1387,1381,1381,1376,1376,1376,1376,1376,1376,1370,1370,1370,1365,1365,1359,1354,1354,1354,1354,1349,1349,1349,1343,1343,1343,1338,1338,1333,1333,1333,1333,1333,1333,1328,1328,1328,1322,1322,1317,1317,1312,1312,1312,1312,1307,1307,1307,1307,1307,1302,1302,1297,1297,1292,1292,1292,1292,1288,1288,1288,1283,1283,1278,1273,1273,1273,1273,1273,1273,1268,1268,1264,1264,1264,1259,1259,1255,1255,1255,1255,1255,1255,1250,1250,1250,1245,1245,1241,1241,1236,1236,1236,1236,1236,1232,1232,1232,1227,1227,1223,1223,1219,1219,1219,1219,1214,1214,1214,1214,1206,1206,1206,1202,1202,1202,1197,1197,1197,1197,1197,1197,1193,1193,1193,1189,1185,1185,1185,1181,1181,1181,1181,1177,1177,1177,1177,1173,1173,1169,1169,1169,1169,1165,1165,1165,1161,1161,1161,1157,1157,1153,1153,1153,1153,1153,1153,1149,1149,1149,1149,1145,1145,1141,1138,1138,1138,1138,1138,1138,1134,1134,1134,1134,1134,1134,1130,1126,1126,1123,1123,1123,1119,1119,1119,1119,0,0,0,0,0,0,0,0,0,0,0,0,0,0,0,0,0,0,0,0,0,0,0,0,0,0,0,0,0
0,0,0,0,0,0,0,0,0,0,0,0,0,0,1624,1624,1624,1624,1616,1616,1616,1616,1616,1616,1616,1616,1616,1616,1616,1616,1616,1616,1616,1616,1616,1616,1616,1616,1616,1609,1609,1609,1609,1601,1601,1601,1601,1601,1601,1594,1594,1594,1601,1601,1601,1601,1601,1601,1601,1601,1601,1601,1601,1601,1594,1594,1594,1594,1594,1594,1594,1594,1594,1594,1594,1586,1586,1586,1586,1586,1586,1586,1586,1594,1586,1586,1594,1594,1594,1594,1594,1594,1594,1594,1586,1586,1586,1579,1579,1579,1572,1572,1572,1572,1572,1579,1579,1579,1579,1579,1579,1579,1579,1579,1572,1572,1579,1579,1586,1586,1586,1594,1594,1594,1594,1863,1863,1863,1863,1853,1853,1843,1843,1843,1843,1843,1843,1833,1833,1833,1823,1823,1823,1823,1823,1823,1823,1586,1586,1586,1586,1586,1586,1579,1579,1586,1586,1594,1594,1594,1594,1601,1601,1601,1601,1609,1609,1609,1616,1616,1616,1624,1624,1624,1624,1632,1632,1639,1647,1647,1655,1655,1655,1663,1663,1663,1663,1671,1671,1680,1680,1688,1688,1688,1688,1688,1688,1696,1696,1696,1705,1713,1722,1722,1722,1722,1731,1731,1731,1731,1731,1731,1739,1748,1748,1757,1757,1757,1757,1757,1757,1766,1766,1766,1785,1785,1794,1794,1794,1794,1794,1804,1804,1804,1804,1813,1823,1813,1813,1804,1804,1794,1794,1794,1785,1785,1785,1785,1785,1776,1776,0,0,0,0,0,1087,1084,1084,1084,1080,1080,1077,1077,1077,1077,1077,1073,1073,1073,1073,1073,1073,1070,1070,1070,1070,1067,1063,1060,1060,1060,1060,1057,1054,1054,1054,1050,1050,1047,1047,1047,1044,1044,1041,1041,1038,1038,1038,1034,1034,1034,1034,1034,1031,1028,1025,1025,1025,1025,1022,1022,1019,1019,1019,1019,1016,1016,1013,1013,1013,1010,1007,1007,1007,1004,1004,1004,1004,1001,1001,1001,998,992,992,989,989,987,987,984,984,981,981,978,978,975,973,973,970,970,967,967,964,962,962,959,959,956,956,956,954,954,951,948,948,946,943,940,940,938,938,938,935,935,933,933,930,928,928,925,923,920,920,918,918,915,913,913,910,908,903,901,898,898,896,896,896,894,894,891,889,889,887,887,887,887,889,889,889,889,891,894,898,901,903,906,906,0,0,0,0,0,1387,1387,1387,1387,1387,1381,1381,1381,1381,1376,1376,1376,1376,1370,1370,1370,1365,1365,1359,1354,1354,1354,1354,1349,1349,1349,1349,1349,1343,1343,1343,1338,1338,1333,1333,1333,1333,1328,1328,1328,1328,1322,1322,1317,1317,1312,1312,1312,1307,1307,1307,1307,1307,1302,1302,1297,1297,1292,1292,1292,1292,1288,1288,1288,1283,1283,1283,1278,1278,1273,1273,1273,1273,1268,1268,1268,1264,1264,1259,1259,1259,1259,1259,1255,1255,1255,1255,1250,1250,1245,1245,1245,1241,1236,1236,1236,1236,1236,1232,1232,1232,1232,1227,1223,1223,1223,1219,1219,1219,1214,1214,1214,1214,1210,1206,1206,1202,1202,1202,1197,1197,1197,1197,1197,1197,1193,1193,1193,1189,1185,1185,1185,1181,1181,1181,1181,1177,1177,1177,1177,1173,1173,1169,1169,1169,1169,1165,1165,1165,1161,1161,1161,1157,1157,1153,1153,1153,1153,1153,1149,1149,1149,1149,1145,1145,1145,1141,1138,1138,1138,1138,1138,1138,1134,1134,1134,1134,1134,1134,1130,1130,1130,1123,1123,1123,1119,1119,1119,1119,0,0,0,0,0,0,0,0,0,0,0,0,0,0,0,0,0,0,0,0,0,0,0,0,0,0,0,0,0
0,0,0,0,0,0,0,0,0,0,0,0,0,0,1624,1624,1624,1624,1624,1616,1616,1624,1624,1616,1616,1616,1616,1616,1616,1616,1616,1616,1616,1616,1616,1616,1616,1616,1616,1616,1609,1609,1609,1601,1601,1601,1601,1601,1601,1594,1594,1601,1601,1601,1601,1601,1601,1601,1601,1601,1601,1601,1601,1601,1594,1594,1594,1594,1594,1594,1594,1594,1594,1594,1594,1586,1586,1586,1586,1586,1586,1586,1594,1594,1594,1594,1594,1594,1594,1594,1594,1594,1594,1594,1594,1586,1586,1579,1579,1579,1579,1572,1572,1572,1572,1579,1579,1579,1579,1579,1586,1579,1579,1579,1579,1579,1579,1579,1586,1586,1594,1594,1594,1601,1601,1873,1873,1873,1863,1853,1853,1853,1843,1843,1843,1843,1843,1833,1833,1833,1823,1823,1823,1813,1813,1823,1823,1823,1594,1594,1586,1586,1586,1586,1586,1586,1594,1594,1594,1594,1594,1601,1601,1601,1601,1609,1609,1609,1616,1616,1616,1624,1624,1624,1632,1632,1632,1639,1647,1655,1655,1655,1655,1663,1663,1663,1671,1671,1671,1680,1680,1688,1688,1688,1688,1688,1696,1696,1696,1705,1705,1713,1722,1722,1722,1722,1731,1731,1731,1731,1731,1739,1748,1748,1757,1757,1757,1757,1757,1766,1766,1766,1766,1776,1785,1785,1794,1794,1794,1794,1794,1804,1804,1804,1804,1813,1813,1813,1813,1804,1804,1794,1794,1794,1785,1785,1785,1785,1785,1776,1776,0,0,0,0,0,1087,1084,1084,1084,1080,1080,1077,1077,1077,1077,1077,1077,1073,1073,1073,1073,1073,1070,1070,1070,1070,1067,1063,1063,1063,1060,1060,1060,1057,1057,1054,1054,1050,1050,1047,1047,1044,1044,1041,1041,1038,1038,1038,1038,1034,1034,1034,1034,1034,1028,1025,1025,1025,1025,1022,1022,1019,1019,1022,1019,1016,1016,1016,1013,1013,1013,1010,1010,1007,1004,1004,1004,1001,1001,1001,998,995,995,992,989,989,987,987,987,984,981,981,978,978,978,975,973,970,970,970,967,964,962,962,959,959,956,956,956,954,954,951,948,948,946,943,940,940,938,938,938,935,935,933,933,930,928,928,925,923,920,920,918,918,915,913,913,910,908,903,901,898,898,896,896,896,894,894,891,889,889,887,887,887,887,889,889,889,891,891,894,898,901,903,906,906,0,0,0,0,0,1392,1392,1387,1387,1387,1381,1381,1381,1381,1376,1376,1376,1376,1376,1370,1370,1370,1365,1359,1359,1354,1354,1354,1349,1349,1349,1349,1349,1349,1343,1343,1338,1338,1338,1338,1333,1333,1328,1328,1328,1328,1322,1322,1317,1312,1312,1312,1312,1307,1307,1307,1307,1307,1302,1302,1302,1297,1297,1297,1292,1292,1288,1288,1288,1288,1283,1283,1278,1278,1273,1273,1273,1273,1273,1268,1268,1264,1264,1259,1259,1259,1255,1255,1255,1255,1255,1255,1250,1250,1245,1245,1241,1241,1241,1236,1236,1236,1236,1232,1232,1232,1232,1227,1223,1223,1223,1219,1219,1219,1214,1214,1214,1210,1210,1206,1206,1202,1202,1202,1202,1197,1197,1197,1197,1197,1197,1193,1193,1189,1185,1185,1185,1181,1181,1181,1181,1177,1177,1177,1177,1177,1173,1169,1169,1169,1165,1165,1165,1165,1161,1161,1161,1157,1157,1153,1153,1153,1153,1153,1149,1149,1149,1149,1145,1145,1145,1141,1138,1138,1138,1138,1138,1138,1134,1134,1134,1134,1134,1134,1130,1130,1130,1126,1123,1123,1123,1119,1119,1119,0,0,0,0,0,0,0,0,0,0,0,0,0,0,0,0,0,0,0,0,0,0,0,0,0,0,0,0,0
0,0,0,0,0,0,0,0,0,0,0,0,0,0,1624,1624,1624,1624,1624,1624,1624,1624,1624,1616,1616,1624,1624,1624,1624,1624,1624,1624,1616,1616,1616,1616,1616,1624,1616,1616,1609,1609,1609,1601,1601,1601,1601,1601,1601,1601,1601,1601,1601,1601,1601,1601,1601,1601,1601,1601,1601,1601,1601,1601,1601,1601,1594,1594,1594,1594,1594,1594,1594,1594,1594,1594,1594,1586,1586,1586,1586,1586,1594,1594,1594,1594,1594,1594,1594,1594,1594,1594,1586,1586,1594,1586,1586,1579,1579,1579,1579,1572,1572,1572,1572,1579,1579,1579,1579,1586,1586,1586,1579,1579,1579,1579,1579,1579,1586,1594,1594,1601,1601,1609,1616,1873,1873,1873,1863,1863,1853,1853,1843,1843,1843,1843,1843,1843,1833,1833,1823,1823,1813,1813,1813,1813,1794,1776,1594,1594,1586,1586,1586,1586,1586,1586,1594,1594,1594,1594,1594,1601,1601,1601,1601,1609,1609,1609,1616,1624,1624,1624,1624,1624,1632,1632,1632,1639,1647,1655,1655,1655,1655,1663,1663,1663,1671,1671,1671,1680,1680,1688,1688,1688,1688,1696,1696,1696,1696,1705,1705,1713,1713,1722,1722,1722,1722,1722,1731,1731,1731,1739,1739,1748,1757,1757,1757,1757,1757,1766,1766,1766,1766,1776,1785,1785,1794,1794,1794,1794,1794,1804,1804,1804,1813,1813,1813,1813,1813,1804,1804,1794,1794,1794,1794,1794,1794,1785,1785,1785,1785,0,0,0,0,0,0,1084,1084,1080,1080,1077,1077,1077,1077,1077,1077,1077,1073,1073,1073,1073,1073,1070,1070,1070,1070,1067,1063,1063,1063,1060,1060,1060,1060,1057,1057,1057,1054,1050,1047,1047,1044,1044,1041,1041,1038,1038,1038,1038,1034,1034,1034,1034,1031,1028,1025,1025,1025,1025,1022,1022,1019,1019,1022,1019,1016,1016,1016,1013,1013,1013,1010,1010,1010,1004,1004,1004,1001,1001,1001,998,995,995,992,989,989,987,987,987,984,981,981,978,978,978,975,973,970,970,970,967,964,962,959,959,959,956,956,956,954,951,951,951,948,946,943,940,940,938,938,938,935,935,933,933,930,928,928,925,923,920,918,918,918,915,913,913,910,908,903,901,898,898,896,896,896,894,894,891,889,889,887,887,887,887,889,889,889,891,891,896,898,901,903,906,906,0,0,0,0,0,1392,1392,1387,1387,1387,1387,1381,1381,1381,1381,1376,1376,1376,1376,1370,1370,1370,1365,1365,1365,1359,1354,1354,1354,1349,1349,1349,1349,1349,1343,1343,1338,1338,1338,1338,1333,1333,1328,1328,1328,1328,1322,1322,1317,1312,1312,1312,1312,1312,1307,1307,1307,1307,1302,1302,1302,1297,1297,1297,1292,1292,1292,1292,1288,1288,1283,1283,1278,1278,1273,1273,1273,1273,1273,1268,1268,1268,1264,1264,1259,1259,1255,1255,1255,1255,1255,1255,1250,1250,1245,1241,1241,1241,1241,1236,1236,1236,1236,1232,1232,1232,1232,1227,1223,1223,1223,1219,1219,1219,1214,1214,1214,1210,1210,1210,1210,1206,1202,1202,1202,1197,1197,1197,1197,1197,1197,1197,1193,1189,1185,1185,1185,1185,1181,1181,1181,1181,1181,1177,1177,1177,1173,1169,1169,1169,1165,1165,1165,1165,1161,1161,1161,1157,1157,1157,1157,1153,1153,1153,1149,1149,1149,1149,1149,1145,1145,1145,1141,1138,1138,1138,1138,1138,1138,1138,1134,1134,1134,1134,1134,1130,1130,1126,1123,1123,1123,1123,1119,1119,0,0,0,0,0,0,0,0,0,0,0,0,0,0,0,0,0,0,0,0,0,0,0,0,0,0,0,0,0
0,0,0,0,0,0,0,0,0,0,0,0,0,0,1624,1624,1624,1624,1624,1624,1616,1616,1616,1616,1616,1624,1624,1624,1624,1624,1624,1624,1624,1616,1616,1616,1616,1616,1609,1609,1609,1609,1609,1601,1601,1601,1601,1601,1601,1601,1601,1601,1601,1601,1601,1601,1601,1601,1601,1601,1601,1601,1601,1601,1594,1594,1594,1594,1594,1594,1594,1594,1594,1594,1594,1594,1594,1594,1594,1594,1594,1594,1594,1594,1594,1594,1594,1594,1594,1594,1594,1594,1586,1586,1594,1586,1586,1579,1579,1579,1579,1579,1572,1572,1579,1579,1579,1579,1579,1586,1586,1586,1586,1579,1579,1579,1579,1586,1586,1594,1601,1609,1609,1609,1616,1616,1616,1873,1873,1863,1863,1853,1853,1853,1843,1843,1843,1843,1833,1833,1823,1823,1813,1813,1813,1813,1794,1776,1594,1594,1594,1594,1594,1594,1594,1594,1594,1594,1594,1601,1601,1601,1601,1601,1601,1609,1609,1616,1616,1624,1624,1624,1624,1632,1632,1632,1639,1639,1647,1655,1655,1655,1663,1663,1663,1663,1671,1671,1671,1680,1688,1688,1688,1688,1696,1696,1696,1696,1705,1705,1713,1713,1713,1722,1722,1722,1722,1722,1731,1731,1731,1731,1739,1748,1757,1757,1757,1757,1766,1766,1766,1766,1776,1776,1785,1785,1794,1794,1794,1794,1804,1804,1804,1813,1813,1813,1813,1813,1813,1813,1804,1804,1794,1794,1794,1794,1794,1785,1785,1785,1785,0,0,0,0,0,0,1084,1084,1080,1080,1077,1077,1077,1077,1077,1073,1073,1073,1073,1073,1073,1073,1070,1070,1070,1070,1067,1063,1063,1063,1063,1060,1060,1060,1057,1057,1057,1054,1050,1047,1047,1047,1044,1041,1041,1038,1038,1038,1038,1034,1034,1034,1034,1031,1028,1025,1025,1025,1025,1022,1022,1019,1019,1022,1019,1016,1016,1016,1016,1013,1013,1010,1010,1007,1004,1004,1004,1001,1001,1001,998,995,995,992,989,989,987,987,987,984,981,981,978,978,978,975,973,970,970,970,967,962,962,959,959,959,956,956,956,954,951,951,951,948,946,943,940,940,938,938,938,935,935,933,933,930,928,925,925,923,920,918,918,918,915,913,913,910,908,903,901,898,898,896,896,896,894,894,891,891,889,889,889,889,889,889,889,891,891,894,896,898,901,903,906,908,0,0,0,0,0,1392,1392,1387,1387,1387,1387,1387,1381,1381,1381,1376,1376,1376,1376,1376,1370,1370,1365,1365,1365,1365,1354,1354,1354,1354,1349,1349,1349,1349,1343,1343,1338,1338,1338,1338,1333,1333,1328,1328,1328,1328,1322,1322,1317,1317,1312,1312,1312,1312,1307,1307,1307,1307,1307,1302,1302,1297,1297,1297,1292,1292,1292,1292,1288,1288,1288,1283,1278,1278,1273,1273,1273,1273,1273,1273,1268,1268,1268,1264,1264,1259,1259,1255,1255,1255,1255,1255,1250,1250,1245,1241,1241,1241,1241,1236,1236,1236,1236,1232,1232,1232,1232,1227,1223,1223,1223,1219,1219,1219,1214,1214,1214,1210,1210,1210,1210,1206,1206,1202,1202,1202,1197,1197,1202,1197,1197,1197,1193,1189,1185,1185,1185,1185,1185,1181,1181,1181,1181,1181,1177,1177,1173,1173,1169,1169,1165,1165,1165,1165,1161,1161,1161,1161,1161,1157,1157,1153,1153,1153,1153,1149,1149,1149,1149,1149,1145,1145,1145,1141,1138,1138,1138,1138,1138,1138,1138,1138,1134,1134,1134,1134,1130,1130,1126,1126,1123,1123,1123,1123,0,0,0,0,0,0,0,0,0,0,0,0,0,0,0,0,0,0,0,0,0,0,0,0,0,0,0,0,0
0,0,0,0,0,0,0,0,0,0,0,0,0,0,1624,1624,1624,1624,1624,1624,1616,1616,1616,1616,1616,1616,1624,1624,1624,1624,1624,1624,1624,1616,1616,1616,1616,1616,1609,1609,1609,1609,1609,1601,1601,1601,1609,1609,1601,1601,1601,1601,1601,1601,1601,1601,1601,1601,1601,1601,1601,1601,1601,1601,1594,1594,1594,1594,1594,1594,1594,1594,1594,1594,1594,1594,1594,1594,1594,1594,1594,1594,1594,1594,1594,1594,1594,1594,1594,1594,1594,1594,1594,1594,1586,1586,1586,1579,1579,1579,1579,1579,1579,1579,1579,1579,1586,1586,1586,1586,1586,1586,1586,1579,1579,1579,1579,1586,1586,1601,1601,1609,1609,1609,1616,1616,1616,1873,1873,1863,1863,1853,1853,1853,1843,1843,1843,1843,1843,1833,1833,1823,1823,1823,1813,1813,1804,1785,1766,1594,1594,1594,1594,1594,1594,1594,1594,1594,1601,1601,1601,1601,1601,1601,1601,1609,1609,1616,1616,1624,1624,1624,1624,1632,1632,1632,1639,1639,1647,1655,1655,1655,1663,1663,1663,1671,1671,1680,1680,1680,1688,1688,1688,1688,1696,1696,1696,1696,1705,1705,1713,1713,1713,1722,1722,1722,1722,1722,1731,1731,1731,1731,1739,1748,1757,1757,1757,1757,1766,1766,1766,1766,1776,1776,1785,1785,1794,1794,1794,1794,1804,1804,1813,1813,1823,1823,1823,1813,1813,1813,1804,1804,1804,1794,1794,1794,1794,1794,1785,1785,1785,1785,0,0,0,0,0,1084,1084,1084,1080,1077,1077,1077,1077,1077,1073,1073,1073,1073,1073,1073,1073,1070,1070,1070,1070,1067,1063,1063,1063,1063,1060,1060,1060,1060,1057,1057,1054,1054,1050,1047,1047,1044,1041,1041,1041,1038,1038,1038,1034,1034,1034,1034,1031,1028,1028,1025,1025,1025,1022,1022,1019,1019,1019,1019,1016,1016,1016,1013,1013,1013,1010,1010,1007,1004,1004,1004,1001,1001,998,998,998,995,992,992,989,989,987,984,984,981,981,978,978,978,975,973,970,970,970,967,962,962,959,959,959,956,956,956,954,954,951,951,948,946,943,940,940,938,938,938,935,935,933,933,930,928,925,925,923,920,918,918,918,915,915,913,910,903,903,901,898,898,896,896,896,896,894,894,889,889,889,889,889,889,889,891,891,894,894,896,898,898,901,906,908,0,0,0,0,1404,1398,1398,1392,1392,1392,1387,1387,1387,1381,1381,1381,1376,1376,1376,1376,1376,1370,1370,1365,1365,1365,1354,1354,1354,1349,1349,1349,1349,1349,1349,1343,1343,1338,1338,1338,1338,1333,1333,1328,1328,1328,1322,1322,1317,1317,1317,1317,1312,1312,1307,1307,1307,1307,1307,1302,1302,1297,1297,1297,1292,1292,1292,1292,1288,1288,1288,1283,1283,1283,1278,1278,1273,1273,1273,1273,1268,1268,1268,1264,1264,1259,1259,1259,1255,1255,1255,1255,1250,1250,1245,1241,1241,1241,1241,1241,1236,1236,1236,1232,1232,1232,1232,1227,1223,1223,1223,1219,1219,1219,1219,1219,1214,1210,1210,1210,1210,1206,1206,1202,1202,1202,1202,1202,1202,1197,1197,1197,1189,1189,1185,1185,1185,1185,1185,1181,1181,1181,1181,1181,1181,1177,1177,1173,1173,1169,1165,1165,1165,1165,1165,1165,1165,1161,1161,1161,1157,1153,1153,1153,1153,1153,1149,1149,1149,1149,1145,1145,1145,1141,1141,1138,1138,1138,1138,1138,1138,1138,1134,1134,1134,1134,1130,1130,1126,1126,1123,1123,1123,1123,0,0,0,0,0,0,0,0,0,0,0,0,0,0,0,0,0,0,0,0,0,0,0,0,0,0,0,0,0
0,0,0,0,0,0,0,0,0,0,0,0,0,0,1632,1632,1624,1624,1624,1624,1624,1624,1616,1616,1616,1616,1624,1624,1624,1624,1624,1624,1624,1624,1616,1616,1616,1616,1609,1609,1609,1609,1609,1609,1609,1609,1609,1609,1601,1601,1601,1601,1601,1601,1601,1601,1601,1601,1601,1601,1601,1601,1601,1601,1601,1601,1594,1594,1594,1594,1594,1594,1594,1594,1594,1594,1594,1594,1594,1594,1594,1594,1594,1594,1594,1594,1594,1594,1594,1594,1594,1594,1594,1594,1586,1586,1586,1586,1586,1586,1586,1586,1579,1579,1586,1586,1586,1586,1586,1586,1586,1586,1586,1586,1586,1586,1586,1594,1594,1601,1601,1609,1609,1609,1616,1616,1616,1616,1873,1863,1863,1853,1853,1853,1843,1843,1843,1843,1843,1833,1833,1823,1823,1823,1823,1813,1804,1785,1594,1594,1594,1594,1594,1594,1594,1594,1594,1594,1601,1601,1601,1601,1601,1601,1609,1609,1609,1616,1616,1624,1624,1632,1632,1632,1632,1639,1647,1647,1647,1655,1655,1655,1663,1663,1663,1671,1671,1680,1680,1688,1688,1688,1688,1688,1696,1696,1696,1696,1705,1705,1705,1713,1713,1722,1722,1722,1731,1731,1731,1731,1731,1731,1739,1748,1757,1757,1757,1757,1766,1766,1766,1766,1776,1776,1785,1785,1794,1794,1794,1794,1804,1804,1813,1823,1823,1823,1823,1823,1823,1813,1804,1804,1804,1794,1794,1794,1794,1794,1785,1785,1785,1785,0,0,0,0,0,1087,1084,1084,1080,1077,1077,1077,1077,1077,1077,1073,1073,1073,1073,1073,1073,1070,1070,1070,1070,1067,1063,1063,1063,1063,1060,1060,1060,1060,1057,1057,1054,1054,1050,1047,1047,1044,1044,1041,1041,1038,1038,1038,1034,1034,1034,1034,1031,1028,1028,1025,1025,1025,1022,1022,1019,1019,1019,1019,1016,1016,1016,1013,1013,1013,1010,1010,1007,1004,1004,1004,1001,1001,998,998,998,995,992,992,989,987,987,984,984,981,981,981,978,978,975,973,973,970,970,967,964,962,962,959,956,956,956,956,954,954,951,951,948,946,943,943,940,938,938,938,935,935,933,933,930,928,925,925,923,920,918,918,918,915,915,913,910,903,903,901,898,898,896,896,896,896,894,894,889,889,889,889,889,889,889,891,891,894,894,896,898,898,901,901,0,0,0,0,0,1398,1398,1398,1392,1392,1392,1392,1387,1387,1387,1381,1381,1381,1376,1376,1376,1376,1370,1370,1365,1365,1365,1354,1354,1354,1349,1349,1349,1349,1349,1349,1343,1343,1343,1343,1338,1338,1333,1333,1328,1328,1328,1322,1322,1317,1317,1317,1317,1312,1312,1312,1307,1307,1307,1307,1302,1302,1297,1297,1297,1297,1297,1292,1292,1288,1288,1288,1288,1283,1283,1283,1278,1278,1278,1273,1273,1268,1268,1268,1264,1264,1259,1259,1259,1259,1259,1255,1255,1250,1250,1250,1245,1245,1245,1241,1241,1236,1236,1236,1232,1232,1232,1232,1227,1227,1227,1223,1223,1223,1219,1219,1219,1214,1210,1210,1210,1210,1206,1206,1202,1202,1202,1202,1202,1202,1197,1197,1197,1189,1189,1189,1185,1185,1185,1185,1181,1181,1181,1181,1181,1181,1181,1177,1177,1173,1169,1169,1169,1165,1165,1165,1165,1165,1165,1161,1161,1161,1157,1153,1153,1153,1153,1149,1149,1149,1149,1145,1145,1145,1141,1141,1141,1138,1138,1138,1138,1138,1134,1134,1134,1134,1134,1130,1130,1126,1126,1126,1123,1123,1123,0,0,0,0,0,0,0,0,0,0,0,0,0,0,0,0,0,0,0,0,0,0,0,0,0,0,0,0,0
0,0,0,0,0,0,0,0,0,0,0,0,0,0,1632,1632,1624,1624,1624,1624,1616,1616,1616,1609,1609,1624,1624,1624,1624,1624,1624,1624,1624,1624,1616,1616,1616,1616,1609,1609,1609,1609,1616,1609,1609,1609,1609,1609,1609,1601,1601,1601,1601,1601,1601,1601,1601,1601,1601,1601,1601,1601,1601,1601,1601,1601,1594,1594,1594,1594,1594,1594,1594,1594,1594,1594,1594,1594,1594,1594,1594,1594,1594,1594,1594,1594,1594,1594,1594,1594,1594,1594,1594,1594,1594,1594,1594,1594,1594,1594,1586,1586,1586,1586,1586,1586,1586,1586,1586,1586,1586,1586,1586,1586,1586,1586,1586,1594,1594,1594,1601,1609,1609,1609,1616,1616,1616,1616,1873,1873,1863,1863,1853,1853,1843,1843,1843,1843,1843,1833,1833,1823,1823,1823,1823,1601,1601,1594,1594,1594,1594,1594,1594,1594,1594,1594,1594,1594,1601,1601,1601,1601,1601,1601,1609,1609,1616,1616,1624,1624,1624,1632,1632,1639,1639,1639,1647,1647,1647,1655,1655,1655,1663,1663,1663,1671,1671,1671,1680,1688,1688,1688,1688,1688,1696,1696,1705,1705,1705,1705,1705,1713,1713,1722,1722,1722,1731,1731,1731,1731,1731,1731,1739,1748,1757,1757,1757,1757,1766,1766,1766,1766,1776,1776,1785,1785,1785,1794,1794,1804,1804,1804,1813,1823,1823,1823,1823,1823,1823,1813,1804,1804,1804,1804,1794,1794,1794,1794,1785,1785,1785,1785,0,0,0,0,0,1087,1084,1084,1080,1080,1077,1077,1077,1077,1073,1073,1073,1073,1073,1073,1070,1070,1067,1067,1067,1063,1063,1063,1063,1063,1060,1060,1060,1060,1057,1057,1054,1054,1050,1047,1047,1044,1044,1041,1041,1038,1038,1038,1038,1034,1034,1034,1031,1028,1028,1025,1025,1022,1022,1019,1019,1019,1019,1019,1016,1016,1016,1013,1013,1013,1010,1010,1007,1004,1004,1004,1001,1001,998,998,998,995,992,992,989,987,987,984,984,981,981,981,978,978,978,975,973,970,970,967,964,962,962,959,956,956,956,956,954,954,951,951,946,946,943,943,940,938,938,938,935,935,933,933,930,928,925,923,923,920,918,918,918,915,915,913,910,903,903,901,901,898,898,896,896,896,894,894,889,889,889,889,889,889,889,891,894,894,896,898,898,898,901,901,0,0,0,0,0,1398,1398,1398,1392,1392,1392,1392,1392,1387,1387,1381,1381,1381,1376,1376,1376,1376,1370,1370,1370,1370,1365,1359,1354,1354,1354,1354,1349,1349,1349,1349,1349,1343,1343,1343,1343,1338,1333,1333,1333,1328,1328,1322,1322,1322,1317,1317,1317,1312,1312,1312,1307,1307,1307,1307,1302,1302,1297,1297,1297,1297,1292,1292,1292,1292,1292,1288,1288,1288,1283,1283,1283,1278,1278,1273,1273,1273,1268,1268,1268,1264,1264,1259,1259,1255,1255,1255,1255,1255,1250,1250,1245,1245,1245,1241,1241,1236,1236,1236,1236,1232,1232,1232,1232,1227,1227,1223,1223,1223,1219,1219,1219,1214,1214,1210,1210,1210,1210,1206,1202,1202,1202,1202,1202,1202,1197,1197,1197,1193,1189,1189,1189,1189,1185,1185,1181,1181,1181,1181,1181,1181,1181,1177,1177,1169,1169,1169,1169,1165,1165,1165,1165,1165,1165,1161,1161,1161,1157,1153,1153,1153,1153,1153,1149,1149,1149,1145,1145,1145,1145,1141,1138,1138,1138,1138,1138,1138,1134,1134,1134,1134,1134,1130,1130,1126,1123,1123,1123,1123,1123,0,0,0,0,0,0,0,0,0,0,0,0,0,0,0,0,0,0,0,0,0,0,0,0,0,0,0,0,0
0,0,0,0,0,0,0,0,0,0,0,0,0,0,1632,1632,1632,1624,1624,1624,1616,1616,1616,1609,1609,1616,1624,1624,1624,1624,1624,1624,1624,1624,1624,1616,1616,1616,1609,1609,1609,1609,1616,1616,1609,1609,1609,1609,1609,1601,1601,1601,1601,1601,1601,1601,1601,1601,1601,1601,1601,1601,1601,1601,1601,1601,1601,1601,1601,1601,1601,1594,1594,1594,1594,1594,1594,1594,1594,1594,1594,1601,1601,1594,1594,1594,1594,1594,1594,1594,1594,1594,1594,1594,1594,1594,1594,1594,1594,1594,1594,1586,1586,1586,1586,1586,1586,1586,1586,1586,1586,1586,1586,1586,1586,1586,1586,1594,1594,1594,1601,1609,1609,1609,1616,1616,1616,1616,1873,1873,1863,1863,1853,1853,1843,1843,1843,1843,1843,1833,1833,1833,1833,1823,1823,1601,1601,1594,1594,1594,1594,1594,1594,1594,1594,1594,1594,1594,1601,1601,1601,1601,1601,1609,1609,1616,1616,1624,1624,1624,1624,1632,1632,1639,1639,1647,1647,1647,1647,1655,1655,1655,1655,1663,1663,1663,1671,1671,1680,1680,1688,1688,1688,1688,1696,1696,1705,1705,1713,1713,1713,1713,1722,1722,1731,1731,1731,1731,1731,1731,1731,1739,1739,1748,1757,1757,1757,1757,1766,1766,1766,1776,1776,1776,1785,1785,1785,1794,1794,1804,1804,1804,1813,1823,1823,1823,1833,1823,1823,1813,1804,1804,1804,1804,1794,1794,1794,1794,1785,1785,1794,1794,0,0,0,0,0,1087,1087,1084,1084,1080,1077,1077,1077,1077,1073,1073,1073,1073,1073,1073,1070,1070,1067,1067,1067,1063,1063,1063,1063,1063,1060,1060,1060,1060,1057,1057,1054,1050,1050,1047,1047,1044,1044,1041,1041,1038,1038,1038,1038,1038,1034,1034,1031,1031,1028,1025,1025,1022,1022,1019,1019,1019,1019,1019,1016,1016,1016,1013,1013,1013,1010,1010,1007,1007,1004,1004,1001,1001,998,998,995,995,992,992,989,987,987,987,984,981,981,981,978,978,978,975,973,970,970,967,964,962,962,959,959,956,956,954,954,951,951,951,946,946,943,943,940,938,938,938,935,935,933,933,930,925,923,923,920,920,918,918,918,915,915,913,910,908,906,903,901,898,898,898,896,896,894,891,889,889,889,889,889,889,889,891,894,896,896,898,898,898,901,901,0,0,0,0,0,1398,1398,1398,1398,1398,1392,1392,1392,1387,1387,1381,1381,1381,1381,1376,1376,1376,1376,1370,1370,1370,1365,1359,1359,1354,1354,1354,1349,1349,1349,1349,1349,1343,1343,1343,1338,1338,1333,1333,1333,1333,1328,1322,1322,1322,1317,1317,1317,1317,1312,1312,1307,1307,1307,1307,1307,1307,1302,1302,1302,1297,1292,1292,1292,1292,1288,1288,1288,1288,1283,1283,1283,1278,1278,1273,1273,1273,1268,1268,1268,1264,1264,1259,1259,1255,1255,1255,1255,1255,1250,1250,1245,1245,1245,1241,1241,1241,1236,1236,1236,1232,1232,1232,1232,1232,1227,1227,1227,1223,1219,1219,1219,1219,1214,1214,1214,1214,1214,1210,1206,1202,1202,1202,1202,1202,1197,1197,1197,1197,1189,1189,1189,1189,1189,1185,1185,1185,1185,1181,1181,1181,1181,1177,1177,1169,1169,1169,1169,1165,1165,1165,1165,1165,1165,1165,1165,1161,1161,1157,1157,1153,1153,1153,1149,1149,1149,1145,1145,1145,1145,1141,1138,1138,1138,1138,1138,1138,1134,1134,1134,1134,1134,1130,1130,1126,1123,1123,1123,1123,1123,0,0,0,0,0,0,0,0,0,0,0,0,0,0,0,0,0,0,0,0,0,0,0,0,0,0,0,0,0
0,0,0,0,0,0,0,0,0,0,0,0,0,0,1632,1632,1632,1624,1624,1624,1624,1624,1624,1616,1616,1616,1624,1624,1624,1624,1624,1624,1624,1624,1624,1624,1624,1616,1616,1609,1609,1609,1616,1616,1609,1609,1616,1616,1609,1601,1601,1601,1601,1609,1609,1609,1609,1609,1609,1609,1609,1609,1609,1609,1601,1601,1601,1601,1601,1601,1601,1594,1594,1594,1594,1594,1594,1594,1594,1594,1594,1601,1601,1594,1594,1594,1594,1594,1594,1594,1594,1594,1594,1594,1594,1594,1594,1594,1594,1594,1594,1594,1594,1594,1594,1594,1594,1586,1586,1586,1586,1586,1586,1586,1586,1586,1594,1594,1594,1594,1601,1601,1609,1609,1616,1616,1616,1616,1873,1873,1873,1863,1863,1853,1853,1853,1853,1843,1843,1843,1833,1833,1833,1833,1823,1601,1601,1601,1594,1594,1594,1594,1594,1594,1594,1594,1594,1594,1601,1601,1601,1601,1609,1609,1609,1616,1616,1624,1624,1624,1632,1632,1632,1639,1639,1647,1647,1647,1647,1655,1655,1655,1655,1663,1663,1663,1671,1671,1680,1680,1688,1688,1688,1688,1696,1705,1705,1705,1713,1713,1713,1722,1722,1722,1731,1731,1731,1731,1731,1731,1739,1748,1748,1748,1757,1757,1757,1766,1766,1766,1776,1776,1785,1785,1785,1794,1794,1794,1794,1804,1804,1813,1813,1823,1833,1833,1833,1823,1823,1813,1804,1804,1804,1804,1804,1794,1794,1794,1785,1785,1794,0,0,0,0,0,0,1090,1087,1087,1084,1080,1077,1077,1077,1077,1073,1073,1073,1073,1073,1073,1073,1070,1067,1067,1070,1063,1063,1063,1063,1063,1063,1060,1060,1060,1060,1057,1050,1050,1050,1047,1047,1044,1044,1041,1041,1038,1038,1038,1038,1038,1034,1034,1031,1031,1028,1025,1025,1025,1022,1022,1019,1019,1019,1019,1016,1016,1016,1013,1013,1013,1010,1010,1007,1007,1004,1004,1001,1001,998,998,995,995,992,992,989,989,987,987,984,981,981,981,978,978,978,975,973,970,970,967,967,962,962,962,959,956,956,954,954,951,951,951,946,946,943,943,940,938,938,938,935,935,935,933,930,925,923,923,920,920,918,918,915,915,915,913,910,903,903,903,898,898,898,898,896,896,894,891,889,889,889,889,889,889,889,891,894,896,898,898,898,901,903,0,0,0,0,0,0,1398,1398,1398,1398,1398,1392,1392,1392,1387,1387,1387,1381,1381,1381,1376,1376,1376,1376,1370,1370,1370,1365,1359,1359,1354,1354,1354,1349,1349,1349,1349,1349,1343,1343,1343,1338,1333,1333,1333,1333,1333,1328,1328,1328,1322,1322,1322,1322,1317,1312,1312,1307,1307,1307,1307,1307,1307,1302,1302,1297,1297,1292,1292,1292,1292,1288,1288,1288,1288,1288,1283,1283,1283,1278,1278,1273,1273,1273,1268,1268,1268,1264,1259,1259,1255,1255,1255,1255,1255,1250,1250,1250,1250,1245,1245,1241,1241,1241,1236,1236,1236,1232,1232,1232,1232,1227,1227,1227,1223,1223,1219,1219,1219,1214,1214,1214,1214,1214,1214,1206,1202,1202,1202,1202,1202,1202,1197,1197,1197,1193,1189,1189,1189,1189,1185,1185,1185,1185,1181,1181,1181,1181,1177,1177,1173,1169,1169,1169,1169,1169,1165,1165,1165,1165,1165,1165,1161,1161,1157,1157,1157,1153,1153,1153,1149,1149,1149,1145,1145,1145,1141,1141,1138,1138,1138,1138,1138,1138,1134,1134,1134,1134,1130,1126,1126,1123,1123,1123,1123,1123,0,0,0,0,0,0,0,0,0,0,0,0,0,0,0,0,0,0,0,0,0,0,0,0,0,0,0,0,0
0,0,0,0,0,0,0,0,0,0,0,0,0,0,1632,1632,1632,1632,1624,1624,1624,1624,1624,1616,1616,1624,1624,1624,1624,1624,1624,1624,1624,1624,1624,1624,1624,1624,1616,1609,1609,1609,1616,1616,1616,1616,1616,1616,1616,1609,1609,1609,1609,1609,1609,1609,1609,1616,1616,1616,1616,1609,1609,1609,1601,1601,1601,1601,1601,1601,1601,1601,1594,1594,1601,1601,1601,1601,1594,1594,1594,1601,1601,1594,1594,1594,1594,1594,1594,1594,1594,1594,1594,1594,1594,1594,1594,1594,1594,1594,1594,1594,1594,1594,1594,1594,1594,1586,1586,1586,1586,1586,1586,1586,1586,1586,1594,1594,1594,1601,1601,1601,1609,1609,1616,1616,1616,1616,1873,1873,1873,1863,1863,1863,1853,1853,1853,1843,1843,1843,1833,1833,1833,1833,1823,1823,1609,1601,1601,1594,1594,1594,1594,1594,1594,1594,1594,1594,1601,1601,1601,1601,1609,1609,1609,1616,1616,1624,1624,1624,1632,1632,1632,1639,1647,1655,1655,1655,1655,1655,1655,1655,1663,1663,1663,1671,1671,1671,1680,1688,1688,1688,1688,1688,1696,1705,1705,1705,1713,1713,1713,1722,1722,1722,1731,1731,1731,1731,1731,1731,1739,1748,1748,1748,1757,1757,1766,1766,1766,1776,1776,1776,1785,1785,1785,1794,1794,1794,1794,1804,1804,1813,1813,1823,1823,1823,1833,1823,1823,1823,1804,1804,1804,1804,1804,1804,1794,1794,1785,1785,1794,0,0,0,0,0,0,1090,1087,1087,1084,1080,1080,1077,1077,1077,1073,1073,1073,1073,1073,1073,1073,1070,1070,1070,1070,1067,1063,1063,1063,1063,1063,1060,1060,1060,1060,1057,1050,1050,1050,1047,1047,1044,1044,1041,1041,1041,1038,1038,1038,1038,1034,1034,1034,1031,1028,1028,1025,1025,1022,1022,1019,1019,1022,1019,1016,1016,1016,1013,1013,1013,1010,1007,1007,1007,1004,1004,1004,1001,1001,998,998,995,992,992,989,989,987,987,984,981,981,978,978,978,975,973,970,970,970,967,967,964,962,962,959,956,956,956,954,951,951,948,946,946,946,943,943,940,938,938,935,935,933,933,930,925,925,923,923,920,918,918,915,915,915,913,910,903,903,903,898,898,898,898,896,896,894,891,889,889,889,889,889,889,891,891,894,896,898,898,901,901,903,0,0,0,0,0,1398,1398,1398,1398,1398,1398,1392,1392,1392,1387,1387,1387,1381,1381,1381,1376,1376,1376,1376,1370,1370,1370,1365,1359,1359,1354,1354,1354,1354,1349,1349,1349,1349,1343,1343,1343,1338,1333,1333,1333,1333,1333,1328,1328,1328,1328,1322,1322,1322,1317,1312,1312,1307,1307,1307,1307,1307,1307,1302,1302,1297,1297,1292,1292,1292,1292,1288,1288,1288,1288,1288,1283,1283,1283,1278,1278,1273,1273,1273,1273,1273,1268,1268,1264,1259,1255,1255,1255,1255,1255,1250,1250,1250,1250,1245,1245,1241,1241,1241,1241,1236,1236,1236,1232,1232,1232,1232,1227,1227,1223,1223,1219,1219,1219,1214,1214,1214,1214,1214,1214,1206,1206,1202,1202,1202,1202,1202,1197,1197,1197,1193,1189,1189,1189,1189,1185,1185,1185,1185,1181,1181,1181,1181,1177,1177,1173,1169,1169,1169,1169,1169,1165,1165,1165,1165,1165,1165,1161,1161,1157,1157,1157,1157,1153,1153,1153,1149,1149,1145,1145,1145,1141,1141,1141,1138,1138,1138,1138,1134,1134,1134,1134,1134,1130,1126,1126,1123,1123,1123,1123,1123,0,0,0,0,0,0,0,0,0,0,0,0,0,0,0,0,0,0,0,0,0,0,0,0,0,0,0,0,0
0,0,0,0,0,0,0,0,0,0,0,0,0,0,1632,1632,1632,1632,1624,1624,1624,1624,1624,1616,1616,1624,1624,1624,1624,1624,1624,1624,1624,1624,1624,1624,1624,1624,1616,1616,1616,1616,1616,1616,1616,1616,1616,1616,1616,1616,1609,1609,1609,1609,1609,1609,1609,1616,1616,1616,1616,1609,1609,1609,1609,1601,1601,1601,1601,1601,1601,1601,1594,1594,1594,1601,1601,1601,1601,1601,1601,1601,1601,1601,1594,1594,1594,1594,1601,1594,1594,1594,1594,1594,1594,1594,1594,1594,1594,1594,1594,1594,1594,1594,1594,1594,1594,1594,1594,1586,1586,1586,1586,1586,1586,1586,1594,1594,1594,1601,1601,1601,1609,1616,1616,1616,1616,1624,1873,1873,1873,1873,1863,1863,1863,1853,1853,1843,1843,1843,1833,1833,1833,1833,1823,1823,1823,1601,1601,1594,1594,1601,1594,1594,1594,1594,1594,1594,1601,1601,1601,1609,1609,1609,1616,1616,1616,1616,1624,1624,1624,1632,1632,1639,1647,1655,1655,1655,1655,1655,1655,1663,1663,1663,1663,1671,1671,1671,1680,1680,1688,1688,1696,1696,1696,1705,1705,1705,1713,1713,1713,1722,1722,1731,1731,1731,1731,1739,1739,1739,1739,1748,1748,1748,1757,1757,1766,1766,1766,1776,1776,1776,1785,1785,1785,1794,1794,1794,1804,1804,1804,1813,1813,1823,1823,1823,1833,1833,1823,1823,1813,1804,1804,1804,1804,1804,1794,1785,1785,1785,1794,0,0,0,0,0,1094,1090,1090,1087,1087,1084,1080,1077,1077,1077,1077,1077,1077,1077,1077,1073,1073,1073,1073,1073,1070,1067,1067,1063,1063,1063,1063,1060,1060,1060,1057,1057,1050,1050,1050,1047,1047,1047,1044,1041,1041,1041,1038,1038,1038,1038,1034,1034,1034,1031,1031,1028,1025,1025,1022,1022,1019,1019,1022,1019,1016,1016,1016,1013,1013,1013,1010,1007,1007,1007,1004,1004,1001,1001,1001,998,998,995,992,992,989,987,987,984,984,981,981,978,978,978,975,973,970,970,970,967,967,964,962,962,959,956,956,956,954,951,951,948,946,946,946,943,940,938,938,938,935,935,933,933,928,925,925,923,923,920,918,918,915,915,915,913,910,903,903,901,898,898,898,898,896,896,894,891,889,889,889,889,889,889,891,894,896,898,898,901,901,901,903,0,0,0,0,1398,1398,1398,1398,1398,1398,1398,1398,1392,1392,1387,1387,1387,1381,1381,1381,1376,1376,1376,1376,1370,1370,1370,1365,1359,1359,1354,1354,1354,1354,1354,1349,1349,1349,1349,1343,1343,1338,1333,1333,1333,1333,1333,1328,1328,1328,1328,1322,1322,1322,1317,1312,1312,1307,1307,1307,1307,1307,1307,1302,1302,1302,1297,1297,1292,1292,1292,1288,1288,1288,1288,1288,1288,1283,1283,1283,1278,1273,1273,1273,1273,1273,1268,1268,1264,1259,1259,1255,1255,1255,1255,1250,1250,1250,1250,1250,1245,1245,1241,1241,1241,1236,1236,1236,1232,1232,1232,1232,1227,1227,1227,1223,1219,1219,1219,1214,1214,1214,1214,1214,1214,1214,1206,1206,1202,1202,1202,1202,1202,1197,1197,1193,1189,1189,1189,1189,1185,1185,1185,1185,1185,1181,1181,1181,1181,1177,1177,1173,1169,1169,1169,1169,1169,1165,1165,1165,1165,1165,1161,1161,1157,1157,1157,1157,1153,1153,1153,1149,1149,1145,1145,1145,1141,1141,1141,1138,1138,1138,1138,1134,1134,1134,1134,1134,1130,1126,1126,1123,1123,1123,1123,1123,0,0,0,0,0,0,0,0,0,0,0,0,0,0,0,0,0,0,0,0,0,0,0,0,0,0,0,0,0
0,0,0,0,0,0,0,0,0,0,0,0,0,0,1632,1632,1632,1632,1624,1624,1624,1624,1624,1616,1616,1624,1624,1624,1624,1624,1624,1624,1624,1624,1624,1624,1624,1624,1624,1624,1616,1616,1616,1616,1616,1616,1616,1616,1616,1616,1616,1609,1609,1609,1609,1616,1616,1616,1616,1616,1616,1609,1609,1609,1609,1609,1601,1601,1601,1601,1601,1601,1594,1594,1594,1601,1601,1601,1601,1601,1601,1601,1601,1601,1601,1601,1601,1601,1601,1601,1601,1601,1594,1594,1594,1594,1594,1594,1594,1594,1594,1594,1594,1594,1594,1594,1594,1594,1594,1594,1594,1586,1586,1586,1586,1586,1594,1594,1594,1601,1601,1601,1609,1616,1616,1624,1624,1624,1873,1873,1873,1873,1863,1863,1863,1853,1853,1843,1843,1843,1833,1833,1833,1833,1823,1823,1823,1594,1594,1601,1601,1601,1594,1594,1594,1594,1594,1594,1601,1601,1601,1609,1609,1609,1616,1616,1616,1616,1624,1624,1624,1632,1632,1639,1647,1655,1655,1655,1655,1655,1663,1663,1663,1663,1663,1671,1671,1671,1680,1680,1688,1688,1696,1696,1696,1705,1713,1713,1713,1713,1713,1722,1722,1731,1731,1731,1739,1739,1739,1739,1748,1748,1757,1757,1757,1766,1766,1766,1766,1776,1776,1785,1785,1785,1785,1794,1794,1804,1804,1804,1804,1804,1813,1823,1823,1823,1833,1833,1823,1823,1813,1813,1804,1804,1804,1804,1794,1785,1785,1785,0,0,0,0,0,0,1090,1090,1087,1087,1087,1084,1080,1077,1077,1077,1077,1077,1077,1077,1077,1077,1077,1077,1073,1073,1073,1070,1067,1063,1063,1063,1063,1060,1060,1060,1057,1057,1054,1050,1050,1047,1047,1047,1044,1041,1041,1041,1038,1038,1038,1038,1034,1034,1034,1031,1031,1028,1025,1025,1022,1022,1019,1019,1022,1019,1016,1016,1016,1013,1013,1013,1010,1010,1007,1007,1004,1004,1001,1001,998,998,995,995,992,992,989,987,987,984,984,981,981,978,978,978,975,973,973,970,970,967,967,967,962,962,959,959,956,956,954,954,951,948,946,946,946,943,940,938,938,938,935,935,933,933,928,925,925,925,923,920,918,918,915,915,915,913,910,903,903,901,898,898,898,898,896,896,894,891,889,889,889,889,889,889,891,894,896,898,901,901,901,901,0,0,0,0,0,1398,1398,1398,1404,1398,1398,1398,1398,1392,1392,1387,1387,1387,1381,1381,1381,1376,1376,1376,1376,1370,1370,1370,1365,1359,1359,1359,1354,1354,1354,1354,1349,1349,1349,1349,1343,1343,1338,1338,1338,1333,1333,1333,1328,1328,1328,1328,1322,1322,1322,1317,1312,1312,1307,1307,1307,1307,1307,1307,1307,1302,1302,1297,1297,1297,1292,1292,1292,1288,1288,1288,1288,1283,1283,1283,1283,1278,1278,1273,1273,1273,1273,1268,1268,1264,1259,1259,1255,1255,1255,1255,1255,1250,1250,1250,1250,1250,1250,1245,1245,1241,1241,1236,1236,1236,1236,1232,1232,1232,1227,1227,1223,1219,1219,1219,1214,1214,1214,1214,1214,1214,1210,1206,1206,1202,1202,1202,1202,1202,1197,1197,1193,1189,1189,1189,1189,1185,1185,1185,1185,1185,1185,1181,1181,1181,1177,1177,1173,1173,1169,1169,1169,1169,1165,1165,1165,1165,1165,1161,1161,1157,1157,1157,1157,1153,1153,1153,1149,1149,1145,1145,1145,1141,1141,1141,1141,1138,1138,1138,1138,1134,1134,1134,1134,1130,1126,1126,1123,1123,1123,1123,1123,0,0,0,0,0,0,0,0,0,0,0,0,0,0,0,0,0,0,0,0,0,0,0,0,0,0,0,0,0
0,0,0,0,0,0,0,0,0,0,0,0,0,0,1632,1632,1632,1632,1624,1624,1624,1624,1624,1624,1624,1624,1624,1624,1624,1624,1624,1624,1632,1624,1624,1624,1624,1624,1624,1624,1624,1616,1616,1616,1616,1616,1616,1616,1624,1616,1616,1616,1616,1616,1616,1616,1616,1616,1616,1616,1616,1616,1616,1609,1609,1609,1601,1601,1601,1601,1601,1601,1601,1601,1601,1601,1601,1601,1601,1601,1601,1601,1601,1601,1601,1601,1601,1601,1601,1601,1601,1601,1601,1594,1594,1594,1594,1594,1594,1594,1594,1594,1594,1594,1594,1594,1594,1594,1594,1594,1594,1594,1594,1586,1586,1594,1594,1594,1594,1601,1601,1609,1616,1616,1624,1624,1624,1624,1873,1873,1873,1873,1863,1863,1863,1853,1853,1843,1843,1843,1833,1833,1833,1833,1823,1823,1823,1594,1594,1601,1601,1601,1601,1594,1594,1594,1594,1594,1601,1601,1601,1609,1609,1609,1616,1616,1616,1624,1624,1624,1632,1632,1632,1639,1647,1655,1655,1655,1655,1655,1663,1663,1663,1663,1663,1671,1671,1671,1680,1680,1688,1688,1696,1696,1696,1705,1713,1713,1713,1713,1713,1722,1722,1731,1731,1731,1739,1739,1739,1748,1748,1757,1757,1757,1757,1766,1766,1766,1776,1776,1785,1785,1785,1794,1794,1794,1794,1804,1804,1804,1804,1804,1813,1823,1823,1823,1833,1833,1823,1823,1813,1813,1804,1804,1804,1804,1794,1785,1785,1785,0,0,0,0,0,0,1090,1087,1087,1087,1084,1084,1080,1080,1077,1077,1077,1077,1077,1077,1077,1080,1080,1080,1080,1080,1080,1070,1067,1063,1063,1063,1063,1063,1060,1060,1057,1057,1057,1050,1050,1047,1047,1047,1044,1041,1041,1041,1038,1038,1038,1038,1034,1034,1034,1034,1034,1028,1028,1028,1022,1022,1022,1022,1022,1019,1019,1019,1016,1016,1013,1013,1013,1010,1007,1007,1004,1004,1001,1001,998,998,995,995,992,992,989,989,987,984,981,981,978,978,978,978,975,973,973,970,970,967,967,967,962,962,959,959,956,956,954,954,951,948,946,946,946,943,943,940,938,938,935,935,933,933,928,925,925,925,923,920,920,918,918,915,913,910,910,903,903,901,901,898,898,898,896,896,894,891,889,889,889,889,889,889,891,894,898,898,901,903,903,903,0,0,0,0,0,1404,1404,1404,1404,1398,1398,1398,1398,1392,1392,1387,1387,1387,1381,1381,1381,1376,1376,1376,1376,1370,1370,1365,1365,1365,1359,1359,1354,1354,1354,1354,1354,1349,1349,1349,1349,1343,1343,1338,1333,1333,1333,1333,1333,1328,1328,1328,1322,1322,1322,1317,1312,1312,1307,1307,1307,1307,1307,1307,1307,1302,1302,1297,1297,1297,1292,1292,1292,1288,1288,1288,1288,1283,1283,1283,1283,1278,1278,1278,1273,1273,1273,1268,1268,1268,1264,1259,1259,1255,1255,1255,1255,1255,1250,1250,1250,1250,1250,1250,1245,1241,1241,1236,1236,1236,1236,1236,1232,1232,1227,1227,1227,1223,1223,1219,1219,1219,1214,1214,1214,1214,1210,1210,1206,1206,1202,1202,1202,1202,1197,1197,1197,1189,1189,1189,1189,1185,1185,1185,1185,1185,1185,1185,1181,1181,1181,1177,1177,1173,1169,1169,1169,1169,1169,1165,1165,1165,1165,1161,1161,1157,1157,1157,1157,1157,1153,1153,1149,1149,1149,1145,1145,1145,1145,1145,1141,1141,1138,1138,1138,1138,1138,1134,1134,1130,1126,1126,1123,1123,1123,1123,1123,0,0,0,0,0,0,0,0,0,0,0,0,0,0,0,0,0,0,0,0,0,0,0,0,0,0,0,0,0
0,0,0,0,0,0,0,0,0,0,0,0,0,0,1632,1632,1632,1632,1632,1632,1624,1624,1624,1624,1624,1624,1624,1624,1624,1624,1624,1624,1632,1624,1624,1624,1624,1624,1624,1624,1624,1616,1616,1616,1616,1616,1616,1616,1624,1624,1616,1616,1616,1616,1616,1616,1616,1624,1616,1616,1616,1616,1616,1609,1609,1609,1601,1601,1601,1601,1601,1601,1601,1601,1601,1601,1601,1601,1601,1609,1601,1601,1601,1601,1601,1601,1601,1601,1601,1601,1601,1601,1601,1594,1594,1594,1594,1594,1594,1594,1594,1594,1594,1594,1594,1594,1594,1594,1594,1594,1594,1594,1594,1594,1594,1594,1594,1594,1594,1601,1601,1609,1616,1624,1624,1624,1624,1624,1873,1873,1873,1873,1873,1863,1863,1853,1853,1843,1843,1843,1833,1833,1833,1833,1823,1823,1823,1594,1594,1601,1601,1601,1601,1594,1594,1594,1594,1594,1601,1601,1601,1609,1609,1609,1616,1616,1616,1624,1624,1624,1632,1632,1632,1639,1647,1647,1655,1655,1655,1655,1663,1663,1663,1663,1671,1671,1671,1671,1680,1688,1688,1688,1696,1696,1696,1705,1713,1713,1713,1713,1713,1722,1722,1731,1731,1731,1739,1739,1739,1748,1757,1757,1757,1757,1766,1766,1766,1766,1776,1776,1785,1794,1794,1794,1794,1794,1804,1804,1804,1804,1804,1813,1813,1823,1823,1833,1833,1833,1823,1823,1823,1813,1813,1804,1804,1804,1794,1794,1794,0,0,0,0,0,0,0,0,1087,1087,1084,1084,1084,1080,1080,1077,1077,1077,1077,1077,1077,1077,1080,1080,1084,1084,1084,1080,1077,1070,1067,1063,1063,1063,1063,1063,1060,1060,1060,1057,1054,1050,1050,1047,1047,1044,1041,1041,1041,1038,1038,1038,1038,1034,1034,1034,1034,1034,1031,1028,1028,1025,1022,1022,1022,1022,1019,1019,1019,1016,1016,1016,1013,1013,1010,1010,1007,1007,1004,1001,1001,1001,998,995,995,992,992,989,989,987,984,981,981,978,978,978,978,975,973,973,970,970,967,967,967,962,962,959,959,956,956,954,954,951,948,946,946,946,943,943,938,938,938,935,935,933,933,928,925,925,925,923,920,920,918,915,915,913,910,908,906,903,903,901,898,898,898,896,896,894,891,889,889,889,889,889,891,891,896,898,898,901,903,903,903,0,0,0,0,0,1404,1404,1404,1404,1404,1398,1398,1398,1392,1392,1392,1387,1387,1381,1381,1381,1376,1376,1376,1376,1376,1370,1365,1365,1365,1359,1359,1359,1354,1354,1354,1354,1349,1349,1349,1349,1343,1343,1338,1333,1333,1333,1333,1333,1328,1328,1328,1322,1322,1322,1317,1317,1312,1312,1312,1307,1307,1307,1307,1307,1307,1302,1302,1297,1297,1292,1292,1292,1288,1288,1288,1288,1283,1283,1283,1283,1278,1278,1278,1273,1273,1273,1268,1268,1268,1268,1259,1259,1259,1255,1255,1255,1255,1250,1250,1250,1250,1250,1250,1245,1241,1241,1236,1236,1236,1236,1236,1232,1232,1227,1227,1227,1223,1223,1223,1219,1219,1219,1219,1214,1214,1210,1210,1210,1206,1202,1202,1202,1202,1197,1197,1197,1189,1189,1189,1189,1189,1185,1185,1185,1185,1185,1185,1181,1181,1181,1177,1177,1173,1169,1169,1169,1169,1169,1165,1165,1165,1165,1161,1161,1157,1157,1157,1157,1157,1153,1153,1149,1149,1149,1149,1149,1145,1145,1145,1141,1141,1141,1138,1138,1138,1138,1134,1134,1130,1126,1126,1123,1123,1123,1123,1123,0,0,0,0,0,0,0,0,0,0,0,0,0,0,0,0,0,0,0,0,0,0,0,0,0,0,0,0,0
0,0,0,0,0,0,0,0,0,0,0,0,0,0,1639,1639,1632,1632,1632,1632,1624,1624,1624,1624,1624,1624,1624,1624,1624,1624,1624,1624,1632,1632,1632,1624,1624,1624,1624,1624,1624,1616,1616,1616,1624,1624,1624,1624,1624,1624,1624,1616,1616,1616,1616,1616,1624,1624,1624,1624,1616,1616,1616,1616,1609,1609,1609,1601,1601,1601,1601,1601,1601,1601,1601,1609,1609,1609,1609,1609,1609,1601,1601,1601,1601,1601,1601,1601,1609,1601,1601,1601,1601,1601,1594,1594,1594,1594,1594,1594,1594,1594,1594,1594,1594,1594,1594,1594,1594,1594,1594,1594,1594,1594,1594,1594,1594,1594,1594,1601,1601,1609,1616,1624,1624,1624,1624,1873,1873,1873,1873,1873,1873,1863,1863,1853,1853,1853,1843,1843,1833,1833,1833,1833,1823,1823,1833,1601,1601,1601,1601,1601,1601,1601,1594,1594,1594,1601,1601,1609,1609,1609,1609,1616,1616,1616,1624,1624,1624,1624,1632,1632,1632,1639,1647,1647,1655,1655,1655,1655,1663,1663,1663,1663,1671,1671,1671,1680,1680,1688,1688,1688,1696,1696,1696,1705,1713,1713,1713,1722,1722,1722,1722,1731,1731,1731,1739,1748,1748,1748,1757,1757,1757,1757,1766,1766,1766,1766,1776,1785,1785,1794,1794,1794,1794,1794,1804,1804,1804,1804,1804,1813,1813,1823,1823,1833,1833,1833,1833,1833,1823,1823,1813,1804,1804,1804,1804,1794,1794,0,0,0,0,0,0,0,1087,1087,1087,1084,1084,1084,1080,1080,1077,1077,1077,1077,1077,1077,1080,1080,1084,1084,1087,1087,1090,1087,1087,1087,1067,1067,1063,1063,1063,1060,1060,1060,1057,1054,1050,1050,1047,1047,1044,1044,1041,1041,1038,1038,1038,1038,1034,1034,1034,1034,1034,1031,1031,1028,1025,1025,1022,1022,1022,1019,1019,1019,1016,1016,1016,1013,1013,1010,1010,1007,1004,1004,1001,1001,998,998,995,992,992,992,989,989,987,984,981,981,978,978,978,978,975,973,973,970,970,970,967,967,962,962,962,959,956,956,954,954,951,948,948,946,946,943,943,938,938,935,935,935,933,930,928,928,925,925,923,923,920,918,915,915,913,910,908,906,903,903,901,898,898,898,896,896,894,891,889,889,889,889,889,891,894,898,901,901,903,903,903,903,0,0,0,0,0,1404,1404,1404,1404,1404,1398,1398,1398,1398,1392,1392,1392,1387,1387,1381,1381,1381,1381,1376,1376,1376,1370,1365,1365,1365,1365,1359,1359,1354,1354,1354,1354,1354,1349,1349,1349,1343,1343,1338,1338,1333,1333,1333,1333,1328,1328,1328,1328,1322,1322,1317,1317,1312,1312,1312,1312,1307,1307,1307,1307,1307,1307,1302,1302,1302,1297,1292,1292,1292,1288,1288,1288,1283,1283,1283,1283,1278,1278,1278,1278,1278,1273,1273,1273,1268,1268,1264,1259,1259,1259,1259,1255,1255,1250,1250,1250,1250,1250,1250,1245,1241,1241,1241,1236,1236,1236,1236,1232,1232,1227,1227,1227,1223,1223,1219,1219,1219,1219,1219,1214,1214,1214,1210,1210,1206,1202,1202,1202,1202,1197,1197,1197,1193,1193,1193,1189,1189,1189,1185,1185,1185,1185,1181,1181,1181,1181,1177,1177,1177,1173,1169,1169,1169,1169,1165,1165,1165,1165,1161,1161,1161,1161,1161,1157,1157,1153,1153,1153,1149,1149,1149,1149,1145,1145,1145,1141,1141,1141,1138,1138,1138,1138,1138,1134,1130,1130,1126,1123,1123,1123,1123,1123,0,0,0,0,0,0,0,0,0,0,0,0,0,0,0,0,0,0,0,0,0,0,0,0,0,0,0,0,0
0,0,0,0,0,0,0,0,0,0,0,0,0,0,1639,1639,1639,1632,1632,1632,1632,1624,1624,1624,1624,1624,1624,1624,1624,1624,1624,1624,1632,1624,1624,1624,1624,1624,1624,1624,1624,1616,1616,1624,1624,1624,1624,1624,1624,1624,1624,1624,1624,1616,1616,1624,1624,1624,1624,1624,1624,1624,1616,1616,1616,1616,1609,1609,1601,1601,1601,1601,1601,1601,1601,1609,1609,1609,1609,1609,1609,1601,1601,1601,1601,1601,1601,1601,1601,1609,1601,1601,1601,1601,1594,1594,1594,1594,1594,1594,1601,1601,1594,1594,1601,1601,1601,1594,1594,1594,1594,1594,1594,1594,1594,1594,1594,1594,1594,1601,1601,1609,1616,1624,1624,1624,1624,1883,1873,1873,1873,1873,1873,1873,1863,1863,1853,1853,1843,1843,1833,1833,1833,1833,1833,1833,1833,1833,1616,1609,1609,1601,1601,1601,1601,1594,1594,1601,1601,1601,1609,1609,1616,1616,1624,1624,1624,1624,1624,1624,1632,1632,1632,1639,1655,1655,1655,1655,1655,1655,1663,1663,1663,1671,1671,1671,1680,1680,1680,1688,1688,1688,1696,1696,1696,1705,1713,1713,1713,1722,1722,1722,1722,1731,1731,1731,1739,1748,1748,1748,1757,1757,1757,1757,1766,1766,1766,1776,1776,1785,1785,1794,1794,1804,1804,1804,1804,1804,1804,1804,1804,1813,1813,1823,1823,1833,1833,1833,1833,1833,1823,1823,1813,1813,1804,1804,1794,1794,1794,0,0,0,0,0,0,0,1087,1087,1084,1084,1084,1084,1080,1080,1077,1077,1077,1077,1077,1080,1080,1084,1084,1087,1090,1090,1090,1090,1090,1090,1090,1696,1696,1696,1688,1688,1688,1063,1057,1054,1054,1050,1050,1050,1047,1044,1044,1041,1038,1038,1038,1038,1034,1034,1034,1034,1034,1031,1031,1028,1025,1025,1022,1022,1022,1022,1019,1019,1016,1016,1016,1013,1013,1010,1010,1007,1004,1004,1001,1001,998,998,995,992,992,992,989,989,987,984,981,981,978,978,978,978,975,973,973,973,970,970,967,967,964,962,962,959,956,956,954,951,951,948,948,946,946,943,943,938,938,935,935,935,933,930,928,928,925,925,923,923,920,918,915,915,913,910,908,906,903,901,898,898,898,898,896,896,894,891,889,889,889,889,891,891,896,898,901,901,903,906,906,906,0,0,0,0,0,1404,1404,1404,1404,1404,1404,1398,1398,1398,1392,1392,1392,1392,1387,1387,1387,1381,1381,1376,1376,1376,1370,1370,1365,1365,1365,1359,1359,1354,1354,1354,1354,1354,1349,1349,1349,1343,1343,1338,1338,1333,1333,1333,1333,1328,1328,1328,1328,1322,1317,1317,1317,1312,1312,1312,1312,1307,1307,1307,1307,1307,1307,1302,1302,1302,1302,1292,1292,1292,1292,1288,1288,1283,1283,1283,1283,1278,1278,1278,1278,1278,1273,1273,1273,1273,1268,1264,1264,1259,1259,1259,1255,1255,1255,1255,1250,1250,1250,1250,1245,1241,1241,1241,1236,1236,1236,1236,1232,1232,1227,1227,1227,1223,1223,1219,1219,1219,1219,1219,1214,1214,1214,1210,1210,1206,1202,1202,1202,1202,1197,1197,1197,1193,1193,1193,1193,1189,1189,1185,1185,1185,1185,1181,1181,1181,1181,1181,1177,1177,1173,1173,1173,1169,1169,1165,1165,1165,1165,1161,1161,1161,1161,1161,1157,1157,1157,1153,1153,1149,1149,1149,1149,1145,1145,1145,1145,1141,1141,1141,1138,1138,1138,1138,1134,1134,1130,1130,1126,1126,1126,1123,1123,0,0,0,0,0,0,0,0,0,0,0,0,0,0,0,0,0,0,0,0,0,0,0,0,0,0,0,0,0
0,0,0,0,0,0,0,0,0,0,0,0,0,0,1639,1639,1639,1632,1632,1632,1632,1624,1624,1624,1624,1624,1624,1624,1624,1632,1632,1632,1632,1624,1624,1624,1624,1624,1624,1616,1616,1616,1616,1624,1624,1624,1624,1624,1624,1624,1624,1624,1624,1624,1624,1624,1624,1624,1624,1624,1624,1624,1616,1616,1616,1616,1609,1609,1609,1601,1601,1601,1601,1609,1609,1609,1609,1609,1609,1609,1609,1601,1601,1601,1601,1601,1601,1601,1601,1609,1609,1601,1601,1601,1601,1594,1594,1594,1594,1594,1601,1601,1601,1601,1601,1601,1601,1594,1594,1594,1594,1594,1594,1594,1594,1594,1594,1594,1594,1601,1601,1609,1624,1624,1624,1624,1624,1883,1873,1873,1873,1873,1873,1873,1863,1863,1853,1853,1843,1843,1843,1833,1833,1833,1833,1833,1833,1833,1616,1609,1609,1601,1601,1601,1601,1601,1601,1601,1601,1601,1609,1616,1616,1624,1624,1624,1624,1624,1624,1624,1632,1632,1639,1647,1647,1647,1655,1655,1655,1655,1663,1663,1663,1671,1671,1680,1680,1680,1688,1688,1688,1688,1696,1696,1696,1705,1713,1713,1713,1722,1722,1722,1722,1731,1731,1731,1739,1748,1748,1748,1757,1757,1757,1757,1766,1766,1766,1776,1785,1785,1794,1794,1794,1804,1804,1804,1804,1804,1804,1813,1813,1813,1823,1823,1823,1833,1833,1833,1833,1833,1823,1823,1813,1813,1804,1804,1794,1794,1794,0,0,0,0,0,0,0,1087,1087,1084,1084,1084,1084,1084,1077,1077,1077,1077,1077,1080,1080,1084,1084,1084,1087,1090,1090,1090,1094,1094,1094,1094,0,1696,1696,1696,1696,1696,1688,1057,1057,1057,1054,1050,1050,1050,1047,1047,1044,1041,1041,1038,1038,1038,1034,1034,1034,1034,1034,1031,1028,1025,1025,1022,1022,1022,1019,1019,1019,1016,1016,1016,1016,1013,1013,1010,1007,1004,1004,1001,1001,998,998,995,992,992,992,989,989,987,984,981,981,978,978,978,978,975,975,973,973,970,970,967,967,964,964,962,959,959,956,954,951,951,948,948,946,946,946,943,940,938,938,935,935,933,930,928,928,925,925,923,920,920,918,915,915,913,910,908,906,903,901,898,898,898,898,896,896,894,891,889,889,889,891,891,894,898,901,903,903,906,906,906,906,0,0,0,0,0,1404,1404,1410,1410,1404,1404,1398,1398,1398,1392,1392,1392,1392,1387,1387,1387,1381,1381,1381,1376,1376,1370,1370,1370,1365,1365,1359,1359,1354,1354,1354,1354,1354,1349,1349,1349,1343,1343,1338,1338,1338,1333,1333,1333,1328,1328,1328,1328,1322,1317,1317,1317,1312,1312,1312,1312,1312,1312,1307,1307,1307,1307,1307,1302,1302,1302,1302,1292,1292,1292,1288,1288,1288,1283,1283,1283,1283,1278,1278,1278,1278,1273,1273,1273,1273,1268,1268,1264,1259,1259,1259,1255,1255,1255,1255,1255,1250,1250,1250,1245,1245,1241,1241,1236,1236,1236,1236,1232,1232,1227,1227,1227,1223,1223,1219,1219,1219,1219,1219,1214,1214,1214,1210,1210,1206,1202,1202,1202,1202,1202,1197,1197,1197,1197,1193,1193,1189,1189,1185,1185,1185,1185,1185,1181,1181,1181,1181,1181,1177,1173,1173,1173,1173,1169,1169,1169,1165,1165,1165,1165,1161,1161,1161,1157,1157,1157,1153,1153,1149,1149,1149,1149,1149,1145,1145,1145,1145,1145,1141,1138,1138,1138,1138,1134,1134,1134,1130,1130,1126,1126,1126,1126,0,0,0,0,0,0,0,0,0,0,0,0,0,0,0,0,0,0,0,0,0,0,0,0,0,0,0,0,0
0,0,0,0,0,0,0,0,0,0,0,0,0,0,1647,1647,1639,1632,1632,1632,1632,1632,1624,1624,1624,1624,1624,1624,1624,1624,1624,1632,1632,1624,1624,1624,1624,1624,1624,1616,1616,1616,1616,1624,1624,1632,1632,1632,1632,1624,1624,1624,1624,1624,1624,1624,1624,1624,1624,1624,1624,1624,1624,1616,1616,1616,1616,1616,1609,1609,1609,1609,1609,1609,1609,1616,1616,1616,1609,1609,1609,1601,1601,1609,1601,1601,1609,1609,1609,1609,1609,1601,1601,1601,1601,1601,1594,1594,1594,1601,1594,1594,1594,1601,1601,1601,1601,1601,1601,1601,1601,1601,1594,1594,1594,1594,1594,1594,1594,1601,1601,1609,1616,1616,1616,1624,1624,1883,1873,1873,1873,1873,1873,1873,1873,1863,1863,1863,1853,1843,1843,1843,1833,1833,1833,1833,1833,1624,1616,1609,1609,1601,1601,1601,1601,1601,1601,1601,1601,1601,1609,1616,1616,1624,1624,1624,1624,1624,1624,1624,1632,1632,1639,1647,1647,1647,1655,1655,1655,1663,1663,1663,1663,1671,1671,1680,1680,1680,1688,1688,1688,1688,1696,1696,1696,1705,1713,1713,1713,1713,1722,1722,1731,1731,1731,1739,1739,1748,1748,1748,1757,1757,1757,1766,1766,1766,1776,1776,1785,1785,1794,1794,1794,1804,1804,1804,1804,1804,1813,1813,1823,1823,1823,1833,1833,1833,1833,1833,1833,1833,1833,1823,1813,1813,1813,1804,1804,1794,1794,0,0,0,0,0,0,1084,1084,1087,1087,1084,1084,1084,1080,1077,1077,1077,1077,1077,1080,1080,1080,1084,1084,1087,1090,1094,1094,1094,1094,1094,1094,0,1696,1696,1696,1696,1696,1688,1688,1688,1680,1680,1680,1680,1054,1050,1050,1047,1044,1044,1041,1038,1038,1038,1038,1038,1034,1034,1034,1031,1028,1025,1022,1022,1019,1019,1019,1019,1016,1016,1016,1016,1013,1013,1010,1007,1004,1004,1001,1001,1001,998,995,995,992,992,989,989,987,987,981,981,981,978,978,978,975,975,973,973,970,970,967,967,964,964,962,959,959,956,954,951,951,948,948,946,946,946,943,940,938,938,935,935,933,930,928,928,925,925,923,920,918,918,915,915,913,910,908,906,903,901,901,898,898,898,896,896,894,891,891,891,891,891,891,896,898,901,903,903,906,906,906,906,0,0,0,0,0,1410,1410,1410,1410,1404,1404,1398,1398,1398,1392,1392,1392,1392,1392,1387,1387,1387,1387,1381,1376,1376,1370,1370,1370,1365,1365,1359,1359,1354,1354,1354,1354,1349,1349,1349,1349,1349,1343,1343,1338,1338,1333,1333,1333,1328,1328,1328,1328,1322,1322,1317,1317,1317,1312,1312,1312,1312,1312,1312,1307,1307,1307,1307,1307,1302,1302,1302,1292,1292,1292,1288,1288,1288,1288,1283,1283,1283,1278,1278,1278,1278,1273,1273,1273,1273,1273,1268,1268,1268,1264,1264,1259,1255,1255,1255,1255,1255,1250,1250,1245,1241,1236,1236,1236,1236,1236,1236,1232,1232,1232,1232,1227,1227,1219,1219,1219,1219,1219,1219,1214,1214,1214,1210,1210,1206,1202,1202,1202,1202,1202,1197,1197,1197,1197,1197,1193,1193,1189,1185,1185,1185,1185,1185,1185,1185,1181,1181,1181,1177,1173,1173,1173,1169,1169,1169,1169,1165,1165,1165,1165,1165,1165,1161,1161,1161,1157,1157,1153,1153,1149,1149,1149,1149,1149,1145,1145,1145,1145,1141,1141,1138,1138,1138,1134,1134,1134,1134,1130,1130,1130,1126,1126,0,0,0,0,0,0,0,0,0,0,0,0,0,0,0,0,0,0,0,0,0,0,0,0,0,0,0,0,0
0,0,0,0,0,0,0,0,0,0,0,0,0,0,1647,1647,1632,1632,1632,1632,1632,1632,1624,1624,1624,1624,1624,1624,1624,1624,1624,1632,1632,1624,1624,1624,1624,1624,1624,1624,1624,1624,1624,1632,1632,1632,1632,1632,1632,1624,1624,1624,1624,1624,1624,1624,1624,1624,1624,1624,1624,1624,1624,1616,1616,1616,1616,1616,1609,1609,1616,1616,1616,1609,1609,1609,1616,1616,1609,1609,1609,1609,1609,1601,1601,1601,1609,1609,1609,1609,1609,1609,1609,1601,1601,1601,1601,1601,1601,1601,1594,1594,1594,1601,1601,1601,1601,1594,1594,1601,1601,1601,1594,1594,1594,1594,1594,1594,1601,1601,1601,1601,1616,1616,1616,1624,1624,1883,1873,1873,1873,1873,1873,1873,1863,1863,1863,1863,1853,1843,1843,1843,1843,1833,1833,1833,1833,1624,1624,1616,1609,1609,1601,1601,1601,1601,1601,1601,1601,1601,1609,1616,1616,1624,1624,1624,1624,1632,1632,1632,1632,1639,1647,1655,1655,1655,1655,1655,1655,1663,1663,1663,1663,1671,1671,1680,1680,1680,1688,1688,1696,1696,1696,1696,1696,1705,1705,1713,1713,1713,1722,1722,1731,1731,1731,1731,1739,1739,1748,1748,1757,1757,1757,1766,1766,1766,1766,1776,1785,1785,1785,1794,1794,1804,1804,1804,1804,1804,1813,1813,1823,1823,1833,1833,1833,1833,1833,1833,1833,1833,1833,1823,1813,1813,1813,1804,1804,1804,0,0,0,0,0,0,0,1084,1084,1087,1087,1084,1084,1084,1077,1077,1077,1077,1077,1077,1080,1080,1080,1084,1084,1087,1090,1094,1094,1094,1097,1097,1097,1696,1696,1696,1696,1696,1696,1696,1688,1688,1688,1680,1680,1680,1680,1680,1680,1680,1671,1047,1047,1044,1041,1038,1038,1038,1038,1038,1038,1031,1028,1025,1022,1022,1019,1016,1016,1016,1016,1016,1016,1013,1013,1010,1007,1007,1004,1004,1001,1001,1001,998,995,995,992,992,989,989,987,984,981,981,981,978,978,978,978,975,973,973,970,970,967,967,967,964,962,959,956,956,954,951,948,948,946,946,946,943,943,940,938,938,935,935,933,930,928,928,925,923,923,920,918,918,915,915,913,908,908,906,906,903,901,898,898,898,896,896,896,894,891,891,891,894,894,898,898,903,903,903,906,906,906,906,0,0,0,0,1415,1410,1410,1410,1410,1404,1404,1398,1398,1398,1392,1392,1392,1392,1392,1387,1387,1387,1387,1381,1381,1376,1370,1370,1370,1370,1365,1365,1365,1359,1354,1354,1354,1349,1349,1349,1349,1343,1343,1343,1338,1338,1338,1333,1333,1333,1328,1328,1328,1322,1322,1322,1322,1317,1317,1312,1312,1312,1312,1312,1312,1307,1307,1307,1307,1307,1302,1302,1292,1292,1292,1292,1288,1288,1288,1283,1283,1283,1278,1278,1278,1278,1273,1273,1273,1273,1273,1268,1268,1268,1268,1264,1259,1259,1255,1255,1255,1255,1250,1250,1245,1241,1236,1236,1236,1236,1236,1236,1232,1232,1232,1232,1227,1227,1219,1219,1219,1219,1219,1219,1219,1214,1214,1214,1210,1206,1202,1202,1202,1202,1202,1197,1197,1197,1197,1197,1193,1193,1189,1185,1185,1185,1185,1185,1185,1185,1181,1181,1181,1177,1173,1173,1173,1169,1169,1169,1169,1165,1165,1165,1165,1165,1165,1161,1161,1161,1161,1157,1157,1153,1149,1149,1149,1149,1149,1145,1145,1145,1145,1141,1141,1138,1138,1138,1134,1134,1134,1134,1134,1130,1130,1130,1130,0,0,0,0,0,0,0,0,0,0,0,0,0,0,0,0,0,0,0,0,0,0,0,0,0,0,0,0,0
0,0,0,0,0,0,0,0,0,0,0,0,0,0,1647,1647,1632,1632,1632,1632,1632,1632,1632,1632,1632,1632,1632,1632,1632,1632,1632,1632,1632,1632,1624,1624,1624,1624,1624,1624,1624,1624,1632,1632,1632,1632,1632,1632,1632,1624,1624,1624,1624,1624,1624,1624,1624,1624,1624,1624,1624,1624,1624,1624,1624,1624,1616,1616,1616,1616,1616,1616,1616,1609,1609,1609,1616,1616,1609,1609,1609,1609,1609,1601,1601,1601,1609,1609,1609,1609,1609,1609,1609,1601,1601,1601,1601,1601,1601,1601,1601,1601,1601,1601,1601,1601,1594,1594,1594,1594,1601,1601,1594,1594,1594,1594,1601,1601,1601,1601,1601,1601,1616,1616,1616,1624,1624,1873,1873,1873,1873,1873,1873,1873,1863,1863,1863,1863,1853,1853,1843,1843,1843,1843,1833,1833,1624,1616,1616,1616,1609,1609,1609,1601,1601,1601,1601,1601,1601,1609,1609,1616,1624,1624,1624,1624,1624,1632,1632,1632,1632,1639,1647,1655,1655,1655,1655,1655,1663,1663,1663,1663,1663,1671,1671,1680,1680,1688,1688,1696,1696,1696,1696,1696,1696,1705,1705,1713,1713,1722,1722,1722,1731,1731,1731,1731,1739,1739,1748,1748,1757,1757,1757,1766,1766,1766,1766,1776,1785,1785,1785,1794,1794,1804,1804,1804,1804,1813,1813,1823,1823,1833,1833,1833,1833,1843,1843,1843,1843,1833,1833,1833,1823,1813,1813,1804,1804,0,0,0,0,0,0,0,0,1087,1087,1087,1087,1084,1084,1084,1077,1077,1077,1077,1077,1080,1080,1080,1080,1084,1087,1087,1090,1094,1094,1094,1097,1101,0,1696,1696,1696,1696,1696,1696,1696,1696,1688,1688,1688,1688,1680,1680,1680,1680,1680,1671,1671,1663,1655,1655,1038,1038,1647,1639,1038,1038,1031,1031,1025,1022,1022,1019,1016,1016,1016,1016,1016,1013,1013,1010,1010,1007,1007,1004,1004,1004,1001,1001,998,998,995,992,992,992,989,987,984,981,981,981,978,978,978,978,975,973,970,970,970,967,967,967,964,962,959,956,956,951,951,948,948,946,946,946,943,943,940,938,938,935,935,930,928,928,925,925,923,920,920,918,918,915,915,913,908,908,906,906,903,901,901,898,898,898,896,896,894,894,894,894,894,896,898,901,903,906,906,906,908,908,0,0,0,0,0,1410,1410,1410,1410,1410,1404,1404,1404,1404,1398,1398,1392,1392,1392,1392,1387,1387,1387,1387,1381,1381,1376,1376,1370,1370,1370,1370,1365,1365,1365,1359,1354,1354,1354,1349,1349,1349,1343,1343,1343,1338,1338,1338,1333,1333,1333,1328,1328,1328,1322,1322,1322,1322,1317,1317,1312,1312,1312,1312,1312,1312,1307,1307,1307,1307,1307,1302,1302,1297,1292,1292,1292,1288,1288,1288,1288,1283,1283,1283,1278,1278,1278,1273,1273,1273,1273,1273,1268,1268,1268,1268,1264,1264,1259,1255,1255,1255,1255,1250,1245,1245,1241,1236,1236,1236,1236,1236,1236,1236,1232,1232,1232,1227,1227,1227,1223,1223,1223,1219,1219,1219,1214,1214,1214,1210,1206,1206,1202,1202,1202,1202,1202,1197,1197,1197,1197,1193,1193,1189,1189,1189,1185,1185,1185,1185,1185,1185,1185,1181,1177,1177,1177,1173,1169,1169,1169,1169,1165,1165,1165,1165,1165,1165,1161,1161,1161,1161,1157,1157,1153,1149,1149,1149,1149,1149,1145,1145,1145,1145,1141,1141,1141,1138,1138,1138,1134,1134,1134,1134,1134,1130,1130,1130,0,0,0,0,0,0,0,0,0,0,0,0,0,0,0,0,0,0,0,0,0,0,0,0,0,0,0,0,0
0,0,0,0,0,0,0,0,0,0,0,0,0,0,1647,1647,1647,1647,1647,1632,1632,1632,1632,1632,1632,1632,1632,1632,1632,1632,1632,1632,1632,1632,1624,1624,1624,1624,1624,1624,1624,1624,1632,1632,1632,1632,1632,1632,1632,1632,1632,1624,1624,1624,1624,1624,1624,1624,1624,1624,1624,1624,1624,1624,1624,1624,1616,1616,1616,1616,1616,1616,1616,1609,1609,1609,1616,1616,1609,1609,1609,1609,1609,1609,1609,1609,1609,1609,1609,1609,1609,1609,1601,1601,1601,1601,1601,1601,1601,1601,1601,1601,1601,1601,1601,1601,1594,1594,1594,1594,1601,1601,1601,1601,1601,1601,1601,1601,1601,1601,1601,1601,1609,1616,1616,1616,1624,1624,1863,1863,1873,1873,1883,1873,1873,1873,1863,1863,1853,1853,1843,1843,1843,1843,1833,1833,1624,1616,1616,1616,1609,1609,1609,1601,1601,1601,1601,1601,1601,1609,1616,1616,1624,1624,1624,1624,1632,1632,1632,1632,1632,1639,1655,1655,1655,1655,1655,1655,1663,1663,1663,1663,1663,1671,1671,1680,1680,1688,1688,1696,1696,1696,1696,1696,1696,1705,1705,1713,1713,1722,1722,1722,1731,1731,1731,1731,1739,1739,1748,1748,1757,1757,1757,1766,1766,1766,1766,1776,1785,1785,1785,1794,1794,1804,1804,1804,1804,1813,1813,1823,1823,1833,1833,1833,1833,1843,1843,1843,1843,1843,1843,1823,1813,1813,1813,1804,1804,0,0,0,0,0,0,0,0,1087,1087,1087,1087,1087,1087,1084,1077,1077,1077,1077,1077,1080,1080,1080,1084,1084,1087,1087,1090,1094,1094,1097,1101,1101,0,1696,1696,1696,1696,1696,1696,1696,1696,1688,1688,1688,1688,1688,1688,1680,1680,1680,1671,1671,1663,1663,1655,1655,1655,1647,1639,1639,1639,1639,1632,1632,1025,1022,1022,1016,1016,1016,1016,1016,1013,1013,1010,1010,1007,1004,1004,1004,1004,1004,1004,1001,1001,998,995,992,992,989,987,984,981,981,981,978,978,978,978,975,973,970,970,970,967,967,967,964,962,959,956,956,951,951,948,948,948,946,946,946,943,940,938,938,935,933,930,928,928,925,925,923,920,920,918,915,915,915,913,908,908,908,906,903,903,901,898,898,898,896,896,896,894,894,894,896,898,901,903,906,906,906,908,908,908,0,0,0,0,0,1410,1410,1410,1410,1410,1410,1404,1404,1404,1398,1398,1392,1392,1392,1392,1387,1387,1381,1381,1381,1381,1376,1376,1370,1370,1370,1370,1370,1370,1365,1365,1359,1354,1354,1354,1349,1349,1349,1343,1343,1338,1338,1338,1333,1333,1333,1328,1328,1328,1322,1322,1322,1322,1322,1317,1317,1317,1312,1312,1312,1312,1312,1312,1307,1307,1307,1307,1302,1297,1292,1292,1292,1288,1288,1288,1288,1283,1283,1283,1278,1278,1278,1273,1273,1273,1273,1273,1268,1268,1268,1268,1268,1264,1259,1259,1255,1255,1255,1250,1245,1245,1241,1236,1236,1236,1236,1236,1236,1236,1236,1232,1232,1232,1227,1227,1227,1223,1223,1219,1219,1219,1214,1214,1214,1210,1206,1206,1202,1202,1202,1202,1202,1197,1197,1197,1197,1197,1193,1193,1189,1189,1189,1185,1185,1185,1185,1185,1181,1181,1181,1177,1177,1173,1173,1169,1169,1169,1169,1169,1165,1165,1165,1165,1165,1165,1161,1161,1161,1157,1153,1153,1153,1149,1149,1149,1149,1149,1145,1145,1141,1141,1141,1138,1138,1138,1134,1134,1134,1134,1134,1134,1130,1130,0,0,0,0,0,0,0,0,0,0,0,0,0,0,0,0,0,0,0,0,0,0,0,0,0,0,0,0,0
0,0,0,0,0,0,0,0,0,0,0,0,0,0,1647,1647,1647,1647,1647,1647,1639,1632,1632,1632,1632,1632,1632,1632,1632,1632,1632,1632,1632,1632,1632,1624,1624,1624,1624,1624,1624,1624,1624,1632,1632,1632,1632,1632,1632,1632,1632,1624,1624,1624,1624,1632,1632,1624,1624,1624,1624,1624,1624,1624,1624,1624,1616,1616,1616,1616,1616,1616,1616,1616,1616,1616,1616,1616,1609,1609,1609,1609,1609,1609,1609,1609,1609,1609,1609,1609,1609,1609,1601,1601,1601,1601,1601,1601,1601,1601,1601,1601,1601,1601,1601,1601,1594,1594,1594,1601,1601,1601,1601,1601,1601,1601,1601,1601,1601,1601,1601,1609,1609,1616,1616,1616,1624,1624,1863,1863,1883,1883,1883,1873,1873,1873,1873,1873,1853,1853,1843,1843,1843,1843,1833,1833,1624,1616,1616,1616,1609,1609,1601,1601,1601,1601,1601,1601,1601,1609,1616,1616,1624,1624,1624,1624,1632,1632,1632,1632,1639,1639,1655,1655,1655,1655,1655,1663,1663,1663,1663,1663,1671,1671,1680,1680,1688,1688,1688,1696,1696,1696,1696,1696,1696,1705,1705,1713,1713,1722,1722,1731,1731,1731,1731,1739,1739,1739,1748,1757,1757,1757,1757,1766,1766,1766,1766,1776,1785,1785,1785,1794,1794,1804,1804,1804,1804,1813,1813,1823,1823,1833,1833,1833,1843,1843,1843,1843,1843,1843,1843,1823,1813,1813,1813,1813,0,0,0,0,0,0,0,0,0,1087,1087,1087,1087,1090,1087,1087,1084,1077,1077,1077,1080,1080,1080,1084,1084,1084,1087,1090,1090,1094,1094,1097,1101,1101,0,1101,1705,1705,1705,1705,1705,1696,1696,1696,1696,1696,1688,1688,1688,1688,1680,1671,1671,1671,1663,1663,1655,1655,1655,1655,1647,1647,1647,1639,1632,1632,1632,1632,1632,1632,1632,1624,1624,1632,1632,1624,1616,1010,1007,1004,1004,1004,1004,1004,1004,1004,1001,1001,998,995,992,989,987,984,981,981,981,978,978,975,975,975,973,970,970,967,967,967,967,964,962,959,956,956,954,951,948,948,948,946,946,946,943,940,940,938,935,933,930,930,928,925,925,923,920,920,918,915,915,915,913,910,908,908,906,903,903,901,898,898,898,896,896,896,894,894,896,896,898,901,903,906,906,906,908,908,908,0,0,0,0,1415,1410,1410,1410,1410,1410,1410,1404,1404,1404,1398,1398,1398,1392,1392,1392,1387,1387,1381,1381,1381,1376,1376,1376,1370,1370,1370,1370,1370,1370,1365,1365,1359,1354,1354,1354,1349,1349,1349,1343,1343,1343,1343,1338,1333,1333,1333,1333,1328,1328,1328,1328,1322,1322,1322,1317,1317,1317,1312,1312,1312,1312,1312,1312,1307,1307,1307,1302,1302,1297,1292,1292,1292,1288,1288,1288,1288,1283,1283,1283,1278,1278,1278,1273,1273,1273,1273,1273,1268,1268,1268,1268,1268,1264,1259,1259,1255,1255,1255,1250,1250,1245,1241,1241,1241,1236,1236,1236,1236,1236,1236,1232,1232,1232,1227,1227,1227,1223,1219,1219,1219,1219,1214,1214,1214,1210,1206,1206,1206,1206,1202,1202,1202,1197,1197,1197,1197,1197,1193,1193,1189,1189,1189,1185,1185,1185,1185,1185,1181,1181,1181,1177,1177,1173,1173,1169,1169,1169,1169,1169,1165,1165,1165,1165,1165,1165,1161,1161,1161,1157,1153,1153,1153,1153,1149,1149,1149,1149,1149,1149,1145,1141,1141,1138,1138,1138,1134,1134,1134,1134,1134,1134,1130,1130,0,0,0,0,0,0,0,0,0,0,0,0,0,0,0,0,0,0,0,0,0,0,0,0,0,0,0,0,0
0,0,0,0,0,0,0,0,0,0,0,0,0,0,1647,1647,1647,1639,1639,1647,1647,1639,1639,1632,1632,1632,1632,1632,1632,1632,1632,1632,1632,1632,1632,1632,1632,1624,1624,1624,1624,1624,1624,1632,1632,1632,1632,1632,1624,1624,1632,1632,1624,1624,1632,1632,1632,1632,1624,1624,1624,1624,1616,1616,1624,1616,1616,1616,1624,1624,1624,1616,1616,1616,1616,1616,1616,1616,1609,1609,1609,1609,1609,1616,1609,1609,1609,1609,1609,1609,1609,1609,1601,1601,1601,1601,1601,1601,1601,1601,1601,1601,1601,1601,1601,1601,1594,1594,1594,1601,1601,1601,1601,1601,1601,1601,1601,1601,1601,1601,1601,1609,1609,1616,1616,1616,1624,1624,1624,1883,1883,1883,1883,1873,1873,1873,1873,1873,1853,1853,1843,1843,1843,1843,1843,1843,1843,1616,1616,1616,1609,1609,1601,1601,1601,1601,1601,1601,1609,1616,1616,1624,1624,1624,1624,1632,1632,1632,1632,1632,1639,1647,1655,1655,1655,1655,1663,1663,1663,1663,1663,1663,1671,1671,1680,1680,1688,1688,1696,1696,1696,1696,1705,1705,1705,1705,1705,1713,1713,1722,1722,1731,1731,1731,1731,1739,1739,1748,1748,1757,1757,1757,1766,1766,1766,1766,1776,1776,1785,1785,1785,1794,1794,1804,1804,1804,1804,1813,1813,1823,1833,1833,1833,1833,1843,1843,1843,1843,1843,1843,1833,1833,1823,1813,1813,1813,0,0,0,0,0,0,0,0,1087,1087,1087,1087,1087,1090,1087,1087,1084,1080,1080,1080,1080,1080,1080,1084,1084,1084,1087,1090,1090,1094,1094,1097,1101,1101,1101,0,1713,1705,1705,1705,1705,1696,1696,1696,1696,1696,1696,1688,1688,1688,1688,1671,1671,1671,1663,1663,1663,1663,1655,1655,1655,1655,1647,1639,1639,1632,1632,1632,1632,1632,1632,1624,1624,1632,1632,1624,1624,1624,1616,1004,1004,1004,1004,1004,1004,1004,1004,1001,998,998,992,989,984,984,984,981,981,978,978,975,975,973,973,970,970,967,967,967,967,964,962,959,956,956,954,951,951,948,948,946,946,943,943,940,938,938,935,933,933,930,928,925,925,923,920,920,918,918,915,915,910,908,908,906,906,903,903,901,898,898,898,896,896,896,894,894,896,896,898,901,903,906,906,908,908,908,0,0,0,0,0,1415,1410,1410,1410,1410,1410,1410,1404,1404,1404,1398,1398,1398,1392,1392,1392,1387,1387,1387,1387,1387,1376,1376,1376,1376,1370,1370,1370,1370,1370,1365,1365,1359,1359,1354,1354,1354,1349,1349,1349,1349,1343,1343,1338,1338,1333,1333,1333,1328,1328,1328,1328,1328,1328,1322,1322,1317,1317,1312,1312,1312,1312,1312,1312,1307,1307,1307,1302,1302,1297,1292,1292,1292,1292,1288,1288,1288,1283,1283,1283,1278,1278,1278,1273,1273,1273,1273,1273,1268,1268,1268,1268,1268,1264,1259,1259,1255,1255,1255,1250,1250,1250,1245,1241,1241,1241,1236,1236,1236,1236,1236,1236,1232,1232,1232,1227,1227,1223,1219,1219,1219,1219,1214,1214,1214,1210,1210,1206,1206,1206,1202,1202,1202,1197,1197,1197,1197,1197,1193,1189,1189,1189,1189,1189,1185,1185,1185,1185,1181,1181,1181,1181,1177,1173,1173,1169,1169,1169,1169,1169,1165,1165,1165,1165,1165,1165,1161,1161,1161,1157,1157,1153,1153,1153,1153,1153,1149,1149,1149,1149,1145,1141,1141,1138,1138,1138,1134,1134,1134,1134,1134,1134,1130,1130,0,0,0,0,0,0,0,0,0,0,0,0,0,0,0,0,0,0,0,0,0,0,0,0,0,0,0,0,0
0,0,0,0,0,0,0,0,0,0,0,0,0,0,1647,1647,1647,1639,1639,1647,1647,1647,1639,1639,1632,1632,1632,1632,1632,1632,1632,1632,1632,1632,1632,1632,1632,1624,1624,1624,1624,1632,1632,1632,1632,1632,1632,1632,1624,1624,1632,1632,1632,1632,1632,1632,1632,1632,1624,1624,1624,1624,1616,1616,1624,1616,1616,1616,1624,1624,1624,1616,1616,1616,1616,1616,1616,1616,1609,1609,1616,1616,1616,1616,1609,1609,1609,1609,1609,1609,1609,1609,1609,1601,1601,1601,1601,1601,1601,1601,1601,1601,1601,1601,1601,1601,1601,1601,1601,1601,1601,1601,1601,1601,1601,1601,1601,1601,1601,1601,1609,1609,1609,1616,1616,1616,1624,1624,1624,1873,1873,1883,1883,1873,1873,1873,1863,1863,1853,1853,1853,1853,1843,1843,1843,1843,1843,1616,1616,1616,1609,1609,1601,1601,1601,1609,1609,1609,1609,1616,1616,1624,1624,1624,1632,1632,1632,1632,1632,1639,1647,1647,1655,1655,1655,1655,1663,1663,1663,1663,1663,1671,1671,1680,1680,1680,1688,1688,1696,1696,1696,1696,1705,1705,1705,1705,1705,1713,1722,1722,1722,1731,1731,1731,1731,1739,1739,1748,1757,1757,1757,1766,1766,1766,1766,1776,1776,1776,1785,1785,1794,1794,1794,1804,1804,1804,1804,1813,1813,1823,1833,1833,1833,1843,1843,1843,1843,1843,1843,1843,1833,1833,1823,1823,1823,1823,0,0,0,0,0,0,0,0,1087,1087,1087,1090,1090,1090,1087,1087,1084,1080,1080,1080,1080,1080,1084,1084,1084,1084,1087,1090,1090,1094,1097,1097,1101,1105,1105,0,1713,1713,1713,1705,1705,1705,1696,1696,1696,1696,1696,1696,1688,1688,1680,1680,1671,1671,1663,1663,1663,1663,1655,1655,1655,1655,1655,1647,1639,1639,1632,1632,1632,1632,1632,1624,1624,1632,1632,1624,1624,1624,1616,1616,1004,1004,1004,1004,1004,1601,1601,1601,1594,1594,1586,1579,984,984,984,981,981,978,978,975,975,973,973,970,970,967,967,967,967,964,962,959,956,956,954,954,951,948,948,946,946,943,940,938,938,935,935,933,930,930,928,928,925,923,920,920,918,918,915,915,910,908,908,906,906,903,903,901,898,898,898,896,896,894,894,896,896,896,898,901,906,906,908,908,908,908,0,0,0,0,0,1415,1415,1410,1410,1410,1410,1410,1404,1404,1404,1398,1398,1398,1398,1392,1392,1392,1387,1387,1387,1387,1381,1376,1376,1376,1376,1370,1370,1370,1370,1370,1365,1365,1359,1359,1354,1354,1349,1349,1349,1349,1343,1343,1343,1338,1338,1333,1333,1333,1333,1328,1328,1328,1328,1322,1322,1317,1317,1312,1312,1312,1312,1312,1312,1307,1307,1307,1302,1302,1297,1292,1292,1292,1292,1288,1288,1288,1288,1283,1283,1283,1278,1278,1278,1273,1273,1273,1273,1268,1268,1268,1268,1268,1264,1259,1259,1255,1255,1255,1250,1250,1250,1245,1241,1241,1241,1236,1236,1236,1236,1236,1236,1236,1232,1232,1227,1227,1223,1219,1219,1219,1219,1214,1214,1214,1210,1210,1210,1206,1206,1202,1202,1202,1197,1197,1202,1197,1197,1193,1189,1189,1189,1189,1189,1185,1185,1185,1185,1181,1181,1181,1181,1181,1177,1177,1173,1173,1173,1169,1169,1165,1165,1165,1165,1165,1165,1161,1161,1161,1157,1157,1157,1153,1153,1153,1153,1149,1149,1149,1149,1145,1145,1141,1138,1138,1138,1134,1134,1134,1134,1134,1134,1130,1130,0,0,0,0,0,0,0,0,0,0,0,0,0,0,0,0,0,0,0,0,0,0,0,0,0,0,0,0,0
0,0,0,0,0,0,0,0,0,0,0,0,0,0,1647,1647,1647,1639,1639,1639,1639,1647,1647,1639,1639,1632,1632,1632,1632,1632,1632,1632,1632,1632,1632,1632,1632,1624,1624,1632,1632,1632,1632,1632,1632,1632,1632,1632,1632,1632,1632,1632,1632,1632,1632,1632,1632,1632,1624,1624,1624,1624,1624,1624,1624,1624,1616,1616,1624,1624,1624,1616,1616,1616,1616,1616,1616,1616,1609,1609,1624,1624,1616,1616,1616,1616,1616,1616,1616,1616,1609,1609,1609,1609,1609,1609,1601,1601,1609,1609,1601,1601,1609,1609,1601,1601,1601,1601,1601,1601,1601,1601,1601,1601,1601,1601,1601,1601,1601,1601,1609,1609,1609,1616,1624,1624,1624,1624,1624,1873,1873,1883,1883,1873,1873,1873,1863,1863,1853,1853,1853,1853,1843,1843,1843,1843,1843,1616,1616,1616,1616,1609,1609,1609,1609,1609,1609,1609,1609,1616,1616,1624,1624,1624,1632,1632,1632,1632,1639,1639,1647,1655,1655,1655,1663,1663,1663,1663,1663,1671,1671,1671,1671,1680,1680,1688,1688,1688,1696,1696,1696,1705,1705,1705,1713,1713,1713,1713,1722,1722,1731,1731,1731,1731,1731,1739,1739,1748,1757,1766,1766,1766,1766,1766,1776,1776,1776,1776,1785,1785,1794,1794,1804,1804,1804,1804,1813,1823,1823,1823,1833,1833,1833,1843,1843,1853,1843,1843,1843,1843,1833,1833,1823,1823,1823,1823,0,0,0,0,0,0,0,0,1094,1090,1090,1090,1090,1090,1087,1087,1084,1084,1080,1080,1080,1080,1084,1084,1084,1087,1087,1090,1090,1097,1097,1097,1101,1105,1105,0,1713,1713,1713,1713,1713,1705,1705,1705,1705,1696,1696,1688,1688,1688,1680,1680,1671,1671,1663,1663,1663,1663,1663,1655,1655,1655,1655,1647,1647,1639,1639,1632,1632,1632,1632,1632,1632,1632,1632,1632,1624,1624,1624,1616,1609,1609,1609,1609,1609,1601,1601,1601,1594,1594,1586,1586,1579,1579,1579,1579,1579,1572,1572,1579,1572,1572,1572,970,970,967,967,967,967,964,962,959,956,956,954,954,951,948,948,946,943,940,938,938,935,935,935,933,930,930,928,928,925,923,920,920,918,918,915,913,910,908,908,906,906,903,903,901,898,898,898,896,896,894,894,896,896,896,898,903,906,908,908,908,908,908,0,0,0,0,0,1415,1415,1415,1410,1410,1410,1410,1410,1404,1404,1404,1398,1398,1398,1392,1392,1392,1392,1387,1387,1381,1381,1376,1376,1376,1376,1370,1370,1370,1370,1370,1370,1365,1359,1359,1354,1354,1354,1349,1349,1349,1349,1343,1343,1343,1338,1333,1333,1333,1333,1333,1328,1328,1328,1328,1322,1322,1317,1317,1317,1312,1312,1312,1312,1307,1307,1307,1302,1302,1297,1292,1292,1292,1292,1292,1288,1288,1288,1288,1283,1283,1278,1278,1273,1273,1273,1273,1273,1268,1268,1268,1268,1268,1264,1259,1259,1255,1255,1255,1250,1250,1250,1250,1245,1241,1241,1241,1241,1236,1236,1236,1236,1236,1232,1232,1232,1227,1223,1223,1219,1219,1219,1219,1214,1214,1210,1210,1210,1206,1206,1202,1202,1202,1202,1202,1202,1197,1197,1197,1193,1189,1189,1189,1189,1185,1185,1185,1185,1181,1181,1181,1181,1181,1177,1177,1173,1173,1173,1169,1169,1169,1169,1165,1165,1165,1165,1161,1161,1161,1157,1157,1157,1153,1153,1153,1153,1149,1149,1149,1149,1149,1145,1141,1138,1138,1138,1138,1138,1134,1134,1134,1134,1130,1130,0,0,0,0,0,0,0,0,0,0,0,0,0,0,0,0,0,0,0,0,0,0,0,0,0,0,0,0,0
0,0,0,0,0,0,0,0,0,0,0,0,0,0,1647,1647,1647,1639,1639,1639,1639,1639,1639,1647,1639,1632,1632,1639,1639,1639,1639,1632,1632,1632,1632,1632,1632,1632,1632,1632,1632,1632,1632,1632,1632,1632,1632,1632,1632,1632,1632,1632,1632,1632,1632,1632,1632,1632,1632,1632,1624,1624,1624,1624,1624,1624,1624,1624,1624,1624,1624,1624,1616,1616,1616,1616,1616,1616,1616,1624,1624,1624,1616,1616,1616,1616,1616,1616,1616,1616,1616,1609,1609,1609,1609,1609,1609,1609,1609,1609,1601,1601,1609,1609,1609,1601,1601,1601,1601,1601,1601,1601,1601,1601,1601,1601,1601,1601,1601,1601,1609,1609,1616,1616,1624,1624,1624,1624,1624,1873,1873,1883,1883,1883,1873,1873,1873,1863,1853,1853,1853,1853,1843,1843,1843,1843,1843,1616,1616,1616,1616,1616,1616,1609,1609,1616,1616,1616,1616,1616,1624,1624,1624,1624,1632,1632,1632,1632,1639,1639,1647,1655,1655,1655,1663,1663,1663,1663,1663,1671,1671,1671,1680,1680,1688,1688,1688,1688,1696,1696,1696,1705,1705,1713,1713,1722,1722,1722,1722,1722,1731,1731,1731,1731,1731,1739,1739,1748,1757,1766,1766,1766,1766,1766,1776,1776,1776,1776,1785,1785,1794,1794,1804,1804,1804,1813,1813,1823,1823,1823,1833,1833,1833,1843,1843,1853,1843,1843,1843,1843,1833,1823,1823,1823,1823,1823,0,0,0,0,0,0,0,0,1090,1090,1090,1090,1090,1090,1087,1087,1084,1084,1084,1084,1084,1084,1084,1084,1087,1087,1090,1090,1094,1097,1097,1097,1101,1105,0,1722,1722,1722,1722,1713,1713,1705,1705,1705,1705,1705,1696,1688,1688,1680,1680,1680,1671,1671,1663,1663,1663,1663,1663,1655,1655,1655,1655,1647,1647,1639,1639,1639,1632,1632,1632,1632,1632,1632,1632,1632,1632,1624,1624,1616,1609,1609,1609,1609,1609,1601,1601,1601,1594,1594,1586,1586,1579,1579,1579,1579,1579,1572,1572,1579,1572,1572,1564,1557,973,970,970,967,967,967,962,959,959,956,956,954,951,951,948,946,943,938,935,935,935,935,935,933,933,930,928,928,928,923,923,920,918,918,915,913,910,910,908,906,906,903,903,901,901,898,898,896,896,896,896,896,896,898,898,903,906,908,908,908,908,910,0,0,0,0,1421,1415,1415,1415,1410,1410,1410,1410,1410,1404,1404,1404,1398,1398,1398,1398,1392,1392,1392,1387,1387,1381,1381,1376,1376,1376,1376,1370,1370,1370,1370,1370,1370,1365,1365,1359,1354,1354,1354,1354,1349,1349,1349,1349,1343,1343,1338,1333,1333,1333,1333,1333,1328,1328,1328,1328,1322,1322,1317,1317,1317,1312,1312,1312,1312,1307,1307,1307,1302,1302,1297,1292,1292,1292,1292,1292,1292,1288,1288,1288,1283,1283,1283,1278,1273,1273,1273,1273,1273,1268,1268,1268,1268,1268,1264,1259,1259,1255,1255,1255,1250,1250,1250,1250,1245,1245,1241,1241,1241,1241,1236,1236,1236,1236,1232,1232,1232,1227,1227,1223,1223,1223,1219,1219,1219,1214,1210,1210,1210,1210,1210,1206,1202,1202,1202,1202,1202,1202,1197,1197,1197,1193,1193,1189,1189,1185,1185,1185,1185,1181,1181,1181,1181,1181,1177,1177,1177,1177,1177,1169,1169,1169,1169,1165,1165,1165,1165,1161,1161,1161,1157,1157,1157,1157,1153,1153,1153,1153,1153,1153,1149,1149,1145,1141,1141,1138,1138,1138,1138,1134,1134,1134,1134,1130,1130,0,0,0,0,0,0,0,0,0,0,0,0,0,0,0,0,0,0,0,0,0,0,0,0,0,0,0,0,0
0,0,0,0,0,0,0,0,0,0,0,0,0,0,1647,1647,1647,1647,1647,1647,1647,1639,1639,1647,1639,1639,1639,1639,1639,1639,1639,1632,1632,1632,1632,1632,1632,1632,1632,1632,1632,1632,1632,1632,1632,1632,1632,1632,1632,1632,1632,1632,1632,1632,1632,1632,1632,1632,1632,1632,1624,1624,1624,1624,1624,1624,1624,1624,1624,1624,1624,1624,1624,1624,1624,1624,1624,1616,1616,1624,1624,1624,1624,1624,1616,1616,1624,1616,1616,1616,1616,1609,1609,1609,1609,1609,1609,1609,1609,1609,1609,1609,1609,1609,1609,1609,1609,1601,1601,1601,1601,1601,1601,1601,1601,1601,1601,1601,1601,1601,1609,1609,1616,1616,1624,1624,1624,1624,1624,1632,1873,1883,1883,1883,1883,1873,1873,1873,1863,1863,1853,1853,1853,1843,1843,1843,1843,1616,1616,1616,1616,1616,1616,1609,1609,1616,1616,1616,1616,1616,1624,1624,1624,1632,1632,1632,1639,1639,1639,1647,1647,1655,1655,1655,1663,1663,1663,1663,1663,1671,1671,1671,1680,1680,1688,1688,1688,1688,1696,1696,1705,1705,1705,1713,1713,1722,1722,1722,1722,1722,1731,1731,1731,1731,1731,1739,1748,1757,1757,1766,1766,1766,1766,1766,1776,1776,1776,1785,1785,1785,1794,1794,1804,1804,1804,1813,1813,1813,1813,1823,1833,1833,1843,1843,1843,1843,1843,1843,1843,1843,1833,1823,1823,1823,1813,1813,0,0,0,0,0,0,0,0,1090,1090,1090,1090,1090,1090,1087,1087,1084,1084,1084,1084,1084,1084,1084,1087,1087,1087,1090,1094,1094,1097,1101,1101,1101,1105,0,1722,1722,1722,1722,1713,1713,1713,1705,1705,1705,1696,1696,1688,1688,1680,1680,1680,1671,1671,1663,1663,1663,1663,1663,1655,1655,1655,1655,1655,1647,1639,1639,1639,1632,1632,1632,1632,1632,1632,1632,1632,1632,1624,1624,1616,1609,1609,1609,1609,1609,1601,1601,1601,1594,1594,1586,1586,1579,1579,1579,1579,1579,1579,1572,1572,1572,1572,1564,1557,1557,1564,1557,1557,1550,967,962,959,959,1536,1536,1536,1536,1536,1529,1529,943,938,935,935,933,933,935,933,930,930,930,928,928,923,920,918,918,918,915,913,910,910,908,906,906,903,903,901,901,898,898,896,896,896,896,896,896,898,898,903,906,908,908,908,910,0,0,0,0,0,1415,1415,1421,1415,1415,1415,1410,1410,1410,1404,1404,1404,1404,1398,1398,1398,1392,1392,1392,1387,1387,1381,1381,1376,1376,1376,1376,1376,1370,1370,1370,1370,1370,1365,1365,1359,1354,1354,1354,1354,1349,1349,1349,1349,1343,1343,1338,1338,1338,1333,1333,1333,1333,1333,1328,1328,1328,1322,1322,1317,1317,1312,1312,1312,1312,1312,1307,1307,1302,1302,1302,1297,1297,1297,1292,1292,1292,1288,1288,1288,1288,1283,1283,1278,1273,1273,1273,1273,1273,1268,1268,1268,1268,1268,1264,1264,1259,1255,1255,1255,1250,1250,1250,1250,1250,1250,1245,1245,1245,1241,1241,1236,1236,1236,1236,1232,1232,1227,1227,1223,1223,1223,1223,1219,1219,1219,1214,1214,1210,1210,1210,1206,1206,1206,1202,1202,1202,1202,1202,1197,1197,1193,1193,1189,1189,1189,1185,1185,1185,1181,1181,1181,1181,1181,1181,1181,1177,1177,1177,1173,1173,1169,1169,1165,1165,1165,1165,1161,1161,1161,1157,1157,1157,1157,1153,1153,1153,1153,1153,1153,1149,1149,1145,1141,1141,1138,1138,1138,1138,1134,1134,1134,1134,1130,1130,0,0,0,0,0,0,0,0,0,0,0,0,0,0,0,0,0,0,0,0,0,0,0,0,0,0,0,0,0
0,0,0,0,0,0,0,0,0,0,0,0,0,0,1647,1647,1647,1647,1647,1647,1647,1639,1639,1639,1639,1639,1639,1639,1639,1639,1655,1647,1639,1639,1639,1632,1632,1632,1632,1632,1632,1632,1632,1632,1632,1632,1632,1632,1632,1632,1632,1632,1632,1632,1632,1632,1632,1632,1632,1632,1632,1632,1632,1632,1632,1624,1624,1624,1624,1624,1624,1624,1624,1624,1624,1624,1624,1624,1624,1624,1624,1624,1624,1624,1624,1624,1624,1616,1616,1616,1616,1616,1616,1616,1609,1609,1609,1609,1609,1616,1616,1616,1616,1609,1609,1609,1609,1609,1609,1609,1609,1601,1601,1601,1601,1601,1601,1601,1601,1601,1609,1609,1616,1616,1624,1624,1624,1632,1632,1632,1894,1894,1894,1883,1883,1883,1883,1873,1873,1863,1863,1863,1853,1853,1843,1843,1843,1624,1624,1624,1624,1616,1616,1609,1609,1616,1616,1616,1616,1616,1624,1624,1624,1632,1632,1632,1639,1639,1639,1647,1655,1655,1655,1655,1663,1663,1663,1663,1671,1671,1671,1671,1680,1680,1688,1688,1688,1696,1696,1696,1705,1705,1713,1713,1722,1722,1722,1722,1722,1731,1731,1731,1731,1739,1739,1748,1748,1757,1757,1766,1766,1766,1766,1766,1776,1776,1776,1785,1785,1785,1794,1794,1804,1804,1804,1813,1813,1813,1813,1833,1833,1833,1843,1843,1843,1843,1843,1843,1843,1833,1833,1823,1823,1823,1804,1804,0,0,0,0,0,0,0,0,1094,1094,1090,1090,1090,1090,1087,1087,1087,1084,1084,1084,1084,1084,1084,1087,1087,1090,1090,1094,1094,1097,1101,1101,1105,1105,0,1722,1722,1722,1722,1713,1713,1713,1705,1705,1705,1696,1696,1696,1688,1688,1680,1680,1671,1671,1671,1663,1663,1663,1663,1663,1655,1655,1655,1655,1655,1647,1639,1639,1639,1632,1632,1632,1632,1632,1632,1632,1632,1624,1624,1616,1616,1609,1609,1609,1609,1601,1601,1601,1601,1594,1594,1594,1586,1579,1579,1579,1579,1579,1572,1572,1572,1572,1564,1557,1557,1557,1550,1550,1550,1550,1550,1543,1543,1543,1543,1536,1536,1536,1529,1529,1529,935,933,933,933,933,933,933,930,930,930,928,928,923,920,918,918,918,915,913,910,910,908,906,906,906,903,901,901,898,898,896,896,896,896,896,896,898,898,903,906,908,908,908,910,913,0,0,0,0,1415,1415,1421,1415,1415,1415,1415,1415,1410,1404,1404,1404,1398,1398,1398,1398,1398,1392,1392,1392,1387,1387,1381,1381,1381,1376,1376,1376,1376,1370,1370,1370,1370,1365,1365,1359,1354,1354,1354,1354,1354,1349,1349,1349,1349,1343,1343,1338,1338,1338,1333,1333,1333,1333,1328,1328,1328,1322,1322,1317,1317,1312,1312,1312,1312,1312,1307,1307,1302,1302,1302,1297,1297,1297,1297,1292,1292,1292,1288,1288,1288,1283,1283,1278,1273,1273,1273,1273,1273,1268,1268,1268,1268,1268,1268,1264,1259,1259,1255,1255,1250,1250,1250,1250,1250,1250,1245,1245,1245,1241,1241,1241,1236,1236,1236,1232,1232,1232,1227,1227,1223,1223,1223,1219,1219,1219,1214,1214,1210,1210,1210,1210,1206,1206,1206,1206,1206,1202,1202,1202,1197,1193,1193,1189,1189,1189,1189,1185,1185,1185,1181,1181,1181,1181,1181,1181,1177,1177,1177,1177,1173,1169,1169,1169,1165,1165,1165,1161,1161,1161,1161,1157,1157,1157,1153,1153,1153,1153,1153,1153,1149,1149,1145,1141,1138,1138,1138,1138,1138,1134,1134,1134,1134,1130,1130,0,0,0,0,0,0,0,0,0,0,0,0,0,0,0,0,0,0,0,0,0,0,0,0,0,0,0,0,0
