0,0,0,0,0,0,0,0,0,0,0,0,0,0,1601,1601,1601,1601,1601,1601,1594,1594,1594,1586,1586,1586,1586,1579,1579,1572,1572,1572,1572,1572,1572,1572,1572,1572,1572,1572,1564,1564,1564,1564,1564,1564,1564,1564,1564,1564,1564,1564,1564,1557,1557,1564,1564,1564,1557,1557,1557,1557,1557,1557,1550,1550,1550,1550,1543,1543,1543,1543,1543,1543,1543,1543,1543,1543,1543,1543,1543,1543,1543,1543,1543,1543,1543,1543,1543,1536,1536,1543,1536,1536,1536,1536,1543,1543,1543,1536,1536,1536,1536,1536,1543,1543,1536,1536,1536,1536,1536,1536,1536,1543,1543,1557,1564,1564,1572,1572,1572,2090,2090,2090,2103,2103,2103,2103,2103,2090,2090,2090,2078,2078,2078,2078,2065,2065,2065,2065,1564,1564,1557,1557,1557,1550,1550,1550,1550,1543,1543,1550,1550,1550,1557,1557,1564,1564,1564,1572,1572,1572,1572,1572,1579,1579,1579,1586,1586,1586,1594,1601,1594,1594,1601,1601,1616,1624,1624,1624,1624,1624,1624,1632,1632,1632,1639,1639,1639,1647,1647,1647,1655,1655,1655,1663,1663,1663,1663,1671,1680,1680,1688,1688,1688,1688,1688,1696,1696,1705,1705,1713,1713,1722,1722,1722,1722,1722,1722,1731,1731,1731,1739,1748,1748,1748,1757,1757,1757,1757,1766,1766,1766,1766,1766,1766,1766,1757,1757,1757,1757,1757,1748,1748,1748,1748,1748,1739,1731,1731,1722,1722,1722,1722,1722,0,0,0,0,0,0,0,0,0,1063,1063,1063,1063,1060,1057,1057,1057,1057,1057,1057,1057,1060,1060,1060,1063,1063,1067,1070,1070,1073,0,0,0,1616,1616,1616,1616,1616,1616,1609,1609,1609,1601,1601,1601,1601,1601,1601,1594,1594,1594,1594,1586,1586,1579,1579,1579,1572,1572,1572,1572,1572,1572,1572,1572,1572,1572,1564,1564,1564,1564,1557,1557,1550,1550,1543,1543,1536,1536,1529,1529,1529,1523,1523,1523,1523,1523,1523,1516,1516,1516,1516,1516,1509,1509,1509,1503,1503,1496,1496,1496,1496,1496,1489,1489,1489,1483,1483,1477,1470,1470,1470,1464,1464,1464,1464,1464,1458,1458,1458,1452,1452,1445,1445,1445,1445,1439,1439,1439,1433,1433,1433,1433,0,0,0,0,0,0,0,889,889,889,887,887,885,885,882,880,880,880,878,878,878,875,875,875,878,878,878,880,885,887,887,887,889,889,891,0,0,0,0,0,1359,1354,1354,1349,1349,1349,1343,1343,1343,1338,1338,1338,1333,1333,1333,1328,1328,1328,1328,1322,1322,1322,1317,1317,1312,1312,1312,1307,1302,1297,1297,1297,1297,1292,1292,1292,1292,1288,1288,1288,1288,1288,1283,1283,1283,1278,1278,1273,1273,1273,1268,1268,1268,1268,1268,1264,1264,1259,1259,1255,1255,1255,1255,1250,1250,1250,1250,1250,1241,1236,1236,1236,1236,1236,1236,1232,1232,1232,1232,1232,1227,1227,1227,1223,1223,1219,1219,1214,1214,1214,1214,1210,1210,1206,1206,1206,1202,1202,1202,1202,1202,1202,1197,1197,1197,1197,1189,1189,1189,1185,1185,1185,1185,1185,1185,1185,1181,1181,1181,1173,1173,1173,1169,1169,1169,1169,1165,1165,1165,1165,1161,1161,1161,1157,1157,1157,1153,1153,1153,1149,1149,1149,1149,1149,1149,1149,1149,1145,1145,1141,1141,1138,1138,1138,1134,1134,1134,1134,1134,1130,1126,1123,1123,1119,1119,1119,1119,1119,1119,1115,1115,1115,1112,1112,1108,1108,1108,1105,1105,1105,1105,1101,1101,1101,0,0,0,0,0,0,0,0,0,0,0,0,0,0,0,0,0,0,0,0,0,0,0,0,0,0,0,0
0,0,0,0,0,0,0,0,0,0,0,0,0,0,1601,1601,1601,1601,1601,1601,1594,1594,1594,1586,1586,1586,1586,1579,1572,1572,1572,1572,1572,1572,1572,1572,1572,1572,1572,1572,1564,1564,1572,1564,1564,1564,1564,1564,1564,1564,1564,1564,1564,1564,1564,1564,1564,1564,1564,1557,1557,1564,1564,1557,1557,1557,1557,1550,1550,1550,1550,1550,1550,1550,1543,1543,1550,1550,1543,1543,1550,1550,1550,1550,1550,1543,1543,1543,1543,1543,1543,1543,1536,1536,1543,1543,1543,1543,1543,1536,1536,1536,1536,1536,1536,1543,1536,1536,1536,1536,1536,1536,1536,1543,1543,1557,1564,1564,1564,1572,1572,1572,1572,2090,2103,2103,2103,2103,2103,2090,2090,2090,2078,2078,2078,2078,2065,2065,2065,2065,1557,1557,1557,1557,1557,1550,1550,1550,1550,1550,1550,1550,1550,1550,1557,1557,1564,1564,1564,1572,1572,1572,1572,1579,1579,1579,1586,1586,1586,1594,1594,1601,1594,1594,1601,1601,1616,1616,1624,1624,1624,1632,1632,1632,1632,1632,1639,1639,1639,1647,1647,1647,1655,1655,1655,1663,1663,1663,1663,1671,1680,1680,1688,1688,1688,1688,1688,1696,1696,1705,1705,1713,1713,1722,1722,1722,1722,1722,1722,1731,1731,1731,1739,1748,1748,1748,1757,1757,1757,1757,1766,1766,1766,1766,1766,1766,1766,1757,1757,1757,1757,1757,1748,1748,1748,1739,1739,1739,1731,1731,1731,1731,1722,1722,1722,0,0,0,0,0,0,0,0,1070,1063,1063,1063,1063,1060,1060,1057,1057,1057,1057,1057,1057,1060,1060,1060,1063,1063,1067,1070,1073,1073,0,0,0,1624,1624,1624,1624,1624,1624,1616,1609,1609,1609,1609,1601,1601,1601,1601,1594,1594,1594,1594,1594,1594,1586,1579,1579,1572,1572,1572,1572,1572,1572,1572,1572,1572,1572,1564,1564,1564,1564,1557,1557,1550,1550,1543,1543,1536,1536,1536,1529,1529,1529,1523,1523,1523,1523,1523,1523,1516,1516,1516,1516,1516,1509,1509,1509,1503,1503,1503,1496,1496,1496,1489,1489,1489,1483,1483,1477,1477,1470,1470,1470,1470,1464,1464,1464,1464,1464,1464,1452,1452,1445,1445,1445,1445,1439,1439,1439,1433,1433,1433,1433,0,0,0,0,0,0,0,889,889,889,887,887,885,885,882,880,880,880,878,878,878,875,875,875,878,878,878,882,885,887,887,889,889,889,891,0,0,0,0,0,1359,1354,1354,1354,1349,1349,1343,1343,1343,1338,1338,1338,1333,1333,1333,1328,1328,1328,1328,1322,1322,1322,1317,1317,1312,1312,1312,1307,1302,1297,1297,1297,1297,1292,1292,1292,1292,1292,1292,1292,1288,1288,1283,1283,1283,1278,1278,1273,1273,1273,1268,1268,1268,1268,1268,1264,1264,1259,1259,1259,1259,1255,1255,1255,1250,1250,1250,1250,1245,1236,1236,1236,1236,1236,1236,1232,1232,1236,1232,1232,1227,1227,1227,1223,1223,1219,1219,1214,1214,1214,1214,1210,1210,1210,1210,1206,1206,1202,1202,1202,1202,1202,1197,1197,1197,1197,1193,1193,1189,1189,1185,1185,1185,1185,1185,1185,1181,1181,1181,1177,1173,1173,1173,1173,1169,1169,1165,1165,1165,1165,1165,1161,1161,1161,1157,1157,1153,1153,1153,1153,1149,1149,1149,1149,1149,1149,1149,1145,1145,1141,1138,1138,1138,1138,1134,1134,1134,1134,1134,1130,1126,1123,1123,1123,1123,1119,1119,1119,1119,1119,1115,1115,1112,1112,1108,1108,1108,1105,1105,1105,1101,1101,1101,1101,0,0,0,0,0,0,0,0,0,0,0,0,0,0,0,0,0,0,0,0,0,0,0,0,0,0,0,0
0,0,0,0,0,0,0,0,0,0,0,0,0,0,1601,1601,1601,1601,1601,1601,1594,1594,1594,1594,1586,1586,1586,1579,1572,1572,1572,1572,1572,1572,1572,1572,1572,1572,1572,1572,1572,1572,1572,1572,1572,1572,1572,1572,1564,1564,1564,1564,1564,1564,1564,1564,1564,1564,1564,1564,1564,1564,1564,1557,1557,1557,1557,1550,1550,1550,1550,1550,1550,1550,1550,1550,1550,1550,1543,1543,1550,1550,1550,1543,1543,1543,1543,1543,1543,1543,1543,1543,1543,1543,1543,1543,1543,1543,1543,1536,1536,1536,1536,1536,1536,1536,1536,1536,1536,1536,1536,1536,1536,1543,1543,1557,1564,1564,1564,1564,1564,1564,1572,2065,2065,2090,2103,2103,2103,2103,2090,2090,2090,2078,2078,2078,2065,2065,2065,2065,1564,1557,1557,1557,1557,1550,1550,1550,1550,1550,1550,1550,1550,1557,1557,1557,1564,1564,1564,1572,1572,1572,1579,1579,1586,1586,1586,1586,1594,1594,1601,1601,1601,1601,1601,1609,1616,1616,1624,1624,1624,1632,1632,1632,1632,1632,1639,1639,1639,1647,1647,1647,1655,1655,1655,1663,1663,1671,1671,1671,1680,1680,1688,1688,1688,1688,1688,1696,1696,1705,1705,1713,1713,1722,1722,1722,1722,1722,1722,1731,1731,1731,1739,1748,1748,1748,1757,1757,1766,1766,1766,1766,1766,1766,1766,1766,1766,1766,1766,1757,1757,1757,1748,1748,1748,1739,1739,1739,1731,1731,1731,1731,1731,1731,1731,0,0,0,0,0,0,0,0,1070,1063,1063,1063,1063,1060,1060,1060,1060,1060,1060,1060,1060,1060,1060,1063,1063,1063,1063,1067,1070,1073,0,0,0,1639,1632,1632,1624,1624,1624,1616,1609,1609,1609,1609,1601,1601,1601,1601,1594,1594,1594,1594,1594,1594,1586,1586,1579,1579,1572,1572,1572,1572,1572,1572,1572,1572,1572,1564,1564,1564,1564,1557,1557,1550,1550,1550,1543,1543,1536,1536,1536,1529,1529,1529,1523,1523,1523,1523,1523,1516,1516,1516,1516,1516,1509,1509,1509,1503,1503,1503,1496,1496,1496,1496,1489,1489,1489,1483,1477,1477,1470,1470,1470,1470,1464,1464,1464,1464,1464,1464,1458,1452,1445,1445,1445,1445,1439,1439,1439,1433,1433,1433,1433,0,0,0,0,0,0,0,889,887,887,887,887,885,885,882,882,880,880,880,878,878,878,878,878,878,878,880,882,885,887,887,889,889,891,894,0,0,0,0,1365,1359,1359,1354,1354,1354,1349,1343,1343,1343,1338,1338,1338,1338,1333,1333,1333,1333,1333,1328,1322,1322,1322,1322,1317,1317,1312,1312,1307,1307,1302,1302,1297,1297,1297,1292,1292,1292,1292,1292,1288,1288,1288,1288,1288,1283,1283,1278,1278,1273,1273,1273,1273,1268,1268,1268,1268,1264,1259,1259,1259,1255,1255,1255,1255,1250,1250,1250,1250,1245,1236,1236,1236,1236,1236,1236,1232,1232,1232,1232,1232,1227,1227,1227,1227,1223,1223,1219,1219,1219,1214,1214,1210,1210,1210,1210,1206,1206,1202,1202,1202,1202,1202,1202,1197,1197,1197,1193,1193,1193,1189,1189,1189,1185,1185,1185,1185,1181,1181,1181,1177,1173,1173,1173,1173,1169,1169,1169,1165,1165,1165,1165,1165,1161,1161,1157,1157,1153,1153,1153,1153,1149,1149,1149,1149,1149,1149,1149,1145,1145,1141,1138,1138,1138,1138,1134,1134,1134,1134,1134,1130,1126,1123,1123,1123,1123,1123,1119,1119,1119,1119,1115,1115,1115,1112,1112,1108,1108,1105,1105,1105,1101,1101,1101,1101,0,0,0,0,0,0,0,0,0,0,0,0,0,0,0,0,0,0,0,0,0,0,0,0,0,0,0,0
0,0,0,0,0,0,0,0,0,0,0,0,0,0,1601,1601,1601,1601,1594,1594,1594,1594,1594,1594,1586,1586,1586,1579,1579,1572,1572,1572,1572,1572,1572,1572,1579,1572,1572,1572,1572,1572,1572,1564,1564,1564,1572,1572,1564,1564,1564,1564,1564,1564,1564,1572,1572,1572,1564,1564,1564,1564,1564,1557,1557,1557,1557,1557,1550,1550,1550,1550,1550,1550,1550,1550,1550,1550,1550,1550,1550,1550,1550,1543,1543,1543,1543,1543,1543,1543,1543,1543,1543,1543,1543,1543,1543,1543,1543,1543,1543,1536,1536,1536,1536,1536,1536,1536,1536,1536,1536,1536,1536,1543,1543,1557,1564,1564,1564,1564,1564,1564,2053,2053,2053,2053,2103,2103,2103,2103,2103,2103,2090,2078,2078,2065,2065,2065,2065,2065,1564,1557,1557,1557,1557,1550,1550,1550,1550,1550,1550,1550,1557,1557,1557,1564,1564,1564,1564,1572,1572,1572,1572,1579,1586,1586,1594,1594,1594,1594,1601,1601,1601,1601,1601,1609,1616,1616,1624,1624,1624,1632,1632,1632,1632,1639,1639,1647,1647,1647,1647,1655,1655,1655,1655,1663,1663,1663,1663,1680,1680,1680,1688,1688,1688,1688,1688,1696,1696,1705,1705,1713,1713,1722,1722,1722,1722,1722,1722,1731,1731,1731,1739,1748,1748,1748,1757,1757,1766,1766,1766,1766,1766,1766,1766,1766,1766,1766,1766,1766,1757,1757,1757,1748,1748,1739,1739,1739,1731,1731,1731,1731,1731,1731,1731,0,0,0,0,0,0,0,0,1070,1063,1063,1063,1063,1060,1060,1060,1060,1060,1060,1060,1060,1060,1060,1063,1063,1063,1063,1067,1070,0,0,0,0,1639,1632,1632,1632,1632,1624,1616,1616,1616,1609,1609,1609,1601,1601,1601,1601,1601,1594,1594,1594,1594,1594,1586,1586,1586,1579,1572,1572,1572,1572,1572,1572,1572,1572,1572,1564,1564,1564,1557,1557,1550,1550,1550,1550,1543,1543,1543,1536,1536,1529,1529,1529,1523,1523,1523,1523,1516,1516,1516,1516,1516,1516,1516,1509,1509,1509,1503,1496,1496,1496,1496,1489,1489,1489,1483,1477,1477,1470,1470,1470,1470,1470,1464,1464,1464,1464,1464,1464,1458,1452,1452,1445,1445,1439,1439,1439,1433,1433,1433,1433,0,0,0,0,0,0,0,889,887,887,887,887,885,885,882,882,880,880,880,878,878,878,878,878,878,878,880,882,885,887,887,889,889,891,0,0,0,0,0,1365,1365,1359,1354,1354,1354,1349,1343,1343,1343,1338,1338,1338,1338,1333,1333,1333,1333,1333,1328,1322,1322,1322,1322,1317,1317,1312,1312,1307,1307,1307,1307,1302,1302,1297,1297,1292,1292,1292,1292,1288,1288,1288,1288,1288,1283,1283,1278,1278,1278,1273,1273,1273,1273,1268,1268,1268,1264,1264,1264,1264,1255,1255,1255,1255,1250,1250,1250,1250,1245,1236,1236,1241,1236,1236,1236,1232,1232,1232,1232,1232,1227,1227,1227,1227,1223,1223,1219,1219,1219,1214,1214,1214,1214,1210,1206,1206,1206,1206,1206,1202,1202,1202,1202,1197,1197,1197,1197,1197,1193,1189,1189,1189,1185,1185,1185,1181,1181,1181,1181,1177,1177,1173,1173,1173,1169,1169,1169,1169,1169,1165,1165,1161,1161,1161,1157,1157,1157,1153,1153,1153,1149,1149,1149,1149,1149,1149,1149,1149,1145,1141,1138,1138,1138,1138,1134,1134,1134,1134,1134,1130,1126,1126,1123,1123,1123,1123,1119,1119,1119,1119,1119,1115,1115,1112,1112,1108,1108,1108,1105,1105,1105,1101,1101,1101,0,0,0,0,0,0,0,0,0,0,0,0,0,0,0,0,0,0,0,0,0,0,0,0,0,0,0,0
0,0,0,0,0,0,0,0,0,0,0,0,0,0,1601,1601,1601,1601,1594,1594,1594,1594,1594,1594,1594,1594,1586,1586,1579,1572,1572,1572,1572,1572,1572,1579,1579,1579,1572,1572,1572,1572,1572,1564,1564,1564,1572,1572,1564,1564,1564,1564,1564,1564,1572,1572,1564,1564,1564,1564,1564,1564,1564,1557,1557,1557,1557,1557,1550,1550,1550,1550,1550,1557,1557,1557,1557,1557,1557,1557,1557,1557,1550,1543,1543,1543,1543,1543,1543,1543,1543,1543,1543,1543,1543,1543,1543,1543,1543,1543,1543,1543,1543,1543,1543,1543,1536,1536,1536,1536,1536,1536,1536,1543,1543,1550,1557,1564,1564,1564,1572,1572,2053,2053,2053,2053,2116,2116,2103,2103,2103,2103,2090,2078,2078,2065,2065,2065,2065,2053,1564,1564,1564,1557,1557,1557,1557,1557,1557,1557,1557,1557,1557,1557,1557,1564,1564,1564,1564,1572,1572,1572,1572,1579,1579,1579,1594,1594,1594,1601,1601,1601,1601,1601,1601,1609,1616,1616,1624,1624,1624,1632,1632,1639,1639,1639,1639,1647,1647,1655,1655,1655,1655,1655,1663,1663,1663,1663,1663,1680,1680,1688,1688,1688,1688,1688,1688,1696,1696,1705,1705,1705,1713,1722,1722,1722,1722,1731,1731,1731,1731,1739,1739,1748,1748,1757,1757,1757,1766,1766,1766,1766,1766,1776,1766,1766,1766,1766,1766,1766,1757,1757,1757,1748,1748,1748,1739,1739,1731,1731,1731,1731,1731,1731,1731,0,0,0,0,0,0,0,1073,1070,1067,1063,1063,1063,1060,1060,1060,1060,1060,1060,1060,1060,1063,1063,1063,1063,1067,1067,1067,1070,1070,0,0,0,1655,1632,1632,1632,1632,1624,1616,1616,1616,1609,1609,1609,1609,1609,1609,1601,1601,1601,1594,1594,1594,1594,1586,1586,1586,1579,1572,1572,1572,1572,1572,1572,1572,1572,1572,1564,1564,1564,1564,1557,1557,1557,1550,1550,1543,1543,1543,1536,1536,1529,1529,1529,1523,1523,1523,1523,1516,1516,1516,1516,1516,1516,1516,1516,1509,1509,1503,1496,1496,1496,1489,1489,1489,1489,1483,1477,1477,1470,1470,1470,1470,1470,1470,1464,1464,1464,1464,1464,1458,1452,1452,1445,1445,1445,1439,1439,1439,1433,1433,0,0,0,0,0,0,0,0,889,889,889,887,887,885,885,882,882,880,880,878,878,878,878,878,878,878,878,880,882,885,887,887,889,889,891,0,0,0,0,0,1365,1365,1359,1354,1354,1349,1349,1349,1343,1343,1343,1343,1338,1338,1333,1333,1333,1333,1333,1328,1322,1322,1322,1322,1317,1317,1312,1312,1312,1307,1307,1307,1302,1302,1297,1297,1292,1292,1292,1292,1288,1288,1288,1288,1288,1288,1283,1283,1278,1278,1278,1273,1273,1273,1268,1268,1268,1268,1264,1264,1264,1259,1255,1255,1255,1255,1250,1250,1250,1250,1245,1241,1241,1241,1241,1236,1236,1236,1236,1232,1232,1232,1232,1232,1227,1223,1223,1219,1219,1219,1214,1214,1214,1214,1214,1206,1206,1206,1206,1206,1202,1202,1202,1202,1202,1197,1197,1193,1193,1193,1193,1189,1189,1189,1185,1185,1181,1181,1181,1181,1177,1177,1177,1173,1173,1173,1173,1169,1169,1169,1165,1165,1161,1161,1161,1157,1157,1157,1153,1153,1153,1153,1153,1149,1149,1149,1149,1149,1149,1145,1141,1138,1138,1138,1138,1138,1134,1134,1134,1134,1130,1126,1126,1123,1123,1123,1123,1123,1119,1119,1119,1119,1115,1115,1112,1112,1108,1108,1108,1108,1105,1105,1101,1101,1101,0,0,0,0,0,0,0,0,0,0,0,0,0,0,0,0,0,0,0,0,0,0,0,0,0,0,0,0
0,0,0,0,0,0,0,0,0,0,0,0,0,0,1601,1601,1601,1594,1594,1594,1594,1594,1594,1594,1594,1594,1594,1586,1586,1579,1579,1579,1572,1572,1579,1579,1579,1572,1572,1572,1572,1572,1572,1572,1572,1572,1572,1572,1572,1572,1572,1564,1564,1564,1564,1572,1564,1564,1564,1564,1564,1564,1557,1557,1557,1557,1557,1557,1550,1550,1550,1550,1550,1557,1557,1557,1564,1557,1557,1557,1557,1557,1550,1543,1543,1543,1543,1543,1543,1543,1543,1543,1543,1543,1543,1543,1543,1543,1543,1543,1543,1543,1543,1543,1543,1543,1536,1536,1536,1536,1536,1543,1543,1543,1543,1550,1557,1564,1564,1564,1572,1572,1579,2053,2053,2053,2116,2116,2116,2103,2103,2103,2090,2090,2090,2078,2078,2065,2065,2053,2053,1564,1564,1564,1564,1564,1557,1557,1557,1557,1557,1557,1557,1557,1557,1564,1564,1564,1564,1564,1572,1572,1572,1579,1579,1579,1594,1594,1601,1601,1601,1601,1609,1601,1601,1609,1616,1616,1624,1624,1624,1632,1632,1639,1639,1639,1647,1647,1647,1655,1655,1655,1663,1663,1663,1663,1663,1671,1680,1680,1688,1688,1688,1688,1688,1688,1688,1696,1696,1705,1705,1705,1713,1713,1722,1722,1722,1731,1731,1731,1731,1739,1739,1748,1748,1757,1757,1757,1766,1766,1766,1776,1776,1776,1766,1766,1766,1766,1766,1766,1757,1757,1757,1748,1748,1748,1739,1739,1739,1731,1731,1731,1731,1731,0,0,0,0,0,0,0,1073,1073,1073,1070,1067,1063,1063,1063,1060,1060,1060,1060,1060,1060,1063,1063,1063,1063,1067,1067,1067,1070,1070,1070,0,0,0,1663,1632,1632,1632,1632,1624,1616,1616,1616,1609,1609,1609,1609,1609,1609,1601,1601,1601,1594,1594,1594,1594,1586,1586,1579,1579,1572,1572,1572,1572,1572,1572,1572,1572,1572,1572,1564,1564,1564,1557,1557,1557,1550,1550,1550,1543,1543,1543,1536,1536,1529,1529,1523,1523,1523,1523,1523,1523,1516,1516,1516,1516,1516,1509,1509,1509,1503,1496,1496,1496,1489,1489,1489,1489,1483,1477,1477,1477,1470,1470,1470,1470,1470,1470,1464,1464,1464,1464,1458,1452,1452,1445,1445,1445,1439,1439,1439,1433,1433,0,0,0,0,0,0,0,0,889,889,889,887,887,885,885,882,882,880,880,878,878,878,878,878,878,878,878,880,882,885,887,887,889,889,891,0,0,0,0,1365,1365,1365,1359,1359,1354,1349,1349,1349,1349,1349,1343,1343,1343,1338,1338,1333,1333,1333,1328,1328,1328,1328,1328,1322,1317,1317,1317,1312,1312,1312,1312,1307,1307,1302,1302,1297,1297,1297,1292,1292,1292,1288,1288,1288,1288,1288,1288,1283,1283,1278,1278,1273,1273,1273,1268,1268,1268,1268,1268,1264,1264,1259,1255,1255,1255,1255,1255,1250,1250,1250,1245,1245,1245,1241,1241,1236,1236,1236,1236,1232,1232,1232,1232,1232,1227,1227,1223,1223,1219,1219,1219,1219,1214,1214,1214,1210,1210,1206,1206,1206,1202,1202,1202,1202,1202,1197,1197,1193,1193,1193,1193,1193,1189,1189,1189,1185,1181,1181,1181,1181,1177,1177,1177,1173,1173,1173,1173,1169,1169,1169,1165,1165,1161,1161,1161,1157,1157,1157,1157,1153,1153,1153,1153,1149,1149,1149,1149,1149,1149,1145,1141,1141,1141,1138,1138,1138,1138,1134,1134,1134,1130,1126,1126,1126,1123,1123,1123,1123,1119,1119,1119,1119,1119,1115,1115,1112,1112,1112,1108,1108,1108,1105,1105,1105,1105,0,0,0,0,0,0,0,0,0,0,0,0,0,0,0,0,0,0,0,0,0,0,0,0,0,0,0,0
0,0,0,0,0,0,0,0,0,0,0,0,0,0,1601,1601,1601,1594,1594,1594,1594,1594,1594,1594,1594,1594,1594,1586,1586,1586,1579,1579,1579,1579,1579,1579,1579,1572,1572,1572,1572,1572,1572,1572,1572,1572,1572,1572,1572,1572,1572,1564,1564,1564,1564,1572,1572,1572,1572,1564,1564,1564,1557,1557,1557,1557,1557,1557,1557,1557,1557,1557,1557,1557,1557,1557,1564,1564,1564,1557,1557,1557,1557,1550,1550,1550,1550,1550,1550,1550,1557,1557,1550,1550,1550,1543,1543,1543,1543,1543,1543,1543,1543,1543,1543,1543,1543,1543,1543,1543,1543,1543,1543,1543,1543,1550,1557,1557,1564,1564,1572,1572,1572,1572,2116,2116,2116,2116,2103,2103,2103,2103,2090,2090,2090,2078,2078,2065,2065,2065,2065,1564,1564,1564,1564,1564,1557,1557,1557,1557,1557,1557,1557,1557,1564,1564,1564,1564,1564,1564,1572,1572,1572,1579,1579,1579,1594,1594,1601,1601,1601,1601,1601,1601,1601,1609,1616,1616,1624,1624,1624,1632,1632,1639,1639,1647,1647,1647,1647,1655,1655,1655,1663,1663,1663,1663,1671,1680,1680,1680,1688,1688,1688,1688,1688,1688,1696,1696,1696,1705,1705,1705,1713,1713,1722,1722,1722,1731,1731,1731,1731,1739,1748,1748,1748,1757,1757,1757,1766,1766,1766,1776,1776,1776,1776,1776,1776,1776,1776,1766,1766,1757,1757,1748,1748,1748,1739,1739,1739,1731,1731,1731,1731,1731,0,0,0,0,0,0,1077,1073,1073,1073,1070,1067,1063,1063,1063,1060,1060,1060,1060,1060,1063,1063,1063,1063,1067,1067,1070,1070,1073,1073,1073,0,0,0,1663,1639,1639,1632,1632,1624,1624,1624,1616,1616,1616,1616,1609,1609,1609,1601,1601,1601,1594,1594,1594,1594,1586,1586,1579,1579,1572,1572,1572,1572,1572,1572,1572,1572,1572,1572,1572,1564,1564,1557,1557,1557,1550,1550,1550,1543,1543,1543,1536,1536,1529,1529,1523,1523,1523,1523,1523,1523,1516,1516,1516,1516,1516,1509,1509,1503,1503,1496,1496,1496,1489,1489,1489,1489,1483,1477,1477,1477,1477,1477,1470,1470,1470,1470,1470,1470,1464,1464,1464,1452,1452,1452,1445,1445,1439,1439,1439,1439,1439,0,0,0,0,0,0,0,891,891,889,889,887,887,887,885,882,882,880,880,878,878,878,878,878,878,878,878,880,882,887,889,889,889,891,0,0,0,0,0,1365,1365,1365,1359,1359,1354,1354,1349,1349,1349,1349,1343,1343,1343,1338,1338,1338,1333,1333,1328,1328,1328,1322,1322,1322,1322,1317,1317,1312,1312,1312,1312,1307,1307,1302,1302,1302,1302,1297,1292,1292,1292,1292,1288,1288,1288,1288,1288,1283,1283,1278,1278,1273,1273,1273,1268,1268,1268,1268,1268,1268,1264,1259,1255,1255,1255,1255,1255,1250,1250,1250,1250,1245,1245,1241,1241,1236,1236,1236,1236,1236,1232,1232,1232,1227,1227,1227,1223,1219,1219,1219,1219,1219,1214,1214,1214,1210,1210,1210,1206,1206,1202,1202,1202,1202,1202,1202,1197,1197,1197,1197,1197,1193,1189,1189,1189,1185,1181,1181,1177,1177,1177,1177,1177,1177,1177,1173,1173,1169,1169,1169,1169,1165,1165,1161,1161,1157,1157,1157,1157,1153,1153,1153,1153,1153,1153,1149,1149,1149,1149,1145,1145,1141,1141,1138,1138,1138,1138,1138,1134,1134,1130,1130,1126,1126,1123,1123,1123,1123,1123,1119,1119,1119,1119,1119,1115,1115,1112,1112,1108,1108,1105,1105,1105,1101,1101,0,0,0,0,0,0,0,0,0,0,0,0,0,0,0,0,0,0,0,0,0,0,0,0,0,0,0,0
0,0,0,0,0,0,0,0,0,0,0,0,0,0,1601,1601,1601,1601,1594,1594,1594,1594,1594,1594,1594,1594,1594,1594,1594,1594,1586,1586,1579,1579,1579,1579,1579,1579,1579,1579,1579,1572,1572,1572,1572,1572,1572,1572,1572,1572,1572,1572,1572,1572,1572,1572,1572,1572,1572,1564,1564,1564,1557,1557,1557,1557,1557,1557,1557,1557,1557,1557,1557,1557,1557,1564,1564,1564,1564,1564,1557,1557,1557,1557,1557,1550,1550,1550,1550,1557,1557,1557,1550,1550,1550,1550,1543,1543,1550,1543,1543,1543,1543,1543,1543,1543,1543,1543,1543,1543,1543,1536,1536,1536,1536,1543,1550,1557,1564,1564,1572,1572,1572,1572,2116,2116,2116,2116,2103,2103,2103,2103,2103,2090,2090,2090,2078,2078,2065,2065,2053,2053,1564,1564,1564,1564,1557,1557,1557,1557,1557,1557,1557,1564,1564,1564,1564,1564,1564,1564,1572,1572,1572,1579,1586,1586,1594,1594,1601,1601,1601,1601,1601,1601,1601,1609,1616,1616,1616,1624,1624,1632,1632,1639,1639,1639,1639,1647,1647,1655,1655,1655,1663,1663,1663,1663,1671,1680,1680,1688,1688,1688,1688,1688,1688,1688,1696,1696,1705,1705,1705,1705,1713,1713,1722,1722,1722,1731,1731,1731,1731,1739,1748,1748,1748,1757,1757,1757,1766,1766,1766,1776,1776,1776,1776,1776,1776,1776,1776,1766,1766,1766,1757,1757,1748,1748,1739,1739,1739,1731,1731,1731,1739,0,0,0,0,0,0,0,1073,1073,1073,1070,1070,1067,1063,1063,1063,1060,1060,1060,1060,1063,1063,1063,1063,1067,1067,1070,1070,1070,1073,1073,1073,0,0,0,1655,1639,1639,1632,1632,1624,1624,1624,1624,1624,1624,1616,1609,1609,1609,1601,1601,1601,1601,1594,1594,1594,1586,1586,1586,1579,1579,1579,1579,1572,1572,1572,1579,1572,1572,1572,1572,1564,1564,1557,1557,1557,1550,1550,1550,1543,1543,1543,1543,1536,1536,1529,1529,1523,1523,1523,1523,1523,1516,1516,1516,1516,1516,1509,1509,1503,1496,1496,1496,1496,1489,1489,1489,1489,1483,1483,1483,1477,1477,1477,1477,1470,1470,1470,1470,1470,1464,1464,1464,1452,1452,1452,1445,1445,1439,1439,1439,1439,0,0,0,0,0,0,0,0,891,891,889,889,889,887,887,885,882,882,880,880,878,878,878,878,878,878,878,880,882,885,887,889,889,889,891,0,0,0,0,0,1365,1365,1365,1359,1359,1354,1354,1349,1349,1349,1349,1343,1343,1343,1343,1338,1338,1333,1333,1328,1328,1328,1322,1322,1322,1322,1317,1317,1312,1312,1312,1312,1307,1307,1307,1302,1302,1302,1297,1292,1292,1292,1292,1288,1288,1288,1288,1288,1283,1283,1283,1278,1278,1273,1273,1273,1268,1268,1268,1268,1268,1264,1264,1259,1259,1255,1255,1255,1250,1250,1250,1250,1245,1245,1241,1241,1236,1236,1236,1236,1236,1232,1232,1232,1227,1227,1227,1223,1219,1219,1219,1219,1219,1219,1214,1214,1214,1210,1210,1206,1206,1202,1202,1197,1197,1197,1197,1197,1197,1197,1197,1197,1193,1193,1189,1189,1185,1181,1181,1177,1177,1177,1177,1177,1177,1177,1173,1173,1169,1169,1169,1169,1165,1165,1161,1161,1161,1157,1157,1157,1157,1153,1153,1153,1153,1153,1153,1149,1149,1149,1149,1145,1145,1141,1141,1138,1138,1138,1138,1134,1134,1134,1134,1130,1126,1126,1126,1123,1123,1123,1123,1119,1119,1119,1119,1115,1115,1112,1112,1108,1108,1105,1105,1105,1101,1101,0,0,0,0,0,0,0,0,0,0,0,0,0,0,0,0,0,0,0,0,0,0,0,0,0,0,0,0
0,0,0,0,0,0,0,0,0,0,0,0,0,0,1601,1601,1601,1601,1594,1594,1594,1594,1594,1594,1594,1594,1594,1594,1594,1594,1586,1586,1586,1579,1579,1579,1586,1579,1579,1579,1579,1572,1572,1572,1572,1572,1572,1572,1572,1572,1572,1572,1572,1572,1572,1572,1572,1572,1572,1564,1564,1564,1557,1557,1557,1557,1557,1557,1557,1557,1557,1557,1557,1564,1564,1564,1564,1564,1564,1564,1557,1557,1557,1557,1557,1557,1557,1557,1557,1557,1557,1557,1557,1550,1550,1550,1550,1550,1550,1550,1543,1543,1543,1543,1543,1543,1543,1543,1543,1543,1543,1536,1536,1536,1536,1543,1550,1564,1564,1564,1572,1572,1579,1579,2116,2116,2116,2116,2103,2103,2103,2103,2103,2090,2090,2090,2090,2078,2078,2065,2053,2053,1572,1564,1564,1564,1564,1557,1557,1557,1557,1557,1557,1564,1564,1564,1564,1564,1564,1572,1572,1572,1572,1579,1586,1586,1594,1594,1594,1601,1601,1601,1601,1601,1601,1609,1609,1616,1616,1624,1624,1632,1632,1632,1639,1639,1639,1647,1647,1655,1655,1655,1663,1663,1663,1671,1680,1680,1680,1688,1688,1688,1688,1688,1696,1696,1696,1696,1705,1705,1705,1705,1713,1713,1722,1722,1731,1731,1731,1731,1731,1739,1748,1748,1748,1757,1757,1757,1766,1766,1766,1776,1776,1776,1776,1776,1776,1776,1776,1776,1766,1766,1757,1757,1748,1748,1739,1739,1739,1739,1731,1731,1731,1731,0,0,0,0,0,1077,1073,1073,1073,1070,1070,1067,1063,1063,1063,1060,1060,1060,1060,1063,1063,1063,1063,1067,1070,1070,1073,1073,1073,1073,1073,0,0,0,1647,1639,1639,1632,1632,1624,1624,1632,1624,1624,1624,1616,1616,1609,1609,1601,1601,1601,1601,1601,1594,1594,1586,1586,1586,1579,1579,1579,1579,1572,1572,1572,1579,1572,1572,1572,1572,1572,1564,1564,1557,1557,1557,1550,1550,1543,1543,1543,1543,1543,1536,1529,1529,1523,1523,1523,1523,1523,1516,1516,1516,1516,1516,1509,1509,1509,1496,1496,1496,1496,1489,1489,1489,1489,1483,1483,1483,1483,1477,1477,1470,1470,1470,1470,1470,1470,1470,1464,1458,1458,1452,1452,1445,1445,1439,1439,1445,1445,0,0,0,0,0,0,0,896,891,891,889,889,889,887,887,885,885,882,880,880,878,878,878,878,878,878,878,880,882,885,889,889,889,889,889,0,0,0,0,0,1365,1365,1365,1359,1359,1354,1354,1354,1349,1349,1349,1349,1343,1343,1343,1343,1338,1333,1333,1328,1328,1328,1328,1322,1322,1322,1322,1317,1317,1312,1312,1312,1307,1307,1307,1307,1302,1302,1297,1292,1292,1292,1292,1288,1288,1288,1288,1288,1283,1283,1283,1278,1278,1273,1273,1273,1268,1268,1268,1268,1268,1268,1264,1259,1259,1255,1255,1255,1250,1250,1250,1250,1245,1245,1241,1241,1236,1236,1236,1236,1236,1232,1232,1232,1232,1227,1227,1223,1219,1219,1219,1219,1219,1219,1214,1214,1214,1210,1210,1206,1206,1206,1202,1197,1197,1197,1197,1197,1197,1197,1197,1197,1197,1193,1193,1185,1185,1181,1181,1177,1177,1177,1177,1177,1177,1177,1173,1173,1173,1173,1169,1169,1165,1165,1161,1161,1161,1157,1157,1157,1157,1153,1153,1153,1153,1153,1153,1149,1149,1149,1149,1145,1145,1141,1141,1138,1138,1138,1138,1134,1134,1134,1134,1134,1130,1126,1126,1123,1123,1123,1123,1119,1119,1119,1119,1119,1115,1115,1112,1112,1108,1108,1105,1105,1101,1101,0,0,0,0,0,0,0,0,0,0,0,0,0,0,0,0,0,0,0,0,0,0,0,0,0,0,0,0
0,0,0,0,0,0,0,0,0,0,0,0,0,0,1601,1601,1601,1601,1594,1594,1594,1594,1594,1594,1594,1594,1594,1594,1594,1594,1594,1594,1586,1586,1586,1586,1586,1586,1579,1579,1579,1572,1572,1572,1572,1572,1572,1572,1572,1572,1572,1572,1572,1572,1572,1572,1572,1572,1572,1564,1564,1557,1557,1557,1557,1557,1557,1557,1557,1557,1557,1564,1564,1564,1564,1564,1564,1564,1564,1564,1564,1557,1557,1564,1557,1557,1557,1557,1557,1557,1557,1557,1557,1550,1550,1550,1550,1550,1550,1550,1550,1550,1550,1543,1543,1550,1550,1543,1543,1543,1543,1543,1543,1543,1543,1550,1550,1564,1564,1572,1572,1572,1579,1586,2129,2129,2129,2129,2116,2116,2103,2103,2103,2090,2090,2090,2090,2078,2065,2065,2053,2053,2053,1572,1572,1572,1564,1564,1557,1557,1557,1557,1557,1564,1564,1564,1564,1572,1572,1572,1572,1572,1572,1579,1586,1586,1594,1594,1594,1601,1601,1601,1601,1601,1601,1609,1609,1616,1616,1624,1624,1632,1632,1632,1639,1639,1639,1647,1647,1655,1655,1655,1663,1663,1663,1671,1671,1680,1680,1688,1688,1688,1688,1696,1696,1696,1696,1696,1705,1705,1705,1705,1713,1713,1722,1722,1731,1731,1731,1731,1739,1739,1748,1748,1748,1757,1757,1757,1766,1766,1766,1776,1776,1776,1785,1785,1785,1785,1785,1776,1766,1766,1757,1757,1757,1748,1748,1748,1748,1739,1731,1731,1731,1731,0,0,0,0,0,1077,1073,1073,1073,1070,1070,1067,1063,1063,1063,1060,1060,1060,1063,1063,1063,1063,1067,1067,1070,1070,1073,1073,1073,1073,1073,0,0,0,1647,1647,1639,1632,1632,1624,1624,1624,1624,1624,1624,1616,1616,1609,1609,1601,1601,1601,1601,1601,1594,1594,1586,1586,1586,1579,1579,1579,1579,1572,1572,1572,1579,1572,1572,1572,1572,1572,1564,1564,1564,1564,1557,1550,1550,1543,1543,1543,1543,1543,1536,1529,1529,1523,1523,1523,1523,1523,1516,1516,1516,1516,1516,1509,1509,1509,1503,1496,1496,1496,1489,1489,1489,1489,1483,1483,1483,1483,1477,1477,1470,1470,1470,1470,1470,1470,1470,1464,1458,1458,1452,1452,1445,1445,1445,1445,1445,1445,0,0,0,0,0,0,898,896,891,891,889,889,889,887,887,885,885,882,880,880,878,878,878,878,878,878,880,880,885,887,889,889,891,889,889,0,0,0,0,0,1370,1370,1365,1359,1359,1354,1354,1354,1349,1349,1349,1349,1343,1343,1343,1338,1338,1333,1333,1333,1328,1328,1328,1322,1322,1322,1322,1317,1317,1312,1312,1312,1312,1312,1307,1307,1307,1302,1302,1297,1292,1292,1292,1288,1288,1288,1288,1288,1288,1283,1283,1278,1278,1273,1273,1273,1268,1268,1268,1268,1268,1268,1264,1259,1259,1259,1255,1255,1255,1250,1250,1250,1250,1250,1241,1241,1236,1236,1236,1236,1236,1232,1232,1232,1232,1227,1227,1223,1223,1223,1219,1219,1219,1219,1214,1214,1214,1210,1210,1206,1206,1202,1202,1202,1202,1197,1197,1197,1197,1197,1197,1197,1197,1193,1193,1185,1185,1185,1181,1181,1177,1177,1177,1177,1177,1177,1173,1173,1173,1173,1169,1169,1165,1165,1161,1161,1161,1157,1157,1157,1157,1153,1153,1157,1153,1153,1153,1153,1153,1153,1149,1149,1145,1141,1141,1138,1138,1138,1138,1138,1134,1134,1134,1134,1130,1130,1130,1123,1123,1123,1123,1119,1119,1119,1119,1119,1119,1115,1115,1115,1112,1108,1108,1105,1105,1105,0,0,0,0,0,0,0,0,0,0,0,0,0,0,0,0,0,0,0,0,0,0,0,0,0,0,0,0
0,0,0,0,0,0,0,0,0,0,0,0,0,0,1601,1601,1601,1601,1601,1594,1594,1594,1594,1594,1594,1594,1594,1594,1594,1594,1594,1594,1586,1586,1586,1586,1586,1586,1586,1579,1579,1579,1579,1579,1579,1572,1572,1572,1572,1572,1572,1572,1572,1572,1572,1572,1572,1572,1572,1564,1564,1557,1557,1557,1557,1557,1564,1564,1557,1557,1564,1564,1564,1564,1564,1564,1564,1564,1564,1564,1564,1564,1564,1564,1564,1564,1564,1564,1557,1557,1557,1557,1557,1557,1557,1550,1550,1550,1550,1550,1550,1550,1550,1550,1550,1550,1550,1550,1550,1543,1543,1543,1543,1543,1543,1550,1550,1564,1564,1572,1572,1572,1579,1586,2129,2129,2116,2116,2116,2116,2103,2103,2103,2090,2090,2090,2090,2078,2065,2065,2053,2053,2053,1579,1572,1572,1564,1564,1564,1557,1557,1557,1557,1557,1557,1564,1564,1572,1572,1572,1572,1572,1572,1579,1586,1586,1594,1594,1594,1601,1601,1601,1601,1601,1601,1609,1609,1616,1616,1624,1624,1632,1632,1632,1639,1639,1639,1647,1647,1655,1655,1655,1663,1663,1663,1671,1671,1680,1680,1688,1688,1688,1688,1688,1688,1696,1696,1696,1705,1705,1705,1705,1713,1713,1722,1722,1731,1731,1739,1739,1739,1748,1748,1748,1748,1757,1757,1757,1766,1766,1766,1766,1776,1785,1785,1785,1785,1785,1785,1776,1776,1766,1766,1757,1757,1757,1748,1748,1748,1739,1739,1739,1739,1739,0,0,0,0,0,1077,1073,1073,1073,1070,1070,1067,1063,1063,1063,1063,1063,1063,1063,1063,1063,1063,1067,1067,1070,1070,1073,1073,1073,1073,1073,0,0,0,1647,1647,1639,1639,1632,1624,1624,1624,1624,1624,1624,1624,1616,1616,1609,1609,1609,1601,1601,1601,1594,1594,1594,1586,1586,1579,1579,1579,1579,1572,1572,1572,1579,1579,1572,1572,1572,1572,1572,1564,1564,1564,1557,1550,1550,1550,1543,1543,1543,1543,1536,1536,1529,1529,1529,1523,1523,1523,1523,1516,1516,1516,1516,1509,1509,1509,1503,1496,1496,1496,1496,1489,1489,1489,1489,1489,1483,1483,1483,1483,1483,1477,1477,1470,1470,1470,1470,1464,1464,1458,1458,1452,1445,1445,1445,1445,1445,0,0,0,0,0,0,0,898,896,896,891,889,889,889,887,887,887,885,882,880,880,878,878,878,880,880,880,880,882,885,887,889,889,891,889,889,0,0,0,0,1370,1370,1370,1370,1365,1359,1354,1354,1354,1349,1349,1349,1349,1343,1343,1343,1338,1338,1333,1333,1333,1333,1328,1328,1322,1322,1322,1322,1317,1317,1312,1312,1312,1312,1312,1307,1307,1307,1307,1302,1297,1297,1292,1292,1292,1288,1288,1288,1288,1288,1283,1283,1278,1278,1273,1273,1273,1268,1268,1268,1268,1268,1268,1264,1264,1259,1259,1255,1255,1255,1255,1255,1250,1250,1250,1250,1245,1245,1241,1241,1236,1236,1232,1232,1232,1232,1227,1227,1223,1223,1223,1219,1219,1219,1219,1214,1214,1214,1214,1210,1206,1206,1202,1202,1202,1202,1202,1197,1197,1197,1197,1197,1197,1197,1193,1193,1185,1185,1185,1181,1181,1181,1181,1181,1181,1177,1177,1173,1173,1173,1173,1169,1169,1165,1165,1161,1161,1161,1161,1157,1157,1157,1157,1157,1157,1153,1153,1153,1153,1153,1153,1149,1149,1145,1141,1138,1138,1138,1138,1138,1138,1138,1134,1134,1134,1134,1130,1130,1126,1126,1123,1123,1119,1119,1119,1119,1119,1115,1115,1115,1112,1112,1108,1108,1108,1105,1105,0,0,0,0,0,0,0,0,0,0,0,0,0,0,0,0,0,0,0,0,0,0,0,0,0,0,0,0
0,0,0,0,0,0,0,0,0,0,0,0,0,0,1601,1601,1601,1601,1601,1594,1594,1594,1594,1594,1594,1594,1594,1594,1594,1594,1594,1594,1594,1586,1586,1586,1586,1586,1586,1579,1579,1579,1579,1579,1572,1572,1572,1572,1572,1572,1572,1572,1572,1572,1572,1572,1572,1572,1572,1564,1564,1564,1557,1557,1564,1564,1564,1564,1564,1564,1564,1564,1564,1564,1564,1564,1564,1564,1564,1564,1564,1564,1564,1564,1564,1564,1564,1564,1564,1564,1557,1557,1557,1557,1557,1550,1550,1550,1557,1550,1550,1550,1557,1550,1550,1550,1550,1550,1550,1543,1543,1543,1543,1543,1543,1550,1557,1564,1564,1572,1572,1572,1579,1579,2116,2116,2116,2116,2116,2116,2103,2103,2103,2103,2103,2090,2090,2090,2078,2065,2065,2065,2065,1579,1572,1572,1564,1564,1564,1557,1557,1557,1557,1557,1557,1564,1564,1572,1572,1572,1572,1572,1572,1579,1586,1586,1594,1594,1594,1594,1601,1601,1601,1601,1601,1601,1609,1616,1616,1624,1624,1632,1632,1639,1647,1647,1647,1647,1647,1647,1655,1655,1663,1663,1663,1671,1680,1680,1680,1680,1688,1688,1688,1688,1688,1696,1696,1696,1705,1705,1705,1713,1713,1713,1722,1722,1731,1731,1739,1739,1748,1748,1748,1748,1748,1757,1757,1757,1766,1766,1766,1766,1776,1785,1785,1785,1785,1785,1785,1776,1776,1766,1766,1757,1757,1757,1757,1748,1748,1748,1739,1739,1739,1739,0,0,0,0,1080,1077,1073,1073,1073,1070,1070,1067,1063,1063,1063,1063,1063,1063,1063,1063,1063,1063,1067,1070,1070,1073,1073,1073,1073,1073,1073,0,0,0,1647,1639,1639,1639,1632,1624,1624,1624,1624,1632,1624,1624,1616,1616,1609,1609,1609,1609,1601,1601,1594,1594,1594,1586,1586,1586,1579,1579,1579,1579,1579,1579,1572,1572,1572,1572,1572,1572,1572,1572,1564,1564,1557,1550,1550,1550,1550,1543,1543,1543,1543,1536,1529,1529,1529,1529,1523,1523,1523,1523,1516,1516,1516,1509,1509,1509,1503,1503,1496,1496,1496,1496,1489,1489,1489,1489,1489,1489,1483,1483,1483,1483,1477,1477,1477,1470,1470,1464,1464,1458,1458,1452,1445,1445,1445,1445,1452,0,0,0,0,0,0,0,896,896,896,891,891,889,889,887,887,887,885,885,882,880,880,880,880,880,880,880,882,885,887,889,889,891,891,889,889,0,0,0,0,1370,1370,1370,1370,1365,1359,1354,1354,1354,1354,1349,1349,1349,1349,1349,1343,1338,1338,1333,1333,1333,1333,1328,1328,1322,1322,1322,1322,1317,1317,1317,1312,1312,1312,1312,1307,1307,1307,1302,1302,1297,1297,1297,1292,1292,1288,1288,1288,1288,1288,1283,1283,1283,1278,1278,1278,1273,1273,1273,1268,1268,1268,1268,1268,1264,1264,1259,1255,1255,1255,1255,1250,1250,1250,1250,1250,1250,1245,1241,1241,1241,1236,1236,1232,1232,1232,1227,1227,1223,1223,1223,1219,1219,1219,1219,1219,1219,1214,1214,1210,1210,1210,1210,1202,1202,1202,1202,1202,1202,1197,1197,1197,1197,1197,1197,1197,1193,1189,1185,1185,1181,1181,1181,1181,1181,1181,1177,1177,1177,1173,1173,1169,1169,1165,1165,1161,1161,1161,1161,1157,1157,1157,1157,1157,1157,1157,1157,1153,1153,1153,1153,1149,1145,1145,1141,1138,1138,1138,1138,1138,1138,1138,1134,1134,1134,1134,1134,1130,1126,1126,1123,1123,1123,1123,1123,1119,1119,1115,1115,1115,1112,1112,1108,1108,1105,1105,1108,0,0,0,0,0,0,0,0,0,0,0,0,0,0,0,0,0,0,0,0,0,0,0,0,0,0,0,0
0,0,0,0,0,0,0,0,0,0,0,0,0,0,1609,1609,1601,1601,1601,1601,1601,1594,1594,1594,1594,1594,1594,1594,1594,1594,1594,1594,1594,1594,1586,1586,1586,1579,1579,1579,1579,1572,1572,1579,1572,1572,1579,1572,1572,1572,1572,1572,1572,1572,1572,1572,1572,1572,1572,1564,1564,1564,1564,1564,1564,1564,1564,1564,1564,1564,1564,1564,1564,1564,1564,1564,1564,1564,1564,1564,1564,1564,1564,1564,1564,1564,1564,1564,1564,1557,1557,1557,1557,1557,1557,1550,1550,1550,1557,1550,1550,1557,1557,1557,1557,1557,1557,1557,1550,1550,1543,1543,1543,1543,1543,1550,1557,1564,1564,1572,1572,1572,1579,1579,2116,2116,2116,2116,2116,2116,2103,2103,2103,2103,2103,2090,2090,2090,2078,2078,2065,2065,2065,1579,1572,1572,1564,1564,1564,1557,1557,1557,1557,1557,1557,1564,1564,1572,1572,1572,1572,1579,1579,1586,1586,1586,1594,1594,1594,1594,1601,1601,1601,1601,1601,1601,1609,1616,1616,1624,1624,1632,1632,1639,1647,1647,1647,1647,1647,1647,1655,1655,1663,1663,1663,1663,1671,1671,1680,1680,1680,1688,1688,1696,1696,1696,1696,1705,1705,1705,1705,1713,1713,1713,1722,1722,1731,1731,1739,1739,1739,1748,1748,1748,1748,1757,1757,1757,1766,1766,1766,1766,1776,1785,1785,1785,1785,1785,1785,1776,1766,1766,1766,1766,1757,1757,1757,1748,1748,1748,1748,1748,1748,1748,1748,0,0,0,1080,1077,1073,1073,1073,1070,1067,1067,1063,1063,1063,1063,1063,1063,1063,1063,1063,1063,1067,1070,1070,1073,1073,1077,1077,1077,1077,1077,0,1647,1647,1639,1639,1639,1632,1632,1632,1632,1632,1632,1624,1624,1616,1616,1609,1609,1609,1609,1601,1601,1594,1594,1594,1586,1586,1586,1586,1579,1579,1579,1579,1579,1572,1572,1572,1572,1572,1572,1572,1572,1564,1564,1557,1550,1550,1550,1543,1543,1543,1543,1543,1536,1536,1529,1529,1529,1523,1523,1523,1523,1516,1516,1516,1509,1509,1509,1503,1503,1496,1496,1496,1496,1496,1496,1489,1489,1489,1489,1483,1483,1483,1483,1477,1470,1470,1470,1470,1464,1464,1458,1458,1452,1452,1445,1445,1445,0,0,0,0,0,0,0,0,896,894,894,891,891,889,889,887,887,887,887,885,882,880,880,880,880,880,880,880,882,887,889,889,891,891,891,889,889,0,0,0,0,1370,1370,1370,1370,1365,1365,1359,1354,1354,1354,1354,1349,1349,1349,1349,1343,1338,1338,1333,1333,1333,1333,1333,1328,1328,1328,1328,1322,1322,1317,1317,1317,1317,1312,1312,1307,1307,1307,1302,1302,1297,1297,1297,1292,1292,1292,1292,1288,1288,1288,1288,1283,1283,1278,1278,1278,1273,1273,1273,1268,1268,1268,1268,1268,1264,1264,1264,1255,1255,1255,1255,1250,1250,1250,1250,1250,1250,1245,1241,1241,1241,1236,1236,1232,1232,1232,1227,1227,1227,1223,1223,1219,1219,1219,1219,1219,1219,1219,1214,1214,1210,1210,1210,1202,1202,1202,1202,1202,1202,1197,1197,1197,1197,1197,1197,1197,1197,1185,1185,1185,1181,1181,1181,1181,1181,1181,1177,1177,1177,1173,1173,1169,1169,1169,1165,1165,1165,1165,1161,1161,1161,1161,1157,1157,1157,1157,1157,1153,1153,1153,1153,1149,1145,1145,1141,1138,1138,1138,1138,1138,1138,1138,1138,1138,1134,1134,1134,1130,1130,1126,1123,1123,1123,1123,1123,1119,1119,1115,1115,1115,1112,1112,1112,1108,1105,1105,0,0,0,0,0,0,0,0,0,0,0,0,0,0,0,0,0,0,0,0,0,0,0,0,0,0,0,0,0
0,0,0,0,0,0,0,0,0,0,0,0,0,0,1609,1609,1609,1601,1601,1601,1601,1594,1594,1594,1594,1594,1594,1594,1594,1594,1594,1594,1586,1586,1586,1586,1586,1579,1579,1579,1579,1572,1572,1579,1579,1579,1579,1572,1572,1579,1579,1572,1572,1572,1572,1572,1572,1572,1572,1564,1564,1564,1564,1564,1564,1557,1557,1564,1564,1564,1564,1564,1564,1564,1564,1564,1564,1564,1564,1564,1564,1564,1564,1564,1564,1564,1564,1564,1564,1557,1557,1557,1557,1557,1557,1550,1550,1550,1557,1557,1557,1557,1557,1557,1557,1557,1557,1557,1557,1550,1550,1543,1543,1543,1543,1550,1557,1564,1564,1572,1572,1572,1579,1579,2116,2116,2116,2116,2116,2116,2103,2103,2103,2103,2103,2090,2090,2090,2078,2078,2065,2053,2053,1572,1572,1572,1564,1564,1564,1557,1557,1557,1557,1557,1557,1564,1572,1572,1572,1572,1572,1579,1579,1586,1586,1586,1594,1594,1594,1601,1601,1601,1601,1601,1609,1609,1609,1616,1624,1624,1624,1632,1632,1639,1647,1647,1647,1647,1647,1655,1655,1655,1663,1663,1663,1663,1671,1671,1680,1680,1680,1688,1688,1696,1696,1696,1696,1705,1705,1705,1713,1722,1722,1722,1722,1722,1731,1731,1739,1739,1739,1748,1748,1748,1748,1757,1757,1757,1766,1766,1766,1766,1776,1785,1785,1785,1785,1785,1785,1776,1766,1766,1766,1757,1757,1757,1757,1757,1748,1748,1748,1748,1748,1748,1748,0,0,0,1080,1077,1073,1070,1070,1070,1067,1067,1063,1063,1063,1063,1063,1063,1063,1063,1063,1063,1067,1070,1073,1073,1073,1077,1077,1073,1073,1073,0,1647,1647,1647,1647,1639,1632,1632,1632,1632,1632,1632,1632,1624,1616,1616,1609,1609,1609,1609,1601,1601,1594,1594,1594,1594,1586,1586,1586,1586,1586,1579,1579,1579,1579,1572,1572,1572,1572,1572,1572,1572,1564,1564,1557,1550,1550,1550,1543,1543,1543,1543,1543,1536,1536,1536,1529,1529,1529,1523,1523,1523,1516,1516,1516,1509,1509,1509,1503,1503,1496,1496,1496,1496,1496,1496,1496,1489,1489,1489,1489,1483,1483,1483,1477,1470,1470,1470,1470,1464,1464,1464,1458,1458,1452,1445,1445,0,0,0,0,0,0,0,0,0,0,894,894,891,891,889,889,887,887,887,887,885,882,880,880,880,880,880,880,880,885,885,887,889,891,891,894,894,0,0,0,0,1376,1370,1370,1370,1370,1370,1365,1365,1359,1354,1354,1354,1349,1349,1349,1349,1343,1343,1338,1333,1333,1333,1333,1333,1328,1328,1328,1328,1328,1322,1322,1317,1317,1317,1312,1312,1307,1307,1307,1302,1302,1297,1297,1297,1292,1292,1292,1292,1292,1288,1288,1288,1283,1283,1278,1278,1278,1273,1273,1273,1273,1268,1268,1268,1268,1268,1264,1264,1255,1255,1255,1255,1255,1250,1250,1250,1250,1250,1245,1241,1241,1241,1236,1236,1232,1232,1232,1227,1227,1227,1227,1223,1223,1223,1219,1219,1219,1219,1219,1214,1214,1214,1214,1210,1206,1206,1206,1202,1202,1202,1202,1202,1202,1197,1197,1197,1197,1197,1185,1185,1185,1181,1181,1181,1181,1181,1181,1177,1177,1177,1173,1173,1169,1169,1169,1169,1165,1165,1165,1161,1161,1161,1161,1157,1157,1157,1157,1157,1153,1153,1153,1153,1149,1149,1145,1141,1138,1138,1138,1138,1138,1138,1138,1138,1138,1134,1134,1134,1130,1126,1126,1126,1123,1123,1123,1123,1119,1119,1115,1115,1115,1112,1112,1112,1108,1105,1105,1108,0,0,0,0,0,0,0,0,0,0,0,0,0,0,0,0,0,0,0,0,0,0,0,0,0,0,0,0
0,0,0,0,0,0,0,0,0,0,0,0,0,0,1609,1609,1601,1601,1601,1601,1601,1594,1594,1594,1594,1594,1594,1594,1594,1586,1586,1586,1586,1586,1586,1586,1586,1586,1579,1579,1572,1572,1572,1579,1579,1579,1579,1579,1579,1579,1579,1572,1572,1572,1572,1572,1572,1572,1572,1564,1564,1564,1564,1564,1564,1557,1557,1564,1564,1564,1564,1564,1564,1572,1572,1572,1572,1564,1564,1564,1564,1564,1564,1564,1564,1564,1564,1564,1564,1557,1557,1557,1557,1557,1557,1557,1557,1557,1564,1557,1557,1557,1557,1557,1557,1557,1557,1557,1557,1557,1550,1550,1550,1550,1550,1550,1557,1564,1572,1572,1572,1572,1572,1579,2103,2103,2103,2116,2116,2103,2103,2103,2103,2103,2103,2090,2090,2090,2078,2078,2078,2053,2053,1572,1564,1564,1564,1564,1564,1564,1564,1557,1557,1557,1557,1564,1572,1572,1572,1572,1579,1579,1579,1586,1586,1594,1594,1594,1601,1601,1601,1601,1601,1601,1609,1609,1616,1616,1624,1624,1624,1632,1632,1639,1647,1647,1647,1647,1647,1655,1655,1655,1663,1663,1663,1663,1671,1671,1680,1680,1688,1688,1688,1696,1696,1696,1696,1705,1705,1705,1705,1722,1722,1722,1722,1722,1731,1731,1739,1739,1748,1748,1748,1748,1748,1757,1757,1757,1766,1766,1766,1766,1776,1785,1785,1785,1785,1785,1785,1776,1766,1766,1766,1757,1757,1757,1757,1757,1757,1757,1748,1748,1748,1748,1757,0,0,0,0,1077,1073,1070,1070,1070,1067,1067,1063,1063,1063,1063,1063,1063,1063,1063,1063,1063,1067,1070,1073,1073,1073,1077,1077,1073,1073,0,0,1647,1647,1647,1647,1639,1632,1632,1632,1632,1624,1624,1624,1624,1624,1624,1616,1609,1609,1609,1601,1601,1601,1601,1594,1594,1594,1586,1586,1586,1586,1579,1579,1579,1579,1579,1579,1572,1572,1572,1572,1572,1572,1572,1564,1550,1550,1550,1550,1543,1543,1543,1543,1536,1536,1536,1536,1536,1529,1523,1523,1523,1516,1516,1516,1516,1516,1509,1509,1503,1503,1496,1496,1496,1496,1496,1496,1489,1489,1489,1489,1489,1483,1477,1477,1470,1470,1470,1470,1464,1464,1464,1458,1458,1452,1452,0,0,0,0,0,0,0,0,0,0,0,894,894,891,891,889,889,887,887,887,887,885,882,880,880,880,880,880,880,882,882,885,887,889,891,894,894,0,0,0,0,0,1376,1376,1370,1370,1370,1370,1365,1365,1365,1359,1354,1354,1349,1349,1349,1349,1343,1343,1343,1338,1338,1333,1333,1333,1333,1328,1328,1328,1328,1322,1322,1322,1317,1317,1312,1312,1307,1307,1307,1302,1302,1297,1297,1297,1297,1297,1292,1292,1292,1292,1292,1288,1288,1283,1278,1278,1278,1273,1273,1273,1273,1268,1268,1268,1268,1268,1264,1264,1255,1255,1255,1255,1255,1250,1250,1250,1250,1245,1245,1241,1241,1241,1236,1236,1232,1232,1232,1232,1227,1227,1227,1223,1223,1223,1219,1219,1219,1219,1214,1214,1214,1214,1214,1214,1206,1206,1206,1206,1202,1202,1202,1202,1202,1197,1197,1197,1197,1197,1193,1185,1185,1185,1181,1181,1181,1181,1181,1177,1177,1177,1177,1173,1169,1169,1169,1169,1165,1165,1165,1165,1161,1161,1161,1157,1157,1157,1157,1157,1157,1157,1153,1153,1153,1145,1145,1141,1138,1138,1138,1138,1138,1138,1138,1138,1138,1138,1134,1134,1130,1126,1126,1126,1123,1123,1123,1123,1123,1119,1119,1119,1115,1115,1115,1112,1112,1108,1108,1108,0,0,0,0,0,0,0,0,0,0,0,0,0,0,0,0,0,0,0,0,0,0,0,0,0,0,0,0
0,0,0,0,0,0,0,0,0,0,0,0,0,0,1609,1609,1601,1601,1601,1601,1601,1594,1594,1594,1594,1594,1594,1594,1594,1586,1586,1586,1586,1586,1586,1586,1586,1586,1579,1579,1572,1572,1572,1579,1579,1579,1579,1579,1579,1579,1579,1579,1579,1572,1572,1572,1579,1579,1579,1572,1572,1564,1564,1564,1564,1564,1564,1564,1564,1564,1564,1564,1564,1572,1572,1564,1564,1572,1572,1572,1572,1572,1572,1564,1564,1572,1564,1564,1564,1557,1557,1557,1557,1557,1557,1557,1557,1557,1564,1564,1564,1557,1557,1557,1564,1557,1557,1557,1557,1557,1550,1543,1543,1543,1543,1557,1564,1564,1572,1572,1572,1572,1572,1579,2103,2103,2103,2103,2116,2103,2103,2103,2103,2103,2103,2090,2090,2090,2078,2078,2078,2078,2078,1564,1564,1564,1572,1564,1564,1564,1564,1557,1557,1557,1557,1564,1572,1572,1572,1579,1586,1586,1586,1594,1594,1594,1594,1594,1601,1601,1601,1601,1601,1601,1609,1609,1616,1616,1624,1624,1632,1632,1632,1639,1647,1647,1647,1647,1647,1655,1655,1655,1663,1663,1663,1663,1671,1671,1680,1688,1688,1688,1688,1688,1688,1696,1696,1696,1705,1705,1705,1722,1722,1722,1722,1722,1731,1731,1739,1739,1748,1748,1748,1748,1757,1757,1757,1766,1766,1766,1766,1766,1776,1785,1785,1785,1785,1785,1776,1776,1766,1766,1766,1757,1757,1757,1757,1757,1757,1757,1748,1748,1748,1748,0,0,0,0,0,1077,1073,1070,1070,1070,1067,1067,1067,1063,1063,1063,1063,1063,1063,1063,1063,1063,1067,1070,1073,1073,1077,1077,1077,1077,1077,0,1647,1647,1647,1647,1647,1639,1632,1632,1632,1632,1624,1624,1624,1624,1624,1624,1616,1616,1616,1616,1609,1609,1601,1601,1601,1594,1594,1594,1594,1594,1586,1579,1579,1586,1586,1579,1579,1572,1572,1579,1572,1572,1572,1572,1564,1557,1550,1550,1550,1550,1543,1543,1543,1543,1543,1536,1536,1536,1536,1523,1523,1523,1516,1516,1516,1516,1516,1516,1509,1503,1503,1503,1496,1496,1496,1496,1496,1496,1489,1489,1489,1489,1483,1477,1477,1470,1470,1470,1470,1464,1464,1464,1464,1458,1452,1452,1452,0,0,0,0,0,0,0,0,0,0,896,896,894,891,889,889,889,887,887,887,885,885,882,880,880,880,880,880,882,882,887,887,889,891,894,896,0,0,0,0,0,1376,1376,1376,1376,1370,1370,1370,1365,1365,1359,1354,1354,1354,1349,1349,1349,1349,1349,1343,1343,1338,1338,1333,1333,1333,1328,1328,1328,1328,1328,1322,1322,1317,1317,1312,1312,1312,1312,1307,1307,1302,1302,1297,1297,1297,1297,1292,1292,1292,1292,1292,1288,1288,1283,1283,1278,1278,1273,1273,1273,1273,1268,1268,1268,1268,1268,1264,1264,1259,1255,1255,1255,1255,1255,1250,1250,1245,1245,1245,1241,1241,1241,1236,1236,1236,1236,1232,1232,1232,1232,1227,1227,1223,1223,1219,1219,1219,1219,1214,1214,1214,1214,1214,1214,1210,1210,1210,1206,1202,1202,1197,1197,1197,1197,1197,1197,1197,1197,1193,1185,1185,1185,1181,1181,1181,1181,1181,1177,1177,1177,1177,1173,1169,1169,1169,1169,1165,1165,1165,1165,1161,1161,1161,1161,1161,1161,1161,1157,1157,1157,1153,1153,1153,1145,1145,1141,1138,1138,1138,1138,1138,1138,1138,1134,1134,1138,1134,1134,1134,1130,1130,1126,1123,1123,1123,1123,1123,1119,1119,1119,1115,1115,1112,1112,1112,1108,1108,1108,0,0,0,0,0,0,0,0,0,0,0,0,0,0,0,0,0,0,0,0,0,0,0,0,0,0,0,0
0,0,0,0,0,0,0,0,0,0,0,0,0,0,1609,1609,1609,1601,1601,1601,1601,1601,1594,1594,1594,1594,1594,1594,1594,1586,1586,1586,1586,1586,1586,1586,1586,1586,1579,1579,1572,1572,1572,1579,1579,1579,1579,1579,1579,1579,1586,1586,1586,1579,1579,1579,1579,1579,1579,1572,1572,1572,1564,1564,1564,1564,1564,1564,1564,1564,1564,1564,1564,1572,1572,1564,1564,1572,1572,1572,1572,1572,1572,1572,1572,1572,1572,1564,1564,1557,1557,1557,1557,1557,1557,1557,1557,1564,1564,1564,1564,1557,1557,1557,1557,1564,1557,1557,1557,1557,1557,1543,1543,1543,1543,1557,1564,1564,1572,1572,1572,1572,1572,1579,0,2103,2103,2103,2116,2103,2103,2103,2103,2103,2090,2090,2078,2078,2078,1564,1564,1564,1572,1572,1564,1564,1572,1572,1564,1564,1564,1564,1564,1564,1564,1572,1572,1572,1572,1579,1586,1586,1586,1594,1594,1594,1601,1601,1601,1601,1601,1601,1601,1609,1616,1616,1616,1624,1632,1632,1632,1632,1632,1647,1647,1647,1655,1655,1655,1655,1655,1655,1663,1663,1663,1663,1671,1671,1680,1688,1688,1688,1688,1688,1688,1696,1696,1696,1705,1705,1713,1713,1713,1722,1722,1722,1731,1731,1739,1739,1748,1748,1757,1757,1757,1757,1766,1766,1766,1766,1766,1776,1785,1785,1785,1785,1785,1785,1776,1776,1766,1766,1766,1766,1757,1757,1757,1757,1757,1757,1757,1757,1757,1757,0,0,0,0,0,1077,1073,1073,1073,1070,1070,1067,1067,1063,1063,1063,1063,1063,1063,1063,1063,1067,1070,1070,1073,1073,1077,1077,1077,1077,1077,1077,1647,1647,1647,1647,1647,1639,1639,1632,1632,1632,1632,1632,1624,1624,1624,1624,1624,1616,1616,1616,1609,1601,1601,1601,1601,1594,1594,1594,1594,1594,1586,1586,1586,1586,1586,1579,1579,1579,1579,1579,1572,1572,1572,1572,1564,1557,1550,1550,1550,1550,1543,1543,1543,1543,1536,1536,1536,1536,1536,1523,1523,1523,1523,1523,1516,1516,1516,1516,1509,1509,1503,1503,1496,1496,1496,1496,1496,1489,1489,1489,1489,1483,1483,1477,1470,1470,1470,1470,1470,1470,1464,1464,1464,1458,1452,1452,1452,1452,1452,0,0,0,0,0,0,0,898,896,896,894,891,891,889,889,889,887,887,885,885,882,880,880,880,880,880,882,885,887,889,891,891,894,896,0,0,0,0,1387,1376,1376,1376,1370,1370,1370,1370,1370,1365,1359,1354,1354,1354,1349,1349,1349,1349,1349,1349,1343,1338,1338,1338,1333,1333,1328,1328,1328,1328,1328,1322,1322,1317,1317,1312,1312,1312,1312,1307,1307,1307,1302,1302,1302,1297,1297,1297,1292,1292,1292,1292,1288,1288,1288,1283,1278,1278,1273,1273,1273,1273,1268,1268,1268,1268,1268,1264,1264,1264,1259,1255,1255,1255,1250,1250,1250,1245,1245,1245,1245,1241,1241,1236,1236,1236,1236,1232,1232,1232,1232,1227,1227,1223,1223,1219,1219,1219,1219,1219,1219,1214,1214,1214,1214,1210,1210,1210,1206,1206,1202,1197,1197,1197,1197,1197,1197,1197,1193,1189,1189,1185,1185,1185,1185,1181,1181,1181,1181,1177,1177,1177,1173,1169,1169,1169,1169,1165,1165,1165,1165,1165,1165,1165,1165,1153,1153,1161,1161,1161,1157,1153,1153,1149,1149,1145,1141,1138,1138,1138,1138,1138,1138,1138,1134,1134,1138,1134,1134,1134,1130,1130,1126,1123,1123,1123,1123,1123,1119,1119,1119,1115,1115,1112,1112,1112,1112,1108,1108,0,0,0,0,0,0,0,0,0,0,0,0,0,0,0,0,0,0,0,0,0,0,0,0,0,0,0,0
0,0,0,0,0,0,0,0,0,0,0,0,0,0,1609,1609,1609,1601,1601,1601,1601,1601,1594,1594,1594,1594,1594,1594,1594,1586,1586,1586,1594,1594,1586,1586,1586,1586,1579,1579,1579,1572,1572,1579,1579,1579,1586,1579,1579,1586,1586,1586,1586,1579,1579,1579,1579,1579,1579,1572,1572,1572,1572,1572,1564,1564,1564,1564,1564,1564,1564,1572,1572,1572,1572,1572,1572,1572,1572,1572,1572,1572,1572,1572,1572,1572,1572,1564,1564,1564,1564,1564,1564,1557,1557,1557,1564,1564,1564,1564,1564,1557,1557,1557,1557,1564,1564,1564,1557,1557,1557,1550,1550,1557,1557,1564,1564,1572,1572,1572,1572,1572,1572,1579,1579,2103,2103,2103,2103,2103,2103,2090,2090,2090,2078,2078,2065,2065,2078,1564,1564,1564,1572,1572,1572,1572,1572,1572,1564,1564,1564,1564,1564,1564,1564,1572,1572,1572,1579,1579,1586,1586,1586,1594,1594,1594,1601,1601,1601,1609,1609,1609,1609,1609,1616,1624,1624,1624,1632,1632,1632,1632,1632,1639,1647,1647,1655,1655,1655,1655,1655,1663,1663,1663,1663,1663,1671,1680,1680,1688,1688,1688,1688,1688,1688,1696,1696,1696,1705,1705,1713,1713,1713,1722,1722,1722,1731,1731,1739,1739,1748,1748,1757,1757,1757,1757,1766,1766,1766,1766,1776,1785,1785,1785,1794,1785,1785,1785,1776,1776,1766,1766,1766,1766,1766,1766,1757,1757,1757,1757,1757,1757,1757,1757,0,0,0,0,0,1077,1073,1073,1073,1073,1070,1070,1067,1063,1063,1063,1063,1063,1063,1063,1063,1067,1070,1070,1073,1077,1077,1080,1080,1080,1080,1647,1647,1647,1647,1647,1647,1639,1632,1632,1632,1632,1632,1624,1624,1624,1624,1624,1624,1624,1616,1616,1609,1601,1601,1601,1601,1601,1594,1594,1594,1594,1586,1586,1586,1586,1586,1579,1579,1579,1579,1579,1572,1572,1564,1564,1564,1557,1550,1550,1550,1550,1543,1543,1543,1543,1536,1536,1536,1536,1536,1523,1523,1523,1523,1523,1516,1516,1516,1516,1509,1509,1503,1503,1496,1496,1496,1496,1496,1489,1489,1489,1489,1483,1477,1477,1470,1470,1470,1470,1470,1470,1464,1464,1464,1458,1458,1458,1452,1452,1452,0,0,0,0,0,0,0,898,896,896,894,891,891,889,889,889,887,887,885,885,882,880,880,880,880,882,882,882,887,891,894,894,896,0,0,0,0,0,1387,1376,1376,1376,1370,1370,1370,1370,1370,1365,1354,1354,1354,1354,1354,1354,1349,1349,1349,1349,1343,1343,1338,1338,1333,1333,1328,1328,1328,1328,1328,1322,1322,1317,1317,1312,1312,1312,1312,1307,1307,1307,1302,1302,1302,1297,1297,1297,1292,1292,1292,1292,1288,1288,1288,1283,1278,1278,1273,1273,1273,1273,1273,1273,1268,1268,1268,1268,1264,1264,1259,1259,1255,1255,1250,1250,1250,1245,1245,1245,1245,1241,1241,1236,1236,1236,1236,1232,1232,1232,1232,1232,1232,1227,1223,1223,1219,1219,1219,1214,1214,1214,1214,1214,1214,1210,1210,1206,1206,1202,1202,1202,1202,1202,1197,1197,1197,1197,1189,1189,1189,1185,1185,1185,1181,1181,1181,1181,1181,1181,1177,1177,1177,1173,1169,1169,1169,1169,1165,1165,1165,1165,1165,1165,1165,1153,1153,1161,1161,1161,1157,1153,1153,1149,1149,1145,1145,1141,1138,1138,1138,1138,1138,1138,1138,1138,1138,1134,1134,1134,1130,1130,1126,1123,1123,1123,1123,1123,1119,1119,1119,1119,1115,1115,1112,1112,1112,1108,1108,0,0,0,0,0,0,0,0,0,0,0,0,0,0,0,0,0,0,0,0,0,0,0,0,0,0,0,0
0,0,0,0,0,0,0,0,0,0,0,0,0,0,1609,1609,1609,1601,1601,1601,1601,1601,1601,1594,1594,1594,1594,1594,1594,1594,1586,1586,1594,1594,1586,1586,1586,1586,1586,1579,1579,1579,1579,1579,1579,1579,1586,1579,1579,1586,1586,1586,1586,1579,1579,1579,1579,1579,1579,1572,1572,1572,1572,1572,1572,1564,1564,1572,1572,1572,1572,1572,1572,1572,1572,1572,1572,1572,1572,1572,1572,1572,1572,1572,1572,1572,1572,1564,1564,1564,1564,1564,1564,1557,1557,1557,1564,1564,1564,1564,1564,1564,1564,1564,1564,1564,1564,1564,1557,1557,1557,1557,1557,1550,1550,1557,1557,1564,1572,1572,1572,1572,1572,1572,1572,1572,2103,2103,2103,2103,2090,2090,2090,2090,2065,2065,2065,2065,2078,1572,1572,1572,1572,1572,1572,1572,1572,1572,1564,1564,1564,1564,1564,1564,1564,1572,1572,1572,1572,1579,1586,1594,1594,1594,1594,1594,1601,1601,1609,1609,1609,1609,1616,1616,1624,1624,1624,1624,1632,1632,1632,1632,1639,1639,1647,1647,1655,1655,1655,1655,1655,1663,1663,1663,1663,1663,1671,1680,1680,1688,1688,1688,1696,1696,1696,1696,1696,1696,1705,1713,1713,1713,1722,1722,1722,1722,1731,1731,1739,1748,1748,1757,1757,1757,1757,1766,1766,1766,1766,1766,1776,1785,1785,1785,1794,1785,1785,1785,1776,1776,1776,1766,1766,1766,1766,1766,1766,1757,1757,1757,1757,1757,1757,1757,0,0,0,0,0,1077,1073,1073,1073,1073,1070,1070,1070,1067,1063,1063,1063,1063,1067,1067,1067,1070,1070,1073,1073,1077,1077,1080,1080,1080,1080,0,1655,1655,1655,1647,1647,1639,1632,1632,1632,1632,1624,1624,1624,1624,1624,1624,1624,1624,1616,1616,1616,1609,1601,1601,1601,1601,1594,1594,1594,1594,1586,1586,1586,1594,1586,1586,1586,1579,1579,1572,1572,1572,1564,1564,1564,1557,1550,1550,1543,1543,1550,1543,1543,1543,1543,1543,1536,1536,1536,1529,1529,1523,1523,1523,1523,1516,1516,1516,1516,1509,1503,1503,1503,1496,1496,1496,1496,1496,1489,1489,1483,1483,1477,1477,1470,1470,1470,1470,1470,1470,1464,1464,1464,1464,1458,1458,1458,1452,1452,0,0,0,0,0,0,0,896,896,896,894,894,891,889,889,889,887,885,885,882,882,880,880,880,882,882,882,882,887,891,894,896,896,0,0,0,0,0,1387,1387,1376,1376,1376,1370,1370,1370,1370,1365,1354,1354,1354,1354,1354,1354,1354,1349,1349,1349,1343,1343,1338,1338,1333,1333,1333,1328,1328,1328,1328,1322,1322,1317,1317,1312,1312,1312,1312,1307,1307,1307,1302,1302,1302,1302,1302,1297,1292,1292,1292,1292,1288,1288,1288,1283,1278,1278,1273,1273,1273,1273,1273,1273,1268,1268,1268,1268,1264,1264,1264,1259,1255,1255,1250,1250,1250,1245,1245,1245,1245,1241,1241,1236,1236,1236,1236,1236,1236,1232,1232,1232,1232,1227,1223,1219,1219,1219,1219,1214,1214,1214,1214,1214,1214,1210,1210,1206,1206,1202,1202,1202,1202,1202,1197,1197,1197,1193,1189,1189,1189,1185,1185,1185,1181,1181,1181,1181,1181,1181,1177,1177,1177,1173,1169,1169,1169,1169,1169,1165,1165,1165,1165,1165,1165,1161,1161,1161,1157,1157,1157,1153,1153,1149,1149,1145,1145,1141,1138,1138,1138,1138,1138,1138,1134,1134,1134,1134,1134,1134,1130,1130,1126,1126,1123,1123,1123,1123,1123,1119,1119,1119,1119,1115,1115,1115,1112,1112,1112,0,0,0,0,0,0,0,0,0,0,0,0,0,0,0,0,0,0,0,0,0,0,0,0,0,0,0,0
0,0,0,0,0,0,0,0,0,0,0,0,0,0,1609,1609,1609,1601,1601,1601,1601,1601,1601,1601,1594,1594,1594,1594,1594,1594,1586,1586,1594,1594,1586,1586,1586,1586,1586,1586,1586,1579,1579,1579,1579,1579,1586,1579,1579,1586,1586,1586,1586,1586,1579,1579,1579,1579,1586,1572,1572,1586,1572,1572,1572,1564,1564,1572,1572,1572,1572,1572,1572,1572,1572,1572,1572,1572,1572,1572,1572,1572,1572,1572,1572,1572,1572,1572,1572,1564,1564,1564,1564,1564,1564,1564,1564,1564,1564,1564,1564,1564,1564,1564,1564,1564,1564,1564,1564,1557,1557,1557,1557,1550,1550,1557,1557,1564,1572,1572,1572,1572,1572,1572,1572,0,0,2103,2103,2090,2090,2090,2090,2090,2065,2065,2065,2065,1572,1572,1572,1572,1572,1564,1564,1572,1572,1572,1572,1572,1564,1564,1564,1564,1572,1572,1572,1572,1572,1586,1586,1594,1594,1594,1594,1594,1601,1601,1609,1609,1609,1609,1616,1624,1624,1624,1624,1632,1632,1632,1632,1639,1639,1647,1647,1647,1655,1655,1655,1655,1655,1663,1663,1663,1663,1663,1671,1680,1680,1688,1688,1688,1696,1696,1696,1696,1696,1705,1705,1713,1713,1722,1722,1722,1722,1722,1731,1731,1739,1748,1748,1757,1757,1757,1757,1766,1766,1766,1766,1766,1776,1785,1785,1785,1794,1785,1785,1785,1785,1776,1776,1776,1766,1766,1766,1766,1766,1757,1757,1757,1757,1757,1757,1757,0,0,0,0,0,1077,1070,1070,1070,1070,1070,1070,1070,1067,1067,1067,1067,1067,1067,1070,1070,1070,1070,1073,1073,1077,1077,1077,1077,1077,1077,1054,1054,1655,1655,1647,1647,1639,1632,1632,1632,1624,1624,1624,1624,1624,1624,1624,1025,1025,1025,1022,1022,1022,1616,1609,1601,1601,1594,1594,1586,1586,1586,1586,1586,1594,1586,1586,1586,1579,1579,1572,1572,1572,1564,1564,1564,1557,1550,1543,1543,1543,1543,1543,1543,1543,1543,1543,1543,1536,1536,1529,1529,1523,1523,1523,1523,1516,1516,1516,1516,1516,1509,1509,1509,1503,1496,1496,1496,1496,1489,1489,1483,1483,1477,1477,1470,1470,1470,1470,1470,1470,1470,1464,1464,1464,1458,1458,1458,1452,1452,0,0,0,0,0,0,898,896,896,896,896,894,891,889,889,889,887,885,885,882,882,880,880,880,882,882,882,885,887,891,894,896,896,0,0,0,0,0,1387,1387,1376,1376,1376,1370,1370,1370,1370,1365,1359,1354,1354,1354,1354,1354,1354,1349,1349,1349,1349,1343,1338,1338,1333,1333,1333,1333,1328,1328,1328,1328,1322,1317,1317,1317,1317,1312,1312,1312,1307,1307,1307,1302,1302,1302,1302,1297,1297,1292,1292,1292,1288,1288,1288,1283,1278,1278,1273,1273,1273,1273,1273,1273,1268,1268,1268,1268,1268,1264,1264,1259,1255,1255,1255,1255,1250,1250,1250,1245,1245,1245,1241,1236,1236,1236,1236,1236,1236,1232,1232,1232,1232,1227,1223,1219,1219,1219,1219,1214,1214,1214,1214,1214,1214,1210,1210,1206,1202,1202,1202,1202,1202,1197,1197,1197,1197,1193,1189,1189,1189,1185,1185,1185,1185,1185,1181,1181,1181,1181,1177,1177,1177,1173,1169,1169,1169,1169,1169,1165,1165,1165,1165,1165,1165,1165,1161,1161,1157,1157,1157,1153,1153,1149,1149,1145,1145,1141,1138,1138,1138,1138,1138,1138,1134,1134,1134,1134,1134,1134,1130,1130,1126,1126,1126,1123,1123,1123,1123,1119,1119,1119,1119,1119,1115,1115,1115,1112,1112,0,0,0,0,0,0,0,0,0,0,0,0,0,0,0,0,0,0,0,0,0,0,0,0,0,0,0,0
0,0,0,0,0,0,0,0,0,0,0,0,0,0,1601,1601,1609,1601,1601,1601,1601,1601,1601,1601,1594,1594,1594,1594,1594,1594,1594,1594,1594,1594,1586,1586,1586,1594,1594,1586,1586,1579,1579,1579,1579,1579,1586,1586,1586,1586,1586,1586,1586,1586,1579,1579,1579,1579,1579,1579,1579,1579,1579,1579,1572,1572,1572,1572,1572,1572,1572,1572,1572,1572,1572,1572,1572,1572,1572,1572,1572,1572,1572,1572,1572,1572,1572,1572,1572,1564,1564,1564,1564,1564,1564,1564,1564,1564,1564,1564,1564,1564,1564,1564,1564,1564,1564,1564,1564,1557,1557,1557,1557,1557,1557,1557,1557,1564,1572,1572,1572,1579,1579,1579,1579,0,0,1853,0,2090,2090,2090,2090,2090,2065,2065,2065,0,0,1572,1572,1572,1572,1564,1564,1572,1572,1572,1572,1572,1564,1564,1564,1564,1572,1572,1572,1572,1579,1586,1586,1594,1594,1594,1594,1594,1601,1601,1609,1609,1616,1616,1616,1624,1624,1624,1624,1632,1632,1632,1639,1639,1647,1647,1647,1647,1655,1655,1663,1663,1663,1663,1663,1663,1671,1671,1671,1680,1688,1688,1688,1696,1696,1696,1696,1696,1696,1705,1705,1713,1713,1722,1722,1722,1722,1722,1731,1731,1739,1748,1748,1757,1757,1757,1757,1766,1766,1766,1766,1766,1766,1785,1785,1785,1794,1794,1785,1785,1785,1785,1785,1776,1776,1776,1766,1766,1766,1766,1757,1757,1757,1757,1757,1757,0,0,0,0,0,1070,1070,1070,1070,1070,1073,1070,1070,1067,1063,1063,1067,1067,1067,1067,1067,1070,1070,1073,1073,1073,1073,1077,1073,1073,1054,1054,1054,1050,1050,1047,1047,1047,1044,1044,1632,1624,1038,1031,1031,1028,1028,1025,1025,1025,1025,1022,1022,1022,1022,1019,1019,1601,1594,1594,1586,1586,1586,1586,1013,1013,1594,1586,1586,1579,1579,1579,1572,1572,1564,1564,1564,1557,1550,1543,1543,1543,1543,1543,1543,1543,1543,1543,1543,1543,1536,1536,1529,1523,1523,1523,1523,1523,1516,1516,1516,1516,1509,1509,1509,1503,1496,1496,1496,1496,1496,1489,1489,1483,1483,1477,1477,1477,1470,1470,1470,1470,1470,1470,1464,1464,1458,1458,1458,1452,1452,0,0,0,0,0,0,898,896,896,896,896,894,891,889,889,889,887,885,885,882,882,880,880,880,882,882,885,885,887,891,894,896,898,0,0,0,0,0,1387,1381,1376,1376,1376,1370,1370,1370,1370,1365,1359,1354,1354,1354,1354,1354,1354,1354,1354,1349,1349,1343,1343,1338,1338,1333,1333,1333,1333,1328,1328,1328,1322,1322,1322,1317,1317,1312,1312,1312,1312,1307,1307,1302,1302,1302,1302,1297,1297,1297,1292,1292,1288,1288,1288,1283,1278,1278,1273,1273,1273,1273,1273,1273,1273,1273,1268,1268,1268,1268,1264,1264,1255,1255,1255,1255,1250,1250,1250,1245,1245,1245,1241,1241,1241,1236,1236,1236,1236,1232,1232,1232,1232,1227,1227,1223,1219,1219,1219,1214,1214,1214,1214,1214,1214,1210,1210,1206,1202,1202,1202,1202,1202,1197,1197,1197,1197,1193,1189,1189,1189,1185,1185,1185,1185,1185,1181,1181,1181,1181,1177,1177,1177,1169,1169,1169,1169,1169,1169,1165,1165,1165,1165,1165,1165,1165,1165,1161,1157,1157,1157,1153,1153,1149,1149,1149,1145,1145,1141,1141,1138,1138,1138,1138,1134,1134,1134,1134,1134,1134,1130,1130,1126,1126,1123,1123,1123,1123,1123,1123,1119,1119,1119,1119,1115,1115,1115,1112,1112,0,0,0,0,0,0,0,0,0,0,0,0,0,0,0,0,0,0,0,0,0,0,0,0,0,0,0,0
0,0,0,0,0,0,0,0,0,0,0,0,0,0,1601,1601,1609,1601,1601,1601,1601,1601,1601,1601,1601,1601,1594,1594,1594,1594,1594,1594,1594,1594,1594,1586,1586,1594,1594,1594,1586,1586,1586,1586,1586,1586,1586,1586,1586,1586,1586,1586,1586,1586,1579,1579,1579,1579,1579,1579,1579,1579,1579,1579,1572,1572,1572,1572,1572,1572,1572,1572,1572,1572,1572,1572,1572,1572,1572,1572,1572,1572,1572,1572,1572,1572,1572,1572,1572,1572,1572,1572,1572,1564,1564,1564,1564,1564,1564,1564,1564,1564,1564,1564,1564,1564,1564,1557,1557,1557,1557,1557,1557,1557,1557,1564,1564,1564,1572,1572,1579,1579,1579,1579,1601,1863,1863,1853,1853,1853,1853,1853,1853,2065,2065,2065,2065,2065,0,1572,1572,1572,1572,1572,1564,1564,1564,1564,1572,1572,1564,1564,1572,1572,1572,1572,1572,1572,1579,1586,1586,1586,1594,1594,1594,1594,1601,1601,1609,1609,1616,1616,1616,1624,1624,1624,1624,1632,1632,1632,1632,1639,1647,1647,1655,1655,1655,1655,1663,1663,1663,1663,1663,1671,1671,1671,1680,1688,1688,1688,1696,1696,1696,1696,1696,1696,1705,1705,1705,1713,1722,1722,1722,1722,1722,1731,1731,1731,1739,1748,1748,1757,1757,1757,1766,1766,1766,1766,1766,1766,1766,1785,1785,1785,1794,1794,1794,1785,1785,1785,1785,1785,1785,1785,1785,1776,1766,1766,1757,1757,1757,1757,1757,1757,0,0,0,0,0,1070,1070,1070,1070,1073,1073,1070,1070,1067,1063,1063,1067,1067,1067,1067,1067,1070,1070,1070,1073,1073,1073,1073,1057,1057,1057,1050,1050,1050,1050,1047,1047,1047,1044,1041,1041,1038,1034,1031,1031,1028,1028,1025,1025,1025,1025,1022,1022,1022,1022,1019,1019,1016,1016,1016,1016,1013,1013,1013,1013,1010,1007,1007,1007,1007,1004,1004,1004,1004,1001,998,995,992,992,1543,1543,1543,1543,1543,1543,1543,1543,1543,1543,1543,1543,1536,1529,1523,1523,1523,1523,1523,1523,1516,1516,1516,1516,1509,1509,1503,1503,1496,1496,1496,1496,1489,1489,1483,1483,1477,1477,1477,1470,1470,1470,1470,1470,1470,1464,1464,1464,1464,1464,1458,1458,0,0,0,0,0,0,898,898,896,896,896,894,891,889,889,889,887,885,885,885,882,882,880,880,882,885,885,887,889,891,894,896,898,898,0,0,0,0,1387,1381,1381,1376,1376,1376,1370,1370,1370,1365,1359,1359,1354,1354,1354,1354,1354,1354,1354,1349,1349,1343,1343,1338,1338,1333,1333,1333,1333,1328,1328,1328,1322,1322,1322,1317,1317,1312,1312,1312,1312,1307,1307,1302,1302,1302,1302,1297,1297,1297,1297,1292,1288,1288,1288,1283,1283,1278,1278,1273,1273,1273,1273,1273,1273,1273,1268,1268,1268,1268,1264,1264,1255,1255,1255,1255,1250,1250,1250,1245,1245,1245,1241,1241,1241,1236,1236,1236,1236,1236,1232,1232,1232,1227,1227,1223,1219,1219,1219,1214,1214,1214,1214,1214,1214,1210,1210,1210,1202,1202,1202,1202,1202,1197,1197,1197,1197,1197,1197,1197,1189,1185,1185,1185,1185,1185,1181,1181,1181,1181,1177,1177,1177,1169,1169,1169,1169,1169,1169,1165,1165,1165,1165,1165,1165,1165,1165,1161,1161,1157,1157,1153,1153,1149,1149,1149,1149,1145,1141,1141,1141,1138,1138,1138,1134,1134,1134,1134,1134,1134,1130,1130,1126,1126,1123,1123,1123,1123,1123,1123,1119,1119,1119,1119,1115,1115,1115,1112,1112,0,0,0,0,0,0,0,0,0,0,0,0,0,0,0,0,0,0,0,0,0,0,0,0,0,0,0,0
0,0,0,0,0,0,0,0,0,0,0,0,0,0,1609,1609,1609,1609,1601,1601,1609,1609,1601,1601,1601,1601,1594,1594,1594,1594,1594,1594,1594,1594,1594,1594,1594,1594,1594,1594,1594,1594,1594,1594,1586,1586,1594,1586,1586,1586,1586,1586,1586,1586,1586,1586,1579,1579,1579,1579,1579,1579,1579,1579,1572,1572,1572,1572,1572,1572,1579,1579,1579,1579,1579,1572,1572,1572,1572,1572,1572,1572,1572,1572,1572,1572,1572,1572,1572,1572,1572,1572,1572,1572,1572,1572,1564,1564,1564,1564,1564,1564,1564,1564,1564,1564,1564,1557,1557,1557,1557,1557,1557,1557,1564,1564,1564,1572,1572,1579,1579,1579,1594,1601,0,1863,1863,1863,1853,1853,1853,1853,1853,1853,1853,1853,1833,1833,0,0,1813,0,1564,1564,1564,1564,1564,1564,1572,1572,1564,1564,1572,1572,1572,1572,1572,1572,1579,1579,1586,1586,1594,1594,1594,1601,1601,1601,1609,1609,1616,1616,1616,1624,1624,1624,1624,1624,1632,1632,1632,1639,1647,1647,1655,1655,1655,1655,1663,1663,1663,1671,1671,1671,1671,1680,1680,1688,1688,1688,1696,1696,1696,1696,1696,1696,1705,1705,1713,1713,1722,1722,1722,1731,1731,1731,1731,1739,1739,1748,1748,1757,1757,1757,1766,1766,1766,1766,1766,1766,1776,1785,1785,1785,1794,1794,1794,1794,1794,1794,1785,1785,1785,1785,1785,1776,1766,1766,1757,1757,1757,1757,1757,1757,0,0,0,1077,0,1073,1073,1073,1073,1073,1073,1073,1070,1067,1067,1067,1067,1067,1067,1067,1067,1070,1070,1070,1070,1067,1063,1060,1054,1054,1054,1050,1050,1050,1050,1047,1047,1047,1041,1041,1038,1038,1034,1031,1031,1031,1031,1028,1025,1025,1025,1025,1025,1022,1022,1019,1019,1016,1013,1013,1016,1013,1013,1013,1013,1010,1007,1007,1007,1004,1004,1004,1004,1001,998,998,995,992,992,989,989,989,978,978,978,978,978,978,978,978,1543,1536,1529,1523,1523,1523,1523,1523,1523,1523,1516,1516,1516,1509,1509,1503,1503,1496,1496,1496,1496,1489,1489,1483,1483,1477,1477,1477,1470,1470,1470,1470,1470,1470,1470,1464,1464,1470,1464,1464,0,0,0,0,0,0,0,898,898,896,896,896,894,891,889,889,889,887,887,885,885,885,882,882,882,882,885,885,887,889,894,896,896,898,898,0,0,0,0,1376,1376,1376,1376,1376,1376,1370,1370,1365,1365,1359,1359,1354,1354,1354,1354,1354,1354,1354,1349,1349,1349,1343,1343,1338,1333,1333,1333,1333,1328,1328,1328,1322,1322,1322,1322,1317,1317,1312,1312,1312,1307,1307,1302,1302,1302,1302,1297,1297,1297,1297,1292,1288,1288,1288,1283,1283,1283,1278,1278,1273,1273,1273,1273,1273,1273,1273,1268,1268,1268,1264,1264,1259,1259,1255,1255,1255,1250,1250,1250,1250,1245,1241,1241,1241,1236,1236,1236,1236,1236,1236,1232,1232,1232,1227,1227,1223,1223,1219,1219,1219,1219,1214,1214,1214,1214,1210,1210,1202,1202,1202,1202,1202,1197,1197,1197,1197,1197,1197,1197,1189,1185,1185,1185,1185,1185,1185,1181,1181,1181,1181,1177,1177,1177,1169,1169,1169,1169,1169,1165,1165,1165,1165,1165,1165,1165,1165,1165,1161,1157,1157,1153,1153,1149,1149,1149,1149,1145,1141,1141,1141,1138,1138,1138,1134,1134,1134,1134,1134,1134,1134,1130,1130,1126,1126,1123,1123,1123,1123,1123,1119,1119,1119,1119,1115,1115,1115,1112,1112,0,0,0,0,0,0,0,0,0,0,0,0,0,0,0,0,0,0,0,0,0,0,0,0,0,0,0,0
0,0,0,0,0,0,0,0,0,0,0,0,0,0,1609,1609,1609,1609,1609,1609,1609,1609,1601,1601,1601,1601,1601,1601,1594,1594,1594,1594,1594,1594,1594,1594,1594,1601,1594,1594,1594,1594,1594,1594,1586,1586,1594,1586,1586,1594,1586,1586,1586,1586,1579,1579,1579,1579,1579,1579,1579,1579,1579,1579,1579,1579,1579,1579,1579,1579,1579,1579,1579,1579,1579,1579,1572,1572,1572,1572,1572,1572,1572,1572,1572,1572,1572,1572,1572,1572,1572,1572,1572,1572,1572,1572,1564,1564,1564,1564,1564,1564,1564,1572,1572,1564,1564,1557,1557,1557,1557,1557,1557,1557,1564,1564,1564,1572,1572,1579,1579,1586,1594,1594,1873,1873,1863,1863,1853,1853,1853,1853,1853,1853,1853,0,0,0,0,0,0,0,0,1572,1572,1572,1572,1572,1572,1572,1572,1572,1572,1572,1572,1572,1572,1572,1579,1579,1586,1586,1594,1594,1594,1601,1601,1601,1609,1609,1609,1616,1616,1624,1624,1624,1624,1624,1632,1632,1632,1647,1647,1647,1655,1655,1655,1655,1663,1663,1663,1671,1671,1671,1680,1680,1680,1688,1688,1696,1696,1696,1696,1696,1696,1705,1705,1705,1713,1713,1722,1722,1722,1731,1731,1731,1731,1739,1739,1748,1748,1757,1757,1757,1766,1766,1766,1766,1766,1776,1785,1785,1794,1794,1794,1794,1794,1794,1794,1794,1794,1785,1785,1785,1785,1776,1766,1766,1757,1757,1757,1757,1757,0,0,0,0,0,1077,1073,1073,1073,1073,1073,1073,1073,1070,1070,1067,1067,1067,1067,1067,1067,1067,1070,1067,1067,1067,1063,1060,1060,1054,1054,1054,1050,1050,1050,1050,1047,1047,1044,1041,1038,1038,1038,1034,1031,1031,1031,1031,1028,1025,1025,1025,1025,1025,1022,1022,1019,1019,1016,1013,1013,1016,1013,1013,1013,1010,1010,1007,1007,1007,1004,1004,1004,1001,1001,998,995,995,992,989,989,989,989,984,978,978,978,978,978,975,975,970,970,970,970,970,1523,1523,1523,1523,1523,959,959,1516,1516,1516,1509,1503,1496,1496,1496,1496,1489,1489,1489,1483,1483,1477,1477,1470,1470,1470,1470,1470,1470,1470,1470,1470,1470,1464,1464,0,0,0,0,0,0,0,898,898,896,896,896,894,891,889,889,889,887,887,887,885,885,885,882,882,885,885,887,887,891,894,896,898,898,0,0,0,0,0,1376,1376,1376,1376,1376,1376,1370,1370,1365,1365,1365,1359,1359,1359,1354,1354,1354,1354,1354,1349,1349,1349,1343,1343,1343,1333,1333,1333,1333,1333,1328,1328,1328,1328,1328,1322,1317,1317,1312,1312,1312,1307,1307,1302,1302,1302,1302,1297,1297,1297,1297,1292,1288,1288,1288,1283,1283,1283,1283,1278,1273,1273,1273,1273,1273,1273,1273,1268,1268,1268,1268,1264,1259,1259,1255,1255,1255,1255,1255,1250,1250,1245,1245,1241,1241,1236,1236,1236,1236,1236,1236,1232,1232,1232,1227,1227,1223,1223,1219,1219,1219,1219,1214,1214,1214,1214,1210,1210,1206,1206,1202,1202,1202,1197,1197,1197,1197,1197,1197,1197,1189,1185,1185,1185,1185,1185,1185,1181,1181,1181,1181,1177,1177,1177,1173,1169,1169,1169,1169,1169,1165,1165,1165,1165,1165,1165,1165,1161,1161,1161,1157,1153,1153,1153,1149,1149,1149,1145,1145,1145,1141,1141,1138,1138,1138,1138,1138,1134,1134,1134,1134,1130,1130,1126,1126,1123,1123,1123,1123,1123,1119,1119,1119,1119,1115,1115,1115,1112,1112,0,0,0,0,0,0,0,0,0,0,0,0,0,0,0,0,0,0,0,0,0,0,0,0,0,0,0,0
0,0,0,0,0,0,0,0,0,0,0,0,0,0,1609,1609,1609,1609,1609,1609,1609,1609,1609,1601,1601,1601,1601,1601,1594,1594,1594,1594,1594,1594,1594,1594,1594,1594,1594,1594,1594,1594,1594,1594,1586,1586,1594,1586,1586,1594,1586,1586,1586,1586,1579,1579,1579,1579,1579,1579,1579,1579,1579,1579,1579,1579,1579,1579,1579,1579,1579,1579,1586,1579,1579,1579,1579,1579,1572,1572,1572,1572,1572,1572,1572,1572,1572,1572,1572,1572,1572,1572,1572,1572,1572,1572,1564,1564,1564,1564,1564,1564,1564,1572,1572,1564,1564,1564,1564,1557,1557,1557,1557,1557,1564,1564,1564,1572,1572,1579,1579,1586,1594,1594,1873,1873,1863,1863,1853,1853,1853,1853,1853,1853,1853,1833,1833,0,0,0,0,0,1813,1579,1579,1572,1572,1572,1572,1572,1572,1572,1572,1572,1572,1572,1572,1579,1586,1586,1586,1586,1594,1594,1594,1601,1601,1601,1609,1609,1609,1616,1616,1624,1624,1624,1624,1624,1632,1632,1632,1647,1647,1647,1655,1655,1655,1655,1663,1663,1663,1671,1671,1671,1680,1680,1680,1688,1688,1688,1696,1696,1696,1696,1705,1705,1705,1713,1713,1713,1722,1722,1722,1731,1731,1731,1739,1739,1739,1748,1748,1757,1757,1757,1766,1766,1766,1776,1776,1776,1785,1785,1794,1794,1794,1794,1794,1794,1794,1794,1794,1785,1785,1785,1785,1766,1766,1766,1757,1757,1757,1757,1757,1757,0,0,0,1077,1077,1073,1073,1073,1077,1073,1073,1073,1070,1070,1067,1067,1067,1067,1067,1067,1067,1067,1067,1063,1063,1060,1060,1060,1054,1054,1054,1050,1050,1050,1050,1047,1047,1044,1041,1038,1038,1038,1034,1034,1031,1031,1031,1028,1028,1025,1025,1025,1025,1022,1022,1019,1019,1016,1013,1013,1016,1013,1013,1013,1010,1010,1007,1007,1007,1004,1004,1004,1001,1001,998,995,995,992,989,989,989,989,984,981,978,978,978,978,975,975,970,970,970,970,970,967,967,964,964,962,959,959,956,956,954,954,954,951,948,948,948,1489,1489,1489,1483,1483,1477,1477,1477,1477,1470,1470,1470,1470,1470,1470,1470,1470,1464,1464,0,0,0,0,0,0,0,898,898,896,896,896,894,891,889,889,889,887,887,887,887,885,885,885,885,885,887,887,889,891,896,896,898,898,0,0,0,0,0,1381,1376,1376,1376,1376,1376,1370,1370,1365,1365,1359,1359,1359,1359,1359,1354,1354,1354,1354,1349,1349,1349,1343,1343,1343,1338,1338,1338,1338,1333,1333,1328,1328,1328,1328,1322,1317,1317,1317,1312,1312,1307,1307,1307,1302,1302,1302,1302,1297,1297,1297,1292,1292,1288,1288,1288,1288,1283,1283,1283,1278,1278,1273,1273,1273,1273,1273,1273,1268,1268,1268,1264,1264,1259,1259,1255,1255,1255,1255,1250,1250,1250,1245,1241,1241,1236,1236,1236,1236,1236,1236,1232,1232,1232,1227,1227,1223,1223,1219,1219,1219,1219,1214,1214,1214,1214,1210,1210,1206,1202,1202,1202,1202,1197,1197,1197,1197,1197,1193,1193,1189,1189,1185,1185,1185,1185,1185,1181,1181,1181,1181,1177,1177,1177,1173,1169,1169,1169,1169,1169,1165,1165,1165,1165,1165,1165,1161,1161,1161,1161,1157,1153,1153,1153,1149,1149,1149,1149,1145,1145,1141,1141,1138,1138,1138,1138,1138,1134,1134,1134,1134,1130,1130,1126,1126,1123,1123,1123,1123,1123,1119,1119,1119,1119,1115,1115,1115,1112,1112,0,0,0,0,0,0,0,0,0,0,0,0,0,0,0,0,0,0,0,0,0,0,0,0,0,0,0,0
0,0,0,0,0,0,0,0,0,0,0,0,0,0,1616,1616,1616,1609,1609,1609,1609,1609,1609,1601,1601,1609,1601,1601,1601,1594,1594,1594,1594,1594,1594,1594,1594,1594,1594,1594,1594,1594,1594,1594,1594,1594,1594,1586,1586,1594,1586,1586,1586,1586,1579,1579,1579,1579,1579,1579,1586,1579,1579,1579,1579,1579,1579,1579,1586,1586,1586,1586,1586,1579,1579,1579,1579,1579,1579,1572,1572,1572,1572,1572,1572,1564,1564,1572,1572,1572,1572,1572,1572,1572,1572,1572,1564,1564,1564,1564,1564,1564,1564,1572,1572,1564,1564,1564,1564,1557,1557,1557,1557,1557,1564,1564,1564,1572,1572,1579,1579,1594,1594,1594,1863,1863,1863,1853,1853,1853,1853,1853,1843,1843,1843,1833,1833,0,1823,1823,1813,1813,1813,1823,1572,1572,1572,1572,1572,1572,1572,1572,1572,1572,1572,1572,1572,1579,1586,1586,1586,1586,1594,1594,1594,1601,1601,1601,1601,1609,1609,1609,1616,1624,1624,1624,1624,1632,1632,1632,1639,1647,1655,1655,1655,1655,1655,1655,1663,1663,1663,1671,1671,1680,1680,1688,1688,1688,1688,1688,1696,1696,1696,1696,1705,1705,1705,1713,1713,1713,1722,1722,1731,1731,1731,1739,1739,1739,1739,1748,1748,1757,1757,1757,1766,1766,1766,1776,1776,1776,1785,1794,1794,1794,1804,1804,1794,1794,1794,1794,1794,1785,1785,1785,1785,1766,1766,1766,1757,1757,1757,1757,1757,1757,0,0,0,1077,1077,1077,1077,1077,1077,1077,1073,1073,1070,1067,1067,1067,1063,1063,1063,1063,1063,1063,1063,1063,1063,1060,1060,1057,1054,1054,1057,1054,1054,1050,1050,1047,1047,1044,1041,1041,1038,1038,1034,1034,1034,1034,1031,1031,1028,1028,1025,1025,1025,1022,1022,1019,1019,1016,1016,1016,1016,1013,1013,1013,1013,1010,1010,1007,1007,1004,1004,1001,1001,1001,998,995,995,992,989,989,989,989,989,981,981,981,978,978,978,975,970,970,970,970,970,967,967,964,964,962,962,959,956,956,954,954,951,951,948,948,948,948,948,943,943,1477,1477,1477,1477,1477,1470,1470,1470,1470,1470,1470,1470,1470,1470,0,0,0,0,0,0,0,0,901,898,896,896,894,891,891,889,889,889,887,887,887,885,885,885,885,885,885,887,887,889,894,896,898,898,901,0,0,0,0,0,1381,1376,1376,1376,1376,1376,1370,1370,1365,1365,1359,1359,1359,1359,1359,1354,1354,1354,1354,1349,1349,1349,1343,1343,1343,1338,1338,1338,1333,1333,1333,1328,1328,1328,1328,1322,1317,1317,1317,1312,1312,1307,1307,1307,1302,1302,1302,1302,1297,1297,1297,1292,1292,1288,1288,1288,1288,1288,1283,1283,1278,1278,1278,1273,1273,1273,1273,1273,1268,1268,1268,1268,1264,1264,1259,1259,1255,1255,1255,1255,1250,1250,1250,1245,1245,1241,1241,1241,1236,1236,1236,1236,1232,1232,1232,1232,1227,1227,1223,1219,1219,1219,1214,1214,1214,1214,1214,1214,1206,1202,1202,1202,1202,1197,1197,1197,1197,1197,1193,1193,1193,1193,1193,1189,1185,1185,1185,1185,1181,1181,1181,1177,1177,1173,1173,1173,1169,1169,1169,1169,1165,1165,1165,1165,1165,1165,1161,1161,1161,1161,1157,1153,1153,1153,1149,1149,1149,1149,1145,1145,1141,1141,1141,1138,1138,1138,1138,1134,1134,1134,1134,1130,1130,1126,1126,1123,1123,1123,1123,1123,1123,1119,1119,1119,1119,1115,1112,1112,1112,0,0,0,0,0,0,0,0,0,0,0,0,0,0,0,0,0,0,0,0,0,0,0,0,0,0,0,0
0,0,0,0,0,0,0,0,0,0,0,0,0,0,1624,1616,1616,1609,1609,1609,1609,1609,1609,1601,1601,1609,1601,1601,1601,1594,1594,1594,1594,1594,1594,1594,1594,1594,1594,1594,1594,1594,1594,1594,1594,1594,1594,1594,1594,1586,1586,1586,1586,1586,1586,1586,1586,1586,1579,1579,1586,1579,1579,1579,1579,1579,1586,1586,1586,1586,1586,1586,1586,1586,1586,1579,1579,1579,1579,1579,1572,1572,1572,1572,1572,1564,1564,1572,1572,1572,1572,1572,1572,1572,1572,1572,1572,1564,1564,1572,1572,1572,1572,1572,1572,1572,1564,1564,1557,1557,1557,1557,1557,1557,1564,1564,1572,1572,1572,1579,1579,1594,1594,1594,1843,1843,1843,1843,1843,1843,1843,1843,1843,1833,1833,1833,1833,1823,1823,1823,1813,1813,1823,1823,1804,1572,1572,1572,1572,1572,1572,1572,1572,1572,1572,1572,1572,1579,1586,1586,1586,1594,1594,1594,1594,1601,1601,1601,1601,1601,1609,1609,1616,1624,1624,1624,1632,1632,1632,1639,1647,1647,1655,1655,1655,1655,1655,1655,1663,1663,1663,1671,1680,1680,1680,1688,1688,1688,1688,1688,1696,1696,1696,1696,1705,1705,1705,1713,1713,1713,1722,1722,1731,1731,1739,1739,1739,1739,1748,1748,1748,1757,1757,1757,1766,1766,1766,1776,1776,1776,1785,1794,1794,1794,1804,1804,1804,1794,1794,1794,1794,1785,1785,1785,1785,1766,1766,1766,1757,1757,1757,1757,1757,1757,0,0,0,0,1077,1077,1077,1077,1077,1077,1073,1073,1070,1067,1067,1067,1063,1063,1063,1063,1063,1063,1063,1060,1060,1060,1060,1057,1054,1054,1054,1050,1050,1050,1050,1047,1047,1044,1041,1041,1038,1038,1034,1034,1034,1034,1034,1031,1028,1028,1025,1025,1025,1022,1022,1019,1019,1016,1016,1016,1016,1016,1016,1013,1013,1013,1010,1007,1007,1004,1004,1001,1001,1001,998,995,992,992,992,989,989,989,987,984,981,981,978,978,978,973,970,970,970,970,967,967,967,964,964,964,962,959,956,956,954,951,951,948,948,948,948,946,943,943,943,943,1477,1477,1477,1477,1477,1470,1470,1470,1470,1470,1470,1470,1470,0,0,0,0,0,0,0,0,0,898,896,896,894,891,891,889,889,889,887,887,887,885,885,885,885,885,885,887,887,889,896,898,898,901,901,0,0,0,0,1381,1376,1376,1376,1376,1376,1376,1370,1370,1370,1365,1365,1359,1359,1359,1359,1354,1354,1354,1349,1349,1349,1349,1349,1349,1343,1338,1338,1338,1333,1333,1333,1328,1328,1328,1328,1317,1317,1312,1312,1312,1312,1312,1307,1307,1307,1307,1302,1302,1297,1297,1302,1292,1292,1288,1288,1288,1288,1288,1283,1283,1278,1278,1278,1273,1273,1273,1273,1273,1268,1268,1268,1268,1264,1264,1259,1259,1255,1255,1255,1255,1255,1250,1250,1250,1245,1241,1241,1241,1236,1236,1236,1236,1232,1232,1232,1232,1227,1227,1227,1223,1219,1219,1219,1219,1214,1214,1214,1214,1210,1206,1206,1202,1202,1202,1197,1197,1197,1197,1197,1193,1193,1193,1193,1193,1189,1185,1185,1185,1181,1181,1181,1177,1177,1173,1173,1173,1169,1169,1169,1169,1165,1165,1165,1165,1165,1165,1161,1161,1161,1161,1157,1153,1153,1153,1153,1153,1149,1149,1149,1145,1145,1141,1141,1141,1138,1138,1138,1134,1134,1134,1134,1130,1130,1126,1126,1123,1123,1123,1123,1123,1123,1119,1119,1119,1119,1115,1112,1112,0,0,0,0,0,0,0,0,0,0,0,0,0,0,0,0,0,0,0,0,0,0,0,0,0,0,0,0,0
0,0,0,0,0,0,0,0,0,0,0,0,0,0,1624,1616,1616,1609,1609,1609,1609,1609,1609,1609,1609,1609,1609,1601,1601,1594,1594,1594,1594,1594,1594,1594,1594,1594,1601,1601,1594,1594,1594,1594,1594,1594,1594,1594,1594,1586,1586,1586,1586,1586,1586,1586,1586,1586,1579,1579,1586,1579,1579,1579,1579,1586,1586,1586,1586,1586,1586,1586,1586,1586,1586,1586,1586,1579,1579,1579,1579,1579,1579,1572,1572,1564,1564,1572,1572,1572,1572,1572,1572,1572,1572,1572,1572,1572,1572,1572,1572,1572,1572,1572,1572,1564,1564,1564,1557,1557,1557,1564,1557,1557,1564,1564,1572,1572,1572,1579,1579,1594,1594,1594,1601,1843,1843,1843,1843,1843,1843,1843,1843,1833,1833,1833,1833,1823,1823,1813,1813,1804,1804,1804,1804,1586,1579,1579,1579,1579,1572,1572,1572,1572,1572,1572,1572,1579,1586,1586,1586,1594,1594,1594,1594,1601,1601,1601,1601,1601,1609,1609,1616,1616,1624,1624,1632,1632,1639,1639,1647,1647,1655,1655,1655,1655,1655,1655,1663,1663,1663,1671,1671,1680,1680,1688,1688,1688,1688,1688,1696,1696,1705,1705,1705,1705,1713,1713,1713,1713,1722,1722,1731,1731,1739,1748,1748,1748,1748,1748,1748,1757,1757,1757,1766,1766,1766,1776,1776,1785,1794,1794,1794,1804,1804,1804,1804,1804,1794,1794,1794,1794,1785,1785,1785,1776,1766,1766,1757,1757,1757,1757,1757,0,0,0,0,0,1080,1080,1080,1077,1077,1077,1073,1070,1070,1067,1067,1063,1063,1063,1063,1063,1063,1063,1060,1060,1060,1060,1057,1057,1054,1054,1054,1050,1050,1050,1050,1047,1047,1044,1044,1041,1038,1038,1034,1034,1034,1034,1031,1031,1028,1028,1025,1025,1025,1022,1022,1019,1019,1016,1016,1016,1016,1016,1016,1013,1013,1013,1010,1007,1007,1004,1004,1001,1001,1001,998,995,992,992,989,989,989,987,987,984,981,981,978,978,978,973,970,970,970,970,967,967,967,964,964,964,962,959,956,956,954,951,951,948,948,948,948,946,943,943,943,943,938,1477,1477,1477,1477,1470,1470,1470,1470,1470,1470,1470,0,0,0,0,0,0,0,0,0,898,898,896,896,894,891,891,889,889,889,889,887,887,887,885,885,885,885,885,887,889,891,896,898,898,901,0,0,0,0,0,1381,1376,1376,1376,1376,1376,1376,1370,1370,1370,1365,1365,1365,1365,1359,1359,1359,1354,1354,1349,1349,1349,1349,1349,1349,1343,1338,1338,1338,1333,1333,1333,1328,1328,1328,1328,1317,1317,1312,1312,1312,1312,1312,1312,1312,1307,1307,1307,1307,1302,1302,1302,1292,1292,1292,1292,1288,1288,1288,1283,1283,1283,1283,1278,1278,1273,1273,1273,1273,1268,1268,1268,1268,1268,1264,1259,1259,1259,1255,1255,1255,1255,1250,1250,1250,1250,1245,1245,1241,1241,1236,1236,1236,1232,1232,1232,1232,1232,1227,1227,1223,1219,1219,1219,1219,1214,1214,1214,1214,1210,1206,1206,1202,1202,1202,1197,1197,1197,1197,1197,1197,1197,1193,1193,1193,1189,1189,1185,1185,1185,1181,1181,1181,1181,1177,1177,1173,1173,1169,1169,1169,1165,1165,1165,1165,1165,1165,1165,1161,1161,1157,1157,1153,1153,1153,1153,1153,1149,1149,1149,1149,1145,1145,1145,1141,1138,1138,1138,1134,1134,1134,1134,1130,1130,1130,1126,1126,1123,1123,1123,1123,1123,1123,1119,1119,1119,1115,1112,1112,0,0,0,0,0,0,0,0,0,0,0,0,0,0,0,0,0,0,0,0,0,0,0,0,0,0,0,0,0
0,0,0,0,0,0,0,0,0,0,0,0,0,0,1624,1624,1616,1616,1616,1609,1609,1609,1616,1616,1609,1609,1609,1609,1601,1594,1594,1594,1594,1594,1594,1594,1594,1594,1594,1594,1594,1586,1586,1594,1594,1594,1594,1594,1594,1594,1594,1594,1594,1594,1594,1594,1594,1586,1586,1586,1586,1586,1586,1586,1586,1586,1586,1586,1586,1586,1586,1586,1579,1579,1579,1586,1586,1579,1579,1579,1579,1579,1579,1579,1579,1572,1572,1572,1572,1572,1572,1572,1572,1572,1572,1572,1572,1572,1572,1572,1572,1572,1572,1572,1572,1564,1564,1564,1557,1557,1564,1564,1564,1564,1564,1564,1564,1572,1572,1572,1586,1594,1594,1594,1601,1853,1853,1843,1843,1843,1843,1843,1833,1833,1833,1833,1833,1823,1823,1813,1813,1804,1804,1804,1833,1586,1586,1579,1579,1579,1579,1572,1572,1572,1572,1572,1579,1579,1586,1586,1594,1594,1594,1594,1594,1601,1601,1601,1601,1601,1609,1609,1616,1616,1624,1624,1632,1632,1639,1639,1647,1647,1647,1647,1655,1655,1655,1655,1663,1663,1663,1671,1671,1680,1680,1688,1688,1688,1688,1688,1696,1696,1696,1705,1705,1705,1713,1713,1713,1722,1722,1731,1731,1731,1739,1748,1748,1748,1748,1748,1748,1757,1757,1757,1766,1766,1766,1776,1776,1785,1794,1794,1794,1804,1804,1804,1804,1804,1794,1794,1794,1794,1785,1785,1776,1766,1766,1766,1766,1757,1757,1757,1757,0,0,0,0,0,1084,1080,1080,1077,1077,1077,1073,1070,1070,1067,1067,1063,1063,1063,1063,1063,1063,1063,1060,1060,1060,1060,1057,1057,1054,1054,1054,1050,1050,1050,1047,1047,1047,1044,1044,1041,1041,1038,1034,1034,1034,1031,1031,1031,1028,1028,1025,1025,1025,1025,1022,1022,1019,1016,1016,1016,1016,1016,1016,1013,1013,1013,1010,1010,1007,1004,1004,1001,1001,1001,998,995,992,992,989,989,989,987,987,984,984,981,978,978,978,973,970,970,970,970,967,967,967,964,964,964,962,959,956,956,954,951,951,951,951,948,948,946,943,943,940,938,938,938,1477,1477,1477,1470,1470,1464,1464,1470,1470,1470,0,0,0,0,0,0,0,0,0,898,898,896,896,894,891,891,889,889,889,889,887,887,887,885,885,885,887,887,889,891,894,896,898,898,901,0,0,0,0,0,1381,1381,1381,1376,1376,1376,1376,1370,1370,1370,1370,1370,1365,1365,1359,1359,1359,1354,1354,1354,1349,1349,1349,1349,1349,1343,1343,1338,1338,1333,1333,1333,1328,1328,1328,1328,1317,1317,1317,1317,1317,1312,1312,1312,1312,1307,1307,1307,1307,1302,1302,1302,1292,1292,1288,1288,1288,1288,1288,1283,1283,1283,1283,1278,1278,1273,1273,1273,1273,1268,1268,1268,1268,1264,1264,1264,1259,1259,1255,1255,1255,1255,1250,1250,1250,1250,1245,1245,1241,1241,1241,1236,1236,1232,1232,1232,1232,1232,1227,1227,1223,1219,1219,1219,1219,1214,1214,1214,1214,1210,1210,1210,1206,1206,1202,1202,1202,1197,1197,1197,1197,1197,1197,1197,1193,1189,1189,1185,1185,1185,1185,1181,1181,1181,1177,1177,1173,1173,1173,1169,1169,1169,1169,1165,1165,1165,1165,1165,1161,1161,1157,1157,1157,1153,1153,1153,1153,1149,1149,1149,1149,1145,1145,1145,1141,1141,1138,1138,1138,1138,1134,1134,1130,1130,1130,1130,1126,1123,1123,1123,1123,1123,1123,1119,1119,1119,1115,1115,1115,0,0,0,0,0,0,0,0,0,0,0,0,0,0,0,0,0,0,0,0,0,0,0,0,0,0,0,0,0
0,0,0,0,0,0,0,0,0,0,0,0,0,0,1624,1624,1616,1616,1616,1609,1609,1609,1616,1616,1609,1609,1616,1609,1601,1601,1594,1594,1594,1601,1594,1594,1594,1594,1594,1594,1594,1586,1586,1594,1594,1594,1594,1594,1594,1594,1594,1594,1594,1594,1594,1594,1594,1594,1586,1586,1586,1586,1586,1586,1586,1586,1586,1586,1586,1586,1586,1579,1579,1579,1579,1586,1586,1579,1579,1579,1579,1579,1579,1579,1579,1572,1572,1572,1572,1572,1572,1572,1572,1572,1572,1572,1572,1572,1572,1572,1572,1572,1572,1572,1572,1572,1564,1564,1564,1564,1564,1564,1564,1564,1564,1564,1564,1572,1572,1572,1586,1594,1594,1594,1601,1853,1853,1853,1843,1843,1843,1843,1833,1833,1833,1833,1833,1823,1823,1813,1813,1804,1804,1804,1833,1586,1586,1579,1579,1579,1579,1572,1572,1572,1572,1572,1579,1579,1586,1586,1594,1594,1594,1594,1601,1601,1601,1601,1601,1609,1609,1609,1616,1616,1624,1624,1632,1632,1639,1639,1647,1647,1647,1647,1655,1655,1655,1655,1663,1663,1663,1671,1671,1671,1680,1688,1688,1688,1688,1688,1696,1696,1696,1705,1705,1705,1713,1713,1722,1722,1722,1731,1731,1731,1739,1748,1748,1748,1748,1748,1757,1757,1757,1757,1766,1766,1766,1776,1776,1785,1794,1794,1794,1804,1804,1804,1804,1804,1804,1794,1794,1794,1785,1785,1776,1766,1766,1766,1766,1757,1757,1757,1757,0,0,0,0,0,1084,1084,1080,1080,1077,1077,1073,1073,1070,1067,1067,1063,1063,1063,1063,1063,1063,1063,1060,1060,1060,1060,1057,1057,1054,1054,1054,1050,1050,1050,1047,1047,1047,1047,1044,1041,1041,1038,1038,1034,1034,1031,1031,1031,1028,1028,1025,1025,1025,1022,1022,1022,1019,1016,1016,1016,1016,1016,1016,1013,1013,1013,1010,1010,1007,1004,1004,1001,1001,1001,998,998,992,992,989,989,989,989,987,984,984,984,978,978,978,973,973,970,970,970,967,967,967,964,964,964,962,959,956,956,954,954,951,951,951,948,948,946,943,940,938,935,935,933,930,930,1470,1470,1470,1464,1464,1464,923,923,920,918,918,0,0,0,0,0,0,898,898,896,896,894,891,891,889,889,889,887,887,887,885,885,885,887,887,887,889,891,894,896,898,898,901,901,0,0,0,0,1381,1381,1381,1381,1376,1376,1376,1376,1370,1370,1370,1370,1365,1365,1365,1359,1359,1354,1354,1354,1349,1349,1349,1349,1349,1343,1343,1343,1338,1338,1333,1333,1328,1328,1328,1322,1322,1317,1317,1317,1317,1317,1312,1312,1312,1312,1307,1307,1307,1302,1302,1302,1292,1292,1288,1288,1288,1288,1288,1283,1283,1283,1283,1278,1278,1278,1273,1273,1273,1268,1268,1268,1268,1264,1264,1264,1259,1259,1259,1255,1255,1255,1250,1250,1250,1250,1245,1245,1245,1241,1241,1236,1236,1232,1232,1232,1232,1232,1227,1227,1223,1219,1219,1219,1219,1219,1214,1214,1214,1210,1210,1210,1206,1206,1202,1202,1202,1197,1197,1197,1197,1197,1197,1197,1193,1189,1189,1185,1185,1185,1185,1181,1181,1181,1177,1177,1177,1173,1173,1173,1169,1169,1169,1169,1169,1165,1165,1165,1161,1161,1161,1161,1157,1157,1153,1153,1153,1153,1153,1149,1149,1149,1149,1145,1145,1141,1141,1138,1138,1138,1134,1134,1130,1130,1130,1130,1126,1126,1123,1123,1123,1123,1123,1119,1119,1119,1115,1115,1115,0,0,0,0,0,0,0,0,0,0,0,0,0,0,0,0,0,0,0,0,0,0,0,0,0,0,0,0,0
0,0,0,0,0,0,0,0,0,0,0,0,0,0,1624,1624,1616,1616,1616,1609,1609,1616,1616,1616,1616,1609,1609,1609,1601,1601,1601,1601,1601,1601,1601,1601,1594,1594,1594,1594,1594,1586,1586,1594,1594,1594,1594,1594,1594,1594,1594,1594,1594,1594,1594,1594,1594,1594,1594,1594,1594,1594,1586,1586,1594,1586,1586,1586,1594,1586,1586,1579,1579,1579,1586,1586,1586,1579,1579,1579,1579,1579,1579,1579,1579,1572,1572,1572,1572,1579,1579,1579,1572,1572,1572,1572,1572,1572,1572,1572,1572,1572,1572,1572,1572,1572,1564,1564,1572,1564,1564,1564,1564,1564,1564,1564,1564,1572,1572,1572,1586,1594,1594,1594,1601,1843,1843,1853,1843,1843,1843,1843,1833,1833,1833,1833,1833,1833,1823,1813,1813,1804,1804,1804,1833,1586,1586,1579,1579,1579,1579,1572,1572,1572,1572,1572,1579,1586,1586,1594,1594,1594,1594,1594,1601,1601,1601,1601,1609,1609,1609,1616,1616,1616,1624,1624,1632,1632,1639,1647,1647,1647,1647,1655,1655,1655,1655,1655,1663,1663,1663,1671,1671,1671,1680,1688,1688,1688,1688,1688,1696,1696,1696,1705,1705,1705,1713,1722,1722,1722,1731,1731,1731,1739,1739,1748,1748,1748,1748,1748,1757,1757,1757,1766,1766,1766,1766,1776,1776,1785,1794,1794,1804,1804,1804,1804,1804,1804,1804,1794,1794,1794,1794,1794,1776,1776,1766,1766,1766,1757,1757,1757,0,0,0,0,0,0,1087,1084,1080,1080,1077,1077,1073,1073,1070,1067,1067,1063,1063,1067,1063,1063,1063,1063,1060,1060,1060,1060,1057,1057,1054,1054,1054,1050,1050,1050,1050,1047,1047,1047,1044,1041,1041,1038,1038,1034,1034,1034,1031,1031,1028,1028,1025,1025,1025,1022,1022,1022,1019,1016,1016,1016,1016,1016,1016,1016,1013,1013,1010,1010,1007,1004,1004,1001,1001,1001,998,998,992,992,989,989,989,989,987,987,984,984,978,978,978,973,973,970,970,970,967,967,967,964,964,962,962,959,959,956,954,954,951,951,948,948,948,946,943,940,938,935,935,933,930,930,928,928,928,925,925,925,925,923,920,918,918,0,0,0,0,0,898,898,898,896,896,894,891,891,889,889,889,887,887,887,885,885,887,887,887,889,891,894,896,898,898,898,901,901,0,0,0,0,0,1381,1381,1381,1376,1376,1376,1376,1370,1370,1370,1370,1365,1365,1365,1359,1359,1354,1354,1354,1349,1349,1349,1349,1349,1343,1343,1343,1338,1338,1333,1333,1328,1328,1328,1322,1322,1317,1317,1317,1317,1317,1312,1312,1312,1312,1312,1307,1307,1302,1302,1302,1302,1292,1292,1292,1292,1288,1288,1288,1288,1288,1288,1283,1278,1278,1273,1273,1273,1268,1268,1268,1268,1264,1264,1264,1264,1259,1259,1255,1255,1255,1255,1250,1250,1250,1245,1245,1245,1241,1241,1236,1236,1236,1232,1232,1232,1232,1232,1227,1223,1219,1219,1219,1219,1219,1214,1214,1214,1214,1210,1210,1206,1206,1202,1202,1202,1202,1202,1202,1197,1197,1197,1197,1193,1193,1193,1189,1185,1185,1185,1181,1181,1181,1181,1177,1177,1177,1173,1173,1169,1169,1169,1169,1169,1169,1165,1165,1165,1165,1161,1161,1157,1157,1153,1153,1153,1153,1153,1149,1149,1149,1149,1149,1145,1141,1141,1138,1138,1138,1134,1134,1134,1134,1130,1130,1126,1126,1123,1123,1123,1123,1123,1119,1119,1119,1119,1115,1115,0,0,0,0,0,0,0,0,0,0,0,0,0,0,0,0,0,0,0,0,0,0,0,0,0,0,0,0,0
0,0,0,0,0,0,0,0,0,0,0,0,0,0,1624,1624,1616,1616,1616,1609,1609,1616,1616,1616,1609,1609,1609,1609,1601,1601,1601,1601,1601,1601,1601,1601,1594,1594,1594,1594,1594,1594,1594,1594,1594,1594,1594,1594,1594,1594,1594,1594,1594,1594,1594,1594,1594,1594,1594,1594,1594,1594,1594,1594,1594,1594,1594,1594,1594,1594,1586,1586,1579,1579,1586,1586,1586,1586,1586,1586,1579,1579,1579,1579,1579,1579,1572,1572,1579,1579,1579,1579,1572,1572,1572,1572,1572,1572,1572,1572,1572,1572,1572,1572,1572,1572,1572,1572,1572,1564,1564,1564,1572,1564,1564,1564,1564,1572,1572,1572,1586,1594,1594,1594,1601,1843,1843,1843,1843,1843,1843,1843,1833,1833,1833,1833,1833,1833,1823,1823,1823,1823,1823,1823,1594,1594,1586,1579,1579,1579,1579,1572,1572,1572,1572,1572,1579,1586,1586,1594,1594,1594,1594,1601,1601,1601,1601,1609,1609,1609,1616,1616,1616,1624,1624,1632,1632,1639,1647,1647,1647,1647,1647,1655,1655,1655,1655,1663,1663,1663,1663,1671,1671,1680,1680,1688,1688,1688,1688,1688,1696,1696,1696,1705,1705,1705,1713,1722,1722,1722,1731,1731,1731,1739,1739,1748,1748,1748,1757,1757,1757,1757,1766,1766,1766,1766,1766,1776,1785,1785,1794,1794,1804,1804,1804,1804,1804,1804,1804,1804,1804,1794,1794,1794,1785,1776,1766,1766,1766,1757,1757,1757,0,0,0,0,0,0,1087,1084,1080,1080,1077,1077,1073,1073,1070,1070,1070,1063,1063,1067,1063,1063,1063,1063,1063,1060,1060,1060,1057,1057,1054,1054,1054,1050,1050,1050,1050,1047,1047,1044,1044,1041,1041,1038,1038,1034,1034,1034,1031,1031,1028,1028,1025,1025,1025,1022,1022,1022,1019,1016,1016,1016,1016,1016,1016,1016,1013,1013,1013,1010,1007,1004,1004,1001,1001,1001,998,998,995,992,989,989,989,987,987,984,984,981,981,981,978,975,973,973,970,970,970,967,967,964,964,962,962,959,959,956,954,954,951,951,948,948,948,946,943,943,938,935,935,933,930,930,928,928,928,925,925,925,925,925,920,918,915,915,915,0,0,0,898,898,896,896,896,894,894,891,889,889,889,889,887,887,885,885,887,887,887,889,891,894,898,898,898,901,901,901,0,0,0,0,0,1387,1381,1381,1381,1376,1376,1376,1370,1370,1370,1370,1370,1365,1365,1359,1359,1359,1354,1354,1354,1349,1349,1349,1349,1343,1343,1338,1338,1338,1333,1333,1328,1328,1328,1322,1322,1322,1317,1317,1317,1317,1312,1312,1312,1312,1312,1307,1307,1307,1302,1302,1302,1292,1292,1292,1292,1288,1288,1288,1288,1288,1288,1283,1283,1278,1273,1273,1273,1268,1268,1268,1268,1268,1268,1264,1264,1259,1259,1255,1255,1255,1255,1255,1250,1250,1250,1245,1245,1245,1241,1236,1236,1236,1236,1232,1232,1232,1232,1227,1223,1219,1219,1219,1219,1219,1219,1214,1214,1214,1210,1210,1206,1206,1202,1202,1202,1202,1202,1202,1197,1197,1197,1197,1197,1193,1193,1189,1189,1185,1185,1181,1181,1181,1181,1177,1177,1177,1173,1169,1169,1169,1169,1169,1169,1169,1165,1165,1165,1165,1161,1161,1157,1157,1153,1153,1153,1153,1153,1153,1153,1149,1149,1149,1145,1141,1138,1138,1138,1138,1138,1134,1134,1134,1130,1130,1130,1126,1123,1123,1123,1123,1123,1123,1119,1119,1119,1119,1119,0,0,0,0,0,0,0,0,0,0,0,0,0,0,0,0,0,0,0,0,0,0,0,0,0,0,0,0,0
