0,0,0,0,0,0,0,0,0,0,0,0,0,0,1601,1601,1594,1594,1594,1594,1594,1594,1586,1586,1586,1586,1586,1594,1594,1594,1594,1594,1586,1586,1586,1586,1586,1586,1579,1579,1579,1579,1579,1579,1572,1572,1579,1579,1572,1572,1572,1572,1572,1572,1572,1572,1572,1572,1572,1572,1572,1572,1564,1564,1564,1564,1564,1572,1572,1579,1579,1586,1586,1594,1594,1594,1601,1601,1601,2256,2256,2241,2241,2256,2256,2241,2226,2226,2226,2226,2226,2226,2226,2226,2226,1601,1594,1594,1586,1579,1579,1579,1579,1579,1579,1579,1579,1586,1586,1594,1594,1594,1594,1594,1594,1594,1601,1601,1609,1609,1616,1616,1616,1616,1624,1624,1624,1624,1624,1632,1632,1632,1632,1632,1639,1647,1647,1647,1647,1655,1655,1655,1655,1655,1663,1663,1671,1671,1680,1680,1680,1688,1688,1688,1696,1696,1696,1696,1696,1696,1696,1705,1705,1705,1713,1713,1713,1722,1722,1722,1722,1722,1722,1722,1084,1084,1077,1073,1073,1073,1070,1070,1067,1067,1067,1063,1063,1063,1063,1063,1063,1063,1063,1067,1070,1070,1073,1073,1073,1073,1077,1077,0,1794,1794,1794,1794,1785,1031,1031,1757,1757,1748,1748,1748,1748,1739,1739,1731,1722,1722,1722,1713,1705,1705,1696,1696,1696,1696,1696,1688,989,987,987,987,987,981,978,978,975,975,975,973,973,1639,1639,1639,1632,1632,1632,951,948,946,946,948,946,946,943,943,943,935,933,930,928,928,925,923,923,923,923,915,915,913,913,910,908,906,903,903,901,898,898,896,891,889,882,880,880,878,875,873,873,871,869,867,867,864,864,862,862,862,862,862,867,867,867,869,871,878,878,878,880,880,882,0,0,0,0,0,1433,1433,1439,1445,1445,1445,1445,1439,1439,1433,1427,1427,1421,1421,1421,1421,1421,1421,1415,1415,1410,1410,1404,1404,1398,1392,1392,1392,1387,1387,1387,1381,1381,1376,1376,1376,1376,1370,1370,1370,1365,1365,1359,1359,1359,1354,1354,1354,1349,1349,1343,1343,1338,1338,1333,1333,1333,1333,1328,1328,1322,1322,1322,1317,1317,1312,1312,1312,1312,1307,1307,1307,1307,1307,1302,1297,1297,1292,1292,1288,1288,1288,1283,1283,1278,1278,1273,1273,1273,1268,1268,1268,1264,1259,1259,1255,1255,1255,1255,1250,1250,1250,1250,1250,1245,1245,1241,1236,1236,1236,1232,1232,1232,1227,1227,1227,1223,1223,1219,1219,1219,1214,1214,1214,1210,1210,1206,1202,1202,1202,1202,1197,1197,1193,1193,1189,1189,1189,1185,1185,1185,1181,1181,1181,1177,1177,1173,1169,1169,1169,1169,1165,1165,1165,1161,1157,1157,1157,1153,1153,1153,1149,1149,1149,1149,1145,1145,1141,1138,1138,1138,1134,1134,1134,1134,1130,1130,1126,1126,1123,1123,1119,1119,1119,1115,1115,1115,1112,1112,1108,1108,1108,1105,1105,1101,1101,1097,1097,1094,1094,1094,1094,1090,1090,1090,1087,1084,1084,1080,1080,1080,1080,1080,1077,1077,1077,1073,1073,1070,1067,1067,1063,1063,1063,1060,1060,1060,1060,1057,1057,1057,1054,1054,1050,1047,1047,1044,1044,1044,1041,1041,1041,1041,1038,1038,1038,1038,1034,1031,1031,1028,1028,1025,1025,1025,1025,1025,1025,1025,1022,1022,1019,1019,1016,1016,1016,1013,1013,1010,1010,1007,1007,1004,1004,1004,1001,1001,1001,1001,998,998,995,995,995,992,992,992,989,989,989,0,0,0,0,0,0,0,0,0,0,0,0,0,0,0,0,0,0,0,0,0,0,0,0,0,0,0,0,0,0,0
0,0,0,0,0,0,0,0,0,0,0,0,0,0,1594,1594,1594,1594,1594,1594,1594,1594,1586,1586,1586,1586,1586,1594,1594,1594,1594,1594,1586,1586,1586,1586,1586,1586,1579,1579,1579,1579,1579,1579,1579,1579,1579,1572,1572,1572,1572,1572,1572,1572,1572,1572,1572,1572,1572,1572,1572,1572,1564,1564,1564,1564,1564,1572,1572,1579,1579,1586,1586,1594,1594,1594,1601,1601,1601,2256,2256,2241,2241,2256,2256,2241,2226,2226,2226,2226,2226,2226,2226,2226,1632,1601,1601,1594,1586,1579,1579,1579,1579,1579,1579,1579,1579,1586,1586,1594,1594,1594,1594,1594,1594,1594,1601,1601,1609,1609,1609,1616,1616,1624,1624,1624,1624,1624,1624,1632,1632,1632,1632,1632,1639,1647,1647,1647,1647,1655,1655,1655,1655,1655,1663,1671,1671,1671,1680,1680,1680,1688,1688,1688,1696,1696,1696,1696,1696,1696,1696,1705,1705,1713,1713,1722,1722,1722,1722,1722,1722,1722,1713,1713,1084,1084,1084,1077,1077,1073,1073,1070,1070,1070,1067,1063,1063,1063,1063,1063,1063,1063,1067,1070,1070,1073,1073,1073,1073,1073,1073,1073,1077,0,1794,1794,1785,1766,1757,1757,1757,1757,1748,1748,1748,1748,1739,1739,1731,1731,1722,1722,1713,1713,1705,1696,1696,1696,1696,1696,1696,1688,1688,1688,1680,1680,1663,1663,1655,1655,1655,1647,1639,1639,1639,1639,1639,1632,1632,1632,1624,1624,1624,1616,1616,1616,1609,1601,1601,1594,1594,1586,1586,1586,1579,925,923,923,923,923,915,913,913,913,913,0,903,903,903,901,898,896,896,891,887,882,880,880,878,875,873,873,869,869,867,867,864,864,862,862,862,862,862,867,867,867,871,873,878,878,880,880,880,0,0,0,0,0,0,1433,1433,1439,1445,1445,1445,1439,1439,1439,1433,1427,1427,1421,1421,1421,1421,1421,1421,1415,1415,1410,1410,1404,1404,1398,1398,1392,1392,1392,1387,1387,1381,1381,1376,1376,1376,1376,1370,1370,1370,1365,1365,1365,1359,1359,1354,1354,1354,1349,1349,1343,1343,1338,1338,1338,1333,1333,1333,1333,1328,1328,1322,1322,1322,1317,1312,1312,1312,1312,1312,1312,1307,1307,1307,1302,1297,1297,1292,1292,1288,1288,1288,1283,1283,1278,1278,1278,1273,1273,1268,1268,1268,1264,1259,1259,1259,1255,1255,1255,1255,1255,1250,1250,1250,1245,1245,1241,1236,1236,1236,1232,1232,1232,1227,1227,1227,1227,1223,1219,1219,1219,1214,1214,1214,1214,1210,1206,1206,1202,1202,1202,1202,1197,1197,1193,1193,1189,1189,1185,1185,1185,1185,1181,1181,1181,1177,1173,1173,1169,1169,1169,1169,1165,1165,1161,1161,1157,1157,1157,1153,1153,1149,1149,1149,1149,1145,1145,1141,1141,1138,1138,1134,1134,1134,1134,1130,1130,1126,1126,1123,1123,1123,1119,1119,1119,1115,1115,1112,1112,1108,1108,1108,1105,1105,1105,1101,1101,1097,1097,1094,1094,1094,1090,1090,1090,1090,1087,1084,1084,1080,1080,1080,1080,1077,1077,1077,1073,1073,1073,1070,1067,1067,1063,1063,1060,1060,1060,1060,1057,1057,1057,1054,1054,1054,1050,1047,1047,1047,1044,1044,1044,1041,1041,1041,1041,1038,1038,1038,1034,1031,1028,1028,1025,1025,1025,1025,1025,1025,1025,1022,1022,1022,1019,1016,1016,1016,1016,1013,1010,1010,1010,1007,1004,1004,1004,1001,1001,1001,1001,998,998,998,995,995,992,992,992,989,989,989,0,0,0,0,0,0,0,0,0,0,0,0,0,0,0,0,0,0,0,0,0,0,0,0,0,0,0,0,0,0,0
0,0,0,0,0,0,0,0,0,0,0,0,0,0,1594,1594,1594,1594,1594,1594,1594,1594,1594,1594,1594,1594,1594,1594,1594,1594,1594,1594,1594,1586,1586,1586,1586,1586,1579,1579,1572,1572,1572,1579,1579,1579,1579,1572,1572,1572,1572,1572,1572,1572,1572,1572,1572,1572,1572,1572,1572,1572,1572,1564,1564,1572,1572,1572,1572,1579,1579,1586,1586,1594,1594,1594,1601,1601,1601,2256,2256,2241,2241,2256,2256,2241,2226,2226,2226,2226,2226,2226,2226,2226,1632,1609,1601,1594,1586,1579,1579,1579,1579,1579,1579,1579,1579,1586,1586,1594,1594,1594,1594,1594,1594,1594,1601,1601,1601,1609,1609,1616,1616,1624,1624,1624,1624,1624,1632,1632,1632,1632,1632,1632,1639,1647,1647,1655,1655,1655,1655,1655,1663,1663,1663,1671,1671,1680,1688,1688,1688,1688,1688,1688,1696,1696,1696,1696,1705,1705,1705,1705,1713,1713,1713,1722,1722,1722,1722,1722,1722,1722,1713,1705,1084,1084,1084,1077,1077,1073,1073,1070,1070,1070,1067,1063,1063,1063,1063,1063,1063,1063,1067,1070,1070,1073,1073,1073,1077,1073,1073,1077,1077,1073,1794,1794,1766,1766,1757,1757,1757,1757,1748,1748,1748,1748,1739,1739,1731,1731,1722,1722,1713,1713,1705,1696,1696,1696,1696,1696,1696,1688,1688,1688,1688,1680,1671,1671,1663,1663,1655,1655,1647,1639,1639,1639,1639,1632,1632,1632,1624,1624,1624,1624,1616,1616,1609,1609,1601,1601,1601,1594,1594,1594,1594,928,925,925,925,925,915,913,913,913,1572,0,0,0,0,0,0,896,896,891,887,882,880,878,878,875,875,873,869,869,867,867,864,864,864,862,862,862,862,867,867,869,871,875,878,878,880,880,880,0,0,0,0,0,0,1445,1445,1445,1445,1445,1445,1439,1439,1439,1433,1433,1427,1421,1421,1421,1421,1421,1421,1415,1415,1410,1410,1404,1404,1398,1398,1398,1392,1392,1392,1387,1387,1381,1376,1376,1376,1376,1370,1370,1370,1370,1365,1365,1365,1359,1359,1354,1354,1354,1349,1343,1343,1338,1338,1338,1333,1333,1333,1333,1328,1328,1317,1317,1322,1317,1312,1312,1312,1312,1312,1312,1307,1307,1307,1302,1302,1297,1292,1292,1292,1288,1288,1288,1283,1283,1278,1278,1273,1273,1268,1268,1268,1264,1264,1259,1259,1259,1255,1255,1255,1255,1255,1250,1250,1245,1245,1245,1241,1236,1236,1236,1236,1232,1232,1232,1227,1227,1223,1219,1219,1219,1219,1214,1214,1214,1210,1206,1206,1202,1202,1202,1202,1197,1197,1193,1193,1189,1189,1185,1185,1185,1185,1181,1181,1181,1181,1173,1173,1169,1169,1169,1169,1165,1165,1165,1161,1157,1157,1157,1153,1153,1153,1153,1149,1149,1149,1145,1141,1141,1138,1138,1138,1134,1134,1134,1130,1130,1126,1126,1123,1123,1123,1123,1119,1119,1119,1115,1115,1112,1108,1108,1108,1105,1105,1105,1105,1101,1101,1097,1097,1094,1094,1094,1094,1090,1090,1087,1087,1084,1080,1080,1080,1080,1077,1077,1077,1077,1073,1073,1070,1070,1070,1067,1063,1063,1060,1060,1060,1060,1057,1057,1054,1054,1054,1050,1050,1047,1047,1047,1044,1044,1044,1041,1041,1041,1038,1038,1038,1034,1031,1028,1028,1028,1028,1028,1025,1025,1025,1025,1025,1022,1022,1019,1016,1016,1016,1016,1013,1013,1010,1010,1007,1007,1004,1004,1004,1004,1001,1001,1001,1001,998,998,995,995,992,992,989,989,989,0,0,0,0,0,0,0,0,0,0,0,0,0,0,0,0,0,0,0,0,0,0,0,0,0,0,0,0,0,0,0
0,0,0,0,0,0,0,0,0,0,0,0,0,0,1594,1594,1594,1594,1594,1594,1594,1594,1594,1594,1594,1594,1594,1601,1601,1601,1586,1586,1586,1594,1594,1586,1586,1586,1579,1579,1572,1572,1572,1572,1579,1579,1579,1579,1579,1579,1572,1572,1572,1572,1572,1572,1572,1572,1572,1572,1572,1572,1572,1564,1564,1572,1572,1572,1572,1572,1579,1586,1586,1594,1594,1601,1601,1601,1601,2256,2256,2241,2241,2256,2256,2241,2241,2241,2241,2241,2226,2226,2226,2212,1624,1609,1601,1594,1586,1586,1579,1579,1579,1579,1579,1579,1586,1586,1586,1594,1594,1594,1594,1594,1594,1594,1601,1601,1601,1609,1609,1616,1616,1624,1624,1624,1624,1624,1632,1632,1632,1632,1632,1632,1639,1647,1655,1655,1655,1655,1655,1655,1655,1663,1663,1671,1671,1680,1688,1688,1688,1688,1688,1688,1696,1696,1696,1696,1705,1705,1705,1705,1713,1713,1713,1722,1722,1722,1722,1722,1722,1722,1713,1705,1084,1084,1084,1080,1077,1077,1073,1073,1070,1070,1070,1063,1063,1063,1063,1063,1063,1063,1067,1070,1070,1073,1073,1073,1077,1077,1077,1073,1073,1073,1766,1766,1766,1766,1757,1757,1757,1757,1748,1748,1748,1739,1739,1731,1731,1731,1722,1722,1713,1713,1705,1705,1696,1696,1696,1696,1696,1688,1688,1688,1688,1680,1671,1671,1663,1663,1663,1655,1647,1647,1647,1639,1639,1639,1632,1632,1632,1632,1624,1624,1624,1616,1616,1609,1609,1609,1601,1601,1601,1594,1594,1586,1586,1586,1579,1579,1572,1564,1564,1564,1572,0,0,0,0,0,0,0,896,891,887,882,880,878,878,875,873,873,869,869,867,867,864,864,864,864,862,862,864,867,867,869,871,875,880,880,880,880,880,0,0,0,0,0,0,1445,1445,1445,1445,1445,1445,1439,1439,1439,1433,1433,1427,1427,1421,1421,1421,1421,1421,1415,1415,1410,1410,1404,1404,1398,1398,1398,1398,1392,1392,1392,1387,1387,1381,1376,1376,1376,1370,1370,1370,1370,1370,1365,1365,1359,1359,1354,1354,1354,1349,1343,1343,1338,1338,1338,1333,1333,1333,1333,1328,1328,1317,1317,1322,1317,1317,1312,1312,1312,1312,1312,1307,1307,1307,1302,1302,1297,1292,1292,1292,1292,1288,1288,1283,1283,1278,1278,1278,1273,1273,1273,1268,1268,1264,1264,1259,1259,1259,1255,1255,1255,1255,1250,1250,1245,1245,1245,1241,1236,1236,1236,1236,1232,1232,1232,1227,1227,1223,1219,1219,1219,1219,1214,1214,1214,1210,1210,1206,1206,1202,1202,1197,1197,1197,1193,1193,1189,1189,1189,1185,1185,1185,1181,1181,1181,1177,1173,1173,1173,1169,1169,1169,1165,1165,1165,1161,1157,1157,1157,1153,1153,1153,1153,1149,1149,1149,1145,1145,1141,1138,1138,1138,1134,1134,1134,1130,1130,1130,1126,1126,1123,1123,1123,1123,1119,1119,1119,1119,1115,1112,1108,1108,1105,1105,1105,1105,1105,1101,1097,1097,1094,1094,1094,1094,1094,1090,1087,1087,1084,1084,1080,1080,1080,1077,1077,1077,1077,1073,1073,1070,1070,1070,1067,1067,1063,1063,1060,1060,1060,1057,1057,1054,1054,1054,1054,1050,1050,1050,1047,1047,1047,1044,1041,1041,1041,1041,1038,1038,1034,1034,1028,1028,1028,1028,1028,1025,1025,1025,1025,1025,1022,1022,1019,1016,1016,1016,1016,1013,1013,1010,1010,1007,1007,1004,1004,1004,1004,1001,1001,1001,1001,998,998,995,995,992,992,992,989,989,0,0,0,0,0,0,0,0,0,0,0,0,0,0,0,0,0,0,0,0,0,0,0,0,0,0,0,0,0,0,0
0,0,0,0,0,0,0,0,0,0,0,0,0,0,1601,1601,1601,1594,1594,1594,1594,1594,1594,1594,1594,1594,1594,1594,1586,1586,1586,1586,1586,1594,1594,1594,1586,1586,1586,1579,1572,1572,1572,1572,1579,1579,1579,1579,1579,1579,1579,1579,1572,1572,1572,1572,1572,1572,1572,1572,1572,1572,1572,1564,1564,1572,1572,1572,1572,1572,1579,1586,1586,1594,1594,1601,1601,1601,1601,2256,2256,2256,2256,2271,2256,2256,2241,2241,2241,2241,2226,2226,2226,2212,1616,1601,1594,1594,1594,1586,1586,1586,1579,1579,1579,1579,1586,1586,1586,1586,1594,1594,1594,1594,1594,1594,1601,1601,1601,1609,1616,1616,1624,1624,1624,1624,1632,1632,1632,1632,1632,1632,1632,1639,1647,1655,1655,1655,1655,1655,1655,1655,1655,1663,1663,1671,1680,1680,1688,1688,1688,1688,1688,1688,1696,1696,1696,1696,1696,1705,1705,1705,1713,1713,1722,1722,1722,1722,1722,1722,1722,1722,1713,1705,1084,1084,1080,1080,1077,1077,1073,1073,1070,1070,1070,1063,1063,1063,1063,1063,1063,1067,1067,1070,1073,1073,1073,1073,1077,1077,1077,1073,1073,0,0,0,1766,1766,1757,1757,1757,1757,1748,1748,1748,1739,1739,1731,1731,1731,1722,1722,1713,1713,1705,1705,1696,1696,1696,1696,1696,1688,1688,1688,1688,1680,1680,1671,1671,1663,1663,1655,1647,1647,1647,1639,1639,1639,1632,1632,1632,1632,1624,1624,1624,1624,1616,1616,1616,1609,1609,1601,1601,1594,1594,1586,1586,1586,1586,1579,1572,1572,1572,1572,1572,0,0,0,0,0,0,0,0,891,887,882,880,878,878,875,873,871,869,869,867,867,867,864,864,864,864,864,864,867,867,869,871,875,880,880,880,880,882,0,0,0,0,0,0,1445,1445,1445,1445,1445,1445,1445,1445,1439,1439,1433,1433,1427,1421,1421,1421,1421,1421,1415,1415,1415,1410,1404,1404,1398,1398,1398,1398,1398,1392,1392,1387,1387,1381,1376,1376,1376,1376,1370,1370,1370,1370,1365,1365,1359,1354,1354,1354,1354,1349,1349,1349,1343,1338,1338,1333,1333,1333,1333,1333,1328,1322,1317,1317,1317,1317,1317,1312,1312,1312,1312,1307,1307,1307,1302,1302,1297,1292,1292,1292,1288,1288,1288,1283,1283,1278,1278,1278,1273,1273,1273,1268,1268,1264,1264,1264,1259,1259,1255,1255,1255,1255,1250,1250,1245,1245,1245,1241,1241,1236,1236,1236,1232,1232,1232,1232,1227,1223,1219,1219,1219,1219,1214,1214,1214,1210,1210,1206,1206,1202,1202,1197,1197,1197,1197,1193,1193,1189,1189,1185,1185,1185,1181,1181,1181,1177,1177,1173,1173,1169,1169,1169,1169,1165,1165,1161,1157,1157,1157,1153,1153,1153,1153,1149,1149,1149,1149,1145,1145,1141,1138,1138,1138,1138,1134,1134,1130,1130,1126,1126,1123,1123,1123,1123,1119,1119,1119,1119,1115,1112,1108,1108,1105,1105,1105,1105,1105,1101,1101,1097,1097,1094,1094,1094,1094,1090,1090,1087,1087,1084,1084,1080,1080,1080,1077,1077,1077,1077,1073,1073,1070,1070,1067,1067,1067,1063,1063,1060,1060,1060,1057,1057,1054,1054,1054,1054,1050,1050,1047,1047,1047,1044,1044,1041,1041,1041,1038,1038,1038,1034,1034,1031,1028,1028,1028,1028,1025,1025,1025,1025,1022,1022,1019,1019,1016,1016,1016,1016,1013,1010,1010,1007,1007,1004,1004,1004,1004,1001,1001,1001,1001,998,998,998,995,992,992,992,989,989,0,0,0,0,0,0,0,0,0,0,0,0,0,0,0,0,0,0,0,0,0,0,0,0,0,0,0,0,0,0,0
0,0,0,0,0,0,0,0,0,0,0,0,0,0,1601,1601,1601,1594,1594,1594,1594,1594,1594,1594,1594,1594,1594,1594,1586,1586,1586,1586,1586,1586,1586,1594,1586,1586,1586,1579,1579,1579,1579,1579,1579,1579,1579,1579,1579,1579,1579,1579,1579,1579,1579,1579,1579,1579,1572,1572,1572,1572,1572,1572,1572,1572,1572,1572,1572,1572,1579,1586,1586,1594,1594,1601,1601,1601,1601,1601,2256,2256,2256,2271,2271,2256,2256,2256,2241,2241,2241,2226,2226,2212,1609,1594,1594,1594,1586,1586,1586,1586,1579,1579,1579,1586,1586,1586,1586,1586,1594,1594,1594,1594,1601,1601,1601,1601,1609,1616,1616,1616,1624,1624,1624,1632,1632,1632,1632,1632,1632,1632,1639,1639,1647,1655,1655,1655,1655,1655,1655,1655,1663,1663,1671,1671,1680,1680,1688,1688,1688,1688,1688,1688,1696,1696,1696,1696,1696,1705,1705,1705,1713,1713,1722,1722,1722,1722,1722,1722,1722,1722,1713,1705,1084,1084,1080,1077,1077,1077,1073,1073,1070,1070,1067,1067,1067,1063,1063,1063,1067,1067,1067,1070,1073,1073,1073,1073,1077,1077,1077,1077,1077,1077,0,0,1766,1766,1757,1757,1757,1757,1757,1757,1748,1748,1739,1731,1731,1731,1722,1722,1713,1713,1705,1705,1705,1696,1696,1696,1696,1688,1688,1688,1688,1680,1680,1680,1671,1663,1663,1655,1655,1647,1647,1647,1647,1639,1639,1639,1632,1632,1632,1624,1624,1624,1616,1616,1616,1609,1609,1609,1601,1601,1594,1594,1594,1586,1586,1586,1579,1579,1572,1572,1572,0,0,0,0,0,0,0,0,891,887,885,882,878,878,875,873,871,871,869,869,867,867,867,864,864,864,864,867,867,867,869,875,875,880,880,880,880,882,0,0,0,0,0,0,1452,1445,1445,1452,1452,1445,1445,1445,1439,1439,1433,1433,1427,1421,1421,1421,1421,1421,1415,1415,1415,1410,1410,1404,1404,1404,1398,1398,1398,1398,1392,1392,1387,1381,1381,1376,1376,1376,1376,1370,1370,1370,1365,1365,1359,1354,1354,1354,1354,1349,1349,1349,1349,1343,1343,1338,1338,1333,1333,1333,1328,1322,1317,1317,1317,1317,1317,1312,1312,1312,1312,1312,1307,1307,1307,1297,1297,1292,1292,1292,1288,1288,1288,1288,1283,1278,1278,1278,1273,1273,1273,1268,1268,1268,1264,1264,1264,1264,1259,1255,1255,1255,1250,1250,1250,1245,1245,1241,1241,1236,1236,1236,1232,1232,1232,1232,1227,1223,1223,1219,1219,1219,1219,1214,1214,1210,1210,1206,1206,1202,1202,1202,1197,1197,1197,1193,1193,1189,1189,1185,1185,1185,1181,1181,1181,1181,1177,1177,1173,1173,1169,1169,1169,1165,1165,1161,1161,1161,1157,1157,1153,1153,1153,1153,1149,1149,1149,1149,1145,1141,1138,1138,1138,1138,1134,1134,1134,1134,1130,1126,1126,1123,1123,1123,1123,1119,1119,1119,1115,1108,1108,1108,1105,1105,1105,1105,1105,1101,1101,1101,1097,1097,1094,1094,1094,1090,1090,1090,1087,1087,1084,1080,1080,1080,1077,1077,1077,1077,1073,1073,1073,1070,1070,1067,1067,1063,1063,1063,1060,1060,1057,1057,1054,1054,1054,1054,1050,1050,1050,1047,1047,1044,1044,1041,1041,1041,1041,1038,1038,1038,1034,1034,1031,1028,1028,1028,1025,1025,1025,1025,1022,1022,1019,1019,1019,1019,1016,1016,1013,1010,1010,1007,1007,1007,1007,1004,1004,1004,1001,1001,1001,1001,998,998,998,995,992,992,992,992,0,0,0,0,0,0,0,0,0,0,0,0,0,0,0,0,0,0,0,0,0,0,0,0,0,0,0,0,0,0,0
0,0,0,0,0,0,0,0,0,0,0,0,0,0,1601,1601,1601,1594,1594,1594,1594,1594,1594,1594,1594,1594,1594,1594,1586,1586,1586,1586,1586,1586,1586,1594,1586,1586,1586,1586,1579,1579,1579,1579,1579,1579,1579,1579,1586,1586,1586,1579,1579,1579,1579,1579,1579,1579,1579,1579,1579,1572,1572,1572,1572,1572,1572,1572,1572,1572,1579,1586,1586,1594,1594,1601,1601,1601,1601,1601,2271,2271,2271,2271,2271,2271,2271,2256,2256,2241,2241,2226,2212,2212,1594,1594,1586,1586,1586,1586,1586,1586,1586,1579,1579,1586,1586,1586,1594,1594,1594,1594,1594,1594,1601,1601,1601,1601,1609,1616,1616,1624,1624,1624,1624,1632,1632,1632,1632,1632,1632,1632,1639,1639,1647,1655,1655,1655,1655,1655,1655,1663,1663,1663,1671,1671,1671,1680,1680,1688,1688,1688,1688,1688,1696,1696,1696,1696,1696,1705,1705,1705,1713,1713,1722,1722,1722,1722,1722,1722,1722,1722,1713,1713,1084,1084,1080,1077,1077,1077,1073,1073,1073,1070,1067,1067,1067,1063,1063,1063,1067,1067,1067,1070,1073,1073,1073,1073,1077,1077,1077,1077,1077,0,1766,1766,1766,1766,1757,1757,1757,1757,1757,1757,1748,1748,1739,1731,1731,1731,1722,1722,1722,1713,1705,1705,1705,1696,1696,1696,1696,1696,1688,1688,1688,1680,1680,1680,1671,1663,1663,1655,1655,1655,1655,1647,1647,1647,1639,1639,1632,1632,1632,1624,1624,1624,1616,1616,1616,1609,1609,1609,1601,1601,1594,1594,1594,1586,1586,1586,1579,1579,1572,1572,1572,0,0,0,0,0,0,0,0,0,887,885,880,878,878,875,873,873,871,869,869,867,867,867,864,864,864,864,867,867,867,869,875,875,880,880,880,880,882,885,0,0,0,0,0,1458,1452,1452,1452,1452,1445,1445,1445,1439,1439,1439,1433,1427,1427,1427,1421,1421,1421,1415,1415,1415,1410,1410,1404,1404,1404,1398,1398,1398,1398,1392,1392,1387,1381,1381,1376,1376,1376,1376,1376,1370,1370,1370,1365,1365,1359,1359,1354,1354,1354,1349,1349,1349,1343,1343,1343,1338,1338,1333,1333,1333,1322,1322,1322,1322,1322,1317,1317,1312,1312,1312,1312,1307,1307,1307,1297,1297,1292,1292,1292,1292,1288,1288,1288,1283,1283,1278,1278,1278,1273,1273,1268,1268,1268,1264,1264,1264,1264,1259,1255,1255,1255,1250,1250,1250,1245,1245,1241,1241,1241,1236,1236,1232,1232,1232,1232,1227,1223,1223,1223,1219,1219,1219,1214,1214,1210,1210,1206,1206,1202,1202,1202,1197,1197,1197,1197,1193,1193,1189,1189,1185,1185,1185,1185,1181,1181,1177,1177,1173,1173,1169,1169,1169,1165,1165,1161,1161,1161,1157,1157,1153,1153,1153,1153,1149,1149,1149,1145,1145,1141,1141,1138,1138,1138,1134,1134,1134,1134,1130,1130,1126,1126,1126,1123,1123,1119,1119,1119,1115,1108,1108,1108,1108,1108,1105,1105,1105,1105,1101,1101,1101,1097,1094,1094,1094,1094,1090,1090,1090,1087,1084,1084,1080,1080,1080,1077,1077,1077,1077,1073,1073,1070,1070,1067,1067,1063,1063,1063,1060,1060,1060,1057,1054,1054,1054,1054,1050,1050,1050,1047,1047,1044,1044,1041,1041,1041,1041,1038,1038,1038,1038,1034,1031,1031,1028,1028,1028,1025,1025,1025,1022,1022,1019,1019,1019,1019,1016,1016,1016,1013,1013,1010,1007,1007,1007,1004,1004,1004,1004,1004,1001,1001,998,998,998,995,992,992,992,992,0,0,0,0,0,0,0,0,0,0,0,0,0,0,0,0,0,0,0,0,0,0,0,0,0,0,0,0,0,0,0
0,0,0,0,0,0,0,0,0,0,0,0,0,0,1601,1601,1601,1601,1601,1594,1594,1594,1594,1594,1594,1594,1594,1594,1594,1594,1586,1586,1594,1594,1594,1594,1586,1586,1586,1586,1579,1579,1579,1579,1579,1586,1579,1579,1586,1586,1586,1586,1586,1586,1586,1586,1579,1579,1579,1579,1579,1572,1572,1572,1572,1572,1572,1572,1572,1572,1579,1586,1586,1594,1594,1601,1601,1601,1601,1601,2271,2271,2271,2271,2271,2271,2271,2256,2256,2241,2241,2226,2212,2212,1594,1594,1586,1586,1594,1586,1586,1586,1586,1579,1579,1586,1586,1586,1594,1594,1594,1594,1594,1594,1601,1601,1601,1601,1609,1616,1616,1624,1624,1624,1624,1632,1632,1632,1632,1632,1632,1639,1639,1639,1647,1655,1655,1655,1655,1663,1663,1663,1663,1663,1671,1671,1671,1680,1680,1688,1688,1688,1688,1688,1696,1696,1696,1696,1696,1705,1705,1713,1713,1713,1722,1722,1722,1722,1722,1722,1722,1722,1722,1722,1080,1080,1080,1080,1077,1077,1077,1073,1073,1070,1067,1067,1063,1063,1063,1063,1067,1067,1067,1070,1073,1073,1073,1077,1077,1077,1077,1077,1077,0,1766,1766,1766,1766,1766,1757,1757,1757,1757,1757,1748,1748,1739,1731,1731,1731,1731,1722,1722,1722,1713,1713,1713,1705,1696,1696,1696,1696,1688,1688,1688,1680,1680,1680,1671,1671,1663,1663,1655,1655,1655,1655,1647,1647,1647,1647,1639,1632,1632,1624,1624,1624,1624,1624,1616,1609,1609,1609,1601,1601,1594,1594,1594,1594,1586,1586,1579,1579,1579,1572,1572,0,0,0,0,0,0,0,0,0,0,878,878,878,878,875,873,873,871,869,869,867,867,867,864,864,864,864,867,867,867,869,873,875,880,880,880,880,882,885,0,0,0,0,0,0,1452,1452,1452,1452,1445,1445,1445,1439,1439,1439,1433,1427,1427,1427,1421,1421,1421,1415,1415,1415,1410,1410,1404,1404,1404,1398,1398,1398,1398,1398,1392,1392,1387,1381,1376,1376,1376,1376,1376,1370,1370,1370,1370,1365,1365,1359,1354,1354,1354,1349,1349,1349,1343,1343,1343,1338,1338,1338,1333,1333,1333,1322,1322,1322,1322,1317,1317,1312,1312,1312,1312,1307,1307,1307,1297,1297,1292,1292,1292,1292,1288,1288,1288,1288,1283,1283,1283,1278,1273,1273,1268,1268,1268,1264,1264,1264,1264,1259,1259,1255,1255,1250,1250,1250,1250,1245,1245,1245,1241,1236,1236,1236,1232,1232,1232,1227,1223,1223,1223,1223,1219,1219,1214,1214,1214,1210,1210,1206,1206,1202,1202,1197,1197,1197,1197,1193,1193,1189,1189,1185,1185,1185,1185,1181,1181,1177,1177,1173,1173,1169,1169,1169,1169,1165,1165,1161,1161,1161,1157,1157,1153,1153,1153,1149,1149,1149,1145,1145,1141,1141,1138,1138,1138,1134,1134,1134,1134,1130,1130,1126,1126,1126,1123,1123,1119,1119,1119,1119,1112,1108,1108,1108,1108,1105,1105,1105,1105,1105,1101,1101,1097,1097,1094,1094,1094,1094,1090,1090,1087,1087,1084,1080,1080,1080,1077,1077,1077,1077,1077,1073,1073,1070,1067,1067,1063,1063,1063,1060,1060,1060,1057,1054,1054,1054,1054,1050,1050,1050,1047,1047,1044,1044,1041,1041,1041,1041,1038,1038,1038,1038,1034,1034,1031,1031,1028,1028,1025,1025,1025,1022,1022,1019,1019,1019,1019,1016,1016,1016,1013,1013,1010,1010,1007,1007,1004,1004,1004,1004,1004,1001,1001,1001,998,998,995,992,992,992,992,0,0,0,0,0,0,0,0,0,0,0,0,0,0,0,0,0,0,0,0,0,0,0,0,0,0,0,0,0,0,0
0,0,0,0,0,0,0,0,0,0,0,0,0,0,1601,1601,1601,1601,1601,1601,1594,1594,1594,1594,1594,1594,1594,1594,1594,1594,1594,1594,1594,1594,1594,1594,1594,1586,1586,1586,1579,1579,1579,1579,1579,1586,1586,1586,1586,1586,1586,1586,1586,1586,1586,1586,1579,1579,1579,1579,1579,1579,1572,1572,1572,1572,1572,1572,1572,1572,1579,1586,1586,1594,1594,1601,1601,1601,1601,1601,2286,2286,2286,2286,2271,2271,2271,2271,2256,2256,2241,2241,2226,2212,1594,1594,1594,1594,1594,1594,1594,1594,1586,1586,1586,1586,1586,1594,1594,1594,1594,1594,1594,1601,1601,1601,1601,1609,1609,1616,1624,1624,1632,1632,1632,1632,1632,1632,1632,1632,1632,1639,1639,1647,1655,1655,1655,1655,1655,1663,1663,1663,1663,1663,1671,1671,1671,1680,1680,1688,1688,1688,1688,1688,1696,1696,1696,1696,1696,1705,1705,1713,1713,1722,1722,1722,1722,1722,1731,1731,1731,1722,1722,1722,0,1084,1084,1080,1080,1077,1077,1073,1073,1070,1067,1067,1063,1063,1063,1063,1067,1067,1067,1070,1073,1073,1073,1077,1077,1077,1077,0,1077,0,1766,1766,1766,1766,1766,1766,1757,1757,1757,1757,1748,1748,1739,1731,1731,1731,1731,1722,1722,1722,1713,1713,1713,1705,1705,1696,1696,1696,1688,1688,1688,1688,1680,1680,1680,1671,1671,1663,1663,1663,1655,1655,1655,1655,1647,1647,1639,1632,1632,1624,1624,1624,1624,1624,1616,1616,1609,1609,1601,1601,1601,1594,1594,1594,1594,1586,1586,1586,1579,1572,1572,0,0,0,0,0,0,0,0,0,0,878,878,878,878,875,873,873,871,869,869,867,867,867,864,864,864,864,867,867,867,869,873,875,878,880,880,880,882,885,887,0,0,0,0,0,1452,1452,1452,1452,1445,1445,1445,1439,1439,1439,1433,1433,1427,1427,1427,1421,1421,1421,1415,1415,1415,1410,1410,1404,1404,1404,1398,1398,1398,1398,1392,1392,1387,1381,1381,1376,1376,1376,1376,1370,1370,1370,1370,1365,1365,1359,1354,1354,1354,1354,1349,1349,1349,1343,1343,1338,1338,1338,1333,1333,1328,1328,1322,1322,1322,1322,1317,1312,1312,1312,1312,1307,1307,1307,1302,1297,1297,1292,1292,1292,1288,1288,1288,1288,1283,1283,1283,1278,1278,1273,1268,1268,1268,1264,1264,1264,1264,1259,1259,1255,1255,1250,1250,1250,1250,1250,1245,1245,1241,1241,1236,1236,1236,1236,1232,1227,1227,1223,1223,1223,1219,1219,1219,1214,1214,1214,1210,1210,1206,1202,1202,1202,1197,1197,1197,1197,1193,1189,1189,1185,1185,1185,1185,1181,1181,1177,1177,1173,1173,1169,1169,1169,1169,1165,1165,1165,1161,1157,1157,1157,1157,1153,1153,1153,1149,1149,1149,1145,1141,1141,1138,1138,1138,1134,1134,1134,1134,1130,1130,1130,1130,1126,1126,1126,1123,1123,1123,1119,1115,1112,1108,1108,1108,1105,1105,1105,1105,1105,1101,1101,1097,1097,1097,1094,1094,1094,1090,1090,1090,1087,1084,1080,1080,1080,1077,1077,1077,1077,1077,1073,1073,1070,1070,1067,1067,1063,1063,1060,1060,1060,1057,1057,1054,1054,1054,1050,1050,1050,1050,1047,1044,1044,1044,1041,1041,1041,1041,1038,1038,1038,1038,1034,1031,1031,1028,1028,1025,1025,1025,1022,1022,1019,1019,1019,1019,1016,1016,1016,1016,1013,1010,1010,1007,1007,1007,1007,1004,1004,1004,1004,1001,1001,998,998,995,992,992,992,992,0,0,0,0,0,0,0,0,0,0,0,0,0,0,0,0,0,0,0,0,0,0,0,0,0,0,0,0,0,0,0
0,0,0,0,0,0,0,0,0,0,0,0,0,0,1609,1601,1601,1601,1601,1601,1601,1594,1594,1594,1594,1601,1601,1601,1594,1594,1594,1594,1594,1594,1594,1594,1594,1586,1586,1586,1586,1579,1579,1579,1586,1586,1586,1586,1594,1594,1594,1586,1586,1586,1586,1586,1579,1579,1579,1579,1579,1579,1572,1572,1572,1572,1572,1572,1572,1579,1579,1586,1586,1594,1594,1601,1601,1601,1601,1601,2286,2286,2286,2286,2271,2271,2271,2271,2256,2256,2241,2241,2226,2226,2212,1594,1594,1594,1594,1594,1594,1594,1594,1594,1594,1594,1594,1594,1594,1594,1594,1601,1601,1601,1601,1601,1601,1609,1616,1616,1624,1624,1632,1632,1632,1632,1632,1632,1632,1632,1639,1639,1647,1647,1655,1655,1655,1655,1663,1663,1663,1663,1663,1663,1671,1671,1680,1680,1680,1688,1688,1688,1696,1696,1696,1696,1696,1696,1696,1705,1705,1713,1713,1722,1722,1722,1722,1722,1731,1731,1731,1731,1731,1731,0,1080,1077,1077,1077,1077,1077,1073,1073,1070,1067,1067,1063,1063,1063,1063,1067,1067,1067,1070,1073,1073,1073,1077,1077,1077,1077,0,0,0,1766,1766,1766,1766,1766,1766,1757,1757,1757,1757,1748,1748,1739,1731,1731,1731,1731,1722,1722,1722,1722,1722,1722,1713,1705,1696,1696,1696,1688,1688,1688,1688,1688,1680,1680,1671,1671,1663,1663,1663,1655,1655,1655,1655,1655,1647,1639,1639,1632,1632,1632,1624,1624,1624,1616,1616,1609,1609,1601,1601,1601,1594,1594,1594,1594,1586,1586,1586,1586,1572,1572,0,0,0,0,0,0,0,0,0,0,878,878,878,875,875,873,873,871,869,869,867,867,867,867,867,867,867,867,867,869,871,873,875,878,880,880,882,882,887,887,0,0,0,0,0,0,1458,1452,1452,1445,1445,1445,1439,1439,1439,1433,1433,1427,1427,1427,1421,1421,1421,1415,1415,1415,1415,1410,1410,1404,1404,1404,1398,1398,1398,1392,1392,1387,1381,1381,1376,1376,1376,1376,1376,1370,1370,1370,1365,1365,1359,1354,1354,1354,1354,1349,1349,1349,1343,1343,1338,1338,1338,1333,1333,1328,1328,1328,1328,1322,1322,1317,1317,1312,1312,1312,1307,1307,1302,1302,1297,1297,1297,1292,1292,1292,1292,1288,1288,1288,1283,1283,1278,1278,1273,1273,1268,1268,1268,1264,1264,1264,1259,1259,1255,1255,1255,1250,1250,1250,1250,1245,1245,1245,1241,1236,1236,1236,1236,1232,1232,1227,1227,1223,1223,1223,1219,1219,1214,1214,1214,1210,1210,1206,1202,1202,1202,1197,1197,1197,1197,1193,1193,1189,1185,1185,1185,1185,1181,1181,1177,1177,1173,1173,1169,1169,1169,1169,1169,1165,1165,1161,1157,1157,1157,1157,1153,1153,1153,1149,1149,1149,1145,1145,1141,1141,1138,1138,1138,1134,1134,1134,1130,1130,1130,1130,1126,1126,1126,1123,1123,1123,1119,1115,1112,1112,1112,1108,1108,1105,1105,1105,1105,1101,1101,1097,1097,1094,1094,1094,1094,1090,1090,1090,1087,1084,1080,1080,1080,1080,1080,1077,1077,1077,1073,1073,1070,1070,1067,1067,1063,1063,1060,1060,1060,1057,1057,1054,1054,1054,1054,1050,1050,1050,1047,1044,1044,1044,1041,1041,1041,1041,1038,1038,1038,1038,1034,1031,1031,1028,1028,1025,1025,1025,1025,1022,1022,1019,1019,1019,1016,1016,1016,1016,1013,1013,1010,1007,1007,1007,1007,1007,1004,1004,1004,1001,1001,1001,998,998,995,992,992,992,0,0,0,0,0,0,0,0,0,0,0,0,0,0,0,0,0,0,0,0,0,0,0,0,0,0,0,0,0,0,0
0,0,0,0,0,0,0,0,0,0,0,0,0,0,1609,1601,1601,1601,1601,1601,1601,1594,1594,1594,1601,1601,1601,1594,1594,1594,1594,1594,1594,1594,1594,1594,1594,1594,1586,1586,1586,1579,1579,1586,1586,1586,1594,1594,1594,1594,1586,1586,1586,1586,1586,1586,1579,1579,1579,1579,1579,1579,1572,1572,1572,1579,1579,1579,1579,1579,1586,1586,1594,1594,1601,1601,1601,1609,1609,1609,2286,2286,2286,2286,2271,2271,2271,2271,2271,2256,2256,2241,2226,2226,2212,1594,1586,1586,1594,1594,1594,1594,1594,1594,1594,1594,1594,1594,1594,1594,1601,1601,1601,1601,1601,1609,1609,1609,1616,1624,1624,1624,1632,1632,1632,1632,1632,1632,1632,1639,1639,1639,1647,1647,1655,1655,1655,1655,1663,1663,1663,1663,1663,1671,1671,1680,1680,1680,1680,1688,1688,1688,1696,1696,1696,1696,1696,1696,1696,1705,1705,1713,1713,1722,1722,1731,1731,1731,1731,1731,1731,1731,1731,0,0,1080,1080,1077,1077,1077,1077,1073,1070,1070,1067,1067,1063,1063,1063,1063,1067,1067,1070,1070,1073,1073,1073,1077,1077,1077,1077,1077,0,1766,1766,1766,1766,1766,1766,1766,1757,1757,1757,1757,1757,1748,1739,1739,1731,1731,1731,1731,1731,1722,1722,1722,1722,1713,1713,1696,1696,1696,1696,1688,1688,1688,1688,1688,1680,1680,1671,1671,1663,1663,1663,1663,1655,1655,1655,1647,1639,1639,1632,1632,1632,1624,1624,1624,1616,1616,1609,1609,1601,1601,1601,1594,1594,1594,1594,1586,1586,1586,1586,1579,1579,1579,0,0,0,0,0,0,0,0,0,878,878,878,875,875,873,871,871,869,869,867,867,867,867,867,867,867,867,867,869,871,873,875,878,880,880,882,885,887,889,0,0,0,0,0,0,1458,1458,1452,1445,1445,1445,1445,1439,1439,1439,1433,1433,1433,1427,1427,1427,1421,1421,1421,1415,1415,1410,1410,1410,1404,1404,1398,1398,1398,1392,1392,1392,1387,1381,1376,1376,1376,1376,1376,1376,1370,1370,1365,1365,1359,1354,1354,1354,1354,1349,1349,1349,1349,1343,1343,1338,1338,1333,1333,1328,1328,1328,1328,1322,1322,1317,1317,1317,1312,1312,1312,1307,1302,1302,1297,1297,1297,1292,1292,1292,1292,1288,1288,1288,1288,1283,1283,1278,1273,1273,1268,1268,1268,1264,1264,1264,1259,1259,1259,1255,1255,1255,1255,1250,1250,1245,1245,1245,1241,1241,1236,1236,1236,1232,1232,1232,1227,1227,1223,1223,1219,1219,1214,1214,1214,1210,1210,1206,1202,1202,1202,1197,1197,1197,1197,1193,1193,1189,1185,1185,1185,1185,1181,1181,1177,1177,1173,1173,1169,1169,1169,1169,1169,1165,1165,1165,1161,1161,1157,1157,1153,1153,1153,1149,1149,1149,1145,1145,1145,1141,1138,1138,1138,1134,1134,1134,1134,1134,1130,1130,1130,1126,1126,1123,1123,1119,1119,1115,1112,1112,1112,1108,1108,1105,1105,1105,1105,1101,1101,1097,1097,1094,1094,1094,1094,1090,1090,1090,1087,1084,1080,1080,1080,1080,1080,1077,1077,1077,1073,1073,1070,1070,1067,1067,1063,1063,1060,1060,1060,1057,1057,1054,1054,1054,1054,1050,1050,1050,1047,1044,1044,1044,1041,1041,1041,1041,1041,1038,1038,1038,1034,1034,1031,1031,1028,1028,1028,1025,1025,1022,1022,1022,1022,1019,1019,1019,1016,1016,1013,1013,1010,1010,1007,1007,1007,1007,1004,1004,1004,1001,1001,1001,1001,998,998,995,995,995,0,0,0,0,0,0,0,0,0,0,0,0,0,0,0,0,0,0,0,0,0,0,0,0,0,0,0,0,0,0,0
0,0,0,0,0,0,0,0,0,0,0,0,0,0,1601,1601,1601,1609,1601,1601,1601,1594,1594,1594,1601,1601,1601,1594,1594,1594,1594,1594,1594,1594,1594,1594,1594,1594,1586,1586,1586,1586,1586,1594,1594,1594,1594,1594,1594,1594,1586,1586,1586,1586,1586,1586,1579,1579,1579,1579,1579,1579,1572,1572,1579,1579,1579,1579,1586,1586,1586,1594,1594,1594,1601,1601,1601,1609,1609,1609,2286,2286,2286,2286,2286,2286,2271,2271,2271,2271,2256,2241,2241,2241,2226,1594,1586,1586,1594,1594,1594,1594,1594,1594,1594,1594,1594,1594,1594,1594,1601,1601,1601,1601,1609,1609,1616,1616,1616,1624,1624,1624,1632,1632,1632,1632,1632,1632,1632,1639,1639,1647,1647,1647,1655,1655,1655,1663,1663,1663,1663,1663,1671,1671,1680,1680,1680,1680,1688,1688,1688,1688,1696,1696,1696,1696,1696,1696,1696,1705,1705,1713,1713,1722,1731,1731,1731,1731,1731,1731,1731,1731,0,0,0,1080,1080,1080,1077,1077,1073,1073,1070,1070,1067,1067,1067,1063,1063,1063,1067,1067,1070,1070,1070,1073,1077,1077,1077,1077,0,1080,0,1766,1766,1766,1766,1766,1766,1766,1766,1757,1757,1757,1757,1748,1739,1739,1731,1731,1731,1731,1722,1722,1722,1722,1722,1722,1713,1705,1705,1705,1696,1696,1688,1688,1688,1688,1680,1680,1671,1671,1663,1663,1663,1655,1655,1655,1655,1647,1639,1639,1632,1632,1632,1624,1624,1624,1616,1616,1616,1609,1601,1601,1601,1594,1594,1594,1594,1586,1586,1586,1586,1579,1579,1579,0,0,0,0,0,0,0,0,0,878,878,878,875,875,873,871,871,869,869,869,867,867,867,867,867,867,867,869,869,871,873,875,878,880,882,885,885,887,889,0,0,0,0,0,0,1458,1458,1458,1452,1445,1445,1445,1439,1439,1439,1433,1433,1433,1433,1427,1427,1427,1421,1421,1415,1415,1410,1410,1410,1404,1404,1404,1398,1398,1398,1392,1392,1387,1381,1381,1376,1376,1376,1376,1376,1370,1370,1370,1365,1359,1354,1354,1354,1354,1349,1349,1349,1349,1343,1343,1338,1338,1338,1333,1333,1328,1328,1328,1328,1322,1322,1317,1317,1312,1312,1312,1307,1307,1302,1302,1302,1297,1292,1292,1292,1292,1288,1288,1288,1288,1283,1283,1278,1273,1273,1268,1268,1268,1268,1264,1264,1259,1259,1259,1255,1255,1255,1255,1250,1250,1250,1245,1245,1241,1241,1236,1236,1236,1232,1232,1232,1232,1227,1227,1223,1219,1219,1214,1214,1214,1210,1210,1206,1202,1202,1202,1197,1197,1197,1197,1197,1193,1189,1189,1185,1185,1185,1181,1181,1181,1177,1177,1173,1169,1169,1169,1169,1169,1165,1165,1165,1161,1161,1157,1157,1157,1153,1153,1153,1149,1149,1149,1145,1145,1141,1138,1138,1138,1134,1134,1134,1134,1134,1130,1130,1130,1126,1126,1123,1123,1119,1119,1119,1115,1112,1112,1108,1108,1108,1108,1105,1105,1101,1101,1097,1097,1094,1094,1094,1090,1090,1090,1090,1087,1084,1084,1084,1080,1080,1080,1080,1080,1077,1073,1073,1073,1070,1067,1067,1067,1063,1063,1060,1060,1060,1057,1057,1054,1054,1054,1050,1050,1050,1047,1047,1044,1044,1044,1044,1041,1041,1041,1041,1038,1038,1034,1034,1031,1031,1028,1028,1028,1025,1025,1025,1025,1022,1022,1022,1019,1019,1016,1016,1016,1013,1010,1010,1007,1007,1007,1007,1004,1004,1004,1001,1001,1001,1001,998,998,995,995,995,0,0,0,0,0,0,0,0,0,0,0,0,0,0,0,0,0,0,0,0,0,0,0,0,0,0,0,0,0,0,0
0,0,0,0,0,0,0,0,0,0,0,0,0,0,1601,1601,1601,1609,1601,1601,1601,1601,1601,1601,1601,1601,1601,1594,1594,1594,1594,1594,1594,1594,1594,1594,1594,1594,1586,1586,1586,1586,1594,1594,1594,1594,1594,1594,1594,1594,1586,1586,1586,1586,1586,1586,1579,1579,1579,1579,1579,1579,1579,1579,1579,1579,1586,1586,1586,1586,1594,1594,1594,1594,1601,1601,1601,1609,1609,1609,2286,2286,2286,2286,2286,2286,2271,2271,2271,2271,2256,2256,2241,2241,2226,2226,1594,1594,1594,1594,1594,1594,1594,1594,1594,1594,1594,1594,1594,1594,1601,1601,1601,1601,1609,1609,1616,1616,1616,1624,1624,1624,1632,1632,1632,1632,1632,1632,1632,1639,1639,1639,1647,1647,1655,1655,1663,1663,1663,1663,1663,1671,1671,1671,1680,1680,1680,1680,1688,1688,1688,1688,1696,1696,1696,1696,1696,1696,1696,1705,1705,1713,1722,1722,1731,1731,1731,1731,1731,1731,1731,1731,1731,0,1084,1080,1080,1080,1077,1077,1073,1073,1070,1070,1070,1067,1067,1063,1063,1063,1067,1067,1070,1070,1070,1073,1077,1077,1077,1077,1080,0,0,0,1766,1766,1766,1766,1766,1766,1766,1766,1757,1757,1757,1748,1739,1739,1739,1731,1731,1731,1722,1722,1722,1722,1722,1722,1722,1713,1713,1705,1705,1696,1688,1688,1688,1688,1680,1680,1671,1671,1663,1663,1663,1655,1655,1655,1655,1647,1639,1639,1632,1632,1632,1624,1624,1624,1616,1616,1616,1609,1601,1601,1601,1594,1594,1594,1594,1586,1586,1579,1579,1579,1579,1579,0,0,0,0,0,0,0,0,0,878,878,878,875,875,873,873,871,869,869,869,867,867,867,867,867,867,867,869,871,871,873,875,878,880,882,885,885,887,889,0,0,0,0,0,0,1458,1458,1458,1452,1452,1445,1445,1445,1439,1439,1439,1433,1433,1433,1427,1427,1427,1421,1421,1415,1415,1415,1410,1410,1410,1404,1404,1398,1398,1398,1392,1392,1387,1381,1381,1381,1376,1376,1376,1376,1370,1370,1370,1365,1365,1359,1354,1354,1354,1354,1349,1349,1349,1343,1343,1338,1338,1333,1333,1333,1333,1328,1328,1328,1322,1322,1322,1317,1312,1312,1312,1307,1307,1307,1302,1302,1297,1297,1297,1292,1292,1292,1288,1288,1288,1283,1283,1278,1273,1273,1268,1268,1268,1268,1268,1264,1264,1259,1255,1255,1255,1255,1255,1250,1250,1250,1250,1245,1245,1241,1236,1236,1236,1232,1232,1232,1232,1227,1227,1223,1223,1219,1219,1214,1214,1214,1210,1206,1202,1202,1202,1197,1197,1197,1197,1197,1193,1193,1189,1189,1185,1185,1181,1181,1181,1177,1177,1177,1173,1169,1169,1169,1169,1169,1165,1165,1161,1161,1157,1157,1157,1153,1153,1153,1153,1149,1149,1149,1145,1141,1138,1138,1138,1134,1134,1134,1134,1134,1130,1130,1130,1126,1126,1123,1123,1123,1119,1119,1115,1115,1115,1112,1108,1108,1108,1105,1105,1105,1101,1097,1097,1094,1094,1094,1090,1090,1090,1090,1087,1084,1084,1084,1080,1080,1080,1080,1077,1077,1073,1073,1070,1070,1070,1067,1067,1063,1063,1063,1060,1060,1057,1057,1054,1054,1054,1054,1050,1050,1047,1047,1047,1044,1044,1044,1044,1044,1041,1041,1038,1038,1034,1034,1031,1031,1028,1028,1028,1025,1025,1025,1025,1025,1022,1022,1019,1019,1019,1016,1016,1013,1013,1010,1010,1007,1007,1007,1004,1004,1004,1004,1001,1001,1001,1001,998,995,995,998,0,0,0,0,0,0,0,0,0,0,0,0,0,0,0,0,0,0,0,0,0,0,0,0,0,0,0,0,0,0,0
0,0,0,0,0,0,0,0,0,0,0,0,0,0,1601,1601,1601,1609,1601,1601,1601,1601,1601,1601,1601,1601,1601,1594,1594,1594,1594,1594,1601,1601,1594,1594,1594,1594,1586,1586,1586,1594,1594,1594,1594,1594,1594,1594,1594,1594,1586,1586,1586,1586,1586,1586,1579,1579,1579,1579,1579,1579,1579,1579,1579,1579,1586,1586,1586,1586,1594,1594,1594,1594,1601,1601,1601,1609,1609,1609,2301,2301,2301,2301,2286,2286,2286,2286,2271,2271,2256,2256,2256,2241,2226,2226,2226,1601,1601,1601,1601,1594,1594,1594,1594,1594,1594,1594,1594,1594,1594,1601,1601,1609,1609,1609,1616,1616,1624,1624,1624,1624,1632,1632,1632,1632,1632,1632,1632,1639,1639,1639,1647,1647,1655,1655,1655,1663,1663,1663,1663,1671,1671,1671,1680,1680,1680,1680,1688,1688,1688,1688,1696,1696,1696,1696,1696,1696,1705,1705,1713,1713,1722,1722,1731,1731,1731,1731,1731,1731,1731,1731,0,0,0,1084,1080,1077,1077,1077,1073,1073,1073,1070,1070,1070,1067,1067,1067,1067,1067,1067,1070,1070,1073,1073,1077,1077,1077,1080,1080,0,0,0,1766,1766,1766,1766,1766,1766,1766,1766,1766,1757,1757,1748,1739,1739,1739,1731,1731,1731,1722,1722,1722,1722,1722,1722,1722,1722,1713,1713,1705,1696,1696,1696,1696,1688,1688,1680,1680,1671,1671,1663,1663,1655,1655,1655,1655,1647,1639,1639,1632,1632,1632,1624,1624,1624,1624,1624,1616,1609,1609,1601,1601,1594,1594,1594,1594,1586,1586,1579,1579,1579,1579,1579,0,0,0,0,0,0,0,0,0,878,878,878,875,875,873,873,871,869,869,869,867,867,867,867,867,867,867,869,871,871,873,875,880,880,882,885,887,887,889,0,0,0,0,0,1464,1458,1458,1458,1452,1452,1445,1445,1445,1439,1439,1439,1439,1433,1433,1433,1427,1427,1421,1421,1421,1415,1415,1415,1410,1410,1410,1404,1398,1398,1392,1392,1392,1387,1387,1381,1381,1381,1376,1376,1376,1370,1370,1370,1365,1359,1359,1354,1354,1354,1354,1349,1349,1349,1343,1343,1338,1338,1333,1333,1333,1333,1333,1328,1328,1328,1328,1322,1317,1317,1312,1312,1307,1307,1307,1307,1302,1302,1302,1302,1297,1297,1292,1292,1288,1288,1283,1283,1278,1278,1273,1273,1268,1268,1268,1268,1264,1264,1259,1255,1255,1255,1255,1255,1250,1250,1250,1250,1245,1245,1241,1236,1236,1236,1232,1232,1232,1232,1227,1227,1223,1223,1219,1219,1214,1214,1214,1210,1210,1206,1202,1202,1202,1197,1197,1197,1197,1193,1193,1189,1189,1185,1185,1181,1181,1181,1181,1177,1177,1173,1169,1169,1169,1169,1169,1165,1165,1161,1161,1157,1157,1157,1153,1153,1153,1153,1149,1149,1149,1145,1141,1141,1138,1138,1134,1134,1134,1134,1134,1130,1130,1126,1126,1126,1123,1123,1123,1119,1119,1119,1115,1115,1112,1108,1108,1108,1108,1105,1105,1101,1101,1097,1094,1094,1094,1090,1090,1090,1090,1090,1087,1084,1084,1080,1080,1080,1080,1077,1077,1073,1073,1070,1070,1070,1067,1067,1063,1063,1063,1063,1060,1060,1057,1054,1054,1054,1054,1050,1050,1050,1047,1047,1047,1047,1044,1044,1044,1041,1041,1041,1038,1034,1034,1031,1031,1028,1028,1028,1028,1025,1025,1025,1025,1022,1022,1019,1019,1019,1016,1016,1013,1013,1013,1010,1010,1010,1007,1007,1004,1004,1004,1001,1001,1001,1001,998,998,998,998,0,0,0,0,0,0,0,0,0,0,0,0,0,0,0,0,0,0,0,0,0,0,0,0,0,0,0,0,0,0,0
0,0,0,0,0,0,0,0,0,0,0,0,0,0,1609,1609,1609,1616,1609,1609,1609,1601,1601,1601,1601,1601,1601,1594,1594,1594,1594,1601,1601,1601,1594,1594,1594,1594,1594,1594,1594,1594,1594,1594,1594,1594,1594,1594,1594,1594,1586,1586,1586,1586,1586,1586,1579,1579,1579,1579,1579,1579,1579,1579,1579,1579,1586,1586,1586,1586,1594,1594,1594,1601,1601,1601,1601,1609,1609,1609,2317,2317,2301,2301,2286,2286,2286,2286,2271,2271,2271,2256,2256,2241,2226,2226,2226,1601,1601,1601,1601,1594,1594,1594,1594,1594,1594,1594,1594,1594,1594,1601,1601,1609,1609,1616,1616,1616,1624,1624,1624,1624,1632,1632,1632,1632,1632,1632,1639,1639,1647,1647,1647,1647,1655,1655,1655,1663,1663,1663,1663,1671,1680,1680,1680,1688,1680,1680,1688,1688,1688,1688,1696,1696,1696,1705,1705,1705,1705,1713,1713,1713,1722,1722,1731,1731,1731,1731,1731,1731,1731,1731,0,0,0,1084,1080,1077,1077,1077,1073,1073,1073,1073,1070,1070,1067,1067,1067,1067,1067,1067,1070,1070,1073,1073,1077,1080,1080,1080,1084,1087,1087,0,1766,1766,1766,1766,1766,1766,1766,1766,1766,1766,1757,1748,1748,1739,1739,1731,1731,1731,1731,1731,1722,1722,1722,1722,1722,1722,1713,1713,1705,1696,1696,1696,1696,1688,1688,1680,1680,1680,1671,1663,1655,1655,1655,1655,1655,1647,1639,1639,1632,1632,1632,1632,1624,1624,1624,1624,1616,1616,1609,1609,1601,1601,1601,1594,1594,1586,1586,1586,1586,1586,1586,0,0,0,0,0,0,0,0,0,0,878,878,878,878,875,873,873,871,869,869,869,867,867,867,867,869,869,869,869,871,871,875,875,880,882,882,887,887,887,0,0,0,0,0,0,1464,1464,1458,1458,1452,1452,1445,1445,1445,1445,1439,1439,1439,1439,1439,1433,1427,1427,1421,1421,1421,1415,1415,1415,1415,1410,1410,1404,1404,1398,1392,1392,1392,1387,1387,1387,1381,1381,1381,1376,1376,1376,1370,1370,1370,1359,1359,1354,1354,1354,1354,1349,1349,1349,1343,1343,1338,1338,1333,1333,1333,1333,1333,1333,1328,1328,1328,1322,1322,1317,1312,1312,1312,1307,1307,1307,1307,1302,1302,1302,1297,1297,1292,1292,1288,1288,1283,1283,1283,1278,1278,1273,1273,1273,1268,1268,1268,1264,1264,1259,1255,1255,1255,1255,1250,1250,1250,1250,1245,1245,1241,1236,1236,1236,1232,1232,1232,1232,1227,1227,1223,1223,1219,1219,1214,1214,1214,1214,1210,1210,1206,1202,1202,1202,1197,1197,1197,1193,1193,1189,1189,1185,1185,1181,1181,1181,1181,1177,1177,1173,1169,1169,1169,1169,1169,1165,1165,1165,1161,1161,1161,1157,1157,1153,1153,1153,1149,1149,1149,1145,1141,1141,1138,1138,1138,1134,1134,1134,1134,1130,1130,1126,1126,1126,1123,1123,1123,1119,1119,1119,1115,1115,1115,1112,1108,1108,1108,1108,1105,1101,1101,1097,1094,1094,1094,1090,1090,1090,1090,1090,1087,1084,1084,1080,1080,1080,1080,1077,1077,1077,1073,1073,1070,1070,1067,1067,1063,1063,1063,1063,1063,1060,1057,1054,1054,1054,1054,1050,1050,1050,1050,1050,1047,1047,1044,1044,1044,1044,1041,1038,1038,1034,1034,1031,1031,1028,1028,1028,1028,1028,1025,1025,1025,1025,1025,1022,1022,1019,1016,1016,1016,1013,1013,1013,1010,1010,1010,1007,1004,1004,1004,1001,1001,1001,1001,998,998,998,998,0,0,0,0,0,0,0,0,0,0,0,0,0,0,0,0,0,0,0,0,0,0,0,0,0,0,0,0,0,0,0
0,0,0,0,0,0,0,0,0,0,0,0,0,0,1609,1609,1609,1609,1609,1609,1609,1609,1601,1601,1601,1601,1601,1601,1601,1601,1601,1601,1601,1601,1594,1594,1594,1594,1594,1594,1594,1594,1594,1594,1594,1594,1594,1594,1594,1594,1586,1586,1586,1586,1586,1586,1586,1586,1586,1586,1586,1586,1579,1579,1579,1579,1586,1586,1586,1586,1594,1594,1594,1601,1601,1601,1601,1609,1609,1616,2301,2301,2301,2286,2286,2286,2286,2271,2271,2271,2256,2256,2241,2241,2226,2226,2212,1609,1601,1601,1601,1601,1594,1594,1594,1594,1594,1594,1594,1594,1594,1601,1601,1609,1609,1616,1616,1616,1624,1624,1624,1624,1632,1632,1632,1632,1632,1632,1639,1639,1647,1647,1647,1647,1655,1655,1655,1663,1663,1663,1663,1671,1680,1680,1680,1688,1680,1680,1688,1688,1688,1688,1696,1696,1696,1705,1705,1705,1705,1713,1713,1722,1722,1731,1731,1731,1731,1731,1731,1722,1722,1731,0,0,0,1080,1080,1080,1080,1077,1077,1073,1073,1073,1070,1070,1067,1067,1067,1067,1067,1067,1070,1073,1073,1077,1077,1080,1080,1084,1087,1087,1087,0,1766,0,1766,1766,1766,1766,1766,1766,1766,1766,1757,1748,1748,1748,1739,1731,1731,1731,1731,1731,1722,1722,1722,1722,1722,1722,1722,1713,1713,1705,1696,1696,1696,1688,1688,1680,1680,1680,1671,1663,1655,1655,1655,1655,1655,1647,1647,1639,1632,1632,1632,1632,1624,1624,1624,1624,1624,1616,1609,1609,1609,1601,1601,1594,1594,1594,1586,1586,1586,1586,0,0,0,0,0,0,0,0,0,0,0,878,878,878,878,875,875,873,871,871,869,869,867,867,867,867,869,869,869,871,873,875,875,878,880,882,885,887,889,889,0,0,0,0,0,1470,1464,1464,1458,1458,1458,1452,1452,1445,1445,1445,1445,1439,1439,1439,1439,1433,1427,1427,1427,1421,1421,1415,1415,1415,1415,1410,1410,1410,1404,1398,1398,1392,1392,1387,1387,1387,1387,1381,1381,1376,1376,1376,1376,1370,1370,1365,1359,1359,1354,1354,1354,1349,1349,1349,1349,1349,1349,1338,1338,1333,1333,1333,1333,1333,1328,1328,1328,1322,1322,1317,1312,1312,1312,1307,1307,1307,1307,1302,1302,1302,1297,1297,1292,1292,1288,1288,1283,1283,1283,1278,1278,1278,1273,1273,1273,1268,1268,1268,1264,1259,1255,1255,1255,1255,1250,1250,1250,1250,1245,1245,1241,1241,1236,1236,1232,1232,1232,1232,1227,1227,1227,1223,1219,1219,1219,1214,1214,1214,1210,1210,1206,1206,1202,1202,1197,1197,1197,1197,1193,1189,1189,1185,1185,1185,1181,1181,1181,1181,1177,1177,1173,1173,1169,1169,1169,1165,1165,1165,1161,1161,1161,1157,1157,1157,1153,1153,1153,1149,1149,1149,1141,1141,1138,1138,1138,1134,1134,1134,1130,1130,1130,1126,1126,1126,1123,1123,1123,1119,1119,1119,1115,1115,1115,1112,1108,1108,1108,1108,1105,1105,1101,1097,1094,1094,1094,1090,1090,1090,1090,1090,1087,1084,1084,1084,1080,1080,1080,1077,1077,1077,1073,1073,1070,1070,1067,1067,1067,1063,1063,1063,1063,1060,1057,1057,1057,1054,1054,1050,1050,1050,1050,1050,1047,1047,1047,1044,1044,1044,1041,1038,1038,1038,1034,1034,1031,1028,1028,1031,1028,1028,1025,1025,1025,1025,1025,1022,1019,1019,1016,1016,1016,1013,1013,1013,1013,1013,1010,1007,1007,1007,1004,1004,1001,1001,1001,1001,998,998,998,0,0,0,0,0,0,0,0,0,0,0,0,0,0,0,0,0,0,0,0,0,0,0,0,0,0,0,0,0,0,0
0,0,0,0,0,0,0,0,0,0,0,0,0,0,1616,1616,1609,1609,1609,1609,1609,1601,1601,1601,1601,1601,1601,1601,1601,1601,1601,1601,1601,1601,1601,1601,1601,1601,1601,1594,1594,1594,1594,1594,1594,1594,1594,1594,1594,1594,1586,1586,1586,1586,1586,1586,1586,1586,1586,1586,1586,1586,1586,1586,1586,1586,1586,1586,1586,1586,1586,1594,1594,1601,1601,1601,1609,1609,1601,1601,2301,2301,2301,2286,2286,2286,2286,2271,2271,2271,2256,2256,2241,2241,2226,2226,2212,1609,1601,1601,1601,1601,1594,1594,1594,1594,1594,1594,1594,1594,1594,1601,1601,1609,1609,1616,1616,1624,1624,1624,1624,1624,1632,1632,1632,1632,1632,1632,1639,1639,1647,1647,1647,1647,1655,1655,1655,1663,1663,1663,1671,1671,1680,1680,1680,1688,1680,1680,1688,1688,1688,1688,1696,1696,1696,1705,1705,1705,1705,1713,1713,1722,1722,1731,1731,1731,1731,1731,1731,1722,1722,1722,0,0,0,1080,1080,1080,1080,1077,1077,1077,1077,1073,1073,1070,1067,1067,1067,1067,1067,1070,1070,1073,1073,1077,1080,1084,1084,1084,1087,1087,1087,0,0,0,1766,1766,1776,1766,1766,1766,1766,1766,1766,1757,1757,1748,1739,1739,1731,1731,1731,1731,1731,1731,1722,1722,1722,1722,1722,1713,1713,1705,1705,1696,1696,1688,1688,1680,1680,1680,1671,1663,1663,1655,1655,1655,1655,1647,1647,1639,1632,1632,1632,1632,1632,1624,1624,1624,1624,1616,1609,1609,1609,1601,1601,1601,1594,1594,1594,1586,1586,1594,1601,0,0,0,0,0,0,0,0,0,885,878,878,878,878,875,875,873,871,871,869,869,869,869,869,869,869,869,869,871,873,875,875,878,880,885,887,889,889,889,0,0,0,0,0,1470,1464,1464,1458,1458,1458,1458,1452,1452,1452,1445,1445,1439,1439,1439,1439,1433,1427,1427,1427,1421,1421,1421,1415,1415,1415,1415,1415,1410,1404,1398,1398,1398,1392,1392,1387,1387,1387,1381,1381,1381,1376,1376,1376,1370,1370,1365,1365,1359,1359,1354,1354,1354,1354,1349,1349,1349,1349,1349,1338,1338,1333,1333,1333,1333,1328,1328,1328,1322,1322,1317,1317,1312,1312,1307,1307,1307,1307,1307,1302,1302,1297,1297,1297,1292,1292,1288,1288,1283,1283,1278,1278,1278,1273,1273,1273,1273,1268,1268,1264,1259,1255,1255,1255,1255,1255,1250,1250,1250,1250,1245,1245,1241,1236,1236,1232,1232,1232,1232,1232,1227,1227,1223,1223,1219,1219,1219,1214,1214,1210,1210,1210,1206,1202,1202,1197,1197,1197,1197,1193,1193,1189,1189,1185,1185,1185,1181,1181,1181,1177,1177,1173,1173,1169,1169,1169,1169,1165,1165,1165,1161,1161,1161,1157,1153,1153,1153,1153,1149,1149,1145,1145,1141,1138,1138,1138,1134,1134,1134,1130,1130,1130,1126,1126,1126,1123,1123,1123,1123,1119,1119,1115,1115,1115,1112,1108,1108,1108,1108,1105,1105,1101,1097,1094,1094,1094,1094,1094,1090,1090,1090,1087,1087,1084,1084,1084,1080,1077,1077,1077,1077,1073,1073,1070,1070,1067,1067,1067,1067,1063,1063,1063,1060,1057,1057,1057,1054,1054,1050,1050,1050,1050,1050,1047,1047,1047,1044,1044,1044,1041,1041,1038,1038,1038,1034,1034,1031,1031,1031,1028,1028,1025,1025,1025,1025,1025,1022,1019,1019,1019,1016,1016,1016,1016,1013,1013,1013,1010,1010,1007,1007,1004,1004,1004,1004,1001,1001,998,998,998,0,0,0,0,0,0,0,0,0,0,0,0,0,0,0,0,0,0,0,0,0,0,0,0,0,0,0,0,0,0,0
0,0,0,0,0,0,0,0,0,0,0,0,0,0,1624,1624,1616,1609,1609,1609,1609,1601,1601,1601,1601,1601,1601,1601,1601,1601,1601,1601,1601,1601,1601,1601,1601,1601,1601,1601,1601,1601,1601,1594,1594,1594,1594,1594,1594,1594,1594,1594,1594,1586,1586,1586,1586,1586,1586,1586,1586,1586,1586,1586,1586,1586,1586,1586,1586,1586,1586,1586,1594,1601,1601,1601,1609,1609,1601,1601,2317,2317,2301,2286,2286,2286,2286,2271,2271,2271,2256,2241,2241,2226,2226,2226,2212,1609,1601,1601,1601,1601,1594,1594,1594,1594,1594,1594,1594,1594,1594,1601,1601,1609,1609,1616,1616,1624,1624,1624,1624,1624,1624,1632,1632,1632,1632,1632,1639,1639,1647,1647,1655,1655,1655,1655,1655,1663,1663,1663,1671,1671,1680,1680,1680,1688,1680,1680,1688,1688,1688,1688,1696,1696,1696,1705,1705,1705,1705,1713,1713,1722,1722,1731,1731,1731,1731,1731,1731,1722,1722,1722,0,0,0,1080,1080,1080,1080,1080,1077,1077,1077,1073,1073,1070,1070,1067,1067,1067,1067,1070,1073,1073,1077,1080,1080,1084,1084,1087,1087,1087,1087,0,0,0,0,1785,1776,1776,1776,1766,1766,1766,1766,1757,1757,1748,1748,1739,1739,1731,1731,1731,1731,1731,1722,1722,1722,1722,1722,1722,1713,1713,1705,1696,1696,1688,1688,1680,1680,1680,1671,1663,1663,1655,1655,1655,1655,1647,1647,1639,1632,1632,1632,1632,1632,1624,1624,1624,1624,1624,1616,1616,1609,1609,1601,1601,1601,1594,1594,1594,1594,1594,1601,0,0,0,0,0,0,0,0,0,885,882,878,878,878,878,875,873,873,871,869,869,869,869,869,869,869,869,869,871,873,875,875,878,882,885,887,889,889,0,0,0,0,0,0,1470,1464,1464,1464,1464,1464,1458,1452,1452,1452,1445,1445,1445,1439,1439,1439,1433,1433,1427,1421,1421,1421,1421,1415,1415,1415,1415,1415,1410,1404,1398,1398,1398,1392,1392,1392,1392,1387,1387,1387,1381,1376,1376,1376,1370,1370,1370,1365,1365,1359,1359,1354,1354,1354,1349,1349,1349,1349,1343,1343,1338,1333,1333,1333,1333,1328,1328,1328,1322,1322,1317,1317,1312,1312,1307,1307,1307,1307,1307,1302,1302,1297,1297,1297,1292,1292,1288,1288,1288,1283,1283,1278,1278,1278,1273,1273,1273,1268,1268,1264,1259,1255,1255,1255,1255,1255,1250,1250,1250,1250,1245,1245,1241,1236,1236,1232,1232,1232,1232,1232,1232,1227,1227,1223,1219,1219,1219,1214,1214,1214,1210,1210,1206,1202,1202,1202,1197,1197,1197,1197,1193,1189,1189,1189,1185,1185,1181,1181,1181,1177,1177,1173,1173,1173,1169,1169,1169,1165,1165,1165,1161,1161,1161,1157,1153,1153,1153,1153,1149,1149,1145,1145,1141,1141,1138,1138,1134,1134,1134,1134,1134,1130,1130,1126,1126,1123,1123,1123,1123,1119,1119,1119,1115,1115,1112,1108,1108,1108,1108,1105,1105,1101,1097,1097,1094,1094,1094,1094,1090,1090,1090,1090,1087,1087,1084,1084,1080,1077,1077,1077,1077,1073,1073,1070,1070,1070,1067,1067,1067,1067,1063,1063,1060,1060,1057,1057,1054,1054,1054,1050,1050,1050,1050,1047,1047,1047,1047,1044,1044,1041,1041,1038,1038,1038,1034,1034,1034,1034,1031,1028,1028,1028,1028,1025,1025,1025,1022,1019,1019,1019,1016,1016,1016,1016,1016,1013,1013,1013,1013,1010,1007,1004,1004,1004,1001,1001,1001,998,998,998,0,0,0,0,0,0,0,0,0,0,0,0,0,0,0,0,0,0,0,0,0,0,0,0,0,0,0,0,0,0,0
0,0,0,0,0,0,0,0,0,0,0,0,0,0,1624,1624,1616,1609,1609,1609,1609,1609,1601,1601,1601,1601,1601,1601,1601,1601,1601,1601,1601,1601,1601,1601,1601,1601,1601,1601,1601,1601,1601,1601,1601,1601,1594,1594,1594,1594,1594,1594,1594,1594,1594,1594,1594,1594,1594,1594,1594,1594,1586,1586,1586,1586,1586,1586,1586,1586,1586,1586,1594,1601,1601,1601,1609,1609,1609,1609,2317,2317,2301,2286,2286,2286,2286,2271,2271,2271,2256,2241,2241,2226,2226,2226,2212,1609,1609,1601,1601,1601,1594,1594,1594,1594,1594,1594,1594,1594,1594,1601,1601,1609,1609,1616,1616,1624,1624,1624,1624,1624,1624,1632,1632,1632,1632,1632,1639,1639,1647,1647,1655,1655,1655,1655,1655,1663,1663,1663,1663,1671,1671,1680,1680,1688,1688,1688,1688,1688,1688,1696,1696,1696,1696,1705,1705,1705,1713,1713,1722,1722,1722,1731,1731,1731,1731,1731,1731,1731,1722,1722,0,0,0,1077,1077,1080,1080,1080,1077,1077,1077,1073,1073,1070,1070,1070,1070,1070,1070,1073,1073,1073,1077,1080,1084,1084,1084,1087,1087,1087,1090,1090,0,1785,1785,1785,1785,1776,1776,1776,1776,1766,1766,1766,1757,1748,1748,1748,1739,1739,1731,1731,1731,1731,1731,1722,1722,1722,1722,1722,1713,1713,1705,1705,1696,1688,1688,1680,1680,1680,1671,1663,1663,1663,1663,1655,1655,1655,1647,1647,1639,1632,1632,1632,1632,1624,1624,1624,1624,1624,1616,1616,1616,1609,1601,1601,1601,1594,1594,1594,1594,1594,0,0,0,0,0,0,0,0,0,0,885,882,880,878,878,878,875,873,873,871,869,869,869,869,869,869,869,869,869,873,875,875,878,880,885,887,887,887,887,0,0,0,0,0,0,1470,1470,1470,1464,1464,1464,1458,1452,1452,1452,1445,1445,1445,1445,1439,1439,1439,1433,1427,1421,1421,1421,1421,1415,1415,1415,1415,1415,1410,1404,1398,1398,1398,1392,1392,1392,1392,1392,1392,1387,1381,1381,1376,1376,1370,1370,1370,1365,1365,1359,1359,1354,1354,1354,1349,1349,1349,1349,1343,1343,1338,1333,1333,1333,1333,1328,1328,1328,1322,1322,1322,1317,1312,1312,1312,1307,1307,1307,1307,1307,1302,1302,1302,1297,1292,1292,1288,1288,1288,1288,1283,1283,1278,1278,1273,1273,1273,1268,1268,1264,1259,1255,1255,1255,1255,1255,1250,1250,1250,1250,1245,1245,1241,1236,1236,1236,1232,1232,1232,1232,1232,1227,1227,1223,1219,1219,1219,1214,1214,1214,1214,1210,1210,1206,1202,1202,1202,1197,1197,1197,1193,1189,1189,1189,1185,1185,1181,1181,1181,1181,1181,1177,1177,1173,1173,1169,1169,1169,1165,1165,1161,1161,1161,1157,1157,1153,1153,1153,1153,1149,1149,1145,1145,1141,1138,1138,1138,1134,1134,1134,1134,1130,1130,1126,1126,1123,1123,1123,1123,1119,1119,1119,1115,1115,1112,1108,1108,1108,1108,1108,1105,1105,1101,1097,1094,1094,1094,1094,1090,1090,1090,1090,1087,1087,1087,1084,1080,1077,1077,1077,1077,1073,1073,1073,1073,1070,1067,1067,1067,1067,1063,1063,1060,1060,1057,1057,1057,1054,1054,1054,1050,1050,1050,1047,1047,1047,1044,1044,1044,1041,1041,1041,1038,1038,1034,1034,1034,1034,1031,1028,1028,1028,1028,1025,1025,1025,1022,1022,1019,1019,1016,1016,1016,1016,1016,1013,1013,1013,1013,1010,1010,1007,1004,1004,1001,1001,1001,1001,998,998,0,0,0,0,0,0,0,0,0,0,0,0,0,0,0,0,0,0,0,0,0,0,0,0,0,0,0,0,0,0,0
0,0,0,0,0,0,0,0,0,0,0,0,0,0,1624,1624,1616,1616,1616,1609,1609,1609,1601,1601,1601,1601,1601,1601,1601,1601,1601,1601,1601,1601,1601,1601,1601,1601,1601,1601,1601,1601,1601,1601,1601,1601,1601,1601,1601,1594,1594,1594,1594,1594,1594,1594,1594,1594,1594,1594,1594,1594,1594,1586,1586,1586,1586,1586,1586,1586,1586,1594,1594,1601,1601,1601,1609,1616,1616,1616,2317,2317,2301,2286,2286,2286,2286,2271,2271,2271,2256,2256,2241,2226,2226,2226,2212,1609,1609,1601,1601,1601,1601,1601,1594,1594,1594,1594,1594,1594,1594,1601,1601,1609,1609,1616,1616,1624,1624,1624,1624,1624,1632,1632,1632,1632,1632,1639,1639,1647,1647,1647,1655,1655,1655,1655,1655,1663,1663,1663,1663,1671,1671,1680,1680,1688,1688,1688,1688,1688,1688,1696,1696,1696,1696,1705,1713,1713,1713,1713,1722,1722,1722,1731,1731,1731,1731,1731,1731,1731,1722,1722,0,0,0,1077,1077,1080,1080,1080,1080,1080,1077,1073,1073,1070,1070,1070,1070,1070,1070,1073,1077,1077,1077,1080,1084,1084,1084,1084,1087,1087,1087,0,0,0,1785,1785,1785,1776,1776,1776,1776,1766,1766,1766,1757,1757,1748,1748,1739,1739,1731,1731,1731,1731,1731,1731,1722,1722,1722,1722,1713,1713,1705,1705,1696,1688,1688,1688,1680,1680,1671,1663,1663,1663,1663,1655,1655,1655,1647,1647,1639,1639,1632,1632,1632,1632,1624,1624,1624,1624,1624,1616,1616,1609,1609,1601,1601,1594,1594,1594,1594,1594,1601,0,0,0,0,0,0,0,0,0,885,882,882,878,878,878,875,875,873,871,869,869,869,869,869,869,869,869,873,873,875,875,878,880,885,887,887,887,887,0,0,0,0,0,0,1470,1470,1470,1464,1464,1464,1458,1458,1458,1452,1452,1445,1445,1445,1439,1439,1439,1433,1427,1421,1421,1421,1421,1415,1415,1415,1415,1415,1415,1404,1404,1398,1398,1392,1392,1392,1392,1392,1392,1387,1387,1381,1381,1376,1376,1370,1370,1370,1365,1365,1365,1359,1354,1354,1349,1349,1349,1349,1343,1343,1338,1338,1333,1333,1333,1333,1328,1328,1328,1322,1322,1317,1317,1312,1312,1312,1307,1307,1307,1307,1302,1302,1297,1297,1292,1292,1288,1288,1288,1288,1283,1283,1278,1278,1278,1273,1273,1273,1268,1264,1259,1255,1255,1255,1255,1255,1255,1255,1250,1250,1250,1250,1241,1241,1236,1236,1232,1232,1232,1232,1232,1227,1227,1227,1223,1219,1219,1214,1214,1214,1214,1214,1210,1210,1206,1202,1202,1197,1197,1197,1193,1193,1189,1189,1185,1185,1185,1181,1181,1181,1181,1177,1177,1177,1173,1169,1169,1169,1165,1165,1165,1165,1161,1157,1157,1153,1153,1153,1153,1149,1149,1145,1145,1145,1141,1138,1138,1138,1134,1134,1134,1134,1130,1130,1126,1123,1123,1123,1123,1119,1119,1119,1115,1115,1112,1112,1108,1108,1108,1108,1105,1105,1101,1101,1097,1094,1094,1094,1094,1090,1090,1090,1090,1087,1087,1084,1080,1080,1080,1077,1077,1077,1073,1073,1073,1073,1067,1067,1067,1067,1063,1063,1060,1060,1060,1060,1057,1057,1054,1054,1050,1050,1050,1050,1047,1047,1044,1044,1041,1041,1041,1041,1038,1038,1038,1038,1034,1034,1034,1031,1031,1028,1028,1025,1025,1025,1022,1022,1019,1019,1019,1016,1016,1016,1016,1016,1016,1013,1013,1013,1010,1007,1007,1004,1001,1001,1001,1001,1001,1001,0,0,0,0,0,0,0,0,0,0,0,0,0,0,0,0,0,0,0,0,0,0,0,0,0,0,0,0,0,0,0
0,0,0,0,0,0,0,0,0,0,0,0,0,0,1624,1624,1624,1624,1616,1616,1616,1609,1609,1609,1609,1601,1601,1601,1601,1601,1601,1601,1601,1609,1601,1601,1601,1601,1601,1601,1601,1601,1601,1601,1601,1601,1601,1601,1601,1601,1601,1601,1601,1594,1594,1594,1594,1594,1594,1594,1594,1594,1594,1594,1594,1586,1586,1586,1586,1586,1586,1594,1594,1601,1609,1609,1616,1616,1616,1616,1616,2286,2286,2286,2286,2286,2286,2271,2271,2271,2256,2256,2241,2226,2226,2212,2212,1601,1601,1601,1601,1601,1601,1601,1601,1594,1594,1594,1601,1601,1601,1601,1601,1609,1609,1616,1616,1624,1624,1624,1624,1624,1632,1632,1632,1632,1632,1639,1639,1647,1647,1647,1655,1655,1655,1655,1655,1663,1663,1663,1663,1671,1671,1680,1680,1688,1688,1688,1688,1688,1688,1696,1696,1696,1696,1705,1705,1705,1713,1722,1722,1722,1731,1731,1731,1731,1731,1731,1731,1731,1731,1731,0,0,0,1084,1084,1084,1084,1084,1080,1080,1077,1077,1073,1070,1070,1070,1070,1070,1073,1073,1077,1077,1080,1084,1084,1084,1084,1084,1087,1087,1087,0,0,0,1785,1785,1785,1776,1776,1776,1776,1776,1766,1766,1757,1757,1748,1748,1739,1739,1739,1731,1731,1731,1731,1731,1722,1722,1722,1722,1713,1713,1705,1705,1696,1696,1688,1688,1688,1680,1671,1663,1663,1663,1663,1655,1655,1655,1655,1647,1647,1639,1639,1632,1632,1632,1632,1632,1624,1624,1624,1624,1616,1616,1609,1609,1601,1601,1594,1594,1594,1601,1601,0,0,0,0,0,0,0,0,0,0,882,882,880,878,878,878,875,873,871,871,869,869,869,869,869,869,869,873,875,875,878,878,880,885,887,887,887,887,0,0,0,0,0,0,1470,1470,1470,1464,1464,1464,1464,1458,1458,1452,1452,1445,1445,1445,1439,1439,1439,1433,1427,1421,1421,1421,1421,1415,1415,1415,1415,1415,1415,1410,1404,1398,1398,1398,1392,1392,1392,1392,1392,1392,1387,1387,1381,1376,1376,1370,1370,1370,1365,1365,1365,1359,1354,1354,1354,1349,1349,1349,1349,1343,1343,1338,1333,1333,1333,1333,1328,1328,1328,1328,1322,1317,1317,1317,1312,1312,1307,1307,1307,1307,1302,1302,1297,1297,1292,1292,1288,1288,1288,1288,1283,1283,1278,1278,1278,1273,1273,1273,1268,1264,1259,1259,1255,1255,1255,1255,1255,1255,1250,1250,1250,1250,1245,1241,1241,1236,1236,1236,1232,1232,1232,1232,1227,1227,1223,1223,1219,1219,1214,1214,1214,1214,1210,1210,1206,1202,1202,1202,1202,1197,1197,1193,1193,1189,1185,1185,1185,1185,1181,1181,1181,1177,1177,1177,1173,1173,1169,1169,1169,1165,1165,1165,1161,1161,1157,1153,1153,1153,1153,1149,1149,1145,1145,1145,1141,1141,1138,1138,1134,1134,1134,1134,1130,1130,1126,1123,1123,1123,1123,1119,1119,1119,1119,1115,1112,1112,1108,1108,1108,1108,1105,1105,1105,1101,1101,1097,1097,1094,1094,1094,1090,1090,1090,1087,1087,1084,1084,1080,1080,1077,1077,1077,1077,1077,1073,1073,1070,1070,1067,1067,1067,1063,1063,1063,1060,1060,1060,1057,1054,1054,1054,1050,1050,1050,1047,1047,1047,1044,1041,1041,1041,1041,1041,1041,1038,1038,1038,1038,1034,1031,1031,1028,1028,1028,1025,1025,1022,1022,1019,1019,1019,1016,1016,1016,1016,1016,1016,1013,1013,1013,1013,1010,1010,1004,1001,1001,1001,1001,1001,1001,0,0,0,0,0,0,0,0,0,0,0,0,0,0,0,0,0,0,0,0,0,0,0,0,0,0,0,0,0,0,0
0,0,0,0,0,0,0,0,0,0,0,0,0,0,1624,1624,1624,1624,1616,1616,1616,1616,1609,1609,1609,1601,1601,1601,1601,1601,1601,1601,1601,1609,1609,1609,1601,1601,1601,1601,1601,1601,1601,1601,1601,1601,1601,1601,1601,1601,1601,1601,1601,1601,1601,1601,1601,1601,1594,1594,1594,1594,1594,1594,1594,1594,1586,1586,1586,1586,1594,1594,1601,1601,1609,1616,1616,1616,1616,1624,1624,2286,2286,2286,2286,2286,2286,2271,2271,2256,2256,2241,2226,2212,2212,2212,2212,1601,1601,1601,1601,1601,1601,1601,1601,1594,1594,1601,1601,1601,1601,1601,1601,1609,1609,1616,1616,1624,1624,1624,1624,1624,1632,1632,1632,1632,1639,1639,1639,1647,1647,1647,1655,1655,1655,1655,1655,1663,1663,1663,1671,1671,1671,1680,1680,1688,1688,1688,1688,1688,1696,1696,1696,1696,1696,1705,1705,1705,1713,1722,1722,1722,1731,1731,1731,1731,1731,1739,1739,1739,0,1739,0,0,0,1084,1084,1084,1084,1084,1080,1080,1077,1077,1073,1070,1070,1070,1070,1070,1073,1073,1077,1080,1080,1084,1084,1087,1087,1087,1087,1087,1087,0,0,0,1794,1785,1785,1776,1776,1776,1776,1766,1766,1766,1766,1757,1757,1748,1748,1748,1739,1731,1731,1731,1731,1731,1722,1722,1722,1722,1713,1713,1705,1705,1696,1696,1688,1688,1688,1688,1680,1671,1663,1663,1663,1663,1655,1655,1655,1647,1647,1639,1639,1639,1632,1632,1632,1632,1624,1624,1624,1624,1616,1616,1609,1609,1601,1601,1594,1594,1594,1601,1601,0,0,0,0,0,0,0,0,0,0,885,882,880,880,878,878,875,873,871,871,869,869,869,869,869,869,869,873,875,875,878,880,880,885,887,887,889,889,889,0,0,0,0,0,1470,1470,1470,1470,1464,1464,1464,1458,1458,1452,1452,1445,1445,1445,1439,1439,1439,1433,1427,1427,1421,1421,1421,1415,1415,1415,1415,1415,1415,1410,1404,1398,1398,1398,1398,1392,1392,1392,1392,1392,1392,1387,1381,1381,1376,1370,1370,1370,1370,1365,1365,1359,1354,1354,1354,1354,1349,1349,1349,1349,1343,1343,1338,1333,1333,1333,1328,1328,1328,1328,1328,1322,1317,1317,1312,1312,1307,1307,1307,1307,1307,1302,1297,1297,1292,1292,1292,1288,1288,1288,1283,1283,1278,1278,1278,1273,1273,1273,1268,1268,1264,1259,1259,1255,1255,1255,1255,1255,1250,1250,1250,1250,1245,1245,1241,1241,1236,1236,1232,1232,1232,1232,1227,1227,1223,1223,1223,1219,1219,1214,1214,1214,1210,1210,1206,1206,1202,1202,1202,1197,1197,1197,1193,1189,1189,1185,1185,1185,1185,1181,1181,1181,1181,1177,1177,1173,1169,1169,1169,1165,1165,1165,1161,1161,1161,1157,1153,1153,1153,1153,1149,1149,1149,1145,1141,1141,1138,1138,1138,1134,1134,1134,1130,1130,1126,1123,1123,1123,1123,1119,1119,1119,1119,1119,1115,1112,1108,1108,1108,1108,1105,1105,1105,1101,1101,1097,1097,1094,1094,1094,1090,1090,1090,1090,1090,1084,1084,1080,1080,1077,1077,1077,1077,1077,1077,1073,1070,1070,1067,1067,1067,1063,1063,1063,1063,1063,1060,1057,1057,1054,1054,1054,1050,1050,1050,1047,1047,1044,1044,1041,1041,1041,1041,1041,1038,1038,1038,1038,1038,1034,1031,1031,1028,1028,1025,1025,1025,1022,1019,1019,1019,1016,1016,1016,1016,1016,1016,1013,1013,1013,1013,1010,1010,1004,1001,1001,1001,1001,1001,1001,0,0,0,0,0,0,0,0,0,0,0,0,0,0,0,0,0,0,0,0,0,0,0,0,0,0,0,0,0,0,0
0,0,0,0,0,0,0,0,0,0,0,0,0,0,1632,1624,1624,1624,1616,1616,1616,1616,1609,1609,1609,1601,1601,1601,1601,1601,1616,1609,1609,1609,1609,1601,1601,1601,1601,1601,1601,1601,1601,1601,1601,1601,1601,1601,1601,1601,1601,1601,1601,1601,1601,1601,1601,1601,1594,1594,1601,1594,1594,1594,1594,1594,1586,1586,1586,1586,1594,1594,1601,1601,1609,1609,1616,1616,1616,1616,1624,1624,2286,2286,2286,2286,2286,2286,2271,2256,2256,2226,2170,2170,2212,2212,2212,1609,1609,1601,1601,1601,1601,1601,1601,1601,1601,1601,1601,1601,1601,1601,1609,1609,1609,1616,1616,1624,1624,1624,1624,1624,1632,1632,1632,1632,1639,1639,1647,1647,1647,1647,1655,1655,1655,1655,1663,1663,1663,1663,1671,1671,1671,1680,1688,1688,1688,1688,1688,1696,1696,1696,1696,1696,1696,1705,1705,1705,1713,1722,1722,1722,1731,1731,1731,1739,1739,1739,1739,0,0,0,0,0,1084,1084,1084,1087,1087,1084,1084,1080,1077,1077,1073,1070,1070,1073,1073,1073,1073,1077,1077,1080,1080,1084,1084,1087,1087,1087,1087,1090,0,0,0,1794,1794,1785,1785,1785,1785,1776,1776,1766,1766,1766,1766,1757,1757,1757,1748,1748,1739,1739,1731,1731,1731,1731,1722,1722,1722,1722,1722,1713,1713,1705,1705,1696,1688,1688,1688,1688,1680,1671,1671,1671,1663,1663,1663,1655,1655,1655,1647,1647,1639,1639,1632,1632,1632,1632,1624,1624,1624,1624,1616,1616,1609,1609,1601,1601,1601,1594,1594,1601,1601,0,0,0,0,0,0,0,0,0,0,885,882,880,880,878,878,875,873,871,871,869,869,869,869,869,869,869,873,875,878,878,880,882,887,887,887,887,887,887,0,0,0,0,0,0,1470,1470,1470,1470,1464,1464,1458,1458,1452,1452,1452,1445,1445,1439,1439,1439,1433,1433,1427,1421,1421,1421,1421,1421,1421,1415,1415,1415,1410,1404,1398,1398,1398,1398,1398,1398,1392,1392,1392,1392,1387,1381,1381,1376,1376,1370,1370,1370,1365,1365,1359,1359,1354,1354,1354,1349,1349,1349,1349,1343,1343,1338,1333,1333,1333,1328,1328,1328,1328,1328,1322,1322,1317,1312,1312,1312,1307,1307,1307,1307,1302,1302,1297,1292,1292,1292,1292,1288,1288,1288,1283,1278,1278,1278,1273,1273,1268,1268,1268,1264,1264,1259,1255,1255,1255,1255,1255,1255,1250,1250,1250,1245,1245,1241,1241,1236,1236,1236,1232,1232,1232,1227,1227,1227,1223,1223,1219,1219,1214,1214,1214,1210,1210,1206,1206,1202,1202,1202,1197,1197,1197,1197,1193,1189,1185,1185,1185,1185,1185,1181,1181,1181,1181,1177,1177,1173,1169,1169,1169,1165,1165,1161,1161,1161,1157,1157,1153,1153,1153,1149,1149,1149,1145,1145,1141,1141,1138,1138,1138,1134,1134,1134,1130,1130,1126,1123,1123,1123,1119,1119,1119,1119,1119,1115,1112,1108,1108,1108,1108,1105,1105,1105,1101,1101,1101,1097,1097,1094,1094,1094,1090,1090,1090,1090,1087,1084,1080,1080,1077,1077,1077,1077,1077,1077,1077,1073,1070,1070,1067,1067,1063,1063,1063,1063,1063,1063,1060,1057,1057,1054,1054,1050,1050,1050,1047,1047,1044,1044,1041,1041,1041,1041,1041,1038,1038,1038,1038,1038,1034,1031,1031,1028,1028,1025,1025,1025,1022,1019,1019,1019,1019,1019,1016,1016,1016,1016,1013,1013,1013,1013,1010,1007,1004,1004,1001,1001,1001,1001,1001,0,0,0,0,0,0,0,0,0,0,0,0,0,0,0,0,0,0,0,0,0,0,0,0,0,0,0,0,0,0,0
0,0,0,0,0,0,0,0,0,0,0,0,0,0,1632,1632,1632,1616,1616,1616,1616,1609,1609,1609,1609,1609,1601,1601,1601,1616,1616,1609,1609,1609,1609,1601,1601,1601,1601,1601,1601,1601,1601,1601,1601,1601,1601,1601,1601,1601,1601,1601,1601,1601,1601,1601,1601,1601,1601,1601,1601,1601,1594,1594,1594,1594,1594,1586,1586,1594,1594,1594,1601,1609,1609,1609,1616,1616,1616,1616,1624,1624,2301,2301,2286,2286,2286,2286,2271,2256,2256,2143,2116,2103,2103,2103,2078,1601,1601,1601,1601,1601,1601,1601,1601,1601,1601,1601,1601,1601,1601,1601,1609,1609,1609,1616,1616,1624,1624,1624,1624,1624,1632,1632,1632,1639,1639,1639,1647,1647,1647,1647,1655,1655,1655,1655,1663,1663,1663,1663,1671,1671,1671,1680,1688,1688,1688,1696,1696,1696,1696,1696,1705,1705,1705,1705,1705,1713,1713,1722,1722,1722,1731,1731,1731,1739,1739,1739,1739,1739,0,1739,1739,0,0,1084,1084,1087,1087,1084,1080,1077,1077,1077,1073,1073,1073,1073,1073,1073,1073,1077,1077,1080,1084,1084,1084,1084,1087,1087,1087,1090,1090,0,0,0,1794,1794,1785,1785,1785,1785,1776,1776,1766,1766,1766,1757,1757,1757,1748,1748,1739,1739,1731,1731,1731,1731,1731,1722,1722,1722,1722,1713,1713,1705,1705,1696,1696,1688,1688,1688,1680,1671,1671,1671,1663,1663,1663,1663,1655,1655,1647,1647,1647,1639,1639,1632,1632,1632,1624,1624,1624,1624,1616,1616,1609,1609,1601,1601,1601,1594,1594,1601,1601,0,0,0,0,0,0,0,0,0,0,885,882,880,880,878,878,875,873,871,871,869,869,869,869,869,869,871,873,875,878,878,880,882,887,887,887,887,887,887,0,0,0,0,0,0,1470,1470,1470,1470,1464,1464,1458,1458,1452,1452,1452,1445,1445,1445,1439,1439,1439,1439,1427,1427,1421,1421,1421,1421,1421,1415,1415,1415,1410,1404,1398,1398,1398,1398,1398,1398,1392,1392,1392,1392,1387,1387,1381,1376,1376,1370,1370,1370,1370,1370,1365,1359,1354,1354,1354,1354,1349,1349,1349,1349,1343,1338,1338,1338,1333,1333,1328,1328,1328,1328,1322,1322,1317,1312,1312,1312,1307,1307,1307,1307,1307,1302,1302,1292,1292,1292,1292,1288,1288,1288,1283,1278,1278,1278,1273,1273,1268,1268,1268,1268,1264,1264,1259,1259,1259,1255,1255,1255,1250,1250,1250,1250,1245,1241,1241,1236,1236,1236,1236,1232,1232,1227,1227,1227,1223,1223,1219,1219,1214,1214,1214,1210,1210,1206,1206,1202,1202,1202,1202,1197,1197,1197,1193,1189,1189,1185,1185,1185,1185,1185,1181,1181,1181,1181,1177,1177,1173,1169,1169,1165,1165,1161,1161,1161,1157,1157,1153,1153,1153,1153,1149,1149,1145,1145,1145,1141,1141,1138,1138,1138,1134,1134,1134,1130,1130,1126,1123,1123,1119,1119,1119,1119,1119,1115,1112,1112,1108,1108,1108,1105,1105,1105,1101,1101,1101,1097,1097,1094,1094,1094,1094,1090,1090,1090,1087,1084,1084,1080,1080,1080,1080,1077,1077,1077,1077,1073,1070,1070,1067,1067,1063,1063,1063,1063,1063,1063,1060,1060,1057,1054,1054,1050,1050,1050,1047,1047,1044,1044,1041,1041,1041,1041,1041,1038,1038,1038,1038,1038,1034,1034,1031,1031,1028,1025,1025,1025,1022,1022,1019,1019,1019,1019,1016,1016,1016,1016,1013,1013,1013,1013,1010,1007,1004,1004,1001,1001,1001,1001,1001,0,0,0,0,0,0,0,0,0,0,0,0,0,0,0,0,0,0,0,0,0,0,0,0,0,0,0,0,0,0,0
0,0,0,0,0,0,0,0,0,0,0,0,0,0,1624,1624,1632,1616,1616,1616,1616,1609,1609,1609,1609,1609,1601,1601,1601,1616,1616,1609,1609,1609,1609,1601,1601,1601,1601,1601,1601,1601,1601,1601,1601,1601,1601,1601,1601,1601,1601,1601,1601,1601,1601,1601,1601,1601,1601,1601,1601,1601,1601,1594,1594,1594,1594,1594,1594,1594,1594,1594,1601,1601,1609,1609,1616,1616,1624,1624,1624,1624,1624,2301,2301,2301,2301,2301,2286,2271,2271,2078,2078,2078,2078,2078,2078,2065,1609,1609,1609,1609,1609,1601,1601,1601,1601,1601,1601,1601,1601,1609,1609,1616,1616,1616,1624,1624,1624,1624,1624,1624,1632,1632,1632,1639,1639,1639,1647,1647,1647,1647,1655,1655,1655,1655,1663,1663,1663,1671,1671,1671,1680,1688,1688,1688,1688,1696,1696,1696,1696,1696,1705,1705,1705,1705,1713,1713,1722,1722,1722,1731,1731,1731,1731,1739,1739,1739,1739,1739,1739,1739,1739,0,1084,1084,1084,1084,1084,1084,1080,1077,1077,1077,1073,1073,1073,1073,1073,1073,1073,1077,1077,1080,1080,1084,1084,1084,1087,1087,1087,1090,1090,0,0,0,1794,1794,1794,1794,1785,1785,1785,1776,1766,1766,1766,1757,1757,1757,1748,1748,1739,1739,1739,1731,1731,1731,1731,1722,1722,1722,1713,1713,1705,1705,1705,1696,1696,1688,1688,1688,1680,1680,1680,1671,1663,1663,1663,1663,1655,1655,1655,1647,1647,1639,1639,1632,1632,1632,1624,1624,1624,1624,1616,1616,1609,1609,1601,1601,1601,1594,1594,1601,1601,0,0,0,0,0,0,0,0,0,0,885,882,880,880,880,878,875,873,871,871,869,869,869,869,869,869,873,873,875,878,880,882,882,887,887,887,887,887,887,0,0,0,0,0,1477,1470,1470,1470,1470,1464,1464,1464,1464,1458,1458,1452,1445,1445,1445,1445,1439,1439,1439,1433,1427,1421,1421,1421,1421,1421,1421,1415,1415,1410,1404,1398,1398,1398,1398,1398,1398,1392,1392,1392,1392,1387,1387,1376,1376,1376,1370,1370,1370,1370,1365,1365,1359,1354,1354,1354,1354,1349,1349,1349,1349,1343,1343,1338,1338,1333,1333,1333,1328,1328,1328,1328,1322,1317,1317,1312,1312,1307,1307,1307,1307,1307,1302,1302,1302,1292,1292,1292,1292,1288,1288,1288,1283,1278,1278,1278,1273,1273,1273,1268,1268,1268,1264,1264,1259,1259,1255,1255,1255,1255,1250,1250,1250,1250,1245,1241,1241,1236,1236,1236,1232,1232,1227,1227,1227,1223,1223,1219,1219,1219,1214,1214,1214,1210,1210,1206,1206,1202,1202,1202,1197,1197,1197,1197,1193,1189,1189,1185,1185,1185,1185,1185,1181,1181,1181,1181,1177,1177,1173,1169,1169,1165,1165,1165,1161,1161,1157,1157,1153,1153,1153,1149,1149,1145,1145,1145,1141,1141,1138,1138,1138,1134,1134,1134,1130,1130,1126,1123,1123,1119,1119,1119,1119,1119,1115,1115,1112,1112,1108,1108,1105,1105,1105,1105,1101,1101,1097,1097,1097,1094,1094,1094,1094,1090,1090,1087,1084,1084,1080,1080,1080,1080,1080,1077,1077,1077,1077,1073,1070,1067,1067,1067,1063,1063,1063,1063,1063,1060,1060,1057,1054,1054,1050,1050,1050,1050,1047,1047,1044,1044,1041,1041,1041,1041,1038,1038,1038,1038,1038,1038,1034,1031,1031,1028,1025,1025,1025,1022,1022,1022,1019,1019,1016,1016,1016,1016,1016,1013,1013,1013,1013,1013,1007,1007,1004,1004,1001,1001,1001,1001,0,0,0,0,0,0,0,0,0,0,0,0,0,0,0,0,0,0,0,0,0,0,0,0,0,0,0,0,0,0,0
0,0,0,0,0,0,0,0,0,0,0,0,0,0,1624,1624,1632,1624,1624,1624,1624,1616,1616,1616,1609,1609,1601,1601,1609,1616,1616,1609,1609,1609,1609,1601,1601,1601,1601,1601,1601,1601,1601,1601,1601,1601,1601,1601,1601,1601,1601,1601,1601,1601,1601,1601,1601,1601,1601,1601,1601,1601,1601,1594,1594,1594,1594,1594,1594,1594,1594,1594,1601,1601,1609,1609,1616,1616,1616,1616,1624,1624,1624,2317,2317,2317,2301,2301,2301,2053,2053,2053,2065,2065,2065,2065,2065,2065,1609,1609,1609,1609,1609,1601,1601,1601,1601,1601,1601,1601,1609,1609,1609,1616,1616,1616,1624,1624,1624,1624,1624,1632,1632,1632,1632,1639,1639,1639,1647,1647,1647,1655,1655,1655,1655,1663,1663,1663,1671,1671,1671,1680,1680,1688,1688,1688,1688,1696,1696,1696,1696,1705,1705,1713,1713,1713,1713,1713,1722,1722,1722,1731,1731,1731,1731,1739,1739,1739,1739,1731,1731,1731,1731,1087,1087,1084,1084,1084,1084,1084,1080,1077,1077,1077,1073,1073,1073,1073,1073,1073,1073,1077,1077,1080,1080,1084,1084,1084,1087,1087,1087,1090,0,0,0,0,1794,1794,1794,1794,1794,1794,1785,1785,1776,1776,1766,1766,1757,1757,1757,1757,1748,1739,1739,1731,1731,1731,1731,1722,1722,1722,1713,1713,1705,1705,1705,1696,1696,1696,1688,1688,1680,1680,1680,1671,1671,1663,1663,1663,1655,1655,1655,1655,1655,1647,1647,1639,1632,1632,1624,1624,1624,1624,1616,1616,1609,1609,1601,1601,1601,1601,1601,1601,1601,0,0,0,0,0,0,0,0,0,0,885,882,882,880,880,878,875,873,871,871,869,869,869,869,869,869,873,875,878,878,880,882,882,887,887,887,887,889,0,0,0,0,0,1483,1477,1477,1477,1470,1470,1464,1464,1464,1464,1458,1458,1452,1445,1445,1445,1445,1439,1439,1439,1433,1427,1421,1421,1421,1421,1421,1421,1415,1415,1410,1404,1398,1398,1398,1398,1398,1398,1392,1392,1392,1392,1387,1387,1376,1376,1376,1370,1370,1370,1370,1365,1365,1359,1359,1354,1354,1354,1354,1349,1349,1349,1343,1343,1338,1338,1333,1333,1333,1333,1328,1328,1328,1322,1317,1317,1312,1312,1312,1312,1307,1307,1307,1302,1302,1302,1297,1292,1292,1292,1288,1288,1288,1283,1283,1278,1278,1273,1273,1273,1273,1268,1268,1264,1264,1259,1259,1255,1255,1255,1255,1250,1250,1250,1250,1250,1241,1241,1236,1236,1236,1232,1232,1232,1227,1227,1227,1223,1219,1219,1219,1214,1214,1214,1214,1210,1210,1206,1206,1202,1202,1197,1197,1197,1197,1193,1193,1189,1189,1185,1185,1185,1185,1185,1181,1181,1181,1177,1177,1173,1169,1169,1165,1165,1165,1161,1161,1161,1157,1153,1153,1153,1149,1149,1149,1145,1145,1145,1141,1141,1138,1138,1134,1134,1134,1130,1130,1130,1123,1123,1123,1123,1119,1119,1119,1119,1115,1112,1112,1108,1108,1105,1105,1105,1105,1105,1101,1097,1097,1097,1094,1094,1094,1094,1094,1090,1090,1087,1084,1084,1080,1080,1080,1080,1077,1077,1077,1077,1073,1070,1067,1067,1067,1063,1063,1063,1063,1063,1060,1060,1057,1057,1054,1054,1050,1050,1050,1047,1047,1044,1044,1041,1041,1041,1041,1038,1038,1038,1038,1038,1038,1034,1031,1031,1028,1028,1025,1025,1025,1022,1022,1019,1019,1016,1016,1016,1016,1016,1013,1013,1013,1013,1010,1007,1004,1004,1004,1001,1001,1001,1001,0,0,0,0,0,0,0,0,0,0,0,0,0,0,0,0,0,0,0,0,0,0,0,0,0,0,0,0,0,0,0
0,0,0,0,0,0,0,0,0,0,0,0,0,0,1624,1624,1632,1624,1624,1624,1624,1616,1616,1616,1616,1616,1609,1609,1616,1624,1616,1616,1609,1601,1601,1601,1601,1601,1601,1601,1601,1601,1601,1601,1601,1601,1601,1601,1601,1601,1601,1601,1601,1601,1601,1601,1601,1601,1601,1601,1601,1601,1601,1594,1594,1594,1594,1594,1594,1594,1594,1601,1601,1609,1609,1609,1609,1616,1616,1616,1616,1624,1624,1624,1624,2016,2016,2016,2016,2016,2028,2040,2053,2065,2065,2065,2065,2065,1616,1616,1616,1616,1616,1609,1601,1601,1601,1601,1601,1601,1609,1609,1609,1616,1616,1616,1624,1624,1624,1624,1624,1632,1632,1632,1632,1639,1639,1639,1647,1647,1647,1655,1655,1655,1655,1663,1663,1663,1671,1671,1671,1680,1680,1688,1688,1688,1688,1696,1696,1696,1696,1705,1705,1713,1713,1713,1713,1722,1722,1722,1722,1731,1731,1731,1731,1739,1739,1739,1739,1731,1731,1731,1731,1087,1087,1087,1087,1087,1087,1084,1080,1077,1077,1077,1073,1073,1073,1073,1073,1073,1073,1077,1077,1080,1084,1084,1084,1087,1087,1087,1087,1090,0,0,0,1804,1804,1804,1794,1794,1794,1794,1794,1785,1776,1776,1766,1766,1757,1757,1757,1757,1748,1739,1739,1731,1731,1731,1731,1722,1722,1713,1713,1713,1705,1705,1705,1696,1696,1696,1688,1688,1688,1680,1680,1671,1671,1663,1663,1663,1655,1655,1655,1655,1655,1647,1647,1639,1639,1632,1624,1624,1624,1624,1616,1616,1616,1609,1601,1601,1601,1601,1601,1601,0,0,0,0,0,0,0,0,0,0,0,885,882,882,880,880,878,875,875,873,871,869,869,869,869,869,869,873,875,878,880,880,882,882,887,887,887,887,0,0,0,0,0,0,1483,1477,1477,1477,1470,1470,1464,1464,1464,1464,1458,1458,1452,1445,1445,1445,1445,1445,1439,1439,1439,1433,1427,1421,1421,1421,1421,1421,1415,1415,1410,1404,1404,1404,1398,1398,1398,1398,1392,1392,1392,1392,1387,1387,1381,1376,1376,1376,1370,1370,1370,1370,1365,1365,1359,1359,1354,1354,1354,1354,1349,1349,1349,1343,1343,1338,1338,1333,1333,1333,1328,1328,1328,1328,1322,1317,1312,1312,1312,1312,1307,1307,1307,1307,1302,1302,1297,1292,1292,1292,1292,1288,1288,1283,1283,1283,1278,1278,1273,1273,1273,1268,1268,1268,1264,1264,1259,1259,1255,1255,1255,1255,1250,1250,1250,1250,1241,1241,1236,1236,1236,1232,1232,1232,1232,1227,1227,1223,1223,1223,1219,1219,1214,1214,1214,1214,1210,1210,1206,1206,1202,1202,1202,1197,1197,1197,1193,1193,1189,1185,1185,1185,1185,1185,1181,1181,1181,1181,1177,1177,1173,1169,1169,1165,1165,1165,1165,1161,1157,1157,1153,1153,1153,1149,1149,1149,1145,1145,1141,1141,1141,1138,1138,1134,1134,1134,1134,1134,1126,1123,1123,1123,1123,1119,1119,1119,1115,1115,1112,1108,1108,1105,1105,1105,1105,1105,1101,1101,1101,1097,1097,1094,1094,1094,1094,1090,1090,1090,1084,1084,1080,1080,1080,1080,1077,1077,1077,1077,1073,1070,1070,1067,1067,1063,1063,1063,1063,1063,1063,1060,1060,1057,1054,1054,1054,1050,1050,1050,1047,1047,1044,1041,1041,1041,1041,1038,1038,1038,1038,1038,1038,1034,1031,1028,1028,1028,1025,1025,1025,1025,1022,1022,1019,1019,1016,1016,1016,1016,1013,1013,1013,1013,1010,1007,1004,1004,1004,1001,1001,1001,1001,0,0,0,0,0,0,0,0,0,0,0,0,0,0,0,0,0,0,0,0,0,0,0,0,0,0,0,0,0,0,0
0,0,0,0,0,0,0,0,0,0,0,0,0,0,1624,1624,1624,1632,1624,1624,1624,1616,1616,1616,1616,1616,1616,1616,1616,1624,1616,1616,1616,1601,1601,1601,1601,1601,1601,1601,1601,1601,1601,1601,1601,1601,1609,1609,1609,1609,1601,1601,1601,1601,1601,1601,1601,1601,1601,1601,1601,1601,1601,1594,1594,1594,1594,1594,1594,1594,1601,1601,1601,1601,1609,1609,1609,1616,1616,1616,1616,1624,1624,1624,1639,1981,1981,1981,2005,2005,2005,2016,2040,2053,2053,2053,2053,2053,1616,1616,1616,1616,1616,1609,1609,1609,1601,1601,1601,1601,1609,1609,1616,1616,1616,1624,1624,1624,1624,1624,1624,1632,1632,1632,1632,1639,1639,1647,1647,1647,1655,1655,1655,1655,1663,1663,1663,1663,1671,1671,1671,1680,1688,1688,1688,1688,1696,1696,1696,1696,1696,1705,1713,1713,1713,1713,1722,1722,1722,1722,1722,1731,1731,1731,1731,1731,1739,1731,1731,1731,1731,1731,1731,1077,1077,1084,1087,1084,1084,1084,1080,1077,1077,1077,1073,1073,1073,1073,1073,1073,1073,1077,1077,1080,1080,1084,1084,1087,1087,1087,1087,0,0,0,0,1804,1804,1804,1804,1794,1794,1794,1794,1785,1785,1776,1766,1766,1757,1757,1757,1757,1748,1748,1739,1739,1731,1731,1731,1722,1722,1713,1713,1713,1705,1705,1705,1696,1696,1696,1696,1688,1688,1680,1680,1680,1671,1663,1663,1663,1663,1655,1655,1655,1655,1655,1647,1639,1639,1632,1624,1624,1624,1624,1624,1616,1616,1609,1609,1601,1601,1601,1601,1601,0,0,0,0,0,0,0,0,0,0,887,885,885,882,882,880,878,875,873,873,871,871,871,869,869,869,873,873,875,878,880,880,882,882,887,887,887,889,0,0,0,0,0,0,1489,1483,1477,1477,1470,1470,1470,1464,1464,1464,1458,1458,1458,1452,1452,1445,1445,1445,1439,1439,1439,1433,1433,1427,1427,1427,1421,1421,1415,1415,1410,1404,1404,1404,1398,1398,1398,1398,1392,1392,1392,1392,1387,1387,1381,1376,1376,1376,1370,1370,1370,1370,1365,1365,1359,1359,1359,1354,1354,1354,1349,1349,1349,1343,1343,1338,1338,1333,1333,1333,1328,1328,1328,1328,1322,1317,1312,1312,1312,1312,1307,1307,1307,1307,1302,1302,1297,1292,1292,1292,1292,1288,1288,1288,1283,1283,1278,1278,1278,1273,1273,1273,1268,1268,1264,1264,1259,1259,1259,1255,1255,1255,1250,1250,1250,1245,1241,1241,1236,1236,1236,1232,1232,1232,1232,1227,1227,1223,1223,1223,1219,1219,1214,1214,1214,1214,1210,1210,1206,1206,1202,1202,1202,1197,1197,1197,1193,1193,1189,1189,1185,1185,1185,1185,1181,1181,1181,1181,1177,1177,1173,1169,1169,1165,1165,1165,1165,1161,1161,1157,1157,1153,1153,1149,1149,1149,1149,1145,1145,1141,1141,1138,1138,1138,1134,1134,1134,1134,1130,1126,1126,1123,1123,1119,1119,1119,1119,1115,1112,1112,1108,1108,1105,1105,1105,1105,1105,1101,1101,1097,1097,1097,1094,1094,1094,1090,1090,1090,1084,1084,1080,1080,1080,1080,1077,1077,1077,1077,1073,1070,1070,1067,1067,1067,1067,1063,1063,1063,1063,1060,1060,1057,1054,1054,1054,1054,1050,1050,1047,1047,1047,1044,1041,1041,1041,1041,1038,1038,1038,1038,1038,1034,1031,1028,1028,1028,1025,1025,1025,1025,1025,1022,1022,1019,1019,1016,1016,1016,1013,1013,1013,1013,1010,1007,1004,1004,1004,1001,1001,1001,1001,0,0,0,0,0,0,0,0,0,0,0,0,0,0,0,0,0,0,0,0,0,0,0,0,0,0,0,0,0,0,0
0,0,0,0,0,0,0,0,0,0,0,0,0,0,1624,1624,1624,1624,1632,1616,1616,1616,1616,1616,1616,1616,1616,1616,1616,1624,1616,1616,1616,1609,1609,1601,1601,1601,1601,1601,1601,1601,1601,1601,1601,1601,1609,1616,1609,1609,1609,1601,1601,1601,1601,1601,1601,1601,1601,1601,1601,1601,1601,1601,1601,1594,1594,1594,1594,1601,1601,1601,1601,1601,1609,1609,1609,1616,1616,1624,1624,1624,1624,1624,1639,1970,1970,1970,1970,1970,1981,1981,2040,2053,2053,2053,2053,2053,1616,1616,1616,1616,1616,1616,1609,1609,1609,1609,1609,1609,1609,1609,1616,1616,1616,1624,1624,1624,1624,1624,1624,1632,1632,1632,1632,1639,1639,1647,1647,1647,1655,1655,1655,1655,1663,1663,1663,1663,1671,1671,1680,1680,1688,1688,1688,1688,1696,1696,1696,1696,1696,1705,1713,1713,1713,1722,1722,1722,1722,1722,1731,1731,1731,1731,1731,1731,1739,1731,1731,1731,1731,1731,1077,1077,1077,1084,1084,1084,1084,1084,1080,1077,1077,1073,1073,1073,1073,1073,1073,1073,1073,1077,1077,1080,1080,1084,1087,1087,1087,1087,1090,0,0,0,0,1804,1804,1804,1804,1794,1794,1794,1794,1794,1785,1785,1776,1766,1766,1757,1757,1757,1757,1748,1748,1739,1739,1731,1731,1722,1722,1722,1713,1713,1713,1705,1705,1705,1696,1696,1696,1688,1688,1680,1680,1680,1671,1671,1663,1663,1663,1663,1655,1655,1655,1655,1647,1647,1639,1632,1632,1632,1624,1624,1624,1616,1616,1609,1609,1601,1601,1601,1601,1601,0,0,0,0,0,0,0,0,0,0,887,885,885,882,882,880,878,875,873,873,871,871,871,869,869,869,873,873,875,880,880,882,882,885,887,887,889,889,0,0,0,0,0,1489,1489,1483,1477,1477,1470,1470,1470,1464,1464,1464,1464,1464,1458,1458,1452,1445,1445,1445,1439,1439,1439,1433,1433,1427,1427,1427,1421,1421,1421,1415,1410,1404,1404,1404,1404,1398,1398,1398,1392,1392,1392,1392,1392,1392,1387,1381,1376,1376,1376,1370,1370,1370,1365,1365,1365,1359,1359,1354,1354,1354,1349,1349,1349,1343,1343,1338,1338,1333,1333,1333,1328,1328,1328,1328,1322,1317,1317,1312,1312,1312,1312,1307,1307,1307,1302,1302,1297,1292,1292,1292,1292,1292,1288,1288,1288,1283,1283,1278,1278,1278,1273,1273,1268,1268,1264,1264,1264,1259,1259,1255,1255,1255,1255,1250,1250,1245,1245,1241,1241,1236,1236,1236,1232,1232,1232,1227,1227,1227,1223,1219,1219,1219,1219,1214,1214,1214,1214,1214,1210,1210,1206,1202,1202,1197,1197,1197,1197,1193,1189,1189,1185,1185,1185,1185,1185,1181,1181,1181,1177,1177,1173,1169,1169,1165,1165,1165,1165,1161,1161,1157,1157,1153,1149,1149,1149,1149,1149,1145,1145,1145,1141,1138,1138,1138,1138,1134,1134,1134,1130,1126,1126,1123,1123,1119,1119,1119,1119,1115,1112,1112,1108,1108,1105,1105,1105,1105,1105,1101,1101,1101,1097,1097,1094,1094,1094,1090,1090,1090,1087,1084,1080,1080,1080,1080,1077,1077,1077,1077,1073,1073,1070,1067,1067,1067,1067,1063,1063,1063,1063,1063,1060,1057,1054,1054,1054,1054,1050,1050,1050,1047,1047,1044,1044,1044,1041,1041,1041,1038,1038,1038,1038,1034,1031,1028,1028,1028,1028,1025,1025,1025,1025,1022,1022,1019,1019,1016,1016,1016,1016,1013,1013,1013,1010,1007,1004,1004,1004,1001,1001,1001,1001,0,0,0,0,0,0,0,0,0,0,0,0,0,0,0,0,0,0,0,0,0,0,0,0,0,0,0,0,0,0,0
0,0,0,0,0,0,0,0,0,0,0,0,0,0,1624,1624,1624,1624,1632,1616,1616,1616,1616,1616,1616,1616,1616,1616,1616,1624,1616,1616,1616,1609,1609,1601,1601,1601,1601,1601,1601,1601,1609,1601,1601,1601,1616,1616,1609,1609,1609,1609,1601,1601,1601,1601,1601,1601,1601,1601,1601,1601,1601,1601,1601,1594,1594,1594,1594,1601,1601,1601,1601,1609,1609,1609,1616,1616,1616,1624,1624,1624,1632,1632,1639,1959,1959,1959,1959,1959,1936,1936,1926,1926,1926,1926,1926,1926,1926,1624,1616,1616,1616,1616,1609,1609,1609,1609,1609,1609,1609,1616,1616,1616,1616,1624,1624,1624,1624,1624,1632,1632,1632,1632,1639,1639,1639,1647,1647,1647,1655,1655,1655,1655,1663,1663,1663,1671,1671,1680,1680,1680,1688,1688,1688,1688,1696,1696,1696,1696,1696,1705,1713,1713,1713,1722,1722,1722,1722,1722,1731,1731,1731,1731,1731,1731,1739,1731,1731,1731,1731,1731,1731,1087,1087,1084,1084,1084,1084,1080,1080,1077,1077,1073,1073,1073,1073,1073,1073,1073,1073,1077,1077,1080,1084,1087,1087,1087,1087,1087,1090,0,0,0,0,1804,1804,1804,1804,1804,1804,1804,1794,1794,1785,1785,1776,1766,1766,1757,1757,1757,1757,1748,1748,1739,1739,1731,1731,1722,1722,1722,1722,1713,1713,1705,1705,1705,1705,1696,1696,1688,1688,1688,1680,1680,1671,1671,1663,1663,1663,1663,1655,1655,1655,1655,1647,1647,1639,1639,1632,1632,1624,1624,1624,1616,1616,1609,1609,1601,1601,1601,1601,1609,0,0,0,0,0,0,0,0,0,0,887,885,885,885,882,880,878,878,875,873,873,871,871,869,869,871,873,875,878,880,880,882,882,885,887,887,889,0,0,0,0,0,0,1489,1489,1483,1483,1477,1477,1470,1470,1470,1464,1464,1464,1464,1458,1458,1458,1452,1452,1445,1439,1439,1439,1433,1433,1433,1427,1427,1421,1421,1421,1421,1410,1410,1404,1404,1404,1404,1398,1398,1398,1392,1392,1392,1392,1392,1387,1381,1381,1376,1376,1376,1370,1370,1370,1370,1365,1365,1359,1354,1354,1354,1349,1349,1349,1343,1343,1338,1338,1333,1333,1333,1328,1328,1328,1328,1322,1322,1317,1317,1312,1312,1312,1307,1307,1307,1307,1302,1297,1292,1292,1292,1292,1292,1288,1288,1288,1283,1283,1283,1283,1278,1278,1273,1273,1268,1268,1264,1264,1259,1259,1255,1255,1255,1255,1250,1250,1245,1245,1241,1241,1241,1236,1236,1232,1232,1232,1232,1227,1227,1223,1219,1219,1219,1219,1214,1214,1214,1214,1214,1210,1210,1206,1202,1202,1197,1197,1197,1197,1193,1193,1189,1189,1185,1185,1185,1185,1185,1181,1181,1177,1177,1173,1169,1169,1169,1165,1165,1165,1161,1161,1157,1157,1153,1149,1149,1149,1149,1149,1149,1145,1145,1141,1138,1138,1138,1138,1134,1134,1134,1130,1130,1126,1123,1123,1123,1119,1119,1119,1115,1115,1112,1108,1108,1108,1105,1105,1105,1105,1105,1105,1101,1101,1097,1094,1094,1094,1094,1090,1090,1087,1084,1084,1080,1080,1080,1080,1077,1077,1077,1073,1073,1070,1070,1067,1067,1067,1063,1063,1063,1063,1063,1060,1057,1057,1054,1054,1054,1054,1050,1050,1050,1047,1047,1047,1044,1044,1041,1041,1038,1038,1038,1038,1034,1034,1028,1028,1028,1028,1025,1025,1025,1025,1022,1022,1022,1019,1019,1016,1016,1016,1016,1013,1013,1013,1010,1007,1004,1004,1004,1001,1001,1001,0,0,0,0,0,0,0,0,0,0,0,0,0,0,0,0,0,0,0,0,0,0,0,0,0,0,0,0,0,0,0
0,0,0,0,0,0,0,0,0,0,0,0,0,0,1624,1624,1632,1632,1632,1616,1616,1616,1616,1616,1624,1624,1624,1624,1624,1624,1624,1616,1616,1609,1609,1601,1601,1601,1601,1601,1601,1609,1609,1601,1601,1616,1616,1616,1616,1609,1609,1609,1601,1601,1601,1609,1609,1609,1609,1609,1609,1609,1601,1601,1601,1594,1594,1594,1594,1601,1601,1601,1601,1609,1609,1609,1616,1616,1624,1624,1624,1632,1632,1632,1639,1959,1947,1947,1947,1947,1936,1936,1926,1926,1926,1926,1915,1915,1915,1926,1609,1609,1616,1616,1609,1609,1609,1609,1609,1609,1609,1609,1616,1616,1616,1624,1624,1624,1624,1632,1632,1632,1632,1632,1639,1639,1639,1647,1647,1647,1655,1655,1655,1655,1663,1663,1663,1671,1671,1680,1680,1688,1688,1688,1688,1688,1688,1696,1696,1696,1696,1705,1713,1713,1713,1722,1722,1722,1722,1731,1731,1731,1731,1731,1731,1739,1739,1731,1731,1731,1731,1731,0,1084,1084,1084,1080,1080,1080,1080,1080,1077,1077,1073,1073,1073,1073,1073,1073,1073,1073,1077,1077,1080,1084,1087,1087,1087,1087,1087,1090,1090,0,0,0,1813,1804,1804,1804,1804,1804,1804,1794,1794,1794,1785,1776,1766,1766,1766,1757,1757,1757,1757,1748,1748,1748,1739,1731,1731,1722,1722,1722,1713,1713,1705,1705,1705,1705,1696,1696,1688,1688,1688,1680,1680,1671,1671,1663,1663,1663,1663,1655,1655,1655,1655,1655,1647,1647,1639,1632,1632,1632,1624,1624,1624,1616,1616,1609,1601,1601,1601,1609,1609,0,0,0,0,0,0,0,0,0,0,885,885,885,885,882,880,878,878,875,875,873,871,871,869,869,871,873,875,878,880,882,882,885,885,889,889,889,0,0,0,0,0,0,1489,1489,1489,1483,1483,1477,1470,1470,1470,1464,1464,1464,1464,1464,1458,1458,1458,1452,1445,1445,1439,1439,1439,1439,1433,1433,1433,1421,1421,1421,1421,1415,1410,1410,1410,1410,1404,1404,1398,1398,1392,1392,1392,1392,1392,1387,1381,1381,1376,1376,1376,1370,1370,1370,1370,1365,1365,1365,1359,1354,1354,1354,1349,1349,1349,1343,1343,1338,1338,1333,1333,1333,1333,1328,1328,1328,1322,1322,1317,1312,1312,1312,1312,1307,1307,1307,1302,1297,1297,1292,1292,1292,1292,1292,1288,1288,1288,1283,1283,1283,1278,1278,1273,1273,1268,1268,1264,1264,1259,1259,1255,1255,1255,1255,1255,1250,1250,1250,1245,1241,1241,1236,1236,1236,1232,1232,1232,1227,1227,1223,1223,1219,1219,1219,1219,1219,1214,1214,1214,1214,1210,1206,1202,1202,1197,1197,1197,1197,1193,1193,1189,1189,1185,1185,1185,1185,1185,1181,1181,1177,1177,1173,1169,1169,1169,1165,1165,1165,1161,1161,1157,1157,1153,1153,1153,1149,1149,1149,1149,1145,1145,1141,1141,1138,1138,1138,1138,1134,1134,1130,1130,1126,1123,1123,1123,1119,1119,1119,1115,1115,1112,1112,1108,1108,1108,1105,1105,1105,1105,1105,1101,1097,1097,1094,1094,1094,1094,1090,1090,1087,1087,1084,1080,1080,1080,1080,1080,1077,1077,1077,1073,1073,1070,1067,1067,1067,1063,1063,1063,1063,1063,1060,1060,1057,1057,1054,1054,1054,1054,1050,1050,1047,1047,1047,1044,1044,1041,1041,1038,1038,1038,1038,1034,1034,1031,1028,1028,1028,1028,1028,1025,1025,1025,1022,1022,1019,1019,1016,1016,1016,1016,1013,1013,1013,1010,1007,1007,1004,1004,1004,1004,1004,0,0,0,0,0,0,0,0,0,0,0,0,0,0,0,0,0,0,0,0,0,0,0,0,0,0,0,0,0,0,0
0,0,0,0,0,0,0,0,0,0,0,0,0,0,1632,1632,1632,1632,1632,1616,1616,1616,1616,1616,1624,1624,1624,1624,1624,1624,1624,1624,1616,1616,1624,1601,1601,1601,1601,1601,1609,1609,1609,1609,1609,1616,1616,1616,1616,1609,1609,1609,1601,1601,1609,1609,1609,1609,1609,1609,1609,1609,1601,1601,1601,1601,1601,1601,1601,1601,1601,1601,1601,1609,1609,1616,1616,1616,1624,1632,1632,1632,1632,1632,1947,1947,1947,1947,1947,1936,1926,1926,1926,1926,1926,1915,1915,1915,1915,1915,1609,1609,1616,1616,1609,1609,1609,1609,1609,1609,1609,1609,1616,1616,1616,1624,1624,1624,1624,1632,1632,1632,1632,1639,1639,1639,1639,1647,1647,1647,1655,1655,1655,1655,1663,1663,1663,1671,1680,1680,1680,1688,1688,1688,1688,1688,1688,1696,1696,1696,1696,1705,1713,1722,1722,1722,1722,1722,1722,1731,1731,1731,1731,1731,1739,1739,1739,1731,1731,1731,1731,1731,1731,0,1080,1080,1080,1080,1080,1080,1080,1077,1077,1077,1073,1073,1073,1073,1073,1073,1073,1077,1080,1084,1084,1087,1087,1087,1087,1087,1090,0,0,0,0,1804,1804,1804,1804,1804,1804,1804,1794,1794,1794,1785,1776,1766,1766,1766,1757,1757,1757,1757,1748,1748,1748,1739,1739,1731,1731,1722,1722,1722,1722,1713,1705,1705,1705,1696,1696,1688,1688,1688,1680,1680,1680,1671,1663,1663,1663,1663,1655,1655,1655,1655,1655,1655,1647,1639,1639,1632,1632,1632,1624,1624,1624,1616,1609,1601,1601,1609,1609,1609,0,0,0,0,0,0,0,0,0,0,885,885,885,885,882,880,880,878,875,875,873,873,873,873,873,873,875,875,878,880,882,882,885,885,889,889,891,894,0,0,0,0,0,1489,1489,1489,1483,1483,1477,1470,1470,1470,1464,1464,1464,1464,1464,1458,1458,1458,1452,1445,1445,1445,1439,1439,1439,1433,1433,1433,1427,1427,1421,1421,1415,1415,1415,1410,1410,1404,1404,1398,1398,1392,1392,1392,1392,1392,1387,1387,1387,1376,1376,1376,1370,1370,1370,1370,1370,1365,1365,1359,1354,1354,1354,1349,1349,1349,1349,1343,1343,1338,1338,1333,1333,1333,1328,1328,1328,1322,1322,1317,1312,1312,1312,1312,1307,1307,1307,1302,1297,1297,1292,1292,1292,1292,1292,1288,1288,1288,1288,1283,1283,1283,1278,1273,1273,1268,1268,1268,1264,1264,1259,1259,1255,1255,1255,1255,1250,1250,1250,1245,1245,1241,1236,1236,1236,1236,1232,1232,1232,1227,1223,1223,1219,1219,1219,1219,1219,1214,1214,1214,1214,1210,1206,1206,1202,1202,1197,1197,1197,1193,1193,1193,1189,1189,1185,1185,1185,1185,1185,1181,1177,1177,1173,1173,1169,1169,1169,1165,1165,1165,1161,1161,1161,1153,1153,1153,1149,1149,1149,1149,1149,1145,1145,1141,1138,1138,1138,1138,1134,1134,1130,1126,1126,1123,1123,1123,1119,1119,1119,1115,1115,1112,1112,1108,1108,1108,1108,1108,1105,1105,1105,1101,1097,1097,1094,1094,1094,1094,1090,1090,1087,1087,1084,1084,1080,1080,1080,1080,1077,1077,1077,1073,1073,1070,1067,1067,1067,1063,1063,1063,1063,1063,1063,1060,1060,1057,1057,1054,1054,1054,1050,1050,1050,1047,1047,1047,1044,1041,1041,1041,1038,1038,1038,1034,1034,1031,1028,1028,1028,1028,1028,1025,1025,1025,1022,1022,1022,1019,1016,1016,1016,1016,1013,1013,1013,1013,1010,1007,1004,1004,1004,1004,1004,0,0,0,0,0,0,0,0,0,0,0,0,0,0,0,0,0,0,0,0,0,0,0,0,0,0,0,0,0,0,0
