0,0,0,0,0,1130,1130,1130,1130,1130,1130,1130,1130,1126,1126,1130,1130,1126,1126,1126,1123,1123,1119,1119,1119,1119,1119,1119,1119,1119,1119,1119,1115,1115,1115,1115,1112,1112,1112,1112,1112,1112,1112,1112,1115,1115,1112,1112,1112,1112,1112,1112,1112,1112,1115,1115,1115,1112,1112,1115,1115,1115,1115,1112,1112,1112,1112,1112,1112,1112,1112,1112,1112,1108,1108,1112,1108,1108,1108,1108,1112,1112,1112,1112,1112,1112,1112,1112,1112,1112,1112,1112,1112,1112,1112,1112,1112,1112,1108,1108,1112,1112,1112,1112,1112,1108,1108,1108,1108,1112,1112,1112,1112,1112,1112,1108,1108,1108,1108,1108,1108,1108,1108,1108,1108,1108,1108,1108,1108,1108,1105,1105,1105,1105,1105,0,0,0,0,0,0,0,0,0,0,752,752,750,750,750,750,750,752,754,754,754,755,755,755,757,757,759,759,761,761,762,762,762,764,766,767,0,0,0,0,1101,1101,1101,1101,1101,1105,1105,1101,1101,1101,1101,1101,1101,1101,1101,1101,1101,1101,1101,1101,1101,1101,1101,1101,1101,1101,1101,1101,1101,1101,1101,1101,1097,1097,1097,1094,1094,1094,1094,1094,1094,1094,1094,1094,1094,1094,1094,1094,1094,1094,1094,1094,1094,1094,1097,1097,1097,1097,1097,1097,1101,1101,1101,1101,1101,1105,873,873,873,873,875,878,878,878,878,878,878,878,878,878,878,878,878,878,880,880,880,880,880,880,882,882,882,885,887,887,887,889,891,891,894,894,896,896,896,898,898,901,906,910,910,913,913,913,913,910,910,910,910,915,1084,1084,1084,1084,1080,1080,1084,1084,1084,1084,1084,1084,1084,1084,1084,1084,1090,1090,1090,1090,1090,1090,1090,1087,1087,1087,1090,1090,1090,1090,1090,1090,1090,1090,1087,1087,1087,1087,1087,1084,1084,1084,1084,1084,1087,1087,1087,1087,1087,1087,1087,1087,1087,1087,1087,1084,1084,1084,1084,1084,1080,1073,1067,1057,1047,1041,1038,1038,1034,1028,1028,1028,1028,1028,1031,1031,1034,1038,1038,1038,1041,1041,1041,1041,1084,1084,1084,1084,1080,1080,1080,1080,1080,1080,1077,1077,1077,1080,1077,1077,1077,1077,1080,1080,1077,1077,1080,1080,1080,1080,1080,1080,1080,1080,1080,1080,1080,1077,1077,1077,1077,1077,1077,1077,1077,1077,1077,1077,1077,1077,1077,1077,1077,1077,1073,1073,1073,1073,1073,1073,1073,1073,1077,1077,1077,1073,1073,1070,1070,1070,1070,1067,1067,1067,1067,1070,1070,1073,1073,1070,1070,1070,1067,1067,1067,1067,1067,1067,1067,1063,1063,1067,1063,1063,1067,1063,1063,1067,1067,1067,1067,1067,1067,1067,1067,1063,1063,1063,1063,1063,1063,1067,1067,1063,1063,1067,1067,1067,1063,1063,1063,1063,1060,1060,1060,1060,1060,1060,1060,1063,1063,1063,1060,1060,1060,1060,1060,1060,1057,1057,1057,1057,1057,1057,1057,1060,1060,1060,1060,1060,1060,1060,1060,1060,1054,1054,1060,1060,1060,1060,1060,1057,1057,1057,1057,1054,1054,1054,1050,1050,1054,1054,1054,1054,1054,1054,1054,1054,1054,1054,1054,1054,1054,1054,1054,1054,1054,1057,1057,1057,1054,1054,1054,1054,1054,1054,1054,1054,1054,1054,1054,1054,1054,1054,1054,1050,1050,1047,1047,1047,1047,1047,1047,1050,1050,1054,1054,1054,1054,1054,1054,1050,1050,0,0,0,0,0,0,0,0,0,0,0,0,0,0,0,0,0,0,0,0,0,0,0,0,0,0,0,0,0,0,0,0,0,0,0,0,0,0,0,0,0,0
0,0,0,0,0,1130,1130,1126,1126,1126,1126,1126,1126,1126,1126,1126,1130,1123,1123,1123,1119,1119,1119,1119,1119,1119,1119,1115,1115,1115,1115,1115,1115,1115,1115,1115,1112,1112,1112,1112,1108,1108,1108,1108,1108,1108,1108,1108,1108,1108,1112,1112,1112,1112,1112,1112,1112,1101,1101,1112,1112,1112,1112,1108,1108,1108,1108,1108,1108,1108,1108,1108,1108,1108,1108,1108,1108,1108,1105,1105,1108,1108,1108,1108,1108,1108,1108,1108,1108,1108,1108,1108,1105,1105,1105,1105,1108,1108,1108,1108,1108,1108,1108,1108,1108,1108,1108,1108,1108,1108,1108,1108,1108,1108,1108,1105,1105,1105,1105,1108,1108,1105,1105,1108,1105,1105,1105,1105,1105,1105,1105,1105,1105,1105,1105,1105,0,0,0,0,0,0,0,0,0,754,754,752,752,752,752,752,752,754,754,754,755,755,757,757,759,761,761,762,762,764,764,764,766,766,767,0,0,0,0,0,1097,1097,1097,1097,1101,1101,1101,1097,1097,1097,1097,1097,1097,1097,1097,1101,1101,1101,1097,1097,1097,1097,1097,1097,1097,1097,1097,1097,1097,1097,1097,1094,1094,1094,1090,1090,1090,1090,1090,1090,1090,1090,1090,1090,1090,1090,1090,1090,1090,1090,1090,1090,1090,1094,1094,1094,1094,1094,1094,1094,1094,1097,1097,871,871,873,873,873,873,875,875,875,875,875,878,878,878,875,875,878,878,878,878,878,880,880,880,880,880,882,882,882,885,887,887,889,891,891,894,894,894,896,896,898,898,901,901,906,910,910,910,910,913,913,910,910,910,910,1080,1080,1080,1080,1080,1080,1080,1080,1080,1080,1080,1080,1080,1080,1080,1080,1080,1087,1084,1084,1084,1087,1087,1087,1084,1084,1084,1087,1087,1084,1084,1084,1087,1087,1087,1084,1084,1084,1084,1084,1084,1080,1080,1084,1080,1080,1080,1080,1087,1087,1084,1084,1084,1084,1084,1084,1084,1084,1084,1080,1080,1077,1073,1067,1057,1050,1044,1041,1038,1034,1031,1031,1031,1028,1028,1031,1034,1034,1038,1038,1041,1041,1041,1041,1044,1073,1077,1080,1080,1077,1077,1077,1077,1077,1077,1077,1077,1077,1077,1073,1073,1073,1073,1073,1073,1073,1077,1077,1077,1077,1077,1077,1077,1077,1077,1077,1073,1073,1073,1073,1073,1070,1070,1073,1073,1073,1073,1070,1070,1070,1070,1070,1070,1070,1070,1073,1070,1070,1070,1070,1073,1070,1070,1073,1073,1070,1070,1070,1067,1067,1067,1067,1063,1063,1067,1067,1067,1067,1067,1067,1070,1070,1067,1067,1063,1063,1063,1063,1063,1063,1063,1063,1063,1063,1063,1063,1063,1063,1063,1063,1063,1063,1063,1063,1063,1063,1063,1063,1063,1063,1063,1063,1063,1063,1063,1063,1063,1063,1063,1060,1060,1060,1060,1060,1057,1057,1060,1060,1057,1057,1057,1060,1060,1060,1060,1060,1057,1057,1057,1054,1054,1054,1054,1054,1054,1057,1057,1057,1057,1057,1057,1057,1057,1050,1050,1054,1054,1054,1057,1057,1057,1054,1054,1054,1054,1054,1050,1050,1054,1050,1050,1050,1050,1050,1050,1050,1050,1050,1050,1050,1050,1050,1054,1054,1054,1054,1054,1054,1054,1054,1054,1050,1050,1050,1050,1054,1054,1050,1050,1054,1054,1050,1050,1054,1054,1050,1050,1050,1047,1047,1047,1047,1044,1044,1047,1050,1050,1050,1047,1047,1050,1054,1050,1050,0,0,0,0,0,0,0,0,0,0,0,0,0,0,0,0,0,0,0,0,0,0,0,0,0,0,0,0,0,0,0,0,0,0,0,0,0,0,0,0,0,0
0,0,0,0,0,1130,1130,1126,1126,1126,1126,1126,1123,1123,1123,1123,1126,1123,1119,1119,1115,1115,1115,1115,1115,1115,1115,1115,1115,1115,1112,1112,1115,1112,1112,1112,1108,1108,1108,1108,1105,1105,1105,1105,1105,1105,1105,1105,1105,1108,1108,1108,1108,1108,1108,1108,1108,1101,1101,1108,1108,1108,1108,1105,1105,1105,1105,1105,1105,1105,1105,1105,1105,1105,1105,1105,1105,1105,1105,1105,1105,1105,1105,1105,1105,1105,1105,1105,1105,1105,1105,1105,1105,1105,1105,1105,1105,1105,1105,1105,1105,1105,1105,1105,1105,1105,1105,1105,1105,1105,1105,1105,1105,1105,1105,1105,1105,1105,1105,1105,1105,1105,1105,1105,1105,1105,1105,1105,1105,1105,1101,1101,1101,1101,1101,1101,0,0,0,0,0,0,0,0,755,754,754,754,754,752,752,752,752,754,754,755,755,755,757,757,759,761,761,762,762,764,764,764,766,766,767,0,0,0,0,0,1090,1090,1094,1094,1094,1094,1097,1094,1094,1097,1097,1097,1097,1097,1097,1097,1097,1097,1094,1094,1094,1097,1094,1094,1094,1094,1094,1094,1094,1090,1090,1090,1090,1090,1090,1090,1087,1087,1090,1090,1090,1090,1087,1087,1090,1090,1090,1090,1090,1090,1090,1087,1087,1090,1090,1094,1090,1090,1090,867,867,869,869,869,869,871,871,873,873,873,873,875,873,873,875,875,875,875,875,875,875,875,875,878,878,880,880,880,882,882,882,885,885,887,887,889,891,894,894,894,894,896,896,898,898,901,903,906,908,910,910,910,913,913,910,910,910,1077,1077,1077,1080,1080,1080,1077,1077,1077,1077,1077,1077,1077,1077,1077,1077,1077,1077,1080,1080,1080,1080,1084,1084,1084,1084,1080,1080,1084,1084,1080,1080,1080,1080,1080,1080,1080,1080,1080,1084,1080,1080,1080,1080,1080,1080,1080,1080,1080,1080,1080,1080,1080,1080,1080,1084,1080,1080,1080,1080,1080,1080,1073,1070,1070,1060,1054,1047,1041,1038,1034,1031,1031,1031,1031,1031,1031,1034,1038,1038,1041,1041,1041,1041,1041,1054,1060,1073,1077,1077,1073,1073,1073,1077,1073,1073,1073,1073,1073,1073,1073,1073,1073,1070,1070,1070,1070,1070,1070,1070,1073,1073,1073,1073,1073,1073,1073,1070,1070,1070,1070,1070,1070,1070,1070,1070,1070,1067,1067,1067,1067,1067,1067,1067,1067,1067,1070,1067,1067,1067,1067,1070,1067,1067,1067,1067,1067,1067,1063,1063,1063,1063,1063,1063,1063,1063,1063,1063,1063,1063,1063,1063,1063,1063,1063,1063,1063,1063,1063,1063,1063,1060,1060,1060,1060,1060,1060,1060,1060,1060,1060,1060,1063,1063,1063,1063,1063,1063,1060,1060,1060,1060,1063,1060,1060,1054,1054,1054,1054,1057,1054,1054,1054,1054,1057,1054,1054,1054,1054,1054,1054,1054,1054,1054,1054,1057,1057,1057,1054,1054,1054,1054,1054,1054,1054,1054,1054,1054,1054,1054,1057,1057,1057,1054,1050,1050,1054,1054,1054,1054,1054,1054,1054,1054,1054,1047,1047,1047,1047,1050,1050,1050,1047,1047,1050,1050,1050,1050,1050,1050,1050,1050,1050,1050,1050,1050,1050,1050,1050,1050,1050,1050,1047,1047,1047,1047,1050,1050,1050,1050,1050,1050,1050,1050,1050,1050,1050,1050,1047,1047,1047,1044,1044,1044,1044,1044,1047,1047,1050,1047,1047,1047,1050,1054,0,0,0,0,0,0,0,0,0,0,0,0,0,0,0,0,0,0,0,0,0,0,0,0,0,0,0,0,0,0,0,0,0,0,0,0,0,0,0,0,0,0,0
0,0,0,0,0,1126,1126,1123,1123,1123,1123,1123,1123,1123,1123,1123,1119,1119,1115,1112,1112,1112,1112,1108,1108,1108,1108,1112,1108,1108,1108,1108,1112,1112,1112,1112,1108,1108,1108,1105,1105,1105,1101,1101,1101,1101,1101,1105,1105,1105,1105,1105,1105,1105,1105,1105,1105,1101,1101,1101,1101,1101,1101,1101,1101,1101,1101,1101,1101,1101,1101,1101,1101,1101,1101,1101,1101,1101,1101,1101,1105,1105,1105,1105,1105,1105,1105,1101,1101,1101,1101,1101,1101,1101,1101,1101,1101,1101,1105,1105,1105,1105,1105,1105,1101,1101,1101,1101,1101,1101,1101,1101,1101,1101,1101,1101,1101,1101,1105,1105,1105,1101,1101,1105,1101,1101,1101,1101,1101,1101,1101,1097,1097,1097,1097,1090,1090,0,0,0,0,0,0,0,755,754,754,754,754,754,754,754,754,754,754,755,755,757,757,759,761,761,762,762,764,764,764,764,766,767,767,0,0,0,0,0,1087,1087,1090,1090,1094,1094,1094,1094,1094,1094,1094,1094,1094,1090,1090,1094,1094,1094,1090,1090,1090,1094,1090,1090,1090,1090,1090,1090,1090,1087,1087,1090,1090,1087,1087,1087,1087,1087,1087,1087,1087,1087,1087,1087,1087,1087,1087,1087,1087,1087,1087,1087,1087,1087,1090,1090,1090,1090,867,867,867,869,869,869,869,869,869,871,869,869,871,871,871,871,871,871,873,873,873,873,875,875,875,875,878,878,880,880,882,882,885,885,885,887,887,891,894,894,894,896,896,896,898,898,901,901,903,906,908,908,910,910,910,910,910,910,1073,1073,1073,1077,1077,1077,1077,1077,1077,1077,1077,1077,1077,1077,1077,1077,1077,1077,1077,1080,1080,1080,1080,1080,1080,1080,1080,1080,1080,1080,1080,1080,1077,1077,1080,1080,1077,1077,1077,1077,1080,1077,1077,1077,1077,1077,1077,1077,1077,1077,1077,1077,1077,1077,1077,1077,1077,1080,1077,1077,1077,1077,1077,1073,1070,1070,1063,1060,1050,1044,1041,1038,1031,1031,1031,1031,1031,1034,1034,1038,1038,1041,1041,1041,1044,1044,1054,1057,1070,1073,1073,1073,1070,1070,1073,1070,1070,1070,1070,1070,1070,1070,1070,1070,1070,1070,1070,1070,1067,1067,1067,1067,1067,1070,1070,1070,1070,1070,1067,1067,1067,1067,1067,1067,1067,1067,1067,1067,1067,1067,1067,1067,1067,1067,1067,1067,1067,1067,1067,1067,1067,1067,1067,1063,1063,1063,1063,1060,1060,1063,1060,1060,1060,1060,1060,1060,1060,1063,1063,1063,1060,1060,1060,1060,1057,1057,1057,1060,1060,1060,1060,1060,1060,1060,1060,1060,1060,1060,1057,1057,1057,1057,1057,1060,1060,1060,1060,1060,1057,1057,1057,1057,1054,1054,1054,1054,1050,1047,1047,1047,1050,1050,1050,1050,1050,1050,1054,1050,1050,1050,1054,1054,1054,1054,1054,1054,1050,1050,1050,1054,1054,1050,1050,1050,1050,1050,1050,1050,1054,1054,1054,1054,1054,1054,1054,1050,1050,1050,1050,1050,1050,1050,1050,1050,1050,1050,1044,1044,1044,1044,1044,1044,1044,1044,1044,1047,1047,1047,1047,1050,1050,1050,1050,1050,1050,1050,1050,1050,1050,1047,1047,1047,1047,1044,1044,1044,1044,1047,1047,1047,1047,1047,1047,1047,1047,1047,1047,1047,1047,1047,1044,1044,1041,1041,1041,1041,1041,1044,1044,1041,1041,1041,1041,1050,0,0,0,0,0,0,0,0,0,0,0,0,0,0,0,0,0,0,0,0,0,0,0,0,0,0,0,0,0,0,0,0,0,0,0,0,0,0,0,0,0,0,0,0
0,0,0,0,0,1123,1123,1119,1119,1119,1119,1119,1119,1119,1119,1119,1115,1115,1112,1108,1108,1108,1108,1105,1105,1105,1105,1108,1105,1105,1108,1108,1108,1108,1108,1108,1105,1105,1105,1101,1101,1101,1101,1101,1101,1101,1101,1101,1101,1101,1101,1101,1101,1101,1101,1101,1101,1101,1101,1097,1097,1097,1097,1097,1097,1097,1097,1097,1101,1101,1097,1097,1101,1097,1097,1097,1097,1097,1097,1097,1097,1097,1097,1097,1101,1097,1097,1097,1097,1097,1097,1097,1101,1101,1097,1097,1097,1097,1101,1101,1101,1101,1101,1101,1101,1101,1097,1097,1097,1097,1097,1097,1094,1094,1097,1097,1097,1101,1101,1101,1101,1101,1101,1101,1101,1101,1097,1097,1097,1097,1097,1094,1094,1090,1090,1087,1087,0,0,0,0,0,0,0,755,754,754,754,754,754,754,754,754,754,755,755,755,757,757,759,761,761,762,762,764,764,764,766,767,767,769,0,0,0,0,0,1087,1087,1087,1087,1090,1090,1090,1090,1090,1090,1090,1090,1090,1090,1090,1090,1090,1090,1090,1090,1090,1090,1087,1087,1087,1087,1087,1087,1087,1087,1087,1087,1087,1087,1087,1087,1087,1087,1087,1087,1087,1087,1084,1084,1087,1087,1087,1087,1087,1087,1087,1087,1087,1087,1087,1090,867,867,867,867,867,869,867,867,869,869,869,869,869,869,869,869,869,869,871,871,871,871,871,873,873,873,875,875,878,878,878,880,882,885,885,885,887,887,889,891,894,894,894,896,896,896,898,898,901,903,903,906,906,908,908,908,908,910,910,1073,1073,1073,1073,1073,1077,1077,1077,1073,1073,1073,1073,1077,1073,1073,1073,1073,1073,1073,1073,1077,1077,1077,1077,1077,1077,1077,1077,1077,1077,1077,1077,1077,1077,1077,1077,1077,1077,1077,1077,1077,1077,1077,1077,1073,1073,1077,1073,1073,1073,1073,1073,1073,1073,1073,1073,1073,1073,1077,1073,1073,1073,1073,1073,1070,1070,1067,1067,1060,1054,1047,1041,1038,1034,1034,1034,1034,1034,1034,1038,1038,1041,1041,1044,1044,1044,1044,1054,1057,1063,1070,1070,1070,1070,1070,1070,1070,1070,1070,1067,1067,1067,1067,1067,1067,1067,1067,1067,1067,1067,1067,1063,1063,1063,1067,1067,1067,1067,1067,1067,1063,1063,1063,1063,1063,1063,1063,1063,1063,1063,1063,1063,1063,1063,1063,1063,1063,1063,1063,1063,1063,1063,1060,1060,1063,1060,1060,1060,1057,1057,1060,1060,1060,1060,1060,1060,1060,1060,1060,1060,1060,1057,1057,1057,1057,1054,1054,1054,1054,1054,1054,1057,1057,1057,1057,1057,1057,1057,1057,1057,1054,1054,1057,1054,1054,1054,1054,1057,1057,1054,1054,1054,1054,1050,1050,1050,1050,1047,1047,1047,1047,1050,1050,1047,1047,1047,1047,1050,1050,1050,1050,1050,1050,1050,1050,1050,1050,1050,1050,1050,1050,1050,1050,1050,1050,1050,1050,1050,1050,1050,1050,1050,1050,1050,1050,1047,1047,1047,1047,1047,1047,1047,1047,1047,1047,1044,1044,1044,1044,1044,1044,1041,1041,1041,1044,1044,1044,1044,1044,1047,1047,1047,1047,1047,1047,1047,1047,1047,1047,1044,1044,1044,1044,1044,1041,1041,1041,1041,1044,1047,1044,1044,1047,1047,1044,1044,1044,1044,1047,1044,1044,1041,1041,1041,1041,1041,1041,1041,1041,1041,1038,1038,1038,1038,1038,0,0,0,0,0,0,0,0,0,0,0,0,0,0,0,0,0,0,0,0,0,0,0,0,0,0,0,0,0,0,0,0,0,0,0,0,0,0,0,0,0,0,0,0
0,0,0,0,0,1123,1123,1119,1119,1119,1115,1115,1115,1115,1115,1115,1112,1112,1108,1108,1105,1105,1105,1105,1105,1105,1105,1105,1105,1105,1105,1105,1105,1105,1105,1105,1105,1105,1101,1101,1101,1101,1097,1097,1101,1101,1101,1101,1101,1101,1101,1101,1101,1101,1101,1101,1097,1097,1097,1094,1094,1094,1094,1094,1097,1097,1094,1094,1097,1097,1094,1094,1097,1094,1094,1094,1094,1094,1094,1094,1094,1090,1090,1090,1090,1090,1090,1094,1094,1094,1094,1094,1097,1097,1097,1094,1094,1094,1097,1097,1097,1097,1097,1097,1097,1097,1094,1094,1094,1094,1094,1094,1090,1090,1094,1094,1094,1097,1097,1097,1097,1097,1097,1097,1097,1094,1094,1094,1094,1094,1094,1090,1090,1090,1090,1087,1087,0,0,0,0,0,0,0,755,754,754,754,754,754,754,754,754,754,755,755,757,757,759,759,761,761,762,762,764,764,766,766,767,769,769,0,0,0,0,0,1084,1084,1087,1087,1087,1087,1090,1087,1087,1087,1087,1087,1090,1087,1087,1090,1087,1087,1087,1087,1087,1087,1087,1087,1087,1087,1087,1087,1087,1084,1084,1087,1087,1087,1087,1084,1084,1084,1084,1084,1084,1084,1084,1084,1087,1087,1087,1087,1087,862,862,1087,1087,864,864,867,867,867,867,867,867,867,867,867,867,867,867,867,867,867,869,869,869,869,869,869,869,871,871,871,873,873,875,875,878,878,878,880,882,885,885,885,887,887,889,891,894,894,896,896,896,896,898,898,901,903,903,903,906,906,908,908,908,910,1070,1070,1070,1070,1070,1073,1073,1073,1073,1073,1073,1073,1073,1073,1073,1073,1073,1073,1073,1073,1073,1073,1073,1073,1073,1073,1073,1073,1073,1073,1073,1073,1073,1073,1073,1073,1073,1073,1073,1073,1073,1073,1073,1073,1073,1070,1070,1073,1070,1070,1073,1070,1070,1073,1073,1073,1073,1070,1070,1073,1070,1070,1067,1067,1070,1070,1067,1067,1063,1060,1057,1050,1047,1038,1038,1034,1034,1034,1034,1038,1038,1038,1041,1044,1044,1044,1044,1047,1054,1054,1060,1067,1067,1067,1067,1067,1067,1067,1067,1067,1067,1067,1067,1067,1067,1067,1063,1063,1063,1063,1063,1063,1063,1063,1063,1063,1063,1063,1063,1063,1063,1063,1063,1063,1063,1063,1063,1063,1063,1063,1063,1063,1063,1063,1063,1063,1063,1063,1063,1060,1060,1060,1060,1057,1057,1057,1054,1054,1054,1054,1054,1054,1057,1057,1057,1057,1057,1057,1057,1057,1057,1057,1054,1054,1054,1054,1054,1054,1050,1050,1050,1050,1050,1050,1050,1054,1054,1054,1054,1054,1054,1054,1054,1054,1054,1054,1054,1054,1054,1050,1050,1050,1050,1047,1047,1047,1050,1050,1047,1044,1044,1047,1047,1047,1047,1047,1047,1047,1047,1047,1047,1047,1050,1050,1050,1047,1047,1047,1047,1047,1047,1047,1047,1047,1047,1047,1047,1047,1047,1047,1047,1047,1044,1044,1044,1044,1044,1044,1044,1044,1044,1044,1044,1044,1044,1044,1044,1041,1041,1044,1044,1041,1041,1041,1041,1041,1041,1041,1041,1041,1041,1044,1044,1044,1044,1044,1044,1044,1044,1044,1041,1041,1041,1041,1041,1041,1041,1041,1041,1041,1044,1041,1041,1044,1044,1044,1044,1044,1044,1044,1044,1044,1041,1041,1041,1041,1038,1038,1041,1038,1038,1038,1034,1034,1031,1019,1016,1016,0,0,0,0,0,0,0,0,0,0,0,0,0,0,0,0,0,0,0,0,0,0,0,0,0,0,0,0,0,0,0,0,0,0,0,0,0,0,0,0,0,0
0,0,0,0,0,1115,1115,1115,1115,1112,1112,1112,1112,1112,1105,1105,1105,1105,1105,1105,1101,1101,1101,1101,1101,1101,1101,1101,1101,1101,1101,1101,1101,1101,1101,1101,1101,1101,1101,1097,1097,1101,1097,1097,1097,1097,1097,1097,1097,1097,1097,1097,1097,1097,1097,1097,1097,1097,1097,1094,1094,1090,1090,1090,1090,1090,1090,1090,1094,1094,1094,1094,1094,1094,1094,1094,1094,1094,1090,1090,1090,1090,1090,1090,1090,1090,1090,1090,1090,1090,1090,1094,1094,1094,1094,1094,1090,1090,1094,1094,1094,1094,1094,1094,1094,1094,1090,1090,1090,1090,1090,1090,1090,1090,1090,1090,1094,1094,1094,1094,1094,1094,1094,1094,1094,1090,1090,1090,1090,1090,1090,1090,1090,1090,1087,1087,1087,1087,0,0,0,0,0,0,0,754,754,754,754,754,754,754,754,754,755,755,757,757,759,759,761,761,762,762,764,766,766,766,767,769,769,769,0,0,0,0,1084,1084,1087,1087,1087,1087,1087,1087,1087,1087,1087,1087,1087,1087,1087,1087,1087,1087,1087,1087,1087,1084,1084,1084,1084,1084,1084,1084,1084,1084,1084,1084,1084,1084,1084,1084,1084,1084,1084,1080,1080,1080,1080,1084,1084,1084,1087,1087,862,860,860,860,860,860,862,864,864,864,867,867,867,867,867,867,867,867,867,867,867,867,867,867,869,869,869,869,869,871,871,871,873,873,875,878,878,878,880,880,882,885,885,887,887,889,889,891,894,894,896,896,896,896,898,898,901,903,903,903,903,906,1067,1067,1067,1067,1067,1067,1067,1070,1070,1067,1067,1070,1070,1070,1070,1070,1070,1070,1070,1070,1070,1070,1070,1070,1070,1070,1070,1070,1070,1070,1070,1070,1070,1070,1073,1073,1073,1073,1073,1073,1073,1073,1070,1070,1067,1067,1070,1070,1070,1067,1067,1067,1067,1067,1067,1067,1067,1070,1070,1070,1070,1070,1070,1070,1070,1067,1067,1067,1067,1067,1067,1067,1063,1060,1057,1054,1047,1041,1038,1038,1038,1038,1038,1038,1038,1038,1041,1044,1047,1047,1047,1047,1054,1054,1060,1063,1067,1067,1063,1063,1063,1063,1063,1063,1063,1063,1063,1063,1063,1063,1063,1063,1063,1063,1060,1060,1060,1060,1060,1060,1060,1060,1060,1060,1060,1060,1060,1060,1060,1063,1063,1063,1060,1060,1060,1060,1060,1060,1060,1060,1060,1060,1060,1060,1057,1057,1057,1054,1054,1054,1050,1050,1050,1050,1054,1054,1054,1054,1054,1054,1054,1054,1054,1054,1054,1054,1054,1054,1054,1054,1050,1050,1050,1047,1047,1047,1047,1047,1047,1050,1050,1050,1054,1054,1050,1050,1050,1050,1050,1047,1047,1050,1047,1047,1047,1047,1047,1047,1047,1047,1047,1047,1044,1041,1041,1041,1041,1038,1038,1041,1041,1041,1047,1047,1044,1044,1047,1047,1047,1044,1044,1044,1044,1044,1044,1044,1047,1047,1047,1044,1044,1044,1044,1044,1044,1044,1041,1041,1044,1044,1041,1041,1041,1041,1041,1041,1041,1041,1044,1044,1044,1041,1041,1041,1041,1041,1041,1041,1038,1038,1038,1038,1038,1041,1041,1041,1041,1041,1041,1041,1041,1041,1041,1041,1041,1041,1041,1038,1038,1038,1038,1038,1038,1041,1041,1041,1041,1041,1041,1041,1041,1041,1041,1041,1041,1041,1041,1038,1038,1038,1038,1038,1038,1038,1034,1034,1031,1031,1028,1016,1016,1016,1016,0,0,0,0,0,0,0,0,0,0,0,0,0,0,0,0,0,0,0,0,0,0,0,0,0,0,0,0,0,0,0,0,0,0,0,0,0,0,0,0,0
0,0,0,0,0,1112,1112,1115,1112,1105,1105,1108,1108,1105,1105,1101,1101,1101,1101,1101,1101,1101,1101,1101,1101,1101,1101,1097,1097,1094,1094,1094,1094,1094,1097,1097,1097,1097,1097,1097,1097,1097,1097,1097,1097,1097,1097,1097,1097,1097,1094,1094,1094,1094,1094,1094,1094,1094,1094,1090,1090,1087,1087,1087,1087,1087,1087,1090,1090,1090,1090,1090,1090,1090,1090,1090,1090,1090,1090,1090,1087,1087,1087,1087,1087,1087,1087,1090,1090,1090,1090,1090,1090,1090,1090,1090,1090,1090,1090,1090,1090,1090,1090,1090,1090,1090,1090,1090,1087,1087,1087,1087,1087,1087,1090,1090,1090,1090,1090,1090,1090,1090,1090,1090,1090,1090,1090,1090,1090,1090,1090,1090,1087,1087,1087,1087,1087,1087,0,0,0,0,0,0,0,0,754,754,754,754,754,754,754,755,757,757,757,757,759,761,761,761,762,762,764,766,766,766,767,769,769,769,0,0,0,0,1084,1084,1084,1084,1084,1084,1084,1084,1084,1084,1084,1084,1087,1084,1084,1084,1084,1084,1084,1084,1084,1080,1080,1080,1080,1080,1080,1080,1080,1080,1080,1080,1080,1080,1080,1080,1080,1080,1080,1080,1077,1077,1077,1080,1080,1080,858,858,858,858,858,858,858,858,860,860,862,862,864,864,864,862,862,864,864,864,864,864,864,864,867,867,867,867,869,869,869,871,871,871,873,873,875,878,878,880,880,882,885,885,887,887,887,889,891,894,894,896,896,896,896,898,898,901,901,903,903,903,903,1063,1063,1063,1063,1063,1067,1067,1067,1063,1063,1063,1063,1063,1063,1063,1067,1067,1067,1067,1067,1067,1067,1067,1067,1067,1067,1067,1067,1067,1070,1067,1067,1067,1067,1070,1070,1070,1070,1070,1070,1070,1070,1070,1067,1067,1067,1067,1063,1063,1063,1063,1063,1067,1067,1067,1067,1067,1067,1067,1067,1070,1070,1067,1067,1070,1067,1063,1063,1063,1063,1063,1063,1063,1060,1060,1057,1054,1050,1044,1041,1038,1038,1038,1038,1038,1041,1041,1041,1044,1047,1050,1050,1050,1054,1054,1057,1060,1063,1063,1060,1060,1060,1060,1060,1060,1060,1063,1063,1060,1060,1060,1060,1060,1060,1060,1057,1057,1057,1057,1057,1057,1057,1057,1060,1060,1060,1060,1060,1060,1060,1060,1060,1060,1060,1060,1060,1057,1057,1057,1057,1057,1057,1057,1057,1057,1054,1054,1054,1054,1050,1050,1050,1050,1050,1050,1050,1050,1054,1050,1050,1050,1050,1050,1050,1050,1050,1050,1050,1050,1050,1050,1050,1050,1047,1047,1044,1044,1044,1044,1044,1044,1044,1044,1047,1050,1050,1050,1047,1047,1047,1047,1047,1047,1044,1044,1044,1047,1047,1047,1047,1047,1044,1044,1041,1038,1038,1034,1034,1031,1031,1034,1038,1038,1041,1041,1041,1041,1044,1047,1044,1041,1041,1041,1041,1041,1041,1041,1041,1044,1044,1044,1041,1041,1041,1041,1041,1041,1041,1041,1041,1041,1041,1041,1041,1041,1041,1041,1038,1038,1041,1041,1041,1041,1041,1041,1041,1041,1038,1038,1038,1038,1038,1038,1038,1038,1038,1038,1038,1041,1041,1041,1041,1038,1038,1038,1038,1038,1038,1038,1038,1038,1038,1038,1038,1038,1038,1038,1038,1041,1038,1038,1038,1038,1038,1038,1038,1038,1038,1038,1034,1034,1034,1034,1034,1034,1031,1031,1028,1022,1019,1016,1016,1016,1016,0,0,0,0,0,0,0,0,0,0,0,0,0,0,0,0,0,0,0,0,0,0,0,0,0,0,0,0,0,0,0,0,0,0,0,0,0,0,0,0,0
0,0,0,0,0,1108,1108,1112,1108,1105,1105,1105,1105,1101,1101,1097,1097,1101,1101,1101,1101,1097,1097,1097,1097,1094,1094,1094,1094,1094,1090,1090,1090,1094,1094,1094,1094,1094,1094,1094,1094,1094,1094,1094,1094,1094,1094,1094,1094,1094,1094,1094,1090,1090,1090,1090,1090,1090,1090,1090,1090,1087,1087,1084,1084,1087,1087,1087,1087,1087,1087,1087,1087,1087,1087,1087,1090,1090,1087,1087,1087,1087,1084,1084,1087,1087,1087,1087,1087,1090,1090,1087,1087,1087,1087,1087,1087,1087,1087,1087,1087,1087,1087,1087,1087,1087,1087,1087,1087,1087,1087,1087,1087,1087,1087,1090,1090,1090,1090,1090,1090,1090,1090,1090,1087,1087,1087,1087,1087,1087,1087,1087,1087,1087,1087,1084,1084,1087,1087,0,0,0,0,0,0,0,0,754,754,754,754,755,755,757,757,757,759,759,761,761,761,762,764,764,766,766,766,767,767,769,769,769,0,0,0,0,1080,1080,1080,1080,1080,1077,1077,1077,1077,1077,1077,1077,1077,1080,1080,1080,1077,1077,1077,1077,1077,1077,1077,1077,1077,1077,1077,1077,1077,1077,1077,1080,1080,1080,1080,1077,1077,1077,1077,1077,1077,1077,1077,854,854,854,856,856,856,856,856,856,856,858,858,858,860,860,862,860,860,862,862,862,862,862,862,862,862,864,864,867,867,867,867,869,869,871,871,873,873,873,875,878,880,880,880,885,885,885,887,887,889,889,891,894,894,896,896,898,898,898,901,901,901,903,903,1063,1063,1063,1063,1063,1063,1063,1063,1063,1063,1063,1063,1063,1063,1063,1063,1063,1063,1063,1063,1067,1067,1063,1063,1063,1063,1063,1063,1067,1067,1067,1067,1067,1067,1067,1067,1067,1067,1067,1067,1070,1067,1067,1067,1067,1067,1063,1063,1060,1060,1063,1060,1060,1063,1063,1063,1063,1063,1063,1063,1063,1063,1063,1063,1063,1063,1063,1063,1063,1063,1060,1060,1063,1060,1060,1057,1057,1054,1054,1050,1044,1041,1038,1038,1038,1038,1041,1041,1041,1041,1044,1047,1050,1050,1050,1054,1054,1054,1057,1060,1060,1060,1057,1057,1060,1057,1057,1060,1060,1060,1060,1057,1057,1057,1057,1057,1057,1054,1054,1054,1054,1054,1054,1054,1054,1057,1057,1057,1057,1057,1057,1057,1057,1057,1057,1057,1057,1057,1057,1054,1054,1054,1054,1054,1054,1054,1054,1054,1050,1050,1050,1050,1050,1050,1050,1050,1050,1050,1050,1050,1050,1050,1050,1050,1050,1047,1047,1050,1050,1050,1050,1047,1047,1047,1047,1047,1044,1044,1044,1044,1041,1041,1041,1041,1041,1041,1041,1041,1041,1044,1044,1044,1044,1044,1047,1044,1044,1044,1044,1044,1044,1044,1044,1044,1041,1038,1038,1034,1034,1031,1028,1028,1028,1031,1031,1034,1038,1041,1041,1041,1044,1041,1041,1038,1038,1038,1038,1038,1038,1038,1041,1041,1041,1041,1041,1041,1041,1038,1038,1038,1038,1041,1041,1038,1038,1038,1038,1038,1038,1038,1038,1038,1038,1038,1038,1038,1038,1038,1038,1038,1038,1038,1038,1038,1038,1038,1038,1038,1038,1038,1038,1038,1038,1038,1038,1038,1038,1038,1034,1034,1034,1034,1034,1034,1034,1034,1034,1034,1038,1038,1038,1038,1038,1034,1034,1038,1038,1038,1038,1038,1038,1034,1031,1031,1031,1031,1028,1028,1025,1022,1019,1019,1016,1016,1016,1016,0,0,0,0,0,0,0,0,0,0,0,0,0,0,0,0,0,0,0,0,0,0,0,0,0,0,0,0,0,0,0,0,0,0,0,0,0,0,0,0,0
0,0,0,0,0,1108,1108,1105,1105,1101,1101,1101,1101,1101,1097,1097,1097,1097,1097,1097,1094,1094,1094,1090,1090,1094,1090,1090,1090,1090,1090,1090,1090,1090,1094,1094,1094,1094,1094,1094,1094,1094,1090,1090,1090,1090,1090,1090,1087,1087,1090,1090,1087,1087,1090,1090,1090,1090,1090,1087,1087,1087,1084,1080,1080,1084,1084,1087,1087,1087,1087,1087,1087,1087,1087,1087,1087,1087,1087,1087,1087,1084,1084,1084,1084,1084,1084,1084,1084,1087,1087,1084,1084,1084,1087,1084,1084,1084,1084,1084,1084,1084,1084,1087,1087,1087,1087,1087,1087,1087,1087,1087,1087,1087,1087,1087,1087,1087,1087,1087,1087,1087,1087,1084,1084,1087,1087,1087,1087,1084,1084,1084,1084,1084,1084,1080,1080,1084,1084,0,0,0,0,0,0,0,0,0,0,755,755,755,757,757,757,759,759,761,761,761,762,762,764,764,766,766,766,767,767,769,769,771,0,0,0,0,1077,1077,1077,1077,1077,1077,1073,1073,1073,1073,1073,1073,1077,1077,1077,1077,1077,1077,1077,1077,1077,1073,1073,1077,1077,1077,1077,1077,1077,1077,1077,1077,1077,1077,1077,1077,1077,1077,1077,1077,1077,849,849,851,851,854,856,856,856,856,856,856,856,856,856,858,858,858,860,860,860,860,860,860,860,860,862,862,862,862,864,864,867,867,867,869,869,871,871,873,873,875,875,878,880,880,880,885,885,885,887,887,889,889,891,894,894,896,896,898,898,901,901,901,901,903,1060,1063,1063,1063,1063,1063,1063,1063,1063,1063,1063,1063,1063,1063,1063,1063,1060,1060,1063,1060,1060,1060,1060,1060,1060,1063,1063,1063,1063,1067,1067,1067,1067,1067,1067,1067,1067,1063,1063,1063,1063,1067,1063,1063,1063,1063,1063,1063,1057,1057,1057,1060,1057,1057,1060,1060,1060,1060,1060,1060,1060,1063,1063,1063,1063,1060,1060,1060,1060,1060,1060,1057,1057,1060,1057,1057,1057,1054,1054,1054,1050,1047,1044,1041,1041,1041,1041,1041,1041,1041,1044,1047,1047,1050,1050,1050,1054,1054,1054,1057,1057,1057,1057,1057,1057,1057,1057,1057,1057,1060,1060,1057,1054,1054,1054,1054,1054,1054,1054,1050,1050,1050,1050,1050,1050,1050,1054,1054,1054,1054,1054,1054,1054,1054,1054,1054,1054,1050,1050,1054,1054,1050,1050,1050,1050,1050,1050,1050,1050,1047,1047,1047,1047,1047,1047,1047,1047,1047,1047,1047,1047,1047,1047,1047,1047,1047,1047,1047,1047,1047,1047,1047,1047,1044,1044,1044,1044,1041,1041,1041,1041,1041,1041,1041,1041,1041,1041,1041,1041,1041,1041,1041,1041,1041,1041,1041,1041,1041,1041,1041,1041,1041,1041,1041,1041,1041,1038,1034,1031,1031,1031,1028,1025,1025,1028,1031,1031,1034,1038,1038,1038,1038,1038,1038,1034,1031,1031,1034,1031,1031,1031,1031,1034,1034,1038,1038,1041,1041,1038,1038,1031,1031,1031,1038,1038,1038,1038,1038,1034,1034,1034,1034,1034,1034,1038,1038,1038,1038,1038,1038,1038,1038,1034,1034,1034,1034,1034,1034,1034,1034,1034,1034,1038,1034,1034,1034,1034,1034,1034,1034,1034,1034,1034,1034,1034,1031,1031,1034,1034,1034,1031,1031,1034,1034,1034,1034,1031,1031,1031,1034,1034,1034,1031,1028,1028,1028,1028,1025,1025,1022,1019,1019,1016,1016,1016,1016,1016,1016,0,0,0,0,0,0,0,0,0,0,0,0,0,0,0,0,0,0,0,0,0,0,0,0,0,0,0,0,0,0,0,0,0,0,0,0,0,0,0,0
0,0,0,0,0,1105,1105,1105,1101,1097,1097,1097,1097,1097,1097,1094,1094,1097,1094,1094,1090,1090,1090,1090,1090,1090,1090,1090,1090,1090,1090,1090,1090,1090,1090,1090,1090,1090,1090,1090,1090,1090,1090,1090,1087,1087,1087,1084,1084,1084,1084,1084,1084,1084,1087,1087,1087,1087,1087,1087,1087,1084,1080,1077,1077,1080,1080,1084,1084,1084,1084,1087,1084,1084,1084,1084,1084,1084,1084,1084,1084,1084,1084,1084,1084,1080,1080,1080,1080,1080,1080,1080,1080,1080,1080,1080,1080,1080,1080,1080,1080,1080,1080,1080,1080,1080,1084,1084,1084,1084,1084,1084,1084,1084,1084,1084,1084,1084,1084,1084,1084,1084,1084,1080,1080,1084,1084,1084,1084,1080,1080,1080,1080,1080,1080,1080,1080,1080,1084,0,0,0,0,0,0,0,0,0,0,755,755,757,757,757,759,759,761,761,761,762,762,764,766,766,766,767,767,767,769,769,769,769,769,0,0,0,1073,1073,1073,1073,1073,1073,1073,1073,1073,1073,1073,1073,1073,1077,1077,1073,1073,1073,1070,1070,1070,1070,1070,1070,1073,1073,1073,1073,1070,1070,1073,1073,1073,1073,1073,1073,1073,1073,1073,849,849,849,849,851,851,851,854,854,854,854,854,854,854,854,854,854,856,856,856,856,858,858,858,858,858,858,860,860,862,862,862,864,867,867,867,869,869,871,871,873,873,875,878,878,880,880,882,885,885,885,887,887,889,889,891,894,896,896,898,901,901,901,901,901,1060,1060,1060,1060,1060,1060,1060,1060,1060,1060,1060,1060,1060,1060,1060,1060,1060,1060,1060,1060,1060,1060,1060,1060,1060,1060,1060,1060,1060,1060,1060,1063,1063,1063,1063,1063,1063,1063,1063,1063,1063,1063,1063,1063,1063,1060,1060,1060,1060,1060,1057,1057,1057,1057,1057,1057,1057,1057,1057,1057,1057,1060,1060,1060,1060,1060,1060,1060,1057,1057,1057,1057,1057,1057,1057,1057,1057,1054,1054,1054,1054,1050,1050,1047,1044,1041,1041,1041,1041,1041,1041,1044,1044,1047,1047,1050,1050,1050,1050,1050,1050,1054,1054,1054,1054,1054,1054,1054,1054,1054,1054,1057,1057,1054,1054,1054,1054,1054,1050,1050,1050,1047,1047,1047,1050,1050,1047,1047,1050,1050,1050,1050,1050,1050,1050,1050,1050,1050,1050,1047,1047,1047,1047,1047,1047,1047,1047,1047,1047,1047,1047,1044,1044,1044,1044,1044,1044,1044,1044,1044,1044,1044,1044,1044,1044,1044,1044,1044,1044,1044,1044,1044,1044,1044,1044,1041,1041,1041,1041,1041,1041,1041,1041,1041,1041,1041,1041,1041,1041,1041,1041,1041,1041,1041,1041,1041,1041,1041,1041,1041,1041,1041,1041,1041,1041,1041,1041,1041,1038,1034,1031,1028,1028,1025,1025,1025,1028,1028,1028,1031,1031,1031,1031,1031,1031,1031,1028,1028,1028,1028,1028,1028,1028,1028,1031,1028,1028,1034,1038,1038,1034,1034,1028,1028,1028,1028,1028,1031,1031,1034,1031,1031,1031,1031,1028,1028,1031,1034,1034,1034,1038,1038,1034,1034,1034,1031,1031,1031,1031,1031,1031,1031,1031,1031,1031,1034,1034,1034,1034,1034,1034,1034,1031,1031,1031,1031,1031,1028,1028,1031,1031,1031,1031,1031,1031,1031,1031,1031,1028,1028,1028,1031,1031,1031,1031,1025,1025,1025,1025,1025,1022,1019,1016,1016,1016,1016,1013,1013,1013,1013,0,0,0,0,0,0,0,0,0,0,0,0,0,0,0,0,0,0,0,0,0,0,0,0,0,0,0,0,0,0,0,0,0,0,0,0,0,0,0,0
0,0,0,0,0,1101,1101,1101,1097,1094,1094,1094,1094,1097,1094,1094,1094,1094,1094,1090,1090,1090,1090,1090,1090,1090,1087,1087,1087,1090,1090,1087,1087,1087,1087,1087,1090,1090,1090,1090,1090,1090,1090,1084,1084,1084,1080,1080,1077,1077,1080,1080,1080,1080,1084,1084,1087,1084,1084,1084,1084,1084,1080,1077,1077,1077,1077,1080,1080,1080,1080,1084,1084,1084,1084,1084,1084,1084,1084,1080,1080,1080,1080,1080,1080,1080,1080,1077,1077,1077,1077,1077,1077,1077,1077,1077,1077,1077,1077,1080,1077,1077,1077,1080,1080,1080,1080,1077,1077,1077,1077,1080,1080,1080,1080,1080,1080,1080,1080,1080,1080,1077,1077,1077,1077,1080,1080,1080,1080,1080,1080,1077,1077,1080,1080,1077,1077,1077,1080,0,0,0,0,0,0,0,0,0,0,757,757,759,759,759,759,761,761,762,762,762,764,766,766,766,767,769,769,769,771,771,769,769,0,0,0,1070,1070,1070,1073,1073,1070,1070,1070,1073,1073,1070,1070,1070,1073,1073,1073,1070,1070,1067,1067,1067,1067,1067,1067,1067,1067,1067,1067,1067,1067,1067,1067,1070,1070,1070,1073,1073,1073,1073,847,847,849,849,851,851,851,851,851,851,851,851,851,851,851,851,854,854,854,854,854,854,856,856,856,858,858,858,858,860,860,862,862,864,867,867,867,869,869,871,873,873,873,875,878,880,880,880,885,885,885,887,887,889,889,889,891,894,896,896,903,903,903,1057,1060,1060,1060,1060,1060,1060,1060,1060,1060,1060,1060,1060,1057,1057,1057,1057,1057,1060,1060,1060,1060,1060,1060,1060,1057,1057,1057,1057,1057,1057,1057,1057,1057,1060,1060,1060,1060,1060,1063,1063,1060,1060,1060,1060,1060,1060,1060,1057,1057,1057,1057,1057,1054,1054,1054,1054,1054,1054,1054,1054,1054,1054,1054,1057,1057,1057,1057,1057,1057,1057,1054,1054,1054,1054,1054,1054,1054,1054,1054,1054,1054,1054,1050,1050,1050,1047,1044,1044,1041,1041,1041,1041,1041,1044,1044,1047,1047,1050,1050,1050,1050,1050,1050,1050,1054,1054,1054,1054,1054,1054,1054,1054,1054,1054,1054,1054,1050,1050,1050,1050,1050,1047,1047,1047,1047,1047,1047,1047,1047,1047,1047,1047,1047,1050,1047,1047,1050,1050,1047,1047,1047,1044,1044,1044,1044,1041,1041,1041,1044,1044,1044,1044,1044,1044,1044,1044,1044,1041,1041,1041,1041,1041,1041,1041,1041,1041,1041,1041,1041,1041,1041,1041,1041,1041,1041,1041,1041,1038,1038,1038,1038,1038,1038,1038,1038,1038,1038,1038,1038,1038,1038,1038,1038,1038,1038,1038,1038,1038,1038,1038,1038,1038,1038,1038,1038,1038,1038,1038,1038,1038,1034,1028,1028,1028,1025,1025,1025,1025,1025,1025,1025,1028,1028,1028,1028,1025,1025,1025,1025,1028,1028,1028,1028,1025,1025,1025,1025,1025,1025,1025,1025,1025,1028,1028,1025,1025,1025,1025,1025,1025,1025,1028,1031,1031,1028,1028,1025,1025,1028,1028,1031,1031,1031,1031,1031,1031,1028,1028,1028,1028,1028,1028,1028,1028,1028,1031,1031,1031,1031,1031,1031,1031,1031,1031,1031,1031,1031,1028,1028,1028,1028,1031,1028,1028,1028,1028,1028,1028,1028,1028,1028,1028,1028,1028,1028,1028,1028,1025,1025,1025,1025,1022,1019,1019,1016,1016,1016,1016,1013,1013,1013,1013,0,0,0,0,0,0,0,0,0,0,0,0,0,0,0,0,0,0,0,0,0,0,0,0,0,0,0,0,0,0,0,0,0,0,0,0,0,0,0,0
0,0,0,0,0,1097,1097,1097,1097,1094,1094,1094,1094,1094,1090,1090,1090,1090,1090,1090,1087,1087,1087,1087,1087,1087,1087,1087,1087,1087,1087,1087,1087,1087,1087,1087,1087,1087,1087,1087,1087,1087,1084,1080,1080,1077,1077,1077,1077,1077,1077,1077,1077,1077,1080,1080,1084,1080,1080,1084,1084,1080,1077,1073,1073,1077,1077,1077,1077,1077,1077,1080,1080,1080,1080,1080,1080,1080,1080,1077,1077,1077,1077,1077,1077,1077,1077,1073,1073,1073,1073,1073,1073,1073,1073,1073,1073,1073,1073,1077,1077,1077,1077,1077,1077,1077,1077,1077,1077,1073,1073,1077,1077,1077,1077,1077,1077,1077,1077,1077,1077,1073,1073,1073,1077,1077,1077,1077,1077,1077,1077,1077,1077,1073,1073,1077,1077,1077,1080,0,0,0,0,0,0,0,0,0,0,766,761,759,759,759,759,761,762,762,762,764,766,766,766,767,767,769,769,769,771,771,769,769,769,0,0,1070,1070,1070,1070,1070,1070,1067,1067,1067,1067,1067,1067,1067,1070,1073,1070,1067,1067,1067,1063,1063,1063,1063,1063,1063,1063,1063,1067,1067,1063,1063,1063,1067,1067,1070,1070,1070,845,845,845,847,849,849,851,851,851,851,851,851,851,851,851,851,851,851,851,851,851,851,851,851,854,854,856,856,858,858,858,860,860,860,862,864,867,867,869,869,871,871,873,873,873,878,878,880,880,880,885,885,885,887,887,889,889,889,891,896,896,1050,1050,1054,1054,1057,1057,1057,1060,1060,1060,1060,1060,1057,1057,1057,1057,1057,1054,1054,1054,1054,1057,1057,1060,1057,1057,1057,1057,1057,1057,1054,1054,1054,1054,1054,1054,1054,1054,1057,1057,1054,1054,1057,1060,1060,1057,1057,1057,1057,1057,1057,1054,1054,1054,1054,1054,1054,1054,1054,1054,1054,1054,1054,1054,1054,1054,1054,1054,1054,1054,1054,1054,1054,1054,1054,1054,1054,1054,1054,1054,1054,1054,1054,1050,1050,1050,1050,1050,1050,1047,1047,1044,1044,1041,1041,1041,1041,1041,1041,1041,1044,1047,1047,1047,1050,1050,1050,1050,1050,1050,1050,1050,1050,1050,1050,1050,1050,1050,1050,1050,1050,1050,1050,1047,1047,1047,1047,1044,1044,1044,1044,1044,1044,1044,1044,1044,1044,1044,1044,1044,1044,1047,1047,1047,1047,1044,1041,1041,1041,1041,1038,1038,1038,1038,1038,1038,1041,1041,1041,1041,1041,1041,1041,1041,1041,1041,1041,1041,1041,1041,1041,1041,1041,1041,1041,1041,1041,1041,1041,1038,1038,1038,1038,1038,1038,1038,1038,1038,1038,1038,1038,1038,1038,1038,1038,1038,1038,1038,1038,1038,1038,1034,1034,1034,1031,1028,1028,1028,1034,1034,1034,1034,1034,1034,1034,1031,1028,1028,1025,1025,1025,1025,1025,1025,1025,1025,1025,1025,1025,1025,1022,1022,1022,1022,1025,1025,1025,1025,1022,1022,1025,1019,1019,1019,1019,1019,1019,1022,1022,1022,1022,1022,1022,1022,1022,1022,1022,1022,1022,1022,1022,1019,1019,1022,1022,1025,1025,1028,1028,1025,1025,1025,1022,1022,1019,1016,1016,1016,995,995,1031,1031,1031,1031,1031,1031,1031,1031,1028,1028,1031,1031,1028,1028,1028,1028,1031,1028,1028,1028,1028,1028,1028,1028,1028,1025,1025,1025,1025,1028,1028,1025,1025,1022,1022,1022,1019,1019,1019,1016,1016,1016,1016,1013,1013,1013,0,0,0,0,0,0,0,0,0,0,0,0,0,0,0,0,0,0,0,0,0,0,0,0,0,0,0,0,0,0,0,0,0,0,0,0,0,0,0,0,0
0,0,0,0,0,1094,1094,1094,1094,1090,1090,1090,1090,1090,1090,1090,1090,1087,1087,1087,1084,1084,1084,1087,1087,1087,1087,1087,1087,1087,1087,1084,1084,1080,1080,1080,1084,1084,1084,1084,1084,1084,1080,1077,1077,1077,1077,1073,1073,1073,1077,1077,1077,1077,1077,1080,1080,1080,1080,1080,1080,1077,1073,1073,1073,1073,1073,1073,1077,1077,1077,1077,1077,1077,1077,1077,1077,1077,1077,1073,1073,1073,1073,1073,1073,1073,1073,1073,1073,1073,1073,1073,1073,1073,1073,1073,1073,1073,1073,1073,1073,1073,1073,1073,1073,1073,1073,1073,1073,1073,1073,1073,1073,1073,1073,1073,1073,1073,1073,1073,1073,1073,1073,1073,1073,1073,1073,1073,1073,1073,1073,1073,1070,1070,1070,1073,1070,1070,0,0,0,0,0,0,0,0,0,0,0,766,762,761,761,761,761,761,762,762,764,766,766,766,766,767,767,769,769,769,771,771,771,771,0,0,0,0,1067,1067,1067,1070,1067,1067,1067,1067,1067,1067,1063,1063,1067,1067,1067,1067,1063,1063,1063,1063,1063,1063,1063,1063,1063,1063,1063,1063,1063,1063,1063,1063,1067,1067,1070,1070,843,843,845,845,849,849,849,849,849,851,849,849,849,849,849,849,849,851,851,851,851,851,851,851,851,854,856,856,858,858,858,860,860,860,862,864,867,867,869,869,871,871,873,873,873,878,878,880,880,880,885,885,885,887,889,889,889,1050,1050,1050,1050,1050,1050,1054,1054,1057,1057,1057,1057,1057,1057,1057,1057,1054,1054,1054,1054,1054,1054,1054,1054,1054,1054,1057,1057,1054,1050,1050,1054,1054,1054,1050,1050,1050,1050,1050,1050,1050,1050,1050,1050,1050,1050,1054,1054,1054,1057,1057,1054,1054,1054,1054,1054,1054,1054,1050,1050,1050,1050,1050,1050,1050,1050,1050,1054,1054,1054,1050,1050,1050,1050,1050,1050,1050,1050,1050,1050,1050,1050,1050,1050,1050,1050,1050,1050,1047,1047,1047,1050,1047,1047,1047,1044,1044,1041,1041,1041,1041,1041,1041,1041,1041,1044,1044,1044,1047,1047,1047,1044,1044,1047,1047,1044,1044,1044,1044,1044,1044,1044,1044,1044,1047,1047,1047,1044,1044,1047,1044,1041,1041,1041,1044,1044,1044,1041,1041,1044,1044,1044,1044,1044,1044,1044,1047,1044,1044,1041,1041,1041,1041,1038,1038,1038,1038,1038,1034,1034,1034,1034,1038,1038,1038,1038,1038,1038,1038,1038,1038,1038,1038,1038,1038,1038,1038,1038,1038,1038,1038,1038,1038,1034,1034,1034,1034,1034,1034,1034,1034,1034,1034,1034,1034,1034,1034,1034,1034,1034,1034,1034,1034,1034,1034,1034,1031,1028,1028,1028,1025,1025,1028,1028,1031,1031,1031,1031,1031,1028,1025,1025,1025,1025,1025,1025,1025,1025,1025,1025,1025,1022,1022,1022,1022,1022,1022,1022,1025,1025,1025,1022,1019,1019,1019,1019,1019,1019,1019,1019,1019,1019,1019,1019,1019,1019,1022,1022,1022,1019,1019,1016,1016,1016,1016,1016,1016,1013,1013,1013,1013,1016,1016,1016,1016,1016,1016,1016,1010,1007,1001,992,992,992,992,1031,1028,1028,1031,1031,1031,1031,1028,1028,1028,1028,1028,1028,1031,1031,978,978,1031,978,978,1028,1028,1028,1025,1025,1022,1022,1016,1016,1025,1022,1022,1019,1019,1019,1016,1016,1016,1016,1016,1016,1013,1010,1010,1013,0,0,0,0,0,0,0,0,0,0,0,0,0,0,0,0,0,0,0,0,0,0,0,0,0,0,0,0,0,0,0,0,0,0,0,0,0,0,0,0,0
0,0,0,0,0,1094,1090,1090,1090,1090,1090,1090,1090,1090,1087,1087,1087,1087,1087,1084,1080,1080,1080,1080,1084,1084,1084,1084,1084,1084,1084,1080,1080,1077,1077,1077,1077,1077,1077,1077,1077,1077,1077,1073,1073,1073,1073,1073,1073,1073,1073,1073,1077,1077,1077,1077,1080,1077,1077,1077,1077,1077,1073,1073,1073,1073,1073,1073,1073,1073,1073,1073,1073,1073,1073,1073,1073,1073,1073,1073,1073,1070,1070,1070,1070,1070,1073,1070,1070,1070,1070,1070,1070,1067,1067,1070,1070,1070,1070,1070,1073,1070,1070,1070,1070,1070,1070,1070,1070,1070,1070,1070,1070,1070,1070,1070,1070,1070,1067,1067,1070,1070,1070,1070,1070,1073,1073,1073,1073,1073,1073,1070,1067,1067,1067,1067,1067,1067,0,0,0,0,0,0,0,0,0,0,0,766,764,761,761,761,761,761,762,762,764,766,766,767,767,767,769,769,771,771,773,773,773,773,773,0,0,0,1067,1063,1063,1067,1067,1067,1063,1063,1063,1063,1063,1063,1063,1063,1063,1060,1060,1063,1063,1060,1060,1060,1060,1060,1063,1063,1063,1063,1063,841,841,843,843,843,843,845,843,843,843,845,847,847,849,849,849,849,849,849,849,849,849,849,849,849,849,851,851,851,851,851,851,854,856,856,858,858,858,860,860,862,862,864,867,867,869,871,871,873,875,875,875,878,878,880,882,882,885,885,887,887,889,889,1050,1050,1050,1050,1050,1050,1050,1050,1054,1054,1054,1054,1054,1054,1054,1054,1054,1054,1054,1050,1050,1050,1050,1050,1050,1050,1050,1050,1050,1050,1047,1047,1047,1050,1050,1047,1047,1047,1047,1047,1047,1047,1047,1047,1047,1050,1050,1050,1050,1050,1050,1050,1050,1050,1050,1050,1050,1050,1050,1050,1050,1050,1050,1050,1050,1050,1050,1050,1050,1050,1050,1050,1050,1050,1050,1050,1050,1047,1047,1047,1047,1047,1047,1047,1047,1047,1047,1047,1047,1047,1047,1047,1047,1047,1047,1044,1044,1041,1041,1041,1041,1041,1041,1041,1041,1041,1041,1041,1041,1041,1044,1044,1041,1041,1041,1044,1041,1041,1041,1041,1041,1041,1041,1041,1041,1041,1044,1044,1044,1044,1044,1044,1041,1041,1041,1041,1041,1041,1041,1041,1041,1041,1041,1041,1041,1041,1041,1041,1041,1041,1041,1038,1038,1038,1038,1034,1034,1034,1034,1034,1031,1031,1034,1034,1034,1034,1038,1038,1038,1034,1034,1038,1034,1034,1034,1034,1034,1034,1034,1034,1034,1034,1034,1034,1034,1031,1031,1031,1031,1031,1031,1031,1031,1034,1034,1034,1034,1034,1034,1034,1031,1031,1031,1031,1031,1028,1028,1028,1025,1025,1025,1025,1025,1025,1025,1025,1025,1025,1028,1028,1025,1025,1025,1022,1022,1025,1022,1022,1025,1025,1025,1025,1022,1022,1022,1019,1019,1019,1019,1022,1025,1019,1019,1019,1019,1019,1016,1016,1016,1016,1016,1016,1016,1016,1016,1016,1016,1016,1016,1016,1016,1016,1013,1013,1010,1010,1010,1013,1013,1013,1013,1013,1013,1013,1013,1013,1010,1007,1007,1004,1004,998,992,992,992,992,992,1028,1028,1028,1028,1028,981,978,978,981,981,981,981,981,981,978,978,978,978,978,978,978,1025,1022,1022,1013,1013,1016,1016,1016,1016,1016,1016,1016,1016,1016,1016,1016,1016,1013,1010,1010,1007,1007,1007,0,0,0,0,0,0,0,0,0,0,0,0,0,0,0,0,0,0,0,0,0,0,0,0,0,0,0,0,0,0,0,0,0,0,0,0,0,0,0,0,0
0,0,0,0,1090,1090,1090,1090,1090,1090,1090,1090,1087,1087,1087,1087,1084,1084,1084,1080,1077,1077,1077,1080,1080,1080,1080,1080,1080,1084,1084,1080,1077,1077,1073,1073,1077,1073,1073,1073,1073,1073,1073,1073,1073,1073,1073,1073,1073,1073,1073,1073,1073,1073,1077,1077,1077,1077,1077,1077,1077,1073,1070,1070,1070,1073,1073,1073,1073,1073,1073,1073,1073,1073,1073,1073,1073,1070,1070,1070,1070,1067,1067,1067,1067,1067,1070,1067,1067,1070,1070,1067,1067,1067,1067,1067,1067,1067,1067,1070,1070,1070,1067,1067,1067,1067,1067,1067,1067,1067,1067,1067,1067,1067,1070,1067,1067,1067,1063,1063,1063,1063,1063,1063,1067,1070,1070,1070,1070,1070,1070,1067,1063,1063,1063,1063,1063,1067,0,0,0,0,0,0,0,0,0,0,0,766,764,762,761,761,761,762,762,762,764,766,766,767,767,767,769,771,771,771,773,773,773,773,773,773,0,0,0,1063,1063,1063,1063,1063,1060,1060,1063,1063,1060,1060,1060,1060,1060,1060,1060,1060,1060,1060,1060,1060,1060,1060,1060,1060,1060,839,839,839,841,843,843,843,843,845,843,843,843,843,845,845,845,847,847,849,849,847,847,847,847,847,847,849,849,849,849,849,851,851,851,854,856,856,858,858,858,860,862,862,864,867,867,869,869,871,873,873,875,875,875,878,878,880,880,882,882,885,885,887,1050,1050,1047,1047,1047,1050,1050,1050,1050,1050,1050,1050,1050,1050,1050,1050,1050,1050,1050,1050,1050,1050,1050,1050,1050,1047,1047,1047,1047,1047,1044,1044,1044,1044,1044,1044,1044,1044,1044,1044,1044,1044,1044,1044,1047,1047,1047,1047,1047,1047,1047,1047,1047,1047,1047,1047,1047,1047,1047,1047,1047,1047,1047,1047,1047,1047,1047,1047,1047,1050,1050,1047,1047,1050,1050,1050,1050,1050,1050,1047,1044,1044,1044,1044,1044,1044,1044,1044,1044,1044,1041,1041,1041,1041,1044,1044,1041,1041,1041,1041,1041,1041,1038,1038,1038,1038,1038,1041,1041,1041,1041,1041,1041,1041,1041,1041,1041,1041,1041,1041,1041,1041,1041,1041,1041,1041,1041,1041,1041,1041,1041,1041,1041,1041,1041,1038,1038,1041,1038,1038,1038,1038,1038,1038,1038,1038,1038,1038,1041,1041,1041,1038,1038,1038,1034,1034,1034,1031,1031,1031,1031,1031,1031,1031,1031,1031,1031,1031,1031,1031,1031,1031,1031,1034,1031,1031,1031,1031,1031,1031,1031,1031,1031,1031,1031,1031,1028,1028,1028,1028,1028,1028,1028,1028,1028,1031,1031,1028,1028,1028,1031,1031,1028,1028,1028,1028,1028,1028,1025,1025,1025,1025,1022,1022,1022,1022,1022,1022,1025,1025,1025,1022,1022,1022,1022,1022,1022,1022,1022,1022,1022,1022,1022,1022,1022,1019,1019,1019,1019,1019,1019,1016,1016,1016,1016,1016,1016,1016,1016,1016,1016,1013,1013,1016,1013,1013,1013,1013,1013,1013,1016,1013,1013,1013,1010,1010,1010,1007,1007,1007,1007,1007,1007,1007,1007,1007,1007,1007,1004,1004,1001,1001,1001,995,992,992,992,992,992,992,989,984,984,984,981,978,978,981,981,981,981,981,981,978,978,978,978,978,978,978,1025,1022,995,995,1013,1013,1013,1013,1013,1016,1016,1016,1016,1016,1016,1016,1013,1010,1010,1007,1007,1004,1004,0,0,0,0,0,0,0,0,0,0,0,0,0,0,0,0,0,0,0,0,0,0,0,0,0,0,0,0,0,0,0,0,0,0,0,0,0,0,0,0,0
0,0,0,0,1090,1090,1090,1090,1090,1090,1087,1087,1087,1084,1084,1084,1080,1080,1080,1077,1077,1073,1073,1077,1077,1077,1077,1080,1080,1080,1077,1077,1073,1073,1073,1073,1073,1073,1070,1070,1070,1070,1070,1070,1070,1070,1070,1067,1067,1073,1073,1073,1073,1073,1073,1073,1073,1073,1073,1073,1073,1070,1070,1070,1070,1070,1070,1070,1070,1070,1070,1070,1070,1070,1070,1070,1070,1070,1067,1067,1067,1067,1063,1063,1063,1063,1067,1067,1067,1067,1067,1063,1063,1063,1063,1067,1067,1067,1067,1067,1067,1067,1067,1063,1063,1067,1067,1067,1067,1067,1067,1067,1067,1067,1063,1063,1063,1063,1063,1063,1063,1063,1063,1063,1063,1063,1063,1063,1063,1067,1067,1063,1063,1063,1063,1060,1060,0,0,0,0,0,0,0,0,0,0,769,767,767,766,762,762,762,762,762,762,764,764,766,767,767,767,769,771,771,771,773,773,774,774,774,773,773,0,0,0,0,1060,1060,1060,1060,1060,1060,1060,1057,1054,1054,1054,1057,1060,1060,1060,1060,1060,1060,1060,1060,1060,1060,1060,1060,837,837,837,839,841,841,843,843,843,843,843,843,843,843,843,843,843,843,845,845,845,845,845,845,845,845,847,849,849,849,849,849,851,851,851,854,854,856,858,858,860,862,862,862,864,867,869,869,871,873,873,875,875,875,878,878,878,878,878,878,882,885,885,1044,1047,1047,1044,1044,1047,1047,1050,1047,1047,1050,1050,1050,1047,1047,1047,1047,1047,1047,1047,1047,1047,1047,1047,1047,1047,1044,1044,1044,1044,1041,1041,1041,1041,1041,1041,1041,1041,1041,1041,1041,1041,1041,1041,1041,1044,1044,1044,1044,1044,1044,1044,1044,1044,1044,1044,1044,1041,1041,1044,1044,1044,1047,1047,1044,1044,1044,1044,1044,1044,1044,1047,1047,1047,1047,1047,1047,1047,1044,1044,1044,1041,1041,1041,1041,1044,1041,1041,1041,1041,1041,1041,1041,1041,1041,1041,1041,1038,1038,1038,1038,1038,1038,1038,1038,1038,1038,1038,1038,1038,1038,1038,1038,1038,1038,1038,1038,1038,1038,1038,1038,1038,1038,1038,1038,1038,1038,1038,1038,1038,1038,1038,1038,1038,1038,1038,1038,1038,1038,1038,1038,1038,1038,1038,1038,1034,1034,1034,1038,1034,1034,1034,1034,1034,1034,1031,1031,1031,1028,1028,1028,1028,1028,1028,1028,1028,1028,1031,1028,1028,1028,1028,1028,1031,1031,1031,1031,1028,1028,1028,1031,1028,1028,1028,1028,1028,1028,1028,1025,1025,1025,1025,1028,1028,1028,1028,1028,1028,1028,1025,1025,1028,1028,1025,1025,1025,1025,1025,1025,1025,1022,1022,1022,1022,1019,1019,1022,1019,1019,1022,1022,1022,1022,1019,1019,1019,1022,1022,1019,1019,1019,1019,1019,1016,1016,1019,1019,1019,1016,1016,1016,1016,1016,1016,1016,1016,1016,1016,1016,1016,1016,1016,1013,1013,1013,1013,1013,1013,1013,1013,1013,1013,1013,1013,1013,1007,1007,1007,1007,1007,1007,1007,1007,1007,1007,1007,1004,1004,1004,1004,1001,1001,998,998,995,992,992,992,992,992,989,987,984,984,984,981,981,981,981,981,981,981,981,981,978,978,978,978,978,978,978,984,1025,992,992,992,1007,1007,1007,1010,1016,1016,1016,1016,1016,1013,1013,1013,1010,1010,1007,1007,1004,1004,0,0,0,0,0,0,0,0,0,0,0,0,0,0,0,0,0,0,0,0,0,0,0,0,0,0,0,0,0,0,0,0,0,0,0,0,0,0,0,0,0
0,0,0,0,1090,1090,1087,1087,1087,1087,1087,1087,1084,1080,1080,1080,1077,1077,1077,1073,1073,1073,1073,1073,1073,1073,1073,1077,1077,1077,1073,1073,1073,1070,1070,1070,1063,1063,1063,1063,1063,1063,1063,1070,1070,1070,1070,1067,1067,1067,1067,1067,1067,1070,1070,1070,1073,1073,1070,1070,1070,1070,1067,1067,1067,1070,1067,1067,1067,1067,1070,1070,1067,1067,1067,1067,1067,1063,1063,1063,1063,1063,1063,1063,1063,1063,1063,1063,1063,1063,1063,1063,1063,1063,1063,1063,1063,1063,1063,1063,1063,1063,1063,1063,1063,1063,1063,1063,1063,1063,1063,1063,1063,1063,1063,1063,1063,1063,1060,1060,1060,1060,1060,1060,1060,1060,1060,1060,1060,1060,1060,1060,1060,1060,1060,1060,1060,0,0,0,0,0,0,0,0,0,0,769,767,767,766,764,762,762,762,764,764,764,766,766,767,767,767,769,771,771,773,773,774,774,774,774,774,774,774,0,0,1054,1054,1054,1057,1057,1057,1057,1057,1054,1054,1054,1054,1054,1057,1057,1057,1060,1060,1060,1057,1057,1057,1057,1060,835,835,837,837,837,839,841,841,841,841,843,843,841,841,841,841,841,841,841,843,843,845,845,845,845,845,845,847,849,849,849,849,849,851,851,851,854,854,856,858,860,860,862,864,864,867,867,869,871,873,873,873,875,875,875,878,878,878,878,878,878,882,885,1044,1044,1047,1044,1044,1044,1044,1044,1047,1044,1044,1044,1044,1044,1044,1044,1044,1044,1044,1044,1044,1044,1044,1047,1047,1044,1044,1041,1041,1041,1041,1041,1038,1038,1038,1038,1038,1038,1038,1038,1038,1041,1038,1038,1041,1041,1041,1041,1041,1041,1044,1041,1041,1041,1041,1041,1041,1041,1041,1041,1041,1041,1041,1041,1041,1041,1041,1041,1041,1041,1041,1041,1041,1041,1041,1044,1044,1044,1041,1041,1041,1041,1038,1038,1041,1041,1041,1041,1041,1038,1038,1038,1038,1038,1038,1038,1038,1038,1038,1038,1038,1038,1038,1038,1038,1038,1038,1038,1034,1034,1034,1034,1038,1034,1034,1034,1034,1034,1034,1034,1034,1034,1034,1038,1038,1038,1034,1034,1034,1034,1034,1034,1034,1034,1038,1038,1034,1034,1034,1034,1034,1034,1034,1034,1034,1034,1031,1031,1031,1031,1031,1031,1031,1031,1031,1031,1031,1028,1028,1028,1028,1028,1028,1028,1028,1028,1028,1028,1028,1028,1028,1028,1028,1025,1025,1025,1028,1028,1028,1028,1028,1028,1028,1028,1028,1025,1025,1025,1025,1025,1025,1025,1025,1025,1025,1025,1025,1025,1025,1025,1022,1022,1022,1022,1022,1022,1019,1019,1019,1022,1022,1019,1019,1019,1019,1019,1019,1019,1019,1019,1019,1019,1019,1019,1019,1019,1019,1019,1019,1016,1016,1016,1016,1016,1016,1016,1016,1016,1016,1016,1016,1016,1016,1016,1016,1016,1016,1016,1016,1013,1013,1013,1013,1013,1013,1013,1013,1013,1013,1013,1010,1010,1013,1010,1010,1010,1007,1007,1007,1007,1007,1007,1004,1004,1004,1004,1004,1004,1004,1004,1001,1001,1001,998,998,995,992,992,992,992,992,989,987,984,984,984,981,981,981,981,981,981,981,981,981,978,978,978,981,981,981,981,984,989,989,992,992,998,995,995,992,992,995,1013,1016,1013,1013,1013,1013,1013,1013,0,0,0,0,0,0,0,0,0,0,0,0,0,0,0,0,0,0,0,0,0,0,0,0,0,0,0,0,0,0,0,0,0,0,0,0,0,0,0,0,0,0,0,0,0
0,0,0,0,1087,1087,1087,1087,1087,1087,1084,1084,1084,1080,1077,1077,1077,1077,1077,1073,1073,1073,1073,1073,1073,1073,1073,1073,1073,1073,1070,1070,1070,1070,1067,1067,1063,1063,1063,1063,1063,1063,1063,1067,1067,1067,1067,1063,1063,1063,1063,1063,1063,1063,1063,1063,1070,1067,1067,1067,1067,1067,1063,1063,1063,1063,1063,1063,1063,1063,1067,1067,1063,1063,1063,1063,1063,1060,1060,1060,1060,1060,1060,1060,1060,1060,1060,1060,1060,1060,1060,1060,1060,1060,1060,1060,1060,1063,1063,1063,1063,1063,1063,1063,1063,1063,1063,1063,1060,1060,1060,1060,1060,1060,1060,1060,1060,1060,1060,1060,1060,1060,1060,1057,1057,1057,1057,1057,1057,1057,1057,1057,1057,1057,1057,1057,1057,1057,1060,0,0,0,0,0,0,0,0,767,767,767,766,764,762,762,762,762,764,764,766,766,767,767,767,769,771,773,773,773,774,774,774,774,774,774,774,0,0,0,1054,1054,1054,1057,1054,1054,1054,1054,1050,1050,1050,1050,1050,1054,1054,1057,1057,1057,1057,1057,833,833,833,835,835,837,837,837,839,839,839,841,841,841,841,839,839,839,839,839,839,841,841,841,843,843,843,845,845,845,847,849,849,849,849,849,851,851,851,854,854,856,858,860,862,864,864,864,867,867,869,871,873,873,873,875,875,875,878,878,878,1041,1038,1038,1041,1041,1041,1041,1044,1044,1044,1041,1041,1044,1044,1041,1041,1041,1041,1041,1041,1041,1041,1041,1041,1044,1044,1044,1044,1044,1041,1041,1041,1038,1038,1038,1038,1038,1038,1038,1038,1038,1038,1038,1038,1038,1038,1038,1038,1038,1038,1038,1041,1041,1041,1041,1041,1038,1038,1038,1038,1038,1038,1038,1038,1038,1038,1038,1038,1038,1041,1041,1038,1038,1038,1041,1038,1038,1038,1038,1038,1041,1041,1041,1038,1038,1038,1038,1038,1038,1038,1038,1038,1038,1038,1038,1038,1038,1034,1034,1034,1034,1034,1034,1031,1031,1034,1034,1034,1034,1034,1034,1034,1034,1034,1034,1034,1034,1031,1031,1031,1031,1031,1031,1031,1031,1031,1031,1031,1034,1031,1031,1034,1031,1031,1031,1031,1031,1031,1034,1034,1034,1031,1031,1031,1031,1031,1031,1031,1031,1031,1031,1028,1028,1028,1028,1028,1028,1028,1028,1028,1028,1028,1028,1028,1028,1025,1025,1025,1025,1025,1025,1028,1025,1025,1025,1025,1025,1025,1025,1025,1025,1025,1025,1025,1025,1025,1028,1028,1025,1025,1025,1025,1022,1022,1019,1019,1022,1022,1022,1022,1022,1022,1022,1022,1022,1019,1019,1019,1019,1019,1019,1019,1016,1016,1019,1019,1016,1016,1016,1016,1016,1016,1016,1016,1016,1016,1016,1016,1016,1019,1019,1019,1016,1016,1016,1016,1016,1016,1016,1016,1016,1016,1016,1016,1016,1016,1016,1016,1016,1016,1016,1016,1013,1013,1013,1013,1013,1013,1013,1013,1013,1013,1013,1010,1010,1010,1010,1010,1010,1010,1007,1007,1007,1007,1007,1007,1004,1004,1004,1004,1004,1004,1001,1001,1001,1001,1001,1001,998,998,995,992,992,992,992,992,989,987,984,984,984,981,981,981,981,981,981,981,981,981,978,978,978,978,978,981,981,981,984,989,992,992,992,992,992,992,992,992,1001,1004,1013,1013,1013,0,0,0,0,0,0,0,0,0,0,0,0,0,0,0,0,0,0,0,0,0,0,0,0,0,0,0,0,0,0,0,0,0,0,0,0,0,0,0,0,0,0,0,0,0,0,0,0
0,0,0,0,1087,1087,1087,1087,1084,1084,1084,1080,1080,1077,1077,1077,1073,1073,1073,1070,1070,1070,1070,1070,1070,1070,1070,1070,1070,1070,1067,1067,1067,1063,1063,1063,1063,1063,1063,1063,1063,1063,1063,1063,1063,1063,1063,1063,1063,1063,1063,1063,1063,1060,1060,1060,1060,1063,1063,1063,1067,1063,1063,1063,1063,1063,1063,1063,1063,1063,1063,1063,1060,1060,1060,1060,1060,1060,1060,1060,1060,1060,1060,1060,1060,1057,1057,1057,1057,1057,1057,1057,1057,1060,1060,1060,1060,1060,1060,1060,1060,1060,1060,1060,1060,1060,1060,1060,1060,1060,1057,1057,1057,1057,1057,1057,1057,1057,1057,1057,1057,1057,1057,1057,1057,1057,1057,1057,1057,1057,1054,1054,1057,1054,1054,1050,1050,1050,1050,0,0,0,0,0,0,0,0,767,767,767,766,764,762,762,762,762,764,764,766,766,767,767,767,769,773,773,773,774,774,776,776,776,776,776,776,0,0,1050,1050,1050,1050,1054,1054,1054,1050,1050,1050,1050,1050,1050,1050,1050,1050,1054,1054,831,829,829,829,831,833,835,835,835,835,835,837,837,837,839,839,839,839,837,837,837,837,837,839,839,839,841,841,843,843,843,845,845,847,849,849,849,849,851,851,851,851,854,856,856,858,860,862,864,867,867,867,869,869,871,873,875,875,875,878,878,878,1038,1038,1038,1038,1038,1038,1038,1038,1038,1041,1041,1041,1041,1041,1041,1038,1038,1038,1041,1041,1038,1038,1038,1038,1038,1041,1041,1041,1041,1041,1041,1038,1038,1038,1034,1034,1034,1034,1034,1034,1034,1034,1034,1034,1034,1034,1034,1034,1034,1034,1034,1034,1034,1038,1038,1038,1038,1038,1034,1034,1038,1034,1034,1034,1034,1034,1034,1034,1034,1038,1038,1038,1038,1038,1038,1038,1034,1034,1034,1038,1038,1038,1038,1038,1038,1038,1034,1034,1034,1034,1034,1034,1034,1034,1034,1038,1034,1034,1034,1034,1034,1034,1034,1031,1031,1031,1031,1031,1031,1031,1031,1031,1031,1031,1031,1031,1031,1031,1031,1031,1031,1031,1031,1028,1028,1028,1028,1028,1028,1028,1028,1028,1028,1028,1028,1028,1028,1028,1028,1028,1028,1031,1031,1028,1028,1028,1028,1028,1028,1028,1028,1028,1028,1028,1025,1025,1025,1025,1025,1025,1025,1025,1028,1025,1025,1025,1025,1025,1025,1025,1025,1025,1025,1025,1025,1025,1025,1025,1025,1025,1025,1025,1025,1025,1025,1025,1022,1022,1022,1025,1022,1022,1022,1019,1019,1019,1016,1016,1016,1016,1019,1016,1016,1019,1019,1019,1019,1016,1016,1016,1016,1019,1019,1016,1016,1016,1016,1016,1016,1016,1016,1016,1016,1016,1016,1016,1016,1016,1016,1016,1016,1016,1016,1016,1016,1013,1013,1013,1013,1013,1016,1013,1013,1013,1013,1013,1013,1013,1013,1013,1013,1013,1013,1013,1013,1013,1013,1010,1010,1013,1010,1010,1010,1010,1010,1010,1010,1007,1007,1010,1010,1010,1007,1004,1004,1007,1004,1004,1004,1004,1004,1004,1004,1001,1001,1001,1001,1001,1001,1001,998,998,995,992,992,992,992,992,989,989,987,984,984,981,981,981,981,981,981,981,981,981,978,978,978,978,978,981,981,981,984,989,989,989,989,989,989,989,989,989,989,992,992,0,0,0,0,0,0,0,0,0,0,0,0,0,0,0,0,0,0,0,0,0,0,0,0,0,0,0,0,0,0,0,0,0,0,0,0,0,0,0,0,0,0,0,0,0,0,0,0,0,0
0,0,0,0,1084,1084,1084,1080,1077,1077,1077,1077,1077,1077,1073,1073,1073,1070,1070,1067,1067,1067,1067,1067,1067,1067,1067,1067,1063,1063,1063,1063,1063,1063,1063,1063,1063,1060,1060,1063,1063,1063,1063,1063,1060,1060,1060,1060,1060,1060,1060,1060,1060,1060,1060,1060,1060,1060,1060,1060,1060,1060,1060,1060,1060,1063,1060,1060,1060,1060,1060,1060,1057,1057,1057,1057,1057,1057,1057,1057,1057,1057,1057,1057,1057,1057,1057,1054,1054,1054,1054,1054,1054,1057,1057,1060,1060,1060,1060,1060,1060,1060,1060,1057,1057,1057,1057,1057,1057,1057,1054,1054,1054,1054,1054,1054,1054,1054,1057,1054,1054,1054,1054,1054,1054,1054,1054,1054,1054,1050,1050,1054,1054,1054,1050,1050,1050,1050,1047,1047,0,0,0,0,0,0,0,0,769,767,766,766,764,764,764,764,764,766,766,767,767,767,769,771,773,774,774,774,776,776,776,776,778,778,778,0,0,0,1050,1050,1050,1050,1050,1050,1050,1050,1050,1047,1047,1047,1050,1050,1050,829,829,829,829,829,829,829,831,833,833,833,833,833,833,833,833,835,835,837,837,837,837,837,837,837,837,839,839,839,841,843,843,843,843,845,847,847,849,849,851,851,851,854,854,854,856,858,860,860,864,867,867,867,869,869,871,873,873,875,875,875,878,1038,1038,1038,1038,1038,1038,1038,1038,1038,1038,1038,1038,1038,1038,1038,1038,1038,1038,1038,1038,1038,1038,1038,1038,1038,1038,1038,1038,1041,1038,1038,1038,1038,1034,1034,1034,1031,1031,1031,1031,1031,1031,1031,1031,1031,1031,1031,1031,1031,1031,1031,1031,1034,1034,1034,1038,1038,1034,1034,1034,1031,1031,1034,1034,1034,1034,1034,1034,1031,1031,1031,1034,1034,1034,1034,1034,1034,1034,1034,1031,1031,1031,1031,1031,1034,1034,1034,1034,1031,1031,1031,1031,1031,1031,1031,1031,1034,1034,1034,1034,1034,1034,1031,1031,1031,1031,1031,1028,1028,1031,1028,1028,1028,1028,1028,1028,1028,1028,1028,1028,1031,1031,1028,1028,1028,1028,1028,1028,1028,1025,1025,1025,1025,1025,1025,1025,1025,1025,1025,1025,1025,1025,1025,1025,1025,1025,1025,1025,1025,1025,1025,1025,1025,1025,1025,1025,1025,1025,1025,1025,1025,1022,1022,1022,1025,1025,1025,1022,1022,1022,1022,1022,1022,1022,1022,1022,1019,1019,1019,1019,1019,1022,1019,1019,1019,1022,1022,1022,1022,1022,1019,1019,1019,1019,1019,1019,1016,1016,1016,1016,1016,1016,1016,1013,1013,1016,1016,1016,1016,1016,1013,1013,1016,1016,1013,1013,1013,1016,1016,1013,1013,1013,1013,1013,1013,1013,1013,1013,1013,1016,1016,1016,1016,1016,1016,1016,1013,1013,1013,1010,1010,1010,1010,1010,1010,1013,1013,1013,1013,1013,1013,1013,1013,1013,1013,1013,1013,1013,1013,1010,1010,1010,1010,1010,1010,1010,1010,1010,1010,1007,1007,1007,1007,1007,1004,1004,1004,1004,1004,1004,1004,1004,1004,1004,1004,1001,1001,1001,998,998,998,998,998,998,995,995,992,992,992,992,989,989,987,987,987,987,981,981,981,981,981,981,981,981,981,981,981,981,981,981,981,984,987,989,989,989,989,989,989,987,987,987,987,987,0,0,0,0,0,0,0,0,0,0,0,0,0,0,0,0,0,0,0,0,0,0,0,0,0,0,0,0,0,0,0,0,0,0,0,0,0,0,0,0,0,0,0,0,0,0,0,0,0,0,0
0,0,0,0,1080,1080,1077,1077,1073,1073,1073,1073,1073,1073,1073,1070,1070,1067,1067,1067,1067,1067,1067,1067,1067,1063,1063,1063,1063,1063,1060,1060,1060,1060,1060,1060,1060,1060,1060,1060,1060,1060,1060,1057,1057,1060,1060,1057,1057,1060,1060,1060,1060,1060,1057,1057,1057,1057,1057,1057,1057,1057,1057,1057,1057,1057,1054,1054,1054,1054,1054,1057,1054,1054,1057,1054,1054,1057,1054,1054,1054,1054,1054,1054,1054,1054,1054,1050,1050,1050,1050,1050,1050,1054,1054,1054,1054,1057,1057,1057,1057,1057,1057,1057,1057,1054,1054,1054,1054,1054,1050,1050,1050,1050,1050,1050,1050,1054,1054,1054,1054,1054,1054,1050,1050,1050,1050,1050,1050,1050,1050,1050,1054,1050,1050,1050,1050,1047,1047,1044,1044,0,0,0,0,0,0,0,773,769,767,767,766,764,764,764,764,766,766,767,767,769,771,773,774,774,774,776,776,776,776,776,778,778,778,0,0,0,1050,1050,1047,1047,1047,1047,1047,1050,1047,1047,827,827,827,827,829,829,829,829,829,829,829,829,831,831,831,831,831,831,831,831,833,833,833,833,835,835,835,835,835,837,837,839,839,839,841,843,843,843,843,845,847,847,849,849,851,851,854,854,856,856,858,858,860,862,864,867,867,867,869,869,871,873,875,875,875,875,878,1034,1034,1034,1034,1034,1034,1034,1034,1034,1034,1034,1034,1034,1034,1034,1034,1034,1034,1034,1034,1034,1034,1034,1034,1034,1034,1038,1038,1038,1034,1034,1034,1034,1034,1031,1031,1031,1031,1031,1031,1031,1031,1031,1028,1028,1028,1028,1028,1028,1028,1031,1031,1031,1031,1031,1034,1034,1034,1034,1031,1031,1031,1034,1034,1031,1031,1031,1031,1031,1028,1028,1031,1031,1031,1031,1034,1034,1031,1031,1031,1031,1031,1031,1031,1031,1031,1031,1031,1031,1028,1028,1031,1031,1028,1028,1031,1031,1031,1031,1031,1031,1028,1028,1031,1028,1028,1028,1028,1028,1028,1028,1028,1028,1028,1028,1028,1028,1028,1028,1028,1028,1028,1028,1028,1025,1025,1025,1025,1025,1025,1022,1022,1022,1022,1022,1022,1022,1022,1022,1022,1022,1022,1022,1022,1022,1022,1022,1022,1022,1022,1022,1022,1022,1022,1022,1022,1022,1022,1022,1022,1022,1019,1019,1019,1019,1022,1019,1019,1019,1019,1019,1019,1019,1019,1019,1019,1019,1016,1016,1016,1016,1016,1016,1016,1016,1019,1019,1016,1016,1016,1016,1016,1016,1016,1016,1016,1016,1016,1013,1013,1013,1013,1013,1013,1013,1013,1013,1013,1013,1013,1013,1013,1013,1013,1013,1013,1013,1013,1013,1013,1013,1013,1013,1013,1013,1013,1013,1013,1013,1013,1013,1013,1013,1013,1013,1013,1013,1013,1013,1010,1010,1010,1010,1010,1010,1007,1007,1010,1010,1010,1010,1010,1010,1010,1010,1010,1010,1010,1010,1010,1010,1010,1010,1010,1007,1007,1007,1007,1007,1007,1007,1007,1007,1004,1004,1004,1004,1004,1004,1004,1004,1004,1004,1001,1001,1001,1001,998,998,998,998,998,998,998,995,995,992,992,992,992,992,989,989,989,987,987,984,984,984,984,984,981,981,981,981,981,981,981,981,984,984,984,987,989,989,989,989,989,989,987,987,987,987,987,987,0,0,0,0,0,0,0,0,0,0,0,0,0,0,0,0,0,0,0,0,0,0,0,0,0,0,0,0,0,0,0,0,0,0,0,0,0,0,0,0,0,0,0,0,0,0,0,0,0,0
0,0,0,0,1077,1077,1073,1073,1070,1070,1073,1073,1073,1073,1070,1070,1070,1067,1063,1063,1063,1063,1063,1063,1063,1063,1063,1063,1060,1060,1060,1060,1057,1057,1057,1057,1057,1057,1057,1057,1057,1057,1057,1054,1054,1054,1054,1054,1054,1054,1057,1057,1057,1057,1057,1057,1057,1057,1057,1054,1054,1057,1054,1054,1054,1054,1050,1050,1050,1050,1050,1050,1050,1054,1054,1054,1054,1054,1054,1054,1050,1050,1050,1050,1050,1050,1050,1050,1050,1050,1050,1050,1050,1054,1050,1050,1050,1050,1054,1054,1054,1054,1054,1054,1054,1050,1050,1050,1050,1050,1050,1050,1050,1050,1047,1047,1047,1050,1050,1050,1050,1050,1050,1050,1047,1047,1047,1050,1050,1047,1047,1050,1050,1050,1050,1047,1047,1047,1047,1044,1044,0,0,0,0,0,0,0,773,771,769,767,766,766,766,766,766,766,767,767,769,769,771,773,774,774,774,776,776,778,778,778,778,778,778,0,0,0,1050,1047,1047,1047,1047,1047,1047,1047,1047,823,823,827,827,827,829,829,829,829,827,827,827,827,827,829,829,829,829,829,829,831,831,831,833,833,833,835,835,835,835,837,837,839,839,839,841,843,843,843,843,847,847,849,849,851,851,854,854,856,856,856,858,860,860,862,864,867,867,867,869,869,871,873,875,875,875,875,1028,1031,1034,1034,1034,1034,1034,1034,1034,1034,1031,1031,1028,1028,1031,1031,1028,1028,1031,1031,1031,1034,1034,1034,1034,1034,1034,1031,1031,1031,1034,1034,1031,1028,1028,1028,1028,1028,1028,1028,1028,1028,1028,1028,1028,1028,1028,1028,1028,1028,1028,1028,1028,1028,1028,1028,1031,1031,1031,1031,1031,1028,1028,1031,1031,1031,1028,1028,1028,1028,1028,1028,1028,1028,1028,1028,1031,1031,1031,1028,1028,1028,1028,1028,1028,1028,1028,1028,1028,1028,1028,1028,1028,1028,1028,1028,1028,1028,1028,1028,1028,1028,1028,1028,1028,1028,1028,1028,1025,1025,1025,1025,1025,1025,1025,1025,1025,1025,1025,1025,1025,1025,1025,1025,1025,1025,1025,1025,1022,1022,1022,1022,1019,1019,1019,1019,1019,1019,1019,1022,1019,1019,1022,1022,1022,1022,1022,1022,1022,1022,1019,1019,1019,1019,1019,1019,1022,1022,1022,1022,1019,1019,1019,1016,1016,1019,1016,1016,1016,1016,1016,1016,1016,1016,1016,1016,1016,1016,1013,1013,1013,1013,1013,1013,1013,1013,1016,1016,1016,1013,1013,1013,1013,1013,1013,1013,1013,1013,1013,1013,1013,1013,1013,1013,1013,1013,1013,1013,1013,1013,1013,1010,1010,1013,1013,1013,1013,1013,1010,1010,1010,1010,1010,1010,1010,1010,1010,1010,1010,1010,1010,1010,1010,1010,1013,1013,1013,1010,1010,1010,1010,1010,1010,1010,1007,1007,1007,1007,1007,1004,1004,1007,1010,1010,1010,1007,1007,1007,1007,1007,1007,1007,1007,1007,1007,1004,1004,1004,1004,1004,1004,1004,1004,1004,1004,1001,1001,1001,1001,1001,1001,1001,1001,1001,1001,1001,1001,998,998,998,998,998,998,998,995,995,992,992,992,992,992,989,989,989,989,989,987,987,987,987,987,984,984,984,981,981,984,984,984,984,987,987,987,989,989,989,989,989,989,989,989,987,987,987,987,987,987,0,0,0,0,0,0,0,738,738,0,0,0,0,0,0,0,0,0,0,0,0,0,0,0,0,0,0,0,0,0,0,0,0,0,0,0,0,0,0,0,0,0,0,0,0,0,0,0,0
0,0,0,0,1073,1073,1073,1073,1070,1070,1070,1070,1070,1070,1063,1063,1060,1060,1060,1060,1060,1063,1063,1063,1063,1063,1063,1063,1060,1060,1060,1057,1057,1057,1057,1057,1057,1054,1054,1050,1050,1050,1047,1047,1047,1050,1050,1050,1050,1050,1054,1054,1054,1054,1054,1054,1054,1050,1050,1050,1050,1050,1050,1050,1050,1050,1047,1047,1047,1047,1047,1047,1050,1050,1050,1050,1050,1050,1050,1050,1050,1050,1047,1047,1050,1050,1047,1047,1047,1047,1047,1047,1047,1047,1047,1047,1047,1047,1050,1050,1047,1047,1050,1050,1050,1047,1047,1047,1047,1047,1047,1047,1047,1047,1044,1044,1044,1047,1047,1047,1047,1047,1047,1047,1047,1047,1047,1047,1047,1047,1047,1047,1050,1047,1047,1047,1047,1047,1044,1041,1038,1038,0,0,0,0,0,0,0,0,0,767,767,766,766,766,766,767,767,767,769,771,773,774,774,776,776,778,778,780,780,780,780,780,781,781,0,1050,1050,1047,1047,1044,1044,1047,1047,1047,823,823,823,827,827,827,827,827,827,827,827,827,827,827,827,829,829,829,829,829,829,829,831,831,831,833,833,833,833,835,835,835,837,839,839,839,841,843,843,843,843,847,849,849,849,851,851,851,854,856,856,858,858,860,860,862,864,867,867,869,869,869,871,873,875,1022,1025,1025,1025,1028,1031,1031,1031,1031,1031,1031,1031,1028,1028,1025,1025,1025,1025,1025,1025,1025,1028,1031,1031,1031,1031,1031,1031,1031,1031,1028,1028,1028,1028,1028,1028,1028,1028,1028,1025,1025,1025,1025,1025,1025,1025,1025,1025,1025,1025,1025,1025,1025,1025,1025,1025,1025,1025,1025,1028,1028,1028,1028,1028,1028,1028,1028,1028,1028,1028,1025,1025,1025,1025,1025,1025,1022,1022,1022,1025,1025,1025,1025,1028,1028,1028,1028,1025,1025,1025,1025,1025,1025,1025,1025,1025,1025,1025,1025,1025,1025,1025,1025,1025,1025,1025,1025,1025,1025,1025,1025,1025,1025,1025,1022,1022,1022,1022,1022,1022,1022,1022,1022,1022,1022,1022,1025,1025,1022,1022,1022,1022,1019,1019,1019,1016,1016,1016,1016,1016,1016,1016,1019,1016,1016,1016,1016,1019,1019,1016,1016,1016,1019,1019,1019,1016,1016,1019,1019,1019,1019,1019,1019,1019,1019,1016,1016,1016,1016,1016,1013,1013,1013,1013,1013,1013,1013,1013,1010,1010,1013,1013,1013,1010,1010,1010,1010,1010,1010,1010,1010,1010,1010,1013,1013,1013,1013,1013,1013,1013,1013,1013,1010,1010,1010,1010,1010,1010,1010,1010,1010,1010,1010,1010,1010,1010,1010,1010,1010,1010,1010,1010,1010,1010,1010,1010,1010,1010,1010,1010,1007,1007,1007,1007,1007,1007,1007,1010,1010,1010,1010,1010,1010,1010,1007,1007,1007,1004,1004,1004,1004,1004,1004,1001,1001,1001,1007,1007,1004,1004,1004,1004,1004,1004,1004,1004,1004,1004,1004,1004,1001,1001,1004,1004,1004,1004,1001,1001,1001,1001,1001,1001,1001,1001,1001,1001,1001,1001,1001,998,998,998,998,998,998,998,998,995,995,992,992,992,992,992,989,989,989,989,989,989,987,987,987,987,984,984,984,984,984,984,987,987,987,989,989,989,989,989,989,989,989,989,989,989,987,987,989,987,987,987,987,0,0,0,0,0,0,738,738,0,0,0,0,0,0,0,0,0,0,0,0,0,0,0,0,0,0,0,0,0,0,0,0,0,0,0,0,0,0,0,0,0,0,0,0,0,0,0,0
0,0,0,0,1073,1073,1070,1070,1067,1067,1067,1067,1063,1060,1060,1060,1060,1060,1060,1060,1060,1060,1060,1060,1060,1060,1060,1060,1060,1060,1057,1054,1054,1054,1054,1054,1054,1050,1050,1047,1047,1047,1047,1044,1044,1047,1047,1047,1047,1047,1047,1047,1047,1050,1050,1050,1050,1050,1050,1047,1047,1047,1047,1047,1044,1044,1047,1047,1047,1047,1047,1047,1047,1047,1047,1047,1047,1047,1047,1047,1050,1047,1047,1047,1047,1047,1047,1044,1044,1044,1044,1044,1044,1044,1044,1044,1047,1047,1047,1047,1047,1047,1047,1047,1047,1047,1047,1047,1044,1044,1044,1044,1044,1044,1041,1041,1041,1041,1044,1044,1044,1044,1044,1047,1044,1044,1044,1047,1047,1044,1044,1044,1047,1047,1047,1044,1044,1044,1044,1041,1038,1038,0,0,0,0,0,0,0,0,0,767,767,767,767,767,767,767,767,769,771,771,773,774,776,776,778,778,778,780,780,780,780,781,781,781,0,1047,1047,1044,1041,1041,1041,1044,1044,821,821,821,823,825,825,825,825,825,827,827,827,827,827,827,827,827,827,827,827,827,827,827,829,831,831,833,833,833,833,835,835,835,837,839,839,839,841,843,843,843,845,849,849,849,851,851,851,851,854,856,858,858,858,858,860,862,862,864,867,869,869,869,871,1025,1022,1022,1025,1025,1025,1025,1028,1028,1028,1028,1028,1028,1028,1025,1025,1025,1025,1025,1025,1025,1025,1025,1025,1028,1028,1028,1028,1028,1028,1028,1028,1025,1025,1025,1025,1025,1025,1022,1022,1022,1025,1025,1025,1025,1025,1025,1025,1025,1025,1022,1022,1022,1022,1022,1022,1022,1022,1022,1022,1025,1028,1028,1028,1028,1028,1025,1025,1025,1025,1025,1025,1025,1022,1022,1022,1022,1022,1022,1019,1019,1022,1022,1022,1022,1025,1025,1025,1025,1025,1025,1025,1022,1022,1022,1022,1022,1022,1022,1025,1025,1025,1022,1022,1022,1022,1022,1022,1022,1025,1025,1025,1022,1022,1022,1022,1019,1019,1019,1019,1019,1019,1019,1019,1019,1019,1022,1022,1022,1022,1022,1019,1019,1019,1016,1016,1016,1016,1016,1016,1016,1013,1013,1013,1013,1013,1013,1016,1016,1016,1016,1016,1013,1013,1013,1013,1016,1016,1016,1016,1016,1019,1016,1016,1019,1016,1016,1016,1016,1016,1016,1013,1013,1013,1013,1010,1010,1010,1010,1010,1010,1010,1010,1010,1010,1007,1007,1007,1007,1007,1007,1007,1007,1007,1007,1010,1010,1010,1010,1010,1010,1010,1010,1010,1010,1010,1007,1007,1010,1010,1010,1010,1007,1007,1007,1007,1007,1004,1004,1007,1007,1004,1004,1007,1007,1007,1007,1007,1007,1007,1007,1004,1004,1004,1004,1004,1004,1004,1004,1007,1007,1007,1007,1007,1004,1004,1004,1004,1004,1001,1001,1001,1001,1001,998,998,998,998,998,1004,1001,1001,1004,1004,1004,1001,1001,1001,1001,1001,998,998,998,998,1001,1001,1001,1001,1001,998,998,998,998,998,998,998,1001,1001,1001,1001,998,998,998,995,995,995,995,995,995,995,995,992,992,992,992,992,989,989,989,989,989,989,989,989,987,987,984,984,987,987,987,987,987,987,989,989,989,989,989,989,989,989,989,989,989,989,989,989,989,989,987,987,987,0,0,0,0,739,738,738,738,0,0,0,0,0,0,0,0,0,0,0,0,0,0,0,0,0,0,0,0,0,0,0,0,0,0,0,0,0,0,0,0,0,0,0,0,0,0,0,0
0,0,0,0,1073,1070,1070,1067,1063,1063,1063,1063,1063,1060,1060,1060,1057,1057,1060,1060,1060,1060,1060,1060,1060,1060,1060,1057,1054,1054,1054,1054,1050,1050,1050,1050,1050,1050,1050,1047,1047,1047,1047,1044,1044,1044,1044,1044,1044,1044,1044,1044,1044,1044,1044,1047,1047,1047,1047,1047,1047,1044,1044,1041,1041,1041,1041,1041,1044,1044,1044,1047,1047,1047,1047,1047,1044,1044,1047,1047,1047,1047,1044,1044,1047,1044,1044,1041,1041,1041,1041,1041,1041,1041,1041,1041,1044,1041,1041,1044,1044,1044,1044,1044,1044,1044,1044,1044,1044,1041,1041,1041,1041,1041,1041,1038,1038,1038,1041,1041,1041,1041,1041,1041,1041,1041,1044,1044,1044,1041,1041,1041,1041,1041,1041,1041,1041,1041,1041,1038,1034,1034,1034,0,0,0,0,0,0,0,0,0,767,767,767,767,767,767,769,769,773,773,774,774,776,776,778,780,780,780,780,780,781,781,781,781,0,1047,1047,1044,1041,1041,1041,821,821,821,821,821,823,825,825,825,825,825,825,825,825,825,827,827,827,827,825,825,827,827,827,827,827,829,831,833,833,833,833,835,835,835,837,839,839,841,841,843,843,843,845,849,849,849,851,851,851,851,854,856,858,858,858,858,860,862,862,864,867,869,869,869,1025,1025,1022,1022,1025,1022,1022,1025,1025,1025,1025,1028,1025,1025,1025,1025,1025,1022,1022,1022,1022,1022,1022,1022,1022,1025,1025,1025,1025,1025,1025,1025,1025,1022,1022,1022,1022,1022,1022,1022,1022,1022,1022,1022,1022,1022,1022,1022,1022,1022,1022,1022,1022,1022,1022,1022,1022,1022,1022,1022,1022,1022,1025,1025,1025,1025,1025,1025,1022,1022,1022,1022,1022,1022,1019,1019,1022,1019,1019,1019,1019,1019,1019,1019,1019,1022,1022,1022,1022,1022,1022,1019,1019,1019,1019,1019,1019,1019,1019,1019,1019,1019,1019,1019,1019,1019,1019,1022,1022,1022,1022,1022,1022,1019,1019,1019,1019,1019,1019,1019,1019,1019,1016,1016,1016,1013,1013,1013,1013,1016,1016,1016,1016,1016,1016,1016,1016,1016,1016,1013,1013,1013,1013,1013,1013,1013,1013,1013,1013,1013,1013,1016,1013,1013,1013,1013,1013,1013,1013,1013,1013,1013,1016,1016,1016,1016,1013,1013,1013,1013,1013,1013,1013,1013,1013,1010,1010,1007,1007,1007,1007,1007,1007,1010,1010,1007,1007,1007,1007,1007,1004,1004,1004,1004,1004,1007,1004,1004,1007,1007,1010,1007,1004,1004,1004,1004,1007,1004,1004,1004,1004,1004,1004,1007,1004,1004,1004,1004,1004,1004,1004,1004,1004,1004,1004,1004,1004,1004,1004,1004,1004,1004,1004,1004,1001,1001,1001,1001,1001,1001,1004,1004,1004,1004,1004,1001,1001,1001,1001,1001,998,998,998,998,995,995,995,995,995,995,995,995,995,1001,1001,1001,1001,998,998,995,995,998,995,995,995,998,998,998,998,998,998,995,995,995,995,995,995,998,998,998,995,995,995,995,995,995,995,995,995,995,995,992,992,992,992,992,992,989,989,992,992,992,992,989,989,989,989,987,987,987,987,987,987,989,989,989,989,989,987,987,989,987,987,987,987,987,987,987,987,987,987,987,987,987,0,0,0,0,739,738,738,738,0,0,0,0,0,0,0,0,0,0,0,0,0,0,0,0,0,0,0,0,0,0,0,0,0,0,0,0,0,0,0,0,0,0,0,0,0,0,0,0
0,0,0,0,1070,1067,1067,1063,1063,1063,1060,1060,1060,1057,1057,1057,1054,1054,1057,1057,1057,1057,1057,1057,1057,1060,1060,1054,1054,1054,1054,1050,1050,1050,1050,1050,1050,1047,1047,1047,1047,1044,1044,1044,1044,1044,1044,1044,1041,1041,1041,1041,1041,1041,1041,1041,1041,1044,1044,1044,1044,1041,1041,1041,1038,1038,1038,1041,1041,1044,1044,1044,1044,1044,1044,1044,1044,1044,1047,1047,1047,1044,1041,1041,1041,1041,1041,1038,1038,1038,1038,1038,1038,1038,1038,1038,1041,1041,1041,1041,1041,1041,1044,1044,1044,1044,1044,1044,1044,1041,1041,1038,1038,1038,1038,1038,1038,1038,1038,1038,1038,1038,1038,1038,1038,1038,1038,1038,1038,1038,1038,1038,1038,1038,1038,1038,1038,1038,1038,1038,1034,1031,1031,0,0,0,0,0,0,0,0,769,767,767,767,767,767,769,769,773,773,774,774,776,778,778,778,780,780,780,780,781,781,783,783,783,787,1047,1047,1044,1041,819,819,819,819,821,821,821,823,823,823,823,823,823,823,825,825,825,825,825,825,825,825,825,825,825,825,827,827,829,829,833,833,833,833,835,835,837,837,839,841,841,841,843,843,843,845,849,849,849,851,851,851,851,854,856,858,858,858,858,860,862,864,867,1019,1022,1022,1025,1025,1025,1022,1022,1025,1022,1022,1022,1022,1022,1025,1025,1025,1025,1025,1022,1022,1022,1022,1022,1022,1022,1019,1019,1022,1022,1025,1025,1022,1022,1022,1019,1019,1019,1019,1019,1019,1019,1019,1019,1019,1019,1019,1022,1019,1019,1019,1019,1022,1022,1022,1022,1022,1022,1022,1019,1019,1019,1019,1019,1019,1022,1022,1022,1022,1022,1022,1022,1019,1019,1019,1019,1019,1019,1016,1016,1019,1016,1016,1016,1016,1016,1016,1016,1016,1019,1019,1019,1019,1019,1019,1016,1016,1019,1019,1019,1019,1016,1016,1016,1016,1016,1016,1016,1013,1013,1016,1019,1019,1019,1019,1019,1019,1016,1016,1016,1016,1016,1016,1016,1016,1013,1013,1013,1013,1010,1010,1010,1010,1013,1013,1013,1013,1013,1013,1013,1013,1013,1013,1013,1010,1010,1010,1010,1010,1010,1010,1010,1013,1013,1013,1013,1013,1013,1013,1013,1010,1010,1010,1010,1010,1010,1013,1013,1013,1013,1010,1010,1010,1010,1010,1010,1010,1010,1010,1007,1004,1004,1004,1004,1004,1004,1004,1007,1007,1007,1007,1007,1007,1007,1004,1004,1004,1004,1004,1004,1004,1004,1004,1004,1004,1004,1001,1001,1004,1004,1004,1004,1004,1004,1004,1004,1001,1001,1001,1004,1004,1001,1001,1001,1001,1001,1004,1004,1004,1004,1004,1004,1004,1004,1004,1001,1001,1001,998,998,995,995,998,998,1001,1001,1001,1001,1001,1001,1001,998,998,998,995,995,995,995,992,992,992,992,992,992,992,992,992,992,992,998,998,995,995,992,992,995,992,992,992,992,995,995,995,995,992,992,995,995,995,995,995,995,995,995,995,995,995,992,992,992,995,995,995,995,995,992,992,992,992,989,989,989,989,989,989,989,989,989,989,989,989,987,987,987,989,989,989,989,989,989,989,989,987,987,987,987,987,987,984,984,984,987,987,987,987,987,987,987,987,0,741,741,739,739,738,738,0,0,0,0,0,0,0,0,0,0,0,0,0,0,0,0,0,0,0,0,0,0,0,0,0,0,0,0,0,0,0,0,0,0,0,0,0,0,0,0
0,0,0,0,1070,1067,1067,1063,1063,1063,1060,1060,1057,1054,1054,1054,1050,1050,1054,1054,1057,1057,1057,1057,1057,1057,1057,1054,1050,1050,1050,1047,1047,1047,1047,1047,1047,1047,1044,1044,1041,1041,1041,1041,1041,1041,1041,1041,1041,1041,1041,1041,1038,1038,1038,1038,1038,1041,1041,1041,1041,1038,1038,1038,1038,1038,1038,1038,1038,1041,1041,1041,1041,1041,1041,1041,1038,1038,1044,1044,1044,1041,1038,1038,1038,1038,1038,1034,1034,1034,1034,1038,1038,1038,1038,1038,1038,1038,1038,1038,1038,1038,1041,1041,1041,1044,1044,1041,1041,1038,1038,1038,1038,1038,1038,1034,1034,1034,1034,1034,1034,1034,1034,1034,1038,1034,1034,1038,1038,1034,1034,1034,1034,1034,1038,1034,1034,1034,1034,1034,1034,1031,1031,1034,0,0,0,0,0,0,0,769,767,767,767,767,769,769,771,773,773,774,776,776,778,778,780,780,780,780,781,781,781,783,783,785,787,1047,1047,1044,821,819,819,819,819,821,821,821,821,821,821,821,821,821,821,821,821,823,825,825,825,825,825,825,825,825,825,827,827,829,829,833,833,833,835,835,837,837,839,841,841,843,843,843,843,845,847,849,849,849,851,851,851,854,854,854,858,858,858,858,860,1019,1019,1019,1019,1022,1022,1022,1022,1022,1022,1022,1022,1022,1022,1022,1022,1022,1022,1022,1022,1022,1022,1022,1022,1022,1019,1019,1019,1019,1016,1016,1019,1019,1019,1022,1019,1019,1019,1016,1016,1016,1016,1016,1016,1016,1016,1016,1016,1016,1016,1019,1019,1019,1016,1016,1016,1016,1016,1019,1019,1019,1019,1019,1016,1016,1016,1016,1016,1019,1016,1016,1016,1019,1019,1019,1016,1016,1019,1016,1016,1016,1016,1016,1016,1016,1016,1016,1016,1016,1016,1016,1016,1016,1016,1016,1016,1016,1016,1016,1016,1016,1016,1016,1016,1016,1016,1016,1016,1016,1013,1013,1013,1013,1013,1016,1016,1016,1016,1016,1016,1016,1013,1013,1013,1013,1013,1010,1010,1010,1010,1010,1010,1007,1007,1007,1007,1010,1010,1010,1010,1010,1013,1013,1013,1010,1010,1010,1010,1010,1010,1010,1010,1010,1010,1010,1010,1010,1010,1013,1010,1010,1010,1010,1007,1007,1007,1004,1004,1007,1004,1004,1007,1007,1007,1007,1007,1007,1007,1007,1007,1007,1007,1004,1004,1001,1001,1001,1001,1001,1004,1004,1004,1004,1004,1004,1004,1004,1004,1001,1001,1001,1001,1001,1001,1001,1001,1001,1004,1001,1001,1001,1001,1001,1001,1001,1001,1001,1001,1001,1001,1001,998,998,998,1001,1001,1001,998,998,1001,1001,1001,1001,1001,1004,1004,1001,1001,998,995,995,995,995,995,995,998,998,998,998,998,998,998,998,995,995,995,992,992,992,992,992,992,992,992,992,992,989,989,992,992,992,992,992,995,992,992,992,992,992,992,992,992,992,992,992,992,992,992,992,992,992,992,992,992,992,992,992,992,992,992,992,992,992,992,992,992,992,992,992,989,989,989,989,989,989,989,989,989,989,989,989,989,989,989,987,987,987,989,989,989,989,989,987,987,987,987,987,987,987,984,984,984,984,984,984,984,984,984,984,987,741,741,741,741,741,741,741,739,739,0,0,0,0,0,0,0,0,0,0,0,0,0,0,0,0,0,0,0,0,0,0,0,0,0,0,0,0,0,0,0,0,0,0,0,0,0,0,0,0
0,0,0,0,1063,1063,1060,1060,1060,1057,1057,1057,1054,1054,1050,1050,1050,1050,1050,1050,1054,1054,1054,1054,1054,1057,1057,1054,1050,1047,1047,1044,1044,1044,1044,1041,1041,1044,1041,1038,1038,1038,1038,1041,1038,1038,1041,1041,1041,1038,1038,1038,1038,1038,1038,1038,1038,1041,1041,1041,1041,1038,1038,1038,1038,1034,1034,1034,1038,1038,1038,1038,1038,1038,1038,1038,1034,1034,1038,1038,1041,1038,1038,1038,1038,1038,1034,1034,1034,1034,1034,1034,1034,1034,1034,1034,1034,1034,1034,1034,1034,1034,1034,1038,1038,1041,1041,1038,1038,1038,1038,1038,1038,1034,1034,1034,1034,1034,1034,1034,1034,1034,1031,1031,1034,1034,1034,1034,1034,1034,1031,1031,1034,1034,1034,1031,1031,1031,1031,1031,1028,1028,1028,1031,0,0,0,0,0,0,0,769,767,767,767,767,769,769,771,773,773,774,774,776,778,778,780,780,780,781,781,781,781,783,783,783,787,821,821,823,821,819,819,819,819,819,819,819,819,819,819,819,819,819,819,819,819,821,823,825,825,825,825,825,825,825,825,827,827,829,831,833,833,835,835,835,837,837,839,841,841,843,843,843,843,845,847,849,849,849,851,851,851,851,851,851,856,858,858,1019,1019,1019,1019,1019,1019,1022,1022,1022,1022,1022,1022,1022,1022,1019,1019,1016,1016,1019,1019,1019,1019,1019,1022,1022,1022,1019,1019,1016,1016,1016,1013,1013,1016,1016,1016,1016,1016,1016,1016,1013,1013,1013,1013,1013,1013,1013,1013,1013,1013,1013,1013,1016,1016,1016,1013,1013,1013,1013,1013,1013,1013,1016,1016,1016,1013,1013,1013,1013,1013,1016,1016,1016,1016,1016,1016,1016,1016,1016,1016,1016,1016,1016,1013,1013,1013,1013,1013,1013,1013,1013,1013,1013,1013,1013,1013,1013,1013,1013,1013,1013,1013,1016,1016,1016,1016,1013,1013,1013,1013,1013,1013,1010,1010,1013,1013,1013,1013,1010,1010,1010,1013,1013,1010,1010,1010,1010,1010,1007,1007,1007,1007,1007,1007,1007,1004,1004,1007,1007,1007,1007,1007,1007,1010,1010,1010,1010,1010,1007,1007,1010,1010,1010,1010,1007,1007,1007,1007,1007,1007,1007,1007,1007,1007,1007,1004,1004,1004,1004,1004,1004,1004,1004,1004,1004,1004,1004,1004,1004,1004,1004,1004,1004,1004,1001,1001,1001,1001,1001,1001,1001,1001,1001,1001,1004,1001,1001,1001,1001,1001,1001,1001,1001,1001,1001,998,998,998,998,998,998,998,998,998,1001,1001,998,998,998,998,998,998,998,998,995,995,995,995,995,995,995,995,998,995,995,1001,1001,1001,1001,992,992,992,992,992,992,992,992,992,992,992,992,992,992,992,992,992,992,992,989,989,989,992,989,989,989,989,989,989,989,989,989,989,989,987,987,989,989,989,989,989,989,989,992,992,992,992,989,989,989,989,989,989,989,992,992,992,992,992,989,989,989,989,989,989,989,992,992,992,992,989,989,989,989,989,989,989,989,989,989,989,989,989,989,989,987,987,987,987,989,989,989,989,989,989,987,987,987,987,984,984,984,984,984,984,981,981,984,984,984,984,984,987,741,741,741,741,741,741,741,739,739,0,0,0,0,0,0,0,0,0,0,0,0,0,0,0,0,0,0,0,0,0,0,0,0,0,0,0,0,0,0,0,0,0,0,0,0,0,0,0,0
0,0,0,0,1060,1060,1060,1060,1057,1054,1054,1054,1054,1050,1050,1050,1047,1047,1047,1050,1050,1050,1050,1050,1054,1054,1057,1047,1047,1044,1044,1041,1041,1041,1041,1041,1041,1041,1038,1038,1038,1038,1038,1038,1038,1038,1038,1038,1038,1038,1038,1038,1038,1038,1038,1038,1038,1038,1038,1038,1038,1038,1038,1038,1034,1034,1034,1034,1034,1034,1034,1034,1034,1034,1034,1034,1031,1031,1031,1034,1034,1034,1034,1034,1034,1034,1031,1031,1031,1031,1031,1031,1031,1031,1031,1031,1031,1034,1034,1034,1034,1034,1034,1034,1034,1038,1038,1034,1034,1034,1034,1034,1034,1034,1034,1034,1031,1031,1031,1028,1028,1028,1028,1031,1031,1031,1031,1031,1031,1031,1031,1028,1028,1031,1031,1028,1028,1028,1028,1028,1025,1025,1025,1028,1028,0,0,0,789,789,789,767,767,767,769,769,771,771,773,773,774,774,774,776,778,778,780,780,781,781,781,781,781,783,783,783,787,817,817,817,819,819,819,819,819,819,819,819,817,817,819,817,817,819,819,819,819,821,823,823,823,825,825,825,825,825,825,827,827,829,831,833,833,835,835,835,837,839,839,841,843,843,843,843,843,847,849,849,849,849,849,851,851,851,851,851,856,1016,1016,1016,1016,1016,1016,1016,1019,1019,1019,1019,1019,1019,1019,1019,1019,1019,1016,1016,1016,1016,1016,1016,1016,1016,1019,1019,1019,1019,1016,1016,1013,1013,1013,1013,1013,1013,1013,1013,1013,1013,1013,1013,1013,1013,1010,1010,1010,1010,1010,1010,1010,1010,1010,1013,1010,1010,1010,1010,1010,1010,1010,1010,1010,1010,1010,1010,1013,1010,1010,1010,1013,1013,1013,1013,1013,1013,1013,1013,1013,1013,1013,1013,1013,1013,1013,1013,1013,1013,1013,1013,1013,1013,1013,1013,1013,1010,1010,1010,1010,1010,1010,1010,1013,1013,1013,1013,1013,1013,1013,1010,1010,1010,1010,1007,1007,1010,1010,1010,1010,1007,1007,1007,1007,1004,1004,1007,1007,1007,1007,1007,1004,1004,1004,1004,1004,1004,1004,1004,1004,1004,1004,1004,1004,1004,1007,1007,1007,1007,1007,1007,1007,1007,1007,1007,1007,1007,1007,1007,1004,1004,1004,1004,1007,1007,1007,1004,1004,1004,1004,1004,1001,1001,1001,1001,1001,1001,1001,1001,1001,1001,1001,1001,1001,1001,1001,998,998,1001,1001,1001,998,998,1001,1001,1001,1001,998,998,998,998,998,998,998,998,998,998,995,995,995,995,995,995,995,995,995,998,998,995,995,995,995,995,995,995,995,995,992,992,992,992,989,989,992,992,992,992,992,992,992,992,992,992,992,992,992,992,992,992,992,992,992,992,992,989,989,989,989,989,989,987,987,987,987,987,987,987,987,989,989,989,989,989,987,987,984,984,987,987,987,987,987,987,989,989,989,989,989,989,989,987,987,987,987,987,989,989,992,992,989,989,989,989,989,987,987,987,987,989,989,989,989,989,989,987,987,987,987,987,987,989,989,989,987,987,987,987,984,984,984,984,987,987,987,987,987,987,987,987,987,984,984,984,984,984,981,981,981,981,981,981,984,987,739,739,739,739,739,741,739,739,739,739,0,0,0,0,0,0,0,0,0,0,0,0,0,0,0,0,0,0,0,0,0,0,0,0,0,0,0,0,0,0,0,0,0,0,0,0,0,0,0,0
0,0,0,0,1057,1057,1057,1057,1054,1054,1050,1050,1054,1050,1050,1047,1047,1047,1047,1047,1047,1047,1047,1047,1050,1050,1050,1047,1044,1044,1041,1041,1041,1041,1041,1038,1038,1038,1038,1038,1034,1034,1034,1038,1034,1034,1038,1038,1038,1034,1034,1038,1034,1034,1034,1034,1034,1038,1038,1034,1034,1034,1034,1034,1031,1031,1031,1031,1031,1031,1031,1031,1031,1031,1031,1028,1028,1028,1028,1028,1031,1031,1031,1034,1031,1031,1028,1028,1028,1028,1028,1028,1028,1028,1028,1028,1028,1031,1031,1031,1031,1031,1031,1031,1031,1031,1031,1031,1031,1031,1034,1034,1034,1034,1034,1031,1031,1028,1028,1028,1028,1025,1025,1028,1028,1028,1028,1028,1028,1028,1028,1028,1028,1028,1028,1028,1025,1025,1025,1025,1025,1025,1025,1025,1025,0,0,0,789,789,787,787,769,769,771,771,771,771,773,774,774,774,776,776,778,778,780,780,781,781,781,781,781,783,783,783,787,813,813,813,815,817,817,817,817,817,817,817,817,817,817,817,817,817,817,819,819,821,821,823,823,825,825,825,825,825,825,827,827,831,833,833,835,835,835,837,837,839,841,841,843,843,843,843,845,847,849,849,849,849,849,851,1013,1013,1013,1013,1013,1013,1013,1013,1013,1013,1013,1013,1013,1016,1019,1019,1019,1019,1019,1019,1016,1016,1016,1013,1013,1013,1013,1013,1013,1013,1016,1016,1016,1013,1013,1013,1010,1010,1010,1010,1010,1010,1010,1013,1010,1010,1010,1010,1010,1010,1010,1007,1007,1007,1007,1007,1007,1007,1007,1007,1007,1007,1007,1007,1007,1007,1007,1007,1007,1007,1007,1007,1007,1007,1007,1010,1010,1010,1010,1010,1010,1010,1013,1013,1013,1013,1013,1013,1013,1013,1013,1013,1013,1013,1013,1013,1010,1010,1010,1010,1010,1010,1010,1010,1010,1010,1010,1010,1010,1010,1010,1010,1013,1010,1010,1007,1007,1007,1007,1007,1007,1007,1007,1007,1007,1007,1004,1004,1004,1004,1004,1001,1001,1001,1004,1004,1004,1004,1004,1004,1004,1004,1001,1001,1001,1004,1004,1004,1004,1004,1004,1004,1004,1004,1004,1004,1004,1007,1007,1007,1007,1004,1004,1004,1004,1004,1004,1004,1004,1004,1004,1004,1004,1001,1001,1001,1001,1001,1001,1001,1001,1001,998,998,998,998,995,995,998,998,998,998,998,998,998,998,998,998,998,998,998,995,995,995,995,995,995,995,995,995,995,995,995,995,995,992,992,995,992,992,992,992,992,992,992,992,992,992,992,992,992,992,992,992,992,992,989,989,987,987,989,989,989,989,992,992,992,992,992,989,989,989,989,989,989,989,989,989,989,989,987,987,987,987,987,984,984,984,984,984,984,984,984,987,987,987,987,987,984,984,981,981,981,984,984,984,984,984,984,984,987,987,987,987,987,987,987,987,987,987,987,989,989,989,987,987,987,987,987,984,984,984,984,987,987,984,984,987,987,987,987,987,987,987,987,987,987,987,987,987,984,984,984,984,981,981,981,984,984,984,984,984,984,984,981,981,981,981,981,981,981,981,981,981,981,981,984,984,739,739,739,739,739,739,739,739,739,739,0,0,0,0,0,0,0,0,0,0,0,0,0,0,0,0,0,0,0,0,0,0,0,0,0,0,0,0,0,0,0,0,0,0,0,0,0,0,0,0
0,0,0,0,1054,1054,1054,1054,1054,1050,1050,1050,1050,1050,1047,1047,1047,1044,1044,1041,1041,1044,1044,1031,1031,1047,1047,1044,1041,1038,1038,1038,1038,1038,1038,1038,1038,1038,1034,1034,1034,1034,1034,1034,1034,1034,1038,1034,1034,1034,1034,1034,1034,1034,1034,1034,1034,1034,1034,1034,1034,1031,1031,1031,1031,1028,1028,1028,1028,1028,1028,1028,1028,1028,1028,1028,1025,1025,1025,1025,1028,1028,1028,1028,1031,1028,1028,1028,1028,1025,1025,1025,1025,1025,1025,1025,1025,1028,1028,1028,1028,1028,1028,1025,1025,1025,1025,1025,1028,1028,1028,1031,1031,1031,1031,1031,1028,1028,1028,1028,1025,1025,1025,1025,1025,1025,1025,1025,1025,1025,1025,1025,1025,1025,1028,1025,1025,1025,1025,1025,1025,1022,1022,1025,1025,0,0,0,789,789,787,787,773,773,773,773,773,773,773,774,774,774,776,776,778,778,780,781,781,781,781,781,781,783,783,783,811,811,811,811,813,815,815,815,815,815,817,815,815,815,815,817,817,817,817,817,819,819,821,823,823,825,825,825,825,825,827,827,829,831,833,833,835,835,835,837,839,839,841,841,843,843,843,843,845,847,849,849,849,851,851,1010,1013,1013,1013,1013,1013,1013,1013,1013,1013,1013,1013,1013,1010,1010,1013,1013,1013,1013,1016,1016,1013,1013,1013,1010,1010,1013,1013,1010,1010,1013,1013,1013,1010,1010,1010,1010,1007,1007,1007,1007,1007,1010,1010,1010,1010,1010,1010,1010,1010,1007,1007,1007,1004,1004,1007,1004,1004,1004,1004,1004,1004,1004,1004,1004,1004,1004,1004,1004,1004,1004,1004,1004,1004,1004,1004,1004,1004,1004,1007,1010,1010,1010,1010,1010,1010,1013,1013,1013,1013,1013,1013,1013,1013,1010,1010,1010,1007,1007,1007,1007,1007,1007,1007,1007,1007,1007,1007,1007,1007,1007,1007,1007,1010,1010,1007,1007,1007,1004,1004,1004,1004,1004,1004,1004,1004,1004,1004,1004,1001,1001,1001,1001,1001,1001,1001,1001,1001,1001,1001,1001,1001,1001,1001,1001,1001,1001,1001,1001,1001,1001,1001,1004,1004,1004,1004,1004,1004,1004,1004,1004,1004,1004,1001,1001,1001,1001,1001,1001,1001,1001,1001,1004,1001,1001,1001,1001,1001,998,998,998,998,998,998,998,998,995,995,992,992,992,995,995,995,995,998,998,995,995,995,995,995,992,992,992,992,992,992,992,992,992,992,992,992,992,992,992,992,992,992,992,992,992,992,992,992,989,989,989,989,989,989,989,989,989,989,989,987,987,984,984,984,987,989,989,989,989,989,989,989,989,989,989,987,987,987,987,987,987,987,987,987,984,984,984,984,984,981,981,981,984,984,984,984,984,984,984,984,981,981,981,978,978,978,981,981,981,981,984,984,984,984,984,984,984,984,984,984,984,984,984,984,987,987,987,984,984,984,984,984,984,984,984,984,984,981,981,981,981,981,981,981,984,984,984,984,984,984,984,981,981,981,981,981,981,981,981,981,981,981,981,981,981,981,981,981,981,981,981,981,981,981,981,978,978,978,978,981,981,739,739,739,739,739,739,739,739,738,738,0,0,0,0,0,0,0,0,0,0,0,0,0,0,0,0,0,0,0,0,0,0,0,0,0,0,0,0,0,0,0,0,0,0,0,0,0,0,0,0
0,0,0,0,1054,1050,1050,1050,1050,1050,1050,1050,1050,1047,1044,1044,1041,1041,1041,1038,1038,1038,1038,1025,1025,1044,1044,1041,1038,1038,1038,1034,1034,1034,1034,1034,1034,1034,1034,1034,1034,1031,1031,1031,1031,1034,1034,1031,1031,1031,1031,1031,1031,1031,1031,1031,1031,1031,1028,1028,1028,1028,1028,1028,1028,1028,1028,1025,1025,1025,1028,1028,1025,1025,1025,1025,1025,1025,1025,1025,1025,1025,1025,1025,1028,1028,1025,1025,1025,1025,1025,1025,1025,1025,1025,1025,1025,1025,1025,1025,1025,1025,1025,1025,1025,1022,1022,1022,1022,1025,1025,1028,1028,1031,1031,1028,1028,1028,1025,1025,1025,1025,1025,1025,1025,1025,1025,1025,1025,1025,1022,1022,1022,1022,1022,1022,1022,1022,1022,1022,1022,1022,1022,1022,1025,0,0,0,790,789,789,789,774,774,773,773,773,773,774,774,774,774,776,778,778,780,780,781,781,781,781,783,783,785,785,785,811,811,811,811,813,813,815,815,815,815,815,815,813,813,815,815,817,817,817,817,819,819,821,821,823,825,825,825,825,825,827,827,831,831,833,833,835,835,837,837,839,841,841,843,843,843,843,845,847,847,849,851,1007,1007,1007,1010,1010,1010,1010,1010,1010,1013,1010,1010,1010,1010,1010,1010,1007,1007,1010,1010,1010,1007,1007,1010,1010,1010,1010,1010,1010,1010,1010,1007,1007,1007,1010,1010,1007,1007,1007,1007,1007,1007,1004,1004,1007,1007,1007,1007,1010,1010,1007,1007,1007,1007,1007,1004,1004,1004,1004,1001,1001,1001,1001,1001,1001,1001,1001,1001,1001,1001,1001,1001,1001,1001,1001,1001,1001,1001,1001,1001,1001,1001,1004,1004,1007,1007,1007,1007,1007,1010,1010,1010,1010,1010,1010,1010,1010,1010,1007,1007,1004,1004,1007,1007,1007,1007,1007,1004,1004,1004,1004,1004,1004,1004,1004,1004,1004,1004,1004,1004,1004,1004,1004,1004,1004,1004,1004,1004,1004,1001,1001,1001,1001,1001,1001,1001,1001,998,998,1001,998,998,1001,1001,1001,1001,1001,998,998,1001,1001,1001,1001,1001,1001,1001,1001,1001,1001,1001,1001,1001,1001,1001,1001,1001,998,998,998,998,998,998,998,998,998,1001,998,998,998,998,998,995,995,995,995,995,995,995,995,992,992,992,992,992,992,992,992,995,995,995,995,995,995,992,992,992,992,992,992,992,992,992,992,992,992,992,992,992,989,989,989,989,989,989,989,989,989,989,989,987,987,987,987,987,989,989,989,987,987,987,984,984,981,981,981,984,984,984,984,989,989,989,989,987,987,987,987,984,984,984,984,984,987,987,984,984,984,984,981,981,981,981,981,981,981,981,981,981,981,981,981,981,978,978,978,978,978,978,978,978,981,981,981,981,981,981,981,981,984,984,981,981,981,981,981,981,981,984,984,984,984,984,984,981,981,981,981,981,978,978,978,978,981,981,981,981,981,981,981,981,981,981,981,978,978,978,978,978,978,978,978,978,978,978,978,978,978,978,978,978,981,981,981,981,981,981,978,978,978,978,981,741,741,739,739,739,739,739,739,739,738,738,0,0,0,0,0,0,0,0,0,0,0,0,0,0,0,0,0,0,0,0,0,0,0,0,0,0,0,0,0,0,0,0,0,0,0,0,0,0,0,0
