0,0,0,0,0,0,0,0,0,0,0,0,0,0,0,0,0,2226,2226,2226,2226,2226,2212,2212,2040,2040,2040,2040,2028,2028,2028,2016,2016,2016,2016,2005,2005,2005,2005,2005,2005,2005,2005,2005,1993,1993,1981,1970,1970,1970,1970,1970,1970,1970,1970,1970,1959,1959,1959,1947,1947,1936,1936,1936,1936,1926,1926,1915,1915,1915,1915,1915,1915,1915,1915,1915,1915,1915,1915,1915,1904,1904,1894,1894,1894,1894,1883,1873,1873,1873,1873,1873,1873,1873,1873,1873,1873,1863,1863,1863,1853,1853,1853,1853,1843,1843,1843,1843,1833,1833,1833,1833,1833,1833,1833,1833,1833,1833,1823,1823,1813,1813,1813,1804,1804,1804,1794,1794,1794,1794,1794,1794,1794,1794,1794,1794,1794,1785,1785,1785,1776,1766,1766,1766,1766,1766,1757,1757,1757,1757,1748,1748,1748,1748,1739,1739,1731,1731,1731,1731,1731,1731,1731,1722,1722,1722,1722,1722,1722,1713,1713,1713,1705,1705,1705,1696,1696,1696,1696,1696,1696,1696,1688,1688,1688,1680,1680,1680,1671,1663,1663,1663,1663,1663,1663,1663,1663,1671,1671,1671,1680,1688,1688,1688,1688,1688,1688,1688,0,2381,2381,2381,2381,2381,2365,2365,2381,2381,2381,2381,0,1655,1655,1655,1655,1647,1647,1647,1639,1639,1647,1647,1647,1647,1647,1655,1655,1655,1655,1655,1663,1663,1663,1663,1663,1663,1663,1663,1671,1671,1671,1680,1680,1680,1680,1688,1688,1688,1696,1696,1696,1696,1696,1688,1688,0,0,0,1073,1073,1070,1067,1063,1063,1063,1060,1057,1054,1054,1054,1050,1050,1050,1054,1057,1057,1057,1057,1060,1060,1057,1057,1057,1057,0,0,0,0,1757,1757,1766,1766,1766,1766,1766,1766,1776,1776,1776,1776,1776,1776,1785,1785,1794,1794,1794,1794,1794,1794,1794,1794,1794,1776,1776,1766,1766,1766,1757,1757,1739,1731,1731,1731,1722,1722,1713,1713,1705,1705,1705,1696,1696,1688,1680,1680,1671,1663,1663,0,0,0,0,0,0,0,0,0,0,0,0,817,815,815,815,815,813,811,809,807,805,803,803,803,803,803,803,803,803,805,805,807,809,809,809,811,811,811,813,813,813,813,813,0,0,0,0,0,0,0,1464,1458,1458,1452,1452,1439,1439,1433,1433,1427,1421,1421,1421,1415,1415,1415,1415,1410,1404,1398,1398,1392,1392,1387,1381,1381,1376,1376,1376,1370,1370,1370,1365,1354,1354,1349,1349,1343,1343,1343,1338,1333,1333,1322,1322,1317,1317,1312,1312,1307,1307,1302,1302,1297,1292,1292,1288,1288,1283,1283,1278,1278,1273,1268,1268,1264,1264,1259,1259,1255,1255,1250,1245,1241,1241,1236,1236,1232,1232,1232,1227,1223,1219,1219,1214,1214,1210,1206,1206,1202,1202,1197,1197,1197,1193,1189,1185,1185,1181,1177,1177,1173,1173,1169,1169,1169,1165,1165,1165,1165,1161,1157,1153,1149,1149,1149,1145,1145,1138,1138,1134,1134,1130,1126,1126,1123,1123,1123,1123,1119,1119,1115,1112,1108,1108,1108,1105,1105,1101,1097,1097,1094,1094,1094,1090,1087,1084,1080,1080,1080,1077,1077,1077,1073,1070,1070,1067,1067,1063,1063,1060,1060,1057,1054,1054,1054,1050,1050,1047,1047,1041,1041,1041,1041,1041,1038,1034,1031,1031,1028,1028,1025,1022,1019,1016,1016,1016,1013,1013,1010,1010,1010,1007,1004,1001,1001,1001,998,992,992,992,992,989,989,989,987,984,981,981,981,0,0,0,0,0,0,0,0,0,0,0,0,0,0,0,0,0,0,0,0,0,0,0,0,0,0,0,0,0,0
0,0,0,0,0,0,0,0,0,0,0,0,0,0,0,0,0,2226,2226,2226,2226,2226,2212,2212,2065,2065,2040,2040,2028,2028,2028,2016,2016,2016,2016,2016,2016,2005,2005,2005,2005,2005,2005,2005,1993,1993,1981,1981,1981,1981,1970,1970,1970,1970,1970,1970,1959,1959,1959,1947,1947,1947,1947,1936,1936,1936,1926,1926,1926,1926,1915,1915,1915,1915,1915,1915,1915,1915,1915,1915,1904,1904,1904,1904,1894,1883,1883,1873,1873,1873,1873,1873,1873,1873,1873,1873,1873,1873,1873,1863,1863,1863,1853,1853,1843,1843,1843,1843,1833,1833,1833,1833,1843,1843,1833,1833,1833,1833,1823,1823,1813,1813,1813,1804,1804,1804,1794,1794,1794,1794,1794,1794,1794,1794,1794,1794,1794,1785,1785,1785,1776,1776,1766,1766,1766,1766,1757,1757,1757,1757,1748,1748,1748,1748,1739,1739,1731,1731,1731,1731,1731,1731,1731,1722,1722,1722,1722,1722,1722,1713,1713,1722,1713,1713,1705,1705,1705,1705,1696,1696,1696,1696,1688,1688,1688,1680,1680,1680,1671,1671,1663,1663,1663,1663,1663,1663,1663,1671,1671,1680,1680,1688,1688,1688,1688,1688,1688,1688,2365,2365,2365,2365,2381,2381,2365,2365,2381,2381,2381,2381,1671,1663,1663,1655,1655,1655,1647,1647,1639,1639,1647,1647,1647,1647,1647,1655,1655,1655,1655,1655,1663,1663,1663,1663,1663,1663,1663,1663,1671,1671,1671,1680,1680,1688,1688,1688,1688,1688,1696,1696,1696,1696,1696,1688,1688,0,0,0,1077,1073,1067,1067,1063,1063,1063,1060,1057,1054,1054,1054,1054,1054,1054,1054,1057,1057,1057,1057,1060,1060,1057,1057,1057,1057,0,0,0,0,0,1776,1776,1776,1776,1766,1766,1776,1776,1776,1776,1776,1785,1785,1785,1785,1794,1794,1794,1794,1794,1794,1794,1794,1794,1776,1776,1766,1766,1766,1757,1757,1739,1739,1731,1731,1731,1722,1713,1713,1705,1705,1705,1696,1696,1688,1680,1680,1671,1671,0,0,0,0,0,0,0,0,0,0,0,0,0,0,817,817,815,815,813,811,809,807,805,803,803,803,803,803,803,803,803,805,805,807,809,809,811,811,811,811,813,813,813,813,813,0,0,0,0,0,0,0,1464,1458,1458,1452,1452,1439,1439,1433,1433,1427,1421,1421,1421,1415,1415,1415,1415,1410,1404,1398,1398,1392,1392,1387,1387,1381,1376,1376,1376,1370,1370,1370,1365,1354,1354,1349,1349,1343,1343,1343,1338,1333,1333,1333,1322,1322,1317,1312,1312,1312,1307,1302,1302,1297,1292,1292,1288,1288,1283,1283,1278,1278,1273,1273,1268,1268,1264,1259,1259,1255,1255,1250,1245,1241,1241,1236,1236,1232,1232,1232,1227,1223,1219,1219,1214,1214,1210,1206,1206,1202,1202,1197,1197,1197,1193,1189,1185,1185,1181,1181,1177,1173,1173,1169,1169,1169,1165,1165,1165,1165,1161,1157,1153,1153,1149,1149,1149,1145,1138,1138,1134,1134,1130,1126,1123,1123,1123,1123,1123,1119,1119,1115,1112,1108,1108,1108,1105,1105,1101,1097,1097,1094,1094,1094,1090,1087,1084,1080,1080,1080,1077,1077,1077,1073,1070,1067,1067,1067,1063,1063,1060,1060,1057,1057,1054,1054,1050,1050,1047,1047,1044,1044,1041,1041,1041,1038,1034,1031,1031,1028,1028,1025,1022,1019,1016,1016,1013,1013,1013,1010,1010,1007,1007,1004,1004,1001,1001,998,992,992,992,992,989,989,989,987,984,984,981,981,0,0,0,0,0,0,0,0,0,0,0,0,0,0,0,0,0,0,0,0,0,0,0,0,0,0,0,0,0,0
0,0,0,0,0,0,0,0,0,0,0,0,0,0,0,0,0,2226,2226,2226,2226,2226,2212,2212,2212,2065,2040,2040,2028,2028,2016,2016,2016,2016,2016,2016,2016,2016,2005,2005,2005,2005,2005,2005,1993,1993,1993,1981,1981,1981,1970,1970,1970,1970,1970,1970,1959,1959,1959,1959,1959,1947,1947,1947,1936,1936,1926,1926,1926,1926,1926,1915,1915,1915,1915,1915,1915,1915,1915,1915,1915,1904,1904,1894,1894,1883,1883,1883,1883,1883,1883,1873,1873,1883,1883,1873,1873,1873,1873,1873,1863,1863,1863,1853,1853,1843,1843,1843,1833,1833,1833,1833,1843,1843,1843,1843,1833,1833,1833,1833,1823,1823,1813,1813,1813,1804,1804,1794,1794,1794,1794,1794,1794,1794,1794,1794,1794,1785,1785,1785,1776,1776,1766,1766,1766,1766,1757,1757,1757,1757,1748,1748,1748,1748,1739,1739,1731,1731,1739,1739,1731,1731,1731,1731,1731,1722,1722,1722,1722,1722,1722,1713,1713,1713,1713,1705,1705,1705,1696,1696,1696,1696,1696,1688,1688,1680,1680,1680,1671,1671,1663,1663,1663,1663,1663,1663,1663,1671,1671,1680,1680,1688,1688,1688,1688,1688,1688,1688,2365,2365,2365,2365,2365,2365,2381,2381,2381,2381,2381,2381,1671,1671,1663,1655,1655,1655,1647,1647,1647,1647,1647,1647,1647,1647,1647,1655,1655,1655,1655,1655,1663,1663,1663,1663,1663,1663,1663,1671,1671,1671,1671,1680,1680,1688,1688,1688,1688,1688,1696,1696,1688,1688,1696,1688,1688,0,0,0,1077,1073,1067,1063,1063,1063,1063,1060,1057,1054,1054,1054,1054,1054,1054,1054,1057,1057,1057,1060,1060,1060,1057,1057,1057,1057,0,0,0,0,0,1776,1776,1776,1776,1776,1776,1776,1776,1776,1776,1776,1785,1785,1785,1794,1794,1794,1794,1794,1794,1794,1794,1794,1794,1785,1776,1766,1766,1766,1757,1757,1739,1739,1731,1731,1731,1731,1722,1713,1713,1705,1705,1696,1696,1680,1680,1671,1671,1671,0,0,0,0,0,0,0,0,0,0,0,0,0,0,817,817,815,815,813,811,811,807,807,803,803,803,803,803,803,803,803,805,805,807,809,809,811,811,811,813,813,813,813,813,813,0,0,0,0,0,0,0,1464,1458,1458,1452,1452,1439,1439,1433,1433,1433,1427,1421,1421,1421,1415,1415,1415,1410,1404,1398,1398,1392,1392,1392,1387,1381,1381,1376,1376,1370,1370,1370,1359,1354,1354,1349,1349,1343,1343,1343,1338,1333,1333,1333,1328,1322,1317,1317,1312,1312,1307,1307,1307,1302,1297,1292,1288,1288,1288,1283,1278,1278,1273,1273,1268,1268,1264,1264,1259,1259,1255,1250,1245,1241,1241,1236,1236,1232,1232,1232,1227,1223,1219,1219,1214,1214,1210,1206,1206,1202,1202,1202,1197,1197,1197,1189,1185,1185,1185,1181,1181,1177,1177,1169,1169,1169,1165,1165,1165,1165,1161,1157,1153,1153,1153,1149,1149,1145,1141,1138,1134,1134,1130,1126,1123,1123,1123,1123,1123,1119,1119,1115,1115,1112,1108,1105,1105,1105,1101,1097,1097,1094,1094,1094,1090,1087,1087,1084,1080,1080,1077,1077,1073,1073,1070,1067,1067,1067,1063,1063,1060,1060,1060,1057,1054,1054,1050,1050,1047,1047,1047,1044,1041,1041,1041,1038,1034,1031,1031,1028,1025,1025,1022,1019,1016,1016,1013,1013,1013,1010,1007,1007,1007,1007,1004,1001,1001,1001,995,992,992,992,989,989,989,987,984,984,984,984,0,0,0,0,0,0,0,0,0,0,0,0,0,0,0,0,0,0,0,0,0,0,0,0,0,0,0,0,0,0
0,0,0,0,0,0,0,0,0,0,0,0,0,0,0,0,0,2226,2226,2226,2212,2212,2212,2212,2212,2065,2040,2040,2040,2028,2016,2016,2016,2016,2016,2016,2016,2016,2016,2005,2005,2005,2005,2005,1993,1993,1993,1981,1981,1981,1970,1970,1970,1970,1970,1970,1959,1959,1959,1959,1959,1959,1959,1947,1947,1947,1936,1936,1926,1926,1926,1926,1915,1915,1915,1915,1915,1915,1915,1915,1915,1904,1904,1894,1894,1883,1883,1883,1883,1883,1883,1883,1883,1883,1883,1883,1873,1873,1873,1863,1863,1863,1863,1853,1853,1853,1843,1843,1843,1843,1843,1843,1843,1843,1843,1833,1833,1833,1823,1823,1823,1823,1823,1813,1813,1813,1813,1804,1804,1804,1794,1794,1794,1794,1794,1794,1794,1785,1785,1785,1776,1776,1776,1766,1766,1766,1757,1757,1757,1757,1757,1748,1748,1748,1748,1739,1731,1731,1739,1739,1731,1731,1731,1731,1731,1722,1722,1722,1722,1722,1722,1713,1713,1713,1713,1705,1705,1705,1696,1696,1696,1696,1696,1696,1688,1688,1680,1680,1680,1671,1671,1671,1671,1671,1671,1671,1671,1671,1680,1680,1680,1688,1688,1688,1688,1696,1696,1696,2365,2365,2365,2365,2365,2365,2381,2381,2381,2398,2381,2381,1671,1671,1663,1663,1655,1655,1655,1647,1647,1647,1647,1647,1647,1647,1647,1655,1655,1655,1655,1655,1663,1663,1663,1663,1663,1663,1663,1671,1671,1671,1680,1688,1688,1688,1688,1688,1688,1688,1696,1688,1688,1688,1688,1688,1688,0,0,0,1077,1073,1067,1063,1063,1063,1063,1060,1057,1057,1054,1054,1054,1054,1054,1054,1057,1060,1060,1060,1060,1060,1060,1057,1057,1057,0,0,0,0,1776,1776,1776,1776,1776,1776,1776,1785,1785,1776,1776,1776,1785,1785,1785,1794,1794,1794,1794,1794,1794,1794,1794,1794,1794,1785,1776,1776,1766,1766,1766,1757,1748,1739,1739,1731,1731,1731,1722,1722,1713,1705,1705,1696,1696,1680,1680,1671,1671,1671,0,0,0,0,0,0,0,0,0,0,0,0,0,0,819,817,815,815,813,811,811,809,807,805,803,803,803,803,803,803,803,805,805,807,809,809,811,811,811,813,813,813,813,813,813,0,0,0,0,0,0,0,1464,1458,1458,1452,1452,1445,1439,1439,1433,1433,1427,1421,1421,1421,1415,1415,1415,1410,1404,1398,1398,1392,1392,1392,1387,1381,1381,1376,1376,1370,1370,1365,1359,1354,1354,1349,1349,1349,1343,1343,1338,1338,1333,1333,1328,1322,1322,1317,1317,1312,1307,1307,1307,1302,1302,1292,1292,1288,1288,1283,1283,1278,1278,1273,1273,1268,1264,1264,1259,1259,1255,1250,1245,1241,1241,1236,1236,1232,1232,1232,1227,1227,1219,1219,1214,1214,1210,1206,1206,1202,1202,1202,1202,1197,1197,1193,1189,1185,1185,1181,1181,1177,1177,1173,1169,1169,1169,1165,1165,1165,1161,1157,1153,1153,1153,1149,1149,1145,1145,1141,1134,1134,1134,1130,1123,1123,1123,1123,1123,1119,1119,1115,1115,1112,1108,1105,1105,1105,1101,1097,1097,1094,1094,1094,1090,1090,1087,1084,1084,1080,1077,1077,1073,1073,1070,1067,1067,1067,1063,1063,1060,1060,1060,1057,1054,1054,1050,1050,1047,1047,1047,1044,1041,1041,1041,1038,1034,1031,1031,1028,1025,1025,1022,1022,1019,1016,1016,1013,1013,1010,1007,1007,1007,1004,1004,1004,1001,1001,995,992,992,992,989,989,989,987,987,984,984,984,0,0,0,0,0,0,0,0,0,0,0,0,0,0,0,0,0,0,0,0,0,0,0,0,0,0,0,0,0,0
0,0,0,0,0,0,0,0,0,0,0,0,0,0,0,0,0,2226,2226,2226,2212,2212,2212,2212,2212,2065,2053,2053,2040,2040,2028,2016,2016,2016,2016,2016,2016,2016,2016,2005,2005,2005,2005,2005,1993,1993,1993,1981,1981,1981,1981,1970,1970,1970,1970,1970,1959,1959,1959,1959,1959,1959,1959,1959,1959,1947,1947,1947,1936,1936,1926,1926,1926,1915,1915,1915,1915,1915,1915,1915,1915,1904,1904,1894,1894,1894,1894,1894,1894,1894,1894,1883,1883,1883,1883,1883,1873,1873,1873,1863,1863,1863,1863,1853,1853,1853,1843,1843,1843,1843,1843,1843,1843,1843,1843,1833,1833,1833,1823,1823,1823,1813,1813,1813,1813,1813,1813,1804,1804,1804,1794,1794,1794,1794,1794,1794,1794,1785,1785,1794,1785,1776,1776,1766,1766,1766,1766,1757,1757,1757,1757,1757,1757,1748,1748,1748,1739,1739,1739,1739,1731,1731,1731,1731,1731,1722,1722,1722,1722,1722,1722,1722,1713,1713,1713,1705,1705,1705,1696,1696,1696,1696,1696,1696,1688,1688,1688,1680,1680,1680,1680,1671,1671,1671,1671,1671,1671,1680,1680,1680,1688,1688,1688,1688,1688,1696,1696,1696,2381,2381,2381,2381,2381,2381,2381,2398,2398,2398,2398,2398,2398,1663,1663,1663,1663,1655,1655,1655,1647,1647,1647,1647,1647,1647,1655,1655,1655,1655,1655,1655,1663,1663,1671,1671,1671,1671,1671,1671,1671,1680,1680,1688,1688,1688,1688,1688,1688,1688,1688,1688,1688,1688,1688,1688,0,0,0,0,0,1073,1063,1063,1063,1060,1060,1060,1057,1057,1054,1054,1054,1054,1054,1057,1060,1060,1060,1060,1060,1060,1060,1057,1057,0,0,0,0,0,1776,1776,1776,1776,1776,1776,1776,1785,1785,1785,1785,1785,1785,1785,1794,1794,1794,1794,1794,1794,1794,1794,1794,1804,1794,1785,1785,1776,1766,1766,1766,1748,1748,1739,1739,1731,1731,1731,1731,1722,1713,1713,1705,1696,1688,1688,1680,1671,1671,1671,0,0,0,0,0,0,0,0,0,0,0,0,0,0,821,819,817,815,813,813,811,809,807,805,805,803,803,805,805,805,805,805,807,807,809,809,811,811,813,813,813,813,815,815,815,0,0,0,0,0,0,1470,1470,1464,1458,1458,1452,1445,1445,1439,1439,1439,1433,1427,1421,1421,1421,1421,1415,1415,1404,1398,1398,1392,1392,1392,1387,1387,1381,1376,1376,1370,1370,1365,1359,1354,1354,1349,1349,1349,1349,1343,1338,1338,1333,1333,1328,1322,1322,1317,1317,1312,1312,1307,1307,1302,1302,1292,1292,1288,1288,1283,1283,1283,1278,1273,1273,1268,1264,1264,1259,1255,1250,1250,1250,1245,1241,1241,1236,1236,1232,1232,1227,1227,1223,1219,1214,1214,1210,1206,1206,1206,1202,1202,1202,1197,1197,1197,1189,1185,1185,1181,1181,1177,1177,1173,1169,1165,1165,1165,1165,1161,1161,1157,1157,1153,1153,1149,1149,1145,1145,1141,1138,1134,1134,1130,1126,1126,1123,1123,1123,1119,1119,1115,1115,1112,1108,1105,1105,1105,1101,1097,1097,1094,1094,1094,1090,1090,1087,1084,1084,1080,1080,1077,1073,1073,1070,1067,1067,1067,1063,1063,1060,1060,1060,1057,1054,1054,1050,1050,1047,1047,1047,1047,1044,1041,1041,1038,1034,1031,1031,1028,1025,1025,1022,1019,1019,1016,1016,1016,1013,1010,1007,1007,1004,1004,1004,1004,1001,1001,998,995,992,992,989,989,989,987,987,984,984,984,0,0,0,0,0,0,0,0,0,0,0,0,0,0,0,0,0,0,0,0,0,0,0,0,0,0,0,0,0,0
0,0,0,0,0,0,0,0,0,0,0,0,0,0,0,0,0,2226,2226,2226,2226,2212,2212,2212,2143,2065,2053,2053,2040,2040,2028,2016,2016,2016,2016,2016,2016,2016,2016,2016,2005,2005,2005,2005,2005,1993,1993,1993,1981,1981,1981,1970,1970,1970,1970,1970,1959,1959,1959,1959,1959,1959,1959,1959,1959,1959,1959,1947,1947,1947,1936,1936,1926,1926,1926,1915,1915,1915,1915,1915,1915,1904,1904,1894,1894,1894,1894,1894,1894,1894,1894,1883,1883,1883,1883,1883,1873,1873,1873,1873,1873,1873,1863,1863,1853,1853,1853,1843,1843,1843,1843,1843,1833,1833,1833,1833,1833,1833,1823,1823,1823,1813,1813,1813,1813,1823,1813,1813,1813,1804,1804,1794,1794,1794,1794,1794,1794,1785,1785,1794,1785,1785,1776,1766,1766,1766,1766,1757,1757,1757,1757,1757,1757,1757,1748,1748,1739,1739,1739,1739,1731,1731,1731,1731,1731,1731,1722,1722,1722,1722,1722,1722,1713,1713,1713,1705,1705,1705,1696,1696,1696,1696,1696,1696,1688,1688,1688,1680,1680,1680,1680,1680,1680,1680,1680,1680,1680,1680,1680,1680,1688,1688,1688,1688,1688,1696,1696,1696,2381,2381,2381,2381,2381,2381,2381,2398,2398,2398,2415,2415,1696,1696,1671,1663,1663,1663,1655,1655,1647,1647,1647,1647,1655,1655,1655,1655,1655,1655,1663,1663,1663,1663,1671,1671,1671,1671,1680,1680,1680,1680,1680,1688,1688,1688,1688,1688,1688,1688,1688,1688,1688,1688,1688,1688,0,0,0,0,0,0,1063,1060,1060,1060,1060,1060,1057,1057,1057,1054,1054,1054,1057,1057,1060,1060,1060,1060,1060,1060,1060,1060,1060,0,0,0,0,0,1776,1776,1776,1776,1776,1776,1776,1785,1785,1785,1785,1785,1794,1794,1794,1794,1794,1794,1794,1794,1794,1794,1794,1804,1794,1785,1785,1776,1766,1766,1766,1748,1748,1739,1739,1739,1731,1731,1731,1731,1722,1713,1705,1705,1688,1688,1680,1671,1663,1663,0,0,0,0,0,0,0,0,0,0,0,0,0,0,823,821,817,817,815,813,811,809,807,805,805,803,803,805,805,805,805,807,807,809,809,811,811,813,813,815,815,815,815,815,0,0,0,0,0,0,0,1470,1470,1464,1458,1458,1452,1445,1445,1439,1439,1439,1433,1427,1427,1421,1421,1421,1415,1415,1404,1398,1398,1392,1392,1392,1387,1387,1381,1376,1376,1370,1370,1359,1359,1354,1354,1349,1349,1349,1349,1343,1343,1338,1338,1333,1333,1328,1322,1322,1317,1312,1312,1307,1307,1302,1302,1292,1292,1288,1288,1283,1283,1283,1278,1273,1273,1268,1264,1264,1259,1255,1250,1250,1250,1245,1241,1241,1236,1236,1232,1232,1227,1227,1223,1223,1214,1214,1210,1206,1206,1206,1206,1202,1202,1197,1197,1197,1189,1189,1185,1185,1181,1181,1177,1169,1169,1165,1165,1165,1165,1161,1161,1157,1157,1153,1153,1149,1149,1145,1145,1141,1138,1138,1134,1134,1126,1126,1123,1123,1123,1119,1119,1115,1115,1112,1112,1108,1105,1105,1101,1097,1097,1097,1094,1094,1090,1090,1087,1087,1084,1080,1077,1077,1073,1073,1070,1070,1067,1067,1063,1063,1060,1060,1060,1057,1054,1054,1050,1050,1050,1050,1047,1047,1044,1041,1041,1038,1034,1034,1031,1028,1025,1025,1022,1019,1019,1016,1016,1016,1013,1010,1007,1007,1004,1004,1004,1004,1004,1001,998,998,995,992,989,989,989,987,987,984,984,984,0,0,0,0,0,0,0,0,0,0,0,0,0,0,0,0,0,0,0,0,0,0,0,0,0,0,0,0,0,0
0,0,0,0,0,0,0,0,0,0,0,0,0,0,0,0,0,2226,2226,2226,2226,2212,2212,2212,2143,2065,2065,2053,2053,2053,2028,2028,2016,2016,2016,2016,2016,2016,2016,2016,2005,2005,2005,2005,1993,1993,1993,1993,1993,1993,1981,1970,1970,1970,1970,1970,1959,1959,1959,1959,1959,1959,1959,1959,1959,1959,1959,1959,1947,1947,1936,1936,1926,1926,1926,1926,1915,1915,1915,1915,1915,1904,1904,1904,1904,1904,1904,1904,1904,1894,1894,1883,1883,1883,1883,1883,1883,1883,1883,1873,1873,1873,1873,1863,1863,1853,1853,1853,1843,1843,1843,1843,1833,1833,1833,1833,1833,1833,1833,1833,1833,1823,1823,1823,1823,1823,1813,1813,1813,1804,1804,1804,1804,1794,1794,1794,1794,1794,1794,1794,1785,1785,1785,1766,1766,1766,1766,1766,1757,1757,1757,1757,1757,1757,1748,1748,1739,1739,1739,1739,1731,1731,1731,1731,1731,1731,1731,1722,1722,1722,1722,1722,1713,1713,1713,1713,1705,1705,1696,1696,1696,1696,1696,1696,1688,1688,1688,1688,1688,1688,1680,1680,1680,1680,1680,1680,1680,1680,1680,1680,1688,1688,1688,1688,1696,1696,1696,1705,2381,2381,2381,2381,2381,2381,2381,2381,2398,2398,2415,2415,0,1696,1671,1663,1663,1663,1655,1655,1655,1655,1647,1647,1655,1655,1655,1655,1655,1655,1663,1663,1663,1663,1671,1671,1671,1680,1680,1680,1680,1680,1680,1688,1688,1688,1688,1688,1688,1688,1688,1688,1688,1688,1688,1688,1696,0,0,0,0,0,1063,1060,1060,1060,1060,1060,1057,1054,1054,1054,1054,1057,1057,1057,1060,1060,1060,1060,1063,1060,1060,1060,1060,1063,0,0,0,0,1776,1776,1776,1776,1776,1776,1776,1785,1785,1785,1785,1785,1794,1794,1794,1794,1794,1794,1794,1794,1794,1794,1794,1804,1794,1785,1785,1776,1766,1766,1766,1748,1748,1739,1739,1739,1731,1731,1731,1731,1722,1713,1705,1705,1696,1688,1680,1671,1663,1663,0,0,0,0,0,0,0,0,0,0,0,0,0,0,821,821,817,817,815,813,811,809,807,805,805,805,805,805,805,805,805,807,807,809,811,811,811,813,813,815,815,815,815,815,0,0,0,0,0,0,1470,1470,1470,1464,1458,1458,1452,1452,1445,1445,1439,1439,1433,1427,1427,1421,1421,1421,1415,1410,1404,1398,1398,1392,1392,1392,1387,1387,1381,1376,1376,1370,1370,1359,1359,1354,1354,1354,1349,1349,1349,1343,1343,1338,1338,1333,1333,1328,1328,1322,1317,1312,1312,1307,1307,1302,1302,1292,1292,1288,1288,1283,1283,1283,1278,1273,1273,1268,1264,1264,1259,1255,1255,1250,1250,1250,1245,1241,1236,1236,1232,1232,1232,1227,1227,1219,1219,1214,1214,1210,1210,1206,1206,1202,1202,1197,1197,1197,1189,1189,1185,1185,1181,1181,1177,1169,1169,1169,1165,1165,1165,1161,1161,1157,1157,1153,1153,1149,1149,1145,1145,1141,1138,1138,1134,1134,1126,1126,1123,1123,1123,1119,1119,1119,1115,1112,1112,1108,1105,1105,1101,1097,1097,1094,1094,1094,1094,1090,1087,1087,1084,1080,1077,1077,1073,1073,1070,1070,1067,1067,1063,1063,1063,1063,1060,1057,1057,1054,1050,1050,1050,1050,1047,1047,1044,1041,1041,1038,1034,1034,1028,1028,1025,1025,1022,1019,1019,1016,1016,1016,1013,1013,1010,1007,1007,1004,1004,1004,1001,1001,1001,998,995,992,989,989,989,987,987,984,984,984,0,0,0,0,0,0,0,0,0,0,0,0,0,0,0,0,0,0,0,0,0,0,0,0,0,0,0,0,0,0
0,0,0,0,0,0,0,0,0,0,0,0,0,0,0,0,0,2226,2226,2226,2226,2226,2226,2212,2212,2156,2065,2053,2053,2053,2053,2053,2028,2016,2016,2016,2016,2016,2016,2016,2005,2005,2005,2005,1993,1993,1993,1993,1993,1981,1981,1970,1970,1970,1970,1970,1970,1970,1970,1959,1959,1959,1959,1959,1959,1959,1959,1959,1959,1947,1947,1947,1936,1926,1926,1926,1926,1915,1915,1915,1915,1915,1904,1904,1904,1904,1904,1904,1904,1894,1894,1894,1894,1883,1883,1883,1883,1883,1883,1873,1873,1873,1873,1863,1863,1853,1853,1853,1853,1843,1843,1843,1843,1843,1843,1833,1833,1833,1833,1833,1833,1823,1823,1823,1823,1823,1813,1804,1804,1804,1804,1804,1804,1804,1794,1794,1794,1794,1794,1785,1785,1785,1776,1776,1766,1766,1766,1766,1757,1757,1757,1757,1757,1757,1748,1748,1748,1748,1739,1739,1731,1731,1731,1731,1731,1731,1731,1722,1722,1722,1722,1722,1713,1713,1713,1713,1705,1705,1696,1696,1696,1696,1696,1696,1688,1688,1688,1688,1688,1688,1688,1680,1680,1680,1680,1680,1680,1680,1680,1680,1680,1688,1688,1696,1696,1696,1705,1705,2398,2381,2381,2381,2381,2381,2381,2381,2398,2398,2415,0,0,0,1671,1663,1663,1663,1655,1655,1655,1655,1647,1647,1655,1655,1655,1655,1655,1663,1663,1663,1663,1663,1671,1671,1680,1680,1680,1680,1680,1680,1680,1688,1688,1688,1688,1688,1688,1688,1696,1688,1688,1688,1688,1688,1696,0,0,0,0,1077,1063,1063,1060,1060,1060,1057,1057,1054,1054,1054,1054,1057,1057,1057,1060,1060,1060,1060,1063,1063,1063,1063,1063,1063,0,0,0,0,1776,1776,1776,1776,1776,1776,1776,1785,1785,1785,1785,1785,1794,1794,1794,1794,1794,1794,1794,1794,1794,1794,1794,1804,1794,1794,1785,1776,1766,1766,1766,1748,1748,1739,1739,1739,1731,1731,1731,1731,1722,1713,1705,1705,1696,1688,1680,1680,1663,1663,0,0,0,0,0,0,0,0,0,0,0,0,0,823,821,819,817,815,815,813,811,809,807,805,805,805,805,805,805,805,807,807,807,809,811,811,813,813,815,817,815,815,817,819,0,0,0,0,0,0,1470,1470,1464,1464,1464,1458,1458,1452,1445,1445,1439,1439,1433,1427,1427,1421,1421,1421,1421,1410,1404,1404,1398,1398,1392,1392,1392,1387,1381,1376,1376,1370,1370,1359,1359,1354,1354,1354,1349,1349,1349,1343,1343,1338,1333,1333,1333,1328,1328,1322,1317,1317,1312,1312,1307,1307,1302,1292,1292,1288,1288,1283,1283,1283,1278,1273,1273,1268,1264,1264,1259,1259,1255,1250,1250,1250,1245,1241,1236,1236,1232,1232,1232,1227,1227,1219,1219,1214,1214,1214,1210,1206,1206,1202,1202,1202,1197,1197,1189,1189,1185,1185,1181,1181,1181,1177,1173,1169,1169,1165,1165,1161,1161,1157,1157,1153,1153,1149,1149,1149,1145,1141,1141,1138,1134,1134,1126,1126,1123,1123,1123,1119,1119,1119,1115,1112,1112,1108,1105,1101,1101,1097,1097,1094,1094,1094,1094,1090,1087,1087,1084,1080,1077,1077,1073,1073,1070,1070,1067,1067,1067,1063,1063,1063,1060,1060,1057,1054,1054,1050,1050,1050,1047,1047,1044,1041,1041,1038,1034,1034,1028,1028,1028,1025,1025,1022,1019,1019,1016,1016,1013,1013,1010,1007,1007,1004,1004,1004,1001,1001,1001,998,995,992,992,989,989,987,987,984,984,984,0,0,0,0,0,0,0,0,0,0,0,0,0,0,0,0,0,0,0,0,0,0,0,0,0,0,0,0,0,0
0,0,0,0,0,0,0,0,0,0,0,0,0,0,0,0,0,2212,2212,2212,2212,2226,2226,2212,2212,2156,2116,2090,2053,2053,2053,2053,2053,2028,2028,2016,2016,2016,2016,2016,2005,2005,2005,2005,1993,1993,1993,1993,1993,1981,1981,1970,1970,1970,1970,1970,1970,1970,1970,1970,1970,1959,1959,1959,1959,1959,1959,1959,1959,1959,1947,1947,1936,1936,1926,1926,1926,1926,1915,1915,1915,1915,1904,1904,1904,1904,1904,1904,1904,1894,1894,1894,1894,1883,1883,1883,1883,1883,1883,1873,1873,1873,1873,1873,1863,1853,1853,1853,1853,1843,1843,1843,1843,1843,1843,1833,1833,1833,1833,1833,1833,1833,1833,1833,1823,1823,1813,1804,1804,1804,1804,1804,1804,1804,1794,1794,1794,1794,1785,1785,1785,1785,1776,1776,1776,1766,1766,1766,1757,1757,1757,1757,1757,1757,1757,1748,1748,1748,1739,1739,1739,1739,1739,1731,1731,1731,1731,1722,1722,1722,1722,1722,1713,1713,1713,1713,1705,1705,1696,1696,1696,1705,1696,1696,1696,1688,1688,1688,1688,1688,1688,1688,1688,1688,1680,1680,1680,1680,1680,1680,1680,1688,1688,1696,1696,1705,1705,2398,2398,2398,2398,2398,2398,2381,2381,2381,2398,2398,2398,0,0,0,1671,1663,1663,1663,1655,1655,1655,1655,1655,1655,1655,1655,1663,1663,1663,1663,1663,1663,1663,1663,1671,1671,1680,1680,1680,1680,1680,1688,1688,1688,1688,1688,1688,1688,1688,1696,1696,1688,1688,1688,1688,1688,0,0,0,0,0,1073,1067,1063,1063,1060,1060,1057,1057,1054,1054,1054,1054,1057,1057,1060,1060,1060,1060,1063,1063,1063,1063,1067,1067,0,0,0,0,0,1766,1766,1776,1776,1776,1776,1776,1785,1785,1785,1785,1785,1794,1794,1794,1794,1794,1794,1794,1794,1794,1794,1794,1804,1794,1794,1785,1776,1776,1766,1766,1748,1748,1739,1739,1739,1731,1731,1731,1731,1722,1722,1713,1696,1696,1688,1680,1680,1663,1663,0,0,0,0,0,0,0,0,0,0,0,0,0,823,821,819,817,815,815,813,811,809,809,807,805,805,805,805,807,807,807,809,809,811,811,811,813,815,817,817,817,817,819,819,0,0,0,0,0,0,0,1470,1464,1464,1464,1464,1458,1452,1445,1445,1445,1439,1439,1433,1427,1421,1421,1421,1415,1410,1404,1404,1398,1398,1392,1392,1392,1387,1381,1381,1376,1370,1365,1359,1359,1354,1354,1354,1349,1349,1349,1343,1343,1338,1333,1333,1328,1328,1328,1322,1317,1317,1312,1312,1307,1307,1302,1297,1292,1288,1288,1283,1283,1283,1278,1273,1273,1268,1264,1264,1259,1259,1255,1255,1255,1250,1245,1241,1241,1236,1232,1232,1232,1227,1223,1219,1219,1219,1214,1214,1214,1210,1206,1206,1202,1202,1197,1197,1193,1189,1185,1185,1185,1181,1181,1181,1173,1169,1169,1165,1165,1165,1161,1161,1157,1153,1153,1149,1149,1149,1145,1145,1141,1138,1138,1134,1130,1126,1126,1123,1123,1123,1119,1119,1115,1115,1112,1112,1105,1101,1101,1101,1097,1094,1094,1094,1094,1094,1090,1090,1087,1080,1080,1077,1077,1077,1073,1070,1070,1067,1067,1063,1063,1063,1063,1060,1057,1054,1054,1050,1050,1050,1047,1047,1044,1041,1041,1038,1034,1034,1028,1028,1028,1025,1025,1022,1019,1019,1016,1016,1016,1013,1013,1010,1007,1007,1004,1004,1001,1001,1001,998,998,995,992,992,989,987,987,984,984,984,0,0,0,0,0,0,0,0,0,0,0,0,0,0,0,0,0,0,0,0,0,0,0,0,0,0,0,0,0,0
0,0,0,0,0,0,0,0,0,0,0,0,0,0,0,0,0,2212,2212,2212,2212,2226,2226,2212,2212,2156,2078,2065,2040,2028,2028,2053,2028,2016,2016,2016,2016,2016,2016,2016,2005,2005,2005,2005,1993,1993,1993,1981,1981,1981,1970,1970,1970,1970,1970,1970,1970,1970,1970,1959,1959,1959,1959,1959,1959,1959,1959,1959,1959,1947,1947,1947,1936,1936,1926,1926,1926,1915,1915,1915,1915,1915,1915,1915,1915,1904,1904,1904,1904,1894,1894,1894,1894,1883,1883,1883,1883,1883,1883,1883,1883,1873,1873,1873,1863,1863,1853,1853,1853,1853,1843,1843,1843,1843,1843,1833,1833,1833,1833,1833,1833,1833,1833,1833,1823,1823,1813,1813,1804,1804,1804,1804,1804,1804,1794,1794,1794,1794,1785,1785,1785,1785,1776,1776,1776,1776,1766,1766,1766,1757,1757,1757,1757,1757,1757,1757,1748,1748,1739,1739,1739,1739,1739,1739,1731,1731,1731,1731,1731,1722,1722,1722,1713,1713,1713,1713,1713,1705,1705,1705,1705,1705,1696,1696,1696,1688,1688,1688,1688,1688,1688,1688,1688,1688,1680,1680,1680,1680,1680,1680,1680,1680,1688,1696,1696,1705,1705,1705,2398,2398,2398,2398,2398,2381,2381,2381,2398,0,2398,0,0,0,1663,1663,1663,1663,1655,1655,1655,1655,1655,1655,1655,1655,1663,1663,1663,1663,1663,1663,1663,1663,1671,1671,1680,1680,1680,1680,1680,1688,1688,1688,1688,1688,1688,1688,1688,1696,1696,1696,1688,1688,1688,1688,0,0,0,0,0,1067,1067,1063,1063,1063,1060,1060,1054,1054,1054,1054,1054,1060,1060,1060,1063,1063,1063,1063,1063,1063,1067,1067,1067,0,0,0,0,1776,1766,1766,1776,1776,1776,1776,1776,1785,1785,1785,1785,1794,1794,1794,1794,1794,1794,1794,1794,1794,1794,1794,1794,1804,1794,1794,1785,1785,1776,1776,1766,1766,1748,1739,1739,1739,1731,1731,1731,1731,1731,1722,1713,1696,1696,1688,1688,1671,1663,1663,0,0,0,0,0,0,0,0,0,0,0,0,0,823,821,819,819,817,815,813,811,809,809,805,805,805,805,805,807,807,807,809,809,811,811,811,813,815,817,817,817,817,817,819,0,0,0,0,0,0,1464,1464,1470,1464,1464,1464,1458,1452,1445,1445,1445,1439,1439,1433,1427,1421,1421,1421,1415,1410,1410,1404,1404,1398,1392,1392,1392,1387,1387,1381,1376,1376,1365,1365,1359,1354,1354,1354,1349,1349,1349,1343,1343,1338,1338,1333,1328,1328,1328,1322,1322,1317,1312,1312,1307,1307,1302,1297,1292,1288,1288,1283,1283,1283,1278,1273,1273,1268,1268,1264,1264,1259,1259,1255,1255,1250,1245,1241,1241,1236,1232,1232,1232,1227,1223,1219,1219,1219,1214,1214,1214,1210,1210,1206,1202,1202,1202,1197,1193,1189,1189,1185,1185,1181,1181,1181,1177,1173,1173,1165,1165,1165,1161,1161,1161,1153,1153,1153,1149,1149,1145,1145,1141,1141,1138,1134,1130,1130,1126,1126,1123,1123,1119,1119,1119,1115,1115,1112,1105,1105,1101,1101,1101,1097,1094,1094,1094,1094,1090,1090,1087,1080,1080,1080,1077,1077,1073,1073,1070,1070,1067,1067,1063,1063,1063,1060,1057,1054,1054,1050,1050,1050,1047,1047,1044,1041,1041,1038,1038,1038,1028,1028,1028,1025,1025,1025,1022,1022,1019,1016,1016,1016,1013,1010,1010,1007,1007,1004,1004,1001,1001,998,998,995,992,992,989,987,987,984,984,984,0,0,0,0,0,0,0,0,0,0,0,0,0,0,0,0,0,0,0,0,0,0,0,0,0,0,0,0,0,0
0,0,0,0,0,0,0,0,0,0,0,0,0,0,0,0,0,2226,2212,2212,2212,2212,2212,2212,2170,2156,2078,2065,2040,2028,2028,2040,2028,2016,2016,2016,2016,2016,2016,2016,2016,2016,2005,1993,1993,1993,1993,1981,1981,1981,1970,1970,1970,1970,1970,1970,1970,1970,1970,1959,1959,1959,1959,1959,1959,1959,1959,1959,1959,1947,1947,1947,1936,1936,1936,1926,1926,1915,1915,1915,1915,1915,1915,1915,1915,1915,1915,1904,1904,1894,1894,1894,1894,1883,1883,1883,1883,1883,1883,1883,1883,1883,1883,1873,1873,1863,1853,1853,1853,1853,1843,1843,1843,1843,1843,1843,1843,1843,1833,1833,1833,1833,1833,1833,1833,1823,1813,1813,1804,1804,1804,1804,1804,1804,1794,1794,1794,1794,1785,1785,1785,1785,1785,1776,1776,1776,1766,1766,1766,1757,1757,1757,1757,1757,1757,1757,1757,1748,1748,1748,1739,1739,1739,1739,1731,1731,1731,1731,1731,1722,1722,1722,1713,1713,1713,1713,1713,1713,1713,1713,1713,1705,1696,1696,1696,1696,1688,1688,1688,1688,1688,1688,1688,1680,1680,1680,1680,1680,1680,1680,1680,1680,1688,1696,1696,1705,1705,1696,1696,1696,2415,2415,2415,2398,2381,2381,0,0,0,0,0,0,1663,1663,1655,1655,1655,1655,1655,1655,1655,1655,1655,1655,1663,1663,1663,1663,1663,1663,1663,1663,1671,1671,1680,1680,1680,1680,1680,1680,1680,1688,1688,1688,1688,1688,1696,1696,1696,1696,1688,1688,1688,1688,0,0,0,0,1070,1067,1067,1063,1063,1063,1060,1060,1054,1054,1054,1054,1057,1060,1060,1060,1063,1063,1063,1063,1063,1063,1067,1067,1067,0,0,0,0,1776,1766,1766,1776,1776,1776,1776,1776,1785,1785,1794,1794,1794,1794,1794,1794,1794,1794,1794,1794,1794,1794,1794,1794,1804,1794,1794,1785,1785,1776,1776,1766,1766,1748,1748,1739,1739,1739,1731,1731,1731,1731,1722,1713,1705,1696,1688,1688,1671,1663,1663,0,0,0,0,0,0,0,0,0,0,0,0,0,823,821,819,819,817,813,813,811,809,809,805,805,805,805,805,807,807,809,809,809,811,813,813,813,815,817,817,817,817,817,0,0,0,0,0,0,0,1464,1464,1470,1464,1464,1464,1464,1452,1445,1445,1445,1439,1439,1433,1427,1421,1421,1421,1415,1415,1410,1404,1404,1398,1398,1392,1392,1387,1387,1381,1376,1376,1370,1365,1359,1359,1354,1354,1354,1349,1349,1349,1343,1338,1338,1333,1333,1328,1328,1322,1322,1317,1312,1312,1307,1307,1302,1292,1292,1288,1288,1283,1283,1283,1278,1273,1273,1273,1268,1264,1264,1264,1259,1255,1255,1250,1250,1245,1241,1236,1236,1236,1232,1232,1223,1223,1223,1219,1219,1214,1214,1210,1210,1206,1206,1202,1202,1197,1197,1193,1189,1185,1185,1181,1181,1181,1177,1173,1173,1169,1165,1165,1165,1161,1161,1157,1153,1153,1149,1149,1145,1145,1145,1141,1138,1134,1130,1130,1126,1126,1123,1123,1119,1119,1119,1115,1115,1112,1108,1105,1101,1101,1101,1097,1094,1094,1094,1094,1090,1090,1087,1080,1080,1080,1077,1077,1077,1073,1073,1070,1067,1067,1063,1063,1063,1060,1057,1054,1054,1050,1050,1050,1047,1047,1044,1044,1041,1041,1038,1038,1034,1028,1028,1028,1025,1025,1022,1022,1019,1019,1016,1016,1013,1013,1010,1007,1007,1004,1004,1001,1001,998,998,995,992,992,989,989,987,984,984,984,0,0,0,0,0,0,0,0,0,0,0,0,0,0,0,0,0,0,0,0,0,0,0,0,0,0,0,0,0,0
0,0,0,0,0,0,0,0,0,0,0,0,0,0,0,0,0,2226,2226,2226,2212,2212,2212,2212,2170,2156,2090,2065,2040,2040,2040,2040,2028,2028,2028,2028,2028,2016,2016,2016,2016,2016,2005,1993,1993,1993,1993,1981,1981,1981,1981,1970,1970,1970,1970,1970,1970,1970,1970,1959,1959,1959,1959,1959,1959,1959,1959,1959,1959,1947,1947,1947,1947,1947,1936,1936,1926,1915,1915,1915,1915,1915,1915,1915,1915,1915,1915,1915,1915,1915,1904,1894,1894,1883,1883,1883,1883,1883,1883,1883,1883,1883,1883,1873,1873,1863,1853,1853,1853,1853,1843,1843,1843,1843,1843,1843,1843,1843,1843,1833,1833,1833,1833,1833,1833,1823,1823,1813,1813,1804,1804,1804,1794,1794,1794,1794,1794,1794,1785,1785,1794,1785,1785,1785,1776,1776,1776,1766,1766,1766,1757,1757,1757,1757,1757,1757,1757,1757,1748,1748,1739,1739,1739,1739,1739,1731,1731,1731,1731,1722,1722,1722,1722,1713,1713,1713,1713,1713,1713,1713,1705,1705,1696,1696,1696,1696,1688,1688,1688,1688,1688,1688,1688,1680,1680,1680,1680,1680,1680,1680,1680,1688,1688,1696,1705,1705,1696,1696,1696,1696,2432,2415,2415,2415,2415,0,0,0,0,0,0,0,1655,1655,1655,1655,1655,1655,1655,1655,1655,1655,1655,1663,1663,1663,1663,1663,1663,1663,1663,1671,1671,1671,1680,1680,1680,1680,1680,1680,1680,1688,1688,1688,1688,1696,1696,1696,1696,1696,1696,1696,1696,1696,0,0,0,0,1070,1067,1067,1067,1063,1063,1060,1060,1057,1054,1054,1054,1057,1060,1060,1060,1063,1063,1063,1067,1067,1067,1067,1070,1070,0,0,0,0,1776,1776,1776,1776,1785,1785,1785,1785,1785,1794,1794,1794,1794,1794,1794,1794,1794,1804,1804,1804,1804,1794,1794,1794,1804,1794,1794,1785,1785,1776,1776,1766,1766,1766,1748,1739,1739,1739,1731,1731,1731,1731,1722,1713,1705,1696,1696,1696,1688,1688,0,0,0,0,0,0,0,0,0,0,0,0,0,0,823,821,819,819,817,813,811,811,809,809,805,805,805,805,807,807,809,809,811,811,811,813,813,815,817,817,819,819,817,817,0,0,0,0,0,0,0,1470,1470,1470,1470,1464,1464,1464,1452,1445,1445,1445,1439,1439,1433,1427,1427,1421,1421,1415,1415,1410,1404,1404,1398,1398,1392,1392,1392,1387,1387,1381,1376,1370,1365,1365,1359,1359,1354,1354,1354,1349,1349,1343,1338,1338,1333,1333,1328,1328,1322,1322,1317,1312,1312,1307,1307,1302,1292,1292,1288,1288,1283,1283,1283,1283,1278,1273,1273,1273,1268,1268,1264,1259,1255,1255,1250,1250,1245,1241,1236,1236,1236,1232,1227,1223,1223,1223,1219,1219,1214,1214,1214,1210,1206,1206,1202,1202,1197,1197,1193,1189,1185,1185,1185,1181,1181,1177,1173,1169,1169,1165,1165,1165,1161,1161,1157,1153,1153,1149,1149,1145,1145,1145,1141,1138,1134,1130,1130,1126,1126,1123,1123,1119,1119,1119,1115,1115,1112,1108,1105,1105,1105,1101,1097,1094,1094,1094,1094,1090,1090,1087,1084,1080,1080,1077,1077,1077,1073,1073,1070,1067,1067,1063,1063,1063,1060,1060,1054,1054,1054,1050,1050,1047,1047,1044,1044,1041,1041,1041,1038,1034,1028,1028,1028,1025,1025,1025,1022,1022,1019,1016,1016,1013,1013,1013,1010,1007,1004,1004,1001,1001,998,998,995,992,992,989,989,987,984,984,984,0,0,0,0,0,0,0,0,0,0,0,0,0,0,0,0,0,0,0,0,0,0,0,0,0,0,0,0,0,0
0,0,0,0,0,0,0,0,0,0,0,0,0,0,0,0,0,2226,2226,2226,2226,2226,2226,2212,2212,2156,2090,2078,2040,2040,2040,2040,2028,2028,2028,2016,2016,2016,2016,2016,2016,2016,2005,2005,1993,1993,1993,1981,1981,1981,1981,1981,1981,1970,1970,1970,1970,1970,1970,1970,1959,1959,1959,1959,1959,1959,1959,1959,1959,1947,1947,1947,1947,1947,1936,1936,1926,1915,1915,1915,1915,1915,1915,1915,1915,1915,1915,1915,1915,1915,1904,1904,1894,1894,1894,1894,1894,1883,1883,1883,1883,1883,1883,1873,1873,1863,1853,1853,1853,1853,1843,1843,1843,1843,1843,1843,1843,1843,1843,1843,1843,1833,1833,1833,1833,1833,1823,1823,1813,1813,1804,1804,1794,1794,1794,1794,1794,1794,1785,1785,1794,1785,1785,1785,1785,1785,1776,1776,1766,1766,1757,1757,1757,1757,1757,1757,1757,1757,1748,1748,1748,1748,1748,1748,1739,1739,1731,1731,1731,1722,1722,1722,1722,1722,1713,1713,1713,1713,1713,1713,1705,1705,1696,1696,1696,1696,1696,1688,1688,1688,1688,1688,1688,1680,1680,1680,1680,1680,1680,1680,1680,1688,1688,1696,1696,1696,1696,1688,1688,1696,2129,2129,2116,2103,2090,2078,2078,0,2065,2065,0,0,1655,1655,1655,1655,1655,1655,1655,1655,1655,1655,1655,1663,1663,1663,1663,1663,1663,1663,1663,1671,1671,1671,1680,1680,1680,1680,1680,1680,1688,1688,1688,1688,1696,1696,1696,1696,1696,1696,1696,1696,1696,1705,0,0,0,0,1070,1067,1067,1067,1063,1063,1060,1060,1060,1060,1060,1060,1060,1060,1060,1060,1063,1063,1063,1067,1067,1067,1067,1070,1070,1073,0,0,0,1776,1766,1766,1776,1785,1785,1785,1785,1794,1794,1794,1794,1794,1794,1794,1794,1794,1804,1804,1804,1804,1804,1794,1794,1804,1794,1794,1794,1785,1776,1776,1766,1766,1766,1748,1739,1739,1739,1739,1731,1731,1731,1722,1713,1705,1696,1696,1696,1688,1688,0,0,0,0,0,0,0,0,0,0,0,0,0,0,823,821,819,819,817,813,811,811,811,809,805,805,805,805,807,807,809,809,811,811,813,813,813,817,817,817,819,819,817,817,0,0,0,0,0,0,0,1470,1470,1470,1470,1470,1464,1464,1452,1445,1445,1445,1439,1439,1439,1433,1427,1421,1421,1415,1415,1410,1404,1404,1398,1398,1392,1392,1392,1387,1387,1381,1376,1370,1370,1365,1365,1359,1359,1354,1354,1349,1349,1343,1338,1338,1333,1333,1333,1328,1328,1322,1317,1312,1312,1307,1307,1302,1302,1292,1292,1288,1288,1283,1283,1283,1278,1278,1273,1273,1268,1268,1264,1264,1259,1255,1255,1250,1245,1241,1236,1236,1236,1232,1227,1227,1227,1223,1219,1219,1214,1214,1214,1210,1206,1206,1202,1202,1197,1197,1193,1189,1189,1185,1185,1181,1181,1181,1173,1169,1169,1165,1165,1165,1165,1161,1161,1153,1153,1149,1149,1145,1145,1145,1138,1138,1134,1134,1130,1126,1126,1126,1123,1123,1119,1119,1115,1115,1112,1108,1105,1105,1105,1101,1101,1097,1097,1094,1094,1090,1090,1090,1084,1080,1080,1077,1077,1077,1073,1073,1070,1067,1067,1063,1063,1063,1063,1057,1054,1054,1054,1050,1050,1047,1047,1044,1044,1041,1041,1041,1038,1034,1031,1028,1028,1028,1025,1025,1022,1022,1019,1019,1016,1016,1013,1013,1010,1007,1004,1004,1001,1001,998,998,995,992,992,989,989,987,984,984,984,0,0,0,0,0,0,0,0,0,0,0,0,0,0,0,0,0,0,0,0,0,0,0,0,0,0,0,0,0,0
0,0,0,0,0,0,0,0,0,0,0,0,0,0,0,0,0,2226,2226,2226,2226,2226,2226,2212,2212,2156,2090,2065,2065,2053,2053,2040,2040,2040,2028,2016,2016,2016,2016,2016,2016,2016,2005,2005,2005,1993,1993,1981,1981,1981,1981,1981,1981,1981,1970,1970,1970,1970,1970,1970,1959,1959,1959,1959,1959,1959,1959,1959,1959,1947,1947,1947,1947,1947,1936,1936,1926,1915,1915,1915,1915,1915,1915,1915,1915,1915,1915,1915,1915,1915,1915,1904,1904,1894,1894,1894,1894,1883,1883,1883,1883,1883,1883,1883,1873,1873,1863,1863,1853,1853,1843,1843,1843,1843,1843,1843,1843,1843,1843,1833,1833,1843,1833,1833,1833,1833,1833,1823,1813,1813,1804,1804,1804,1804,1794,1794,1794,1794,1794,1794,1794,1794,1785,1785,1785,1785,1785,1776,1766,1766,1766,1766,1757,1757,1757,1757,1757,1757,1757,1757,1748,1748,1748,1748,1739,1739,1731,1731,1731,1722,1722,1722,1722,1722,1713,1713,1713,1713,1713,1713,1713,1722,1722,1696,1696,1696,1696,1688,1688,1688,1688,1688,1688,1688,1680,1680,1680,1680,1680,1680,1688,1688,1696,1696,1696,1696,1696,1688,1688,2129,2129,2129,2116,2103,2090,2078,2065,2065,2065,0,2053,0,1655,1655,1655,1655,1655,1655,1655,1655,1655,1655,1655,1663,1663,1663,1663,1663,1663,1663,1671,1671,1680,1680,1680,1680,1680,1680,1680,1680,1688,1688,1688,1688,1696,1696,1696,1696,1696,1696,1696,1696,1696,0,0,0,0,0,1070,1067,1067,1067,1067,1063,1063,1060,1060,1060,1060,1060,1060,1060,1060,1060,1063,1063,1063,1067,1067,1070,1070,1070,1073,1073,0,0,0,1766,1766,1766,1776,1785,1785,1785,1785,1794,1794,1794,1794,1794,1794,1794,1804,1804,1804,1804,1804,1804,1804,1804,1804,1804,1804,1794,1794,1785,1785,1776,1776,1766,1766,1748,1748,1739,1739,1739,1731,1731,1731,1722,1713,1705,1705,1696,1696,1696,1696,0,0,0,0,0,0,0,0,0,0,0,0,0,0,823,821,819,819,817,815,815,813,811,809,807,807,807,807,807,807,809,811,811,811,813,815,815,817,817,819,819,819,817,817,0,0,0,0,0,0,0,1470,1470,1470,1470,1470,1464,1464,1452,1445,1445,1445,1439,1439,1439,1433,1427,1427,1427,1421,1415,1415,1410,1404,1404,1398,1398,1392,1392,1387,1387,1381,1376,1376,1370,1370,1365,1359,1359,1354,1354,1349,1349,1349,1338,1338,1333,1333,1333,1328,1328,1322,1317,1312,1312,1307,1307,1307,1302,1302,1292,1288,1288,1283,1283,1283,1278,1278,1273,1273,1268,1268,1264,1264,1259,1259,1255,1250,1245,1245,1236,1236,1236,1232,1232,1232,1227,1227,1223,1219,1219,1214,1214,1214,1210,1206,1202,1202,1202,1197,1197,1193,1189,1189,1185,1181,1181,1177,1177,1173,1169,1169,1169,1165,1165,1161,1161,1153,1153,1149,1149,1145,1145,1145,1138,1138,1134,1134,1130,1130,1126,1126,1123,1123,1119,1119,1119,1115,1112,1108,1105,1105,1105,1101,1101,1097,1097,1094,1094,1090,1090,1090,1087,1080,1080,1080,1077,1077,1073,1073,1070,1070,1067,1063,1063,1063,1063,1057,1054,1054,1054,1050,1050,1050,1047,1047,1044,1041,1041,1041,1038,1038,1034,1028,1028,1028,1025,1025,1025,1022,1022,1019,1016,1016,1013,1013,1010,1007,1007,1004,1001,1001,998,998,995,992,992,989,989,987,987,984,984,0,0,0,0,0,0,0,0,0,0,0,0,0,0,0,0,0,0,0,0,0,0,0,0,0,0,0,0,0,0
0,0,0,0,0,0,0,0,0,0,0,0,0,0,0,0,0,2226,2226,2226,2226,2226,2226,2212,2212,2198,2090,2065,2065,2053,2053,2053,2040,2040,2040,2040,2028,2016,2016,2016,2016,2016,2016,2005,2005,1993,1993,1993,1993,1993,1993,1981,1981,1981,1981,1970,1970,1970,1970,1970,1959,1959,1959,1959,1959,1959,1959,1959,1959,1959,1959,1959,1959,1947,1947,1936,1926,1915,1915,1915,1915,1915,1915,1915,1915,1915,1915,1915,1915,1915,1915,1915,1904,1904,1894,1894,1894,1883,1883,1883,1883,1883,1883,1883,1873,1873,1863,1863,1863,1853,1853,1853,1843,1843,1843,1843,1843,1843,1843,1833,1833,1843,1833,1833,1833,1833,1833,1823,1813,1813,1804,1804,1804,1804,1804,1794,1794,1794,1794,1794,1794,1794,1794,1785,1785,1785,1785,1776,1776,1766,1766,1766,1766,1766,1757,1757,1757,1757,1757,1757,1748,1748,1748,1748,1739,1739,1731,1731,1731,1722,1722,1722,1722,1722,1722,1722,1722,1722,1713,1713,1713,1713,1713,1705,1696,1696,1696,1696,1688,1688,1688,1688,1688,1688,1688,1688,1688,1680,1680,1680,1688,1688,1696,1696,1696,1696,1688,1688,1688,2143,2129,2129,2116,2103,2078,2065,2053,2053,2053,2053,2053,1655,1655,1655,1655,1655,1655,1655,1655,1655,1655,1655,1655,1663,1663,1663,1663,1671,1671,1671,1671,1671,1680,1680,1680,1680,1680,1680,1680,1688,1688,1688,1688,1696,1696,1696,1696,1696,1696,1696,1696,1705,1705,1713,0,0,0,0,0,1067,1067,1067,1063,1063,1063,1060,1060,1060,1060,1060,1060,1060,1063,1063,1063,1063,1063,1067,1070,1070,1073,1073,1073,1073,0,0,0,1766,1766,1766,1776,1785,1785,1785,1785,1794,1794,1794,1794,1794,1804,1804,1804,1804,1804,1804,1804,1804,1804,1804,1804,1804,1804,1794,1794,1785,1785,1776,1776,1766,1766,1757,1748,1739,1739,1739,1731,1731,1731,1722,1722,1713,1705,1705,1705,1705,0,0,0,0,0,0,0,0,0,0,0,0,0,0,0,823,821,819,819,817,817,815,813,811,809,807,807,807,807,809,809,811,811,813,813,813,815,817,819,819,819,819,819,819,819,0,0,0,0,0,0,1470,1470,1470,1470,1470,1470,1464,1464,1452,1445,1445,1445,1439,1439,1439,1433,1433,1427,1427,1421,1421,1415,1410,1410,1404,1398,1398,1392,1392,1387,1387,1381,1376,1376,1370,1370,1365,1359,1359,1354,1354,1349,1349,1349,1343,1338,1333,1333,1333,1328,1328,1322,1322,1312,1312,1307,1307,1302,1302,1297,1292,1292,1288,1288,1283,1283,1278,1278,1273,1273,1268,1268,1264,1264,1259,1259,1255,1250,1250,1245,1236,1236,1236,1232,1232,1232,1227,1227,1223,1223,1219,1214,1214,1214,1210,1210,1202,1202,1197,1197,1197,1193,1193,1189,1185,1181,1181,1177,1177,1177,1169,1169,1169,1165,1165,1161,1161,1157,1157,1153,1149,1145,1145,1145,1141,1138,1138,1134,1130,1130,1130,1126,1123,1123,1119,1119,1119,1119,1115,1108,1105,1105,1105,1101,1101,1101,1097,1097,1094,1094,1090,1090,1087,1084,1080,1080,1080,1077,1077,1073,1070,1070,1067,1063,1063,1063,1060,1054,1054,1054,1054,1050,1050,1050,1047,1047,1044,1041,1041,1041,1041,1038,1034,1031,1028,1028,1025,1025,1025,1025,1022,1019,1016,1016,1016,1013,1013,1010,1007,1004,1001,1001,998,998,998,995,992,989,989,987,987,984,984,0,0,0,0,0,0,0,0,0,0,0,0,0,0,0,0,0,0,0,0,0,0,0,0,0,0,0,0,0,0
0,0,0,0,0,0,0,0,0,0,0,0,0,0,0,0,0,2226,2226,2226,2226,2226,2226,2212,2198,2129,2090,2065,2065,2065,2053,2053,2040,2040,2028,2028,2028,2016,2016,2016,2016,2016,2016,2005,2005,2005,2005,1993,1993,1993,1993,1981,1981,1981,1981,1981,1970,1970,1970,1970,1970,1970,1959,1959,1959,1959,1959,1959,1959,1959,1959,1959,1947,1947,1947,1936,1926,1915,1915,1915,1915,1915,1915,1915,1915,1915,1915,1915,1915,1915,1915,1915,1915,1904,1904,1894,1894,1883,1883,1883,1883,1883,1883,1883,1883,1873,1873,1873,1863,1863,1853,1853,1853,1843,1843,1843,1843,1843,1843,1843,1843,1843,1833,1833,1833,1833,1833,1823,1813,1813,1804,1804,1804,1804,1804,1804,1794,1794,1794,1794,1794,1794,1794,1794,1785,1785,1785,1776,1776,1766,1766,1766,1766,1766,1766,1766,1766,1757,1757,1757,1757,1757,1748,1748,1739,1739,1731,1731,1731,1722,1722,1722,1722,1722,1722,1722,1722,1722,1722,1722,1713,1713,1713,1705,1696,1696,1696,1696,1688,1688,1688,1688,1688,1688,1688,1688,1688,1688,1688,1688,1688,1696,1696,1696,1696,1696,1688,1688,2143,2143,2116,2116,2103,2103,2065,2065,2053,2053,2053,2053,2053,2040,1655,1655,1655,1655,1655,1655,1655,1655,1655,1655,1655,1663,1663,1663,1663,1671,1671,1671,1671,1671,1680,1680,1680,1680,1680,1688,1688,1688,1688,1688,1688,1696,1696,1696,1705,1705,1705,1705,1705,1705,1705,1713,0,0,0,0,0,1073,1070,1070,1063,1063,1063,1060,1060,1060,1060,1060,1060,1060,1060,1063,1063,1067,1067,1070,1070,1070,1073,1073,1073,1073,0,0,0,0,1776,1776,1785,1785,1785,1785,1785,1794,1794,1794,1794,1794,1804,1804,1804,1804,1804,1804,1804,1804,1804,1804,1804,1804,1804,1794,1794,1785,1785,1776,1776,1776,1766,1757,1748,1739,1739,1739,1731,1731,1731,1722,1722,1713,1713,1705,1705,1696,1696,0,0,0,0,0,0,0,0,0,0,0,0,0,0,823,821,819,819,817,817,815,813,811,809,807,807,807,807,809,809,811,811,813,813,815,815,817,819,819,819,819,819,819,0,0,0,0,0,0,0,1470,1470,1470,1470,1470,1470,1464,1464,1452,1445,1445,1445,1439,1439,1439,1433,1433,1427,1427,1427,1421,1415,1415,1410,1404,1404,1398,1392,1392,1392,1387,1381,1376,1376,1370,1370,1365,1365,1359,1354,1354,1349,1349,1349,1343,1338,1338,1333,1333,1333,1328,1322,1322,1312,1312,1307,1307,1302,1302,1297,1292,1292,1288,1288,1288,1283,1278,1278,1273,1273,1268,1268,1268,1264,1259,1259,1255,1250,1250,1245,1241,1241,1241,1236,1232,1232,1232,1227,1223,1223,1219,1214,1214,1214,1210,1210,1206,1202,1197,1197,1197,1193,1193,1189,1185,1181,1181,1181,1181,1177,1169,1169,1169,1165,1165,1161,1161,1157,1153,1153,1149,1149,1149,1141,1141,1138,1138,1134,1134,1130,1130,1126,1123,1123,1123,1123,1119,1119,1115,1108,1108,1105,1105,1101,1101,1101,1097,1097,1094,1094,1090,1090,1087,1084,1080,1080,1080,1077,1077,1073,1070,1070,1067,1063,1063,1063,1060,1054,1054,1054,1054,1050,1050,1050,1047,1047,1044,1041,1041,1041,1038,1038,1034,1031,1028,1028,1025,1025,1025,1025,1022,1019,1016,1016,1016,1013,1013,1010,1007,1004,1004,1001,1001,998,998,995,992,992,989,987,987,984,984,0,0,0,0,0,0,0,0,0,0,0,0,0,0,0,0,0,0,0,0,0,0,0,0,0,0,0,0,0,0
0,0,0,0,0,0,0,0,0,0,0,0,0,0,0,0,0,2226,2226,2226,2226,2226,2226,2212,2198,2129,2090,2065,2065,2065,2053,2053,2040,2040,2028,2028,2028,2028,2016,2016,2016,2016,2016,2005,2005,2005,2005,2005,1993,1993,1993,1981,1981,1981,1981,1981,1970,1970,1970,1970,1970,1970,1970,1959,1959,1959,1959,1959,1959,1959,1959,1959,1947,1947,1936,1936,1926,1915,1915,1915,1915,1915,1915,1915,1915,1915,1915,1915,1915,1915,1915,1915,1915,1904,1904,1894,1894,1883,1883,1883,1883,1883,1883,1883,1883,1883,1873,1873,1873,1863,1853,1853,1853,1853,1853,1843,1843,1843,1843,1843,1843,1843,1833,1833,1833,1833,1833,1823,1823,1823,1813,1813,1804,1804,1804,1804,1804,1804,1794,1794,1794,1794,1794,1794,1794,1785,1785,1776,1776,1766,1766,1766,1766,1766,1766,1766,1766,1757,1757,1757,1757,1757,1757,1748,1748,1739,1731,1731,1731,1722,1722,1722,1722,1722,1722,1722,1722,1722,1722,1722,1713,1713,1713,1705,1705,1696,1696,1696,1696,1696,1688,1688,1688,1688,1688,1688,1688,1688,1688,1688,1688,1696,1696,1696,1696,1696,1688,1688,2129,2129,2116,2116,2103,2090,2065,2065,2053,2053,2053,2040,2040,2040,1655,1655,1655,1663,1663,1663,1663,1655,1655,1655,1655,1663,1663,1663,1663,1671,1671,1671,1671,1680,1680,1680,1688,1680,1680,1688,1688,1688,1688,1688,1696,1696,1705,1705,1705,1705,1705,1705,1713,1713,1713,1713,0,0,0,0,0,1073,1070,1070,1067,1063,1063,1060,1060,1060,1060,1060,1060,1060,1060,1063,1063,1067,1067,1070,1070,1070,1073,1073,1073,1073,0,0,0,1785,1785,1785,1785,1785,1785,1785,1785,1794,1794,1794,1794,1794,1804,1804,1804,1804,1804,1804,1804,1804,1804,1804,1804,1813,1804,1804,1794,1785,1785,1776,1776,1776,1766,1766,1748,1748,1739,1739,1731,1731,1731,1722,1722,1713,1713,1713,1713,1696,1696,0,0,0,0,0,0,0,0,0,0,0,0,0,0,823,821,821,819,817,817,815,813,811,811,807,807,809,809,809,809,811,811,813,813,815,817,817,819,819,819,819,819,819,0,0,0,0,0,0,0,1470,1470,1470,1470,1470,1470,1464,1464,1452,1452,1445,1445,1445,1439,1439,1439,1433,1433,1433,1427,1421,1415,1415,1410,1404,1404,1398,1392,1392,1392,1387,1381,1376,1376,1376,1370,1370,1365,1365,1359,1354,1354,1349,1349,1343,1338,1338,1338,1333,1333,1328,1322,1322,1317,1312,1307,1307,1307,1302,1297,1292,1292,1288,1288,1288,1288,1283,1278,1278,1273,1273,1268,1268,1264,1264,1259,1255,1255,1250,1250,1245,1245,1241,1236,1236,1232,1232,1227,1227,1223,1219,1219,1219,1214,1214,1210,1206,1202,1202,1197,1197,1197,1193,1189,1185,1185,1181,1181,1181,1181,1177,1173,1169,1169,1165,1161,1161,1157,1153,1153,1153,1149,1149,1141,1141,1138,1138,1134,1134,1130,1130,1126,1126,1123,1123,1123,1119,1119,1115,1108,1108,1105,1105,1101,1101,1101,1101,1097,1094,1094,1090,1090,1087,1084,1080,1080,1080,1077,1077,1077,1073,1070,1067,1063,1063,1063,1060,1057,1054,1054,1054,1050,1050,1050,1047,1047,1044,1041,1041,1041,1038,1038,1034,1031,1028,1028,1025,1025,1025,1025,1022,1019,1016,1016,1016,1013,1010,1007,1007,1004,1004,1004,1001,998,998,995,992,992,989,989,987,984,984,0,0,0,0,0,0,0,0,0,0,0,0,0,0,0,0,0,0,0,0,0,0,0,0,0,0,0,0,0,0
0,0,0,0,0,0,0,0,0,0,0,0,0,0,0,0,0,2226,2226,2226,2226,2226,2226,2212,2198,2170,2090,2078,2065,2065,2065,2065,2053,2053,2053,2040,2028,2028,2016,2016,2016,2016,2016,2005,2005,2005,2005,2005,2005,1993,1993,1993,1981,1981,1981,1981,1981,1970,1970,1970,1970,1970,1970,1970,1970,1970,1970,1959,1959,1959,1959,1959,1947,1947,1936,1936,1926,1926,1926,1926,1926,1915,1915,1915,1915,1915,1915,1915,1915,1926,1915,1915,1915,1904,1904,1894,1894,1883,1883,1883,1883,1883,1883,1883,1883,1883,1883,1873,1873,1863,1853,1853,1853,1853,1853,1843,1843,1843,1843,1843,1843,1843,1833,1833,1833,1833,1833,1833,1823,1823,1813,1813,1813,1804,1804,1804,1804,1804,1794,1794,1794,1794,1794,1794,1794,1794,1794,1785,1776,1776,1776,1766,1766,1766,1766,1766,1766,1757,1757,1757,1757,1757,1757,1748,1748,1739,1731,1731,1731,1722,1722,1722,1722,1722,1722,1722,1722,1722,1722,1722,1713,1713,1713,1713,1713,1705,1705,1696,1696,1696,1696,1688,1688,1688,1688,1688,1688,1688,1688,1688,1696,1696,1696,1696,1696,1696,1688,1688,2129,2129,2116,2116,2103,2078,2065,2065,2053,2053,2053,2040,2040,2040,2053,1671,1671,1671,1671,1663,1663,1663,1663,1663,1663,1663,1663,1663,1663,1671,1671,1671,1671,1680,1680,1680,1688,1688,1688,1688,1688,1688,1688,1696,1696,1696,1705,1705,1705,1705,1705,1705,1713,1713,1713,0,0,0,0,0,0,1073,1073,1070,1067,1063,1063,1060,1060,1060,1060,1060,1060,1060,1060,1063,1063,1067,1067,1070,1070,1070,1070,1070,1070,1070,1070,0,1776,1776,1776,1785,1785,1785,1794,1794,1794,1794,1794,1794,1794,1794,1804,1804,1804,1804,1804,1804,1813,1813,1804,1804,1804,1813,1804,1804,1794,1794,1785,1776,1776,1776,1766,1766,1757,1748,1748,1739,1739,1731,1731,1731,1722,1713,1713,1713,1705,1705,1705,0,0,0,0,0,0,0,0,0,0,0,0,0,0,823,823,821,819,817,817,815,813,811,811,809,809,809,809,809,811,811,813,813,815,817,817,819,819,819,819,819,819,819,0,0,0,0,0,0,1489,1477,1477,1477,1477,1470,1470,1470,1464,1458,1452,1452,1445,1445,1445,1439,1439,1439,1433,1433,1427,1421,1415,1415,1410,1404,1404,1398,1392,1392,1387,1387,1381,1376,1376,1376,1370,1370,1370,1365,1359,1354,1354,1349,1349,1343,1338,1338,1338,1333,1333,1328,1328,1322,1317,1312,1312,1312,1307,1307,1297,1297,1292,1292,1288,1288,1288,1283,1278,1278,1273,1268,1268,1268,1264,1259,1259,1255,1255,1255,1250,1245,1245,1236,1236,1232,1232,1232,1227,1227,1223,1219,1219,1214,1214,1214,1210,1206,1202,1202,1197,1197,1197,1193,1189,1185,1185,1181,1181,1181,1181,1177,1177,1169,1169,1165,1161,1161,1157,1153,1153,1153,1149,1149,1145,1141,1141,1138,1134,1134,1130,1130,1126,1126,1123,1123,1123,1119,1119,1112,1108,1108,1105,1105,1101,1101,1101,1101,1097,1094,1094,1090,1090,1087,1084,1080,1080,1080,1077,1077,1077,1073,1070,1067,1063,1063,1060,1060,1057,1054,1054,1054,1050,1050,1050,1047,1047,1044,1041,1041,1041,1038,1038,1034,1031,1028,1028,1025,1025,1025,1022,1022,1019,1016,1016,1016,1013,1010,1007,1007,1004,1004,1004,1001,998,998,995,992,992,989,989,987,984,984,0,0,0,0,0,0,0,0,0,0,0,0,0,0,0,0,0,0,0,0,0,0,0,0,0,0,0,0,0,0
0,0,0,0,0,0,0,0,0,0,0,0,0,0,0,0,0,2226,2226,2226,2226,2226,2226,2212,2212,2198,2103,2078,2065,2065,2065,2065,2053,2053,2053,2040,2040,2028,2028,2016,2016,2016,2005,2005,2005,2005,2005,2005,2005,2005,2005,1993,1993,1993,1993,1993,1993,1981,1981,1993,1981,1981,1970,1970,1970,1970,1970,1959,1959,1959,1959,1959,1959,1947,1947,1936,1926,1926,1926,1926,1926,1926,1926,1926,1926,1926,1926,1926,1926,1926,1915,1915,1915,1915,1904,1894,1894,1883,1883,1883,1883,1883,1883,1883,1883,1883,1883,1873,1873,1863,1853,1853,1853,1863,1853,1853,1843,1843,1843,1843,1843,1843,1833,1833,1833,1833,1833,1833,1823,1823,1823,1813,1813,1813,1804,1804,1804,1804,1804,1804,1804,1804,1794,1794,1794,1794,1794,1785,1776,1776,1776,1766,1766,1766,1766,1766,1766,1757,1757,1757,1757,1757,1757,1748,1748,1739,1731,1731,1731,1731,1731,1722,1722,1722,1722,1722,1722,1722,1722,1722,1722,1713,1713,1713,1713,1705,1705,1705,1696,1696,1696,1696,1688,1688,1688,1688,1688,1688,1688,1688,1696,1696,1696,1705,1705,1705,1696,1696,2129,2116,2116,2116,2103,2078,2065,2065,2053,2053,2053,2053,2053,2040,2040,1680,1680,1680,1680,1671,1671,1663,1663,1663,1663,1663,1663,1663,1663,1671,1671,1671,1671,1680,1680,1680,1688,1688,1688,1688,1688,1688,1696,1696,1696,1705,1705,1705,1705,1705,1705,1713,1713,1713,1713,0,0,0,0,0,0,1077,1073,1070,1067,1063,1063,1060,1060,1060,1060,1060,1060,1063,1063,1063,1063,1067,1067,1070,1070,1070,1070,1070,1070,1070,1070,0,1776,1776,1776,1776,1776,1776,1776,1785,1785,1785,1785,1785,1785,1794,1794,1804,1804,1804,1804,1813,1804,1804,1804,1804,1804,1813,1804,1804,1794,1794,1785,1785,1776,1776,1766,1766,1757,1748,1748,1739,1739,1731,1731,1722,1722,1722,1713,1713,1705,1696,1696,0,0,0,0,0,0,0,0,0,0,0,0,0,825,823,823,821,819,817,815,813,813,811,811,811,809,809,809,809,811,813,813,813,817,817,819,819,819,819,819,819,819,0,0,0,0,0,0,0,1489,1483,1483,1483,1477,1477,1470,1470,1464,1458,1452,1452,1445,1445,1445,1439,1439,1439,1433,1433,1433,1427,1421,1415,1410,1410,1404,1398,1392,1392,1387,1387,1381,1376,1376,1376,1376,1370,1370,1365,1359,1354,1354,1349,1349,1343,1343,1338,1338,1333,1333,1328,1328,1328,1317,1317,1312,1312,1307,1302,1302,1297,1297,1292,1292,1288,1288,1283,1283,1278,1273,1268,1268,1268,1264,1259,1259,1255,1255,1255,1250,1245,1245,1236,1236,1232,1232,1232,1227,1227,1223,1219,1219,1214,1214,1214,1210,1206,1202,1202,1197,1197,1197,1193,1189,1185,1185,1181,1181,1181,1181,1177,1177,1169,1169,1165,1161,1161,1157,1153,1153,1153,1149,1149,1145,1145,1141,1141,1138,1134,1130,1130,1126,1126,1123,1123,1123,1119,1119,1112,1112,1108,1105,1105,1101,1101,1101,1097,1097,1094,1094,1090,1090,1090,1084,1084,1080,1080,1077,1077,1077,1073,1070,1067,1063,1063,1060,1057,1057,1054,1054,1054,1054,1050,1050,1047,1047,1044,1041,1041,1041,1038,1038,1034,1031,1028,1028,1025,1025,1025,1022,1022,1019,1019,1016,1016,1013,1010,1007,1007,1004,1004,1004,1001,1001,998,995,992,992,989,989,987,984,984,0,0,0,0,0,0,0,0,0,0,0,0,0,0,0,0,0,0,0,0,0,0,0,0,0,0,0,0,0,0
0,0,0,0,0,0,0,0,0,0,0,0,0,0,0,0,0,2226,2226,2226,2226,2212,2212,2212,2212,2198,2198,2090,2078,2078,2065,2065,2065,2065,2053,2053,2040,2028,2028,2016,2016,2016,2005,2005,2005,2005,2005,2005,2005,2005,2005,2005,1993,1993,2005,2005,2005,1993,1993,1993,1981,1981,1970,1970,1970,1970,1970,1970,1970,1970,1959,1959,1959,1947,1936,1936,1926,1926,1926,1926,1926,1926,1926,1936,1926,1926,1926,1926,1926,1926,1915,1915,1915,1904,1904,1894,1894,1894,1883,1883,1883,1883,1883,1883,1883,1883,1883,1883,1873,1873,1863,1863,1863,1863,1863,1853,1853,1843,1843,1843,1843,1843,1833,1833,1833,1833,1833,1833,1823,1823,1823,1813,1813,1813,1804,1804,1804,1804,1804,1804,1804,1804,1794,1794,1794,1794,1794,1785,1785,1776,1776,1776,1766,1766,1766,1766,1766,1757,1757,1757,1757,1757,1757,1748,1748,1739,1731,1731,1731,1731,1731,1731,1731,1731,1731,1731,1722,1722,1722,1722,1722,1713,1713,1722,1713,1705,1705,1705,1705,1696,1696,1696,1696,1696,1696,1696,1696,1696,1688,1688,1696,1696,1696,1705,1705,1705,1705,2116,2116,2116,2103,2103,2103,2078,2065,2065,2053,2053,2053,2053,2053,2040,2040,1680,1680,1680,1680,1680,1671,1671,1663,1663,1663,1663,1663,1663,1663,1671,1671,1671,1671,1680,1680,1680,1688,1688,1688,1688,1688,1688,1696,1696,1696,1705,1705,1705,1705,1713,1713,1713,1713,1713,1713,0,0,0,0,0,1077,1077,1073,1070,1070,1067,1063,1063,1060,1060,1060,1060,1060,1063,1063,1063,1067,1067,1070,1070,1070,1070,1067,1067,1070,1070,1070,0,1785,1785,1785,1776,1776,992,992,992,1776,1776,1776,1776,1776,1794,1794,1804,1804,1804,1804,1813,1804,1804,1813,1804,1804,1813,1804,1804,1794,1794,1785,1785,1776,1776,1766,1766,1757,1757,1748,1739,1739,1731,1731,896,896,1722,1713,1713,1705,1696,1696,0,0,0,0,0,0,0,0,0,0,0,831,829,825,823,821,821,819,817,815,813,813,811,811,809,809,809,811,811,811,813,815,815,817,817,819,819,821,821,821,819,819,819,0,0,0,0,0,0,1489,1483,1483,1483,1477,1477,1470,1470,1464,1458,1458,1452,1445,1445,1445,1445,1439,1439,1433,1433,1433,1427,1415,1415,1410,1404,1404,1398,1398,1392,1392,1387,1381,1376,1376,1376,1376,1370,1370,1365,1359,1354,1354,1349,1349,1349,1343,1338,1338,1333,1333,1328,1328,1322,1322,1317,1312,1312,1307,1302,1302,1297,1297,1292,1292,1288,1288,1288,1283,1278,1278,1268,1268,1268,1264,1259,1259,1255,1255,1255,1250,1250,1245,1241,1236,1236,1232,1232,1227,1227,1223,1219,1219,1214,1214,1214,1210,1206,1202,1202,1197,1197,1193,1193,1189,1185,1185,1181,1181,1181,1181,1177,1177,1169,1169,1165,1161,1161,1157,1153,1153,1153,1153,1149,1149,1145,1141,1141,1138,1134,1134,1130,1130,1126,1123,1123,1123,1119,1119,1115,1112,1108,1108,1105,1105,1105,1101,1097,1097,1094,1094,1094,1090,1090,1087,1084,1080,1080,1077,1077,1077,1073,1070,1067,1063,1063,1060,1057,1057,1054,1054,1054,1054,1050,1050,1050,1047,1044,1041,1041,1041,1038,1038,1034,1031,1028,1028,1028,1025,1025,1025,1022,1019,1019,1016,1016,1013,1010,1010,1007,1007,1007,1004,1001,1001,1001,995,995,992,992,989,989,987,987,0,0,0,0,0,0,0,0,0,0,0,0,0,0,0,0,0,0,0,0,0,0,0,0,0,0,0,0,0,0
0,0,0,0,0,0,0,0,0,0,0,0,0,0,0,0,0,2226,2226,2226,2226,2212,2212,2212,2212,2212,2198,2103,2065,2065,2065,2065,2065,2065,2053,2053,2040,2028,2028,2028,2028,2016,2005,2005,2005,2005,2005,2005,2005,2005,2005,2005,2005,2005,2005,2005,2005,2005,2005,1993,1993,1981,1981,1970,1970,1970,1970,1970,1970,1970,1959,1959,1959,1947,1936,1936,1926,1926,1926,1926,1936,1926,1926,1926,1926,1926,1926,1926,1926,1915,1915,1915,1915,1904,1904,1904,1894,1894,1883,1883,1883,1883,1883,1883,1883,1883,1883,1883,1883,1873,1873,1863,1863,1863,1863,1863,1853,1843,1843,1843,1843,1843,1833,1833,1833,1833,1833,1833,1823,1823,1823,1813,1813,1813,1804,1804,1804,1804,1804,1804,1804,1804,1804,1794,1794,1794,1794,1785,1785,1785,1776,1776,1766,1766,1766,1766,1766,1757,1757,1757,1757,1757,1757,1757,1748,1748,1739,1731,1731,1731,1731,1731,1731,1731,1731,1731,1722,1722,1722,1722,1722,1713,1713,1722,1713,1705,1705,1705,1705,1696,1696,1696,1696,1696,1696,1696,1696,1696,1696,1696,1696,1696,1696,1705,1705,1705,1705,2116,2116,2116,2103,2103,2103,2078,2065,2065,2053,2053,2053,2053,2053,2053,2053,1680,1680,1680,1680,1680,1671,1671,1663,1663,1663,1663,1663,1663,1671,1671,1671,1671,1671,1680,1680,1688,1688,1688,1688,1688,1688,1688,1696,1696,1696,1705,1705,1705,1713,1713,1713,1713,1713,1713,1713,0,0,0,0,1077,1077,1077,1073,1073,1070,1067,1063,1063,1060,1060,1060,1060,1060,1063,1063,1067,1067,1067,1070,1070,1070,1070,1067,1067,1070,1070,0,1010,1010,1007,1007,1001,998,992,992,989,989,987,987,987,1776,1804,1804,1804,1804,1804,1804,1813,1813,1813,1813,1804,1804,1813,1804,1804,1794,1794,1785,1785,1776,1776,1766,1766,1757,1757,1748,1739,903,903,901,896,896,1722,1722,1713,1705,1696,1696,0,0,0,0,0,0,0,0,0,829,829,831,829,825,823,821,821,819,817,815,813,813,811,811,809,809,809,811,811,813,813,815,815,817,819,819,819,821,821,821,819,819,819,0,0,0,0,0,0,0,1489,1489,1489,1483,1477,1477,1470,1464,1458,1458,1452,1445,1445,1445,1445,1439,1439,1433,1433,1433,1427,1415,1415,1410,1404,1404,1398,1398,1392,1392,1392,1381,1381,1376,1376,1376,1370,1370,1365,1365,1354,1354,1349,1349,1349,1343,1338,1338,1333,1333,1328,1328,1322,1322,1317,1312,1312,1307,1302,1302,1297,1297,1292,1292,1288,1288,1288,1283,1278,1278,1268,1268,1268,1264,1264,1259,1255,1255,1255,1250,1250,1245,1241,1236,1236,1232,1232,1227,1227,1223,1219,1219,1214,1214,1214,1214,1206,1202,1202,1197,1197,1193,1193,1189,1185,1185,1185,1181,1181,1181,1181,1177,1173,1169,1165,1165,1161,1161,1157,1153,1153,1153,1153,1149,1145,1145,1141,1138,1134,1134,1130,1130,1126,1123,1123,1123,1119,1119,1115,1112,1108,1108,1105,1105,1105,1101,1101,1097,1094,1094,1094,1090,1090,1087,1084,1080,1080,1077,1077,1077,1073,1073,1070,1067,1063,1060,1060,1057,1054,1054,1054,1054,1050,1050,1050,1047,1044,1041,1041,1041,1038,1034,1031,1031,1028,1028,1028,1025,1025,1025,1022,1019,1019,1016,1016,1013,1010,1010,1007,1007,1007,1004,1004,1001,1001,998,995,992,992,992,989,987,987,0,0,0,0,0,0,0,0,0,0,0,0,0,0,0,0,0,0,0,0,0,0,0,0,0,0,0,0,0,0
0,0,0,0,0,0,0,0,0,0,0,0,0,0,0,0,0,2226,2226,2226,2226,2226,2226,2212,2212,2212,2212,2103,2065,2065,2065,2065,2065,2065,2053,2053,2053,2040,2040,2040,2028,2028,2016,2016,2016,2005,2005,2005,2005,2005,2005,2005,2005,2005,2005,2005,2005,2005,1993,1993,1993,1981,1981,1981,1981,1970,1970,1970,1970,1970,1959,1959,1947,1947,1936,1936,1936,1936,1936,1936,1936,1926,1926,1926,1926,1926,1926,1926,1926,1915,1915,1915,1915,1904,1904,1904,1894,1894,1883,1883,1883,1883,1883,1883,1883,1883,1883,1883,1883,1873,1873,1863,1863,1863,1863,1863,1853,1853,1853,1853,1843,1843,1833,1833,1833,1833,1833,1833,1833,1823,1823,1823,1813,1813,1813,1813,1813,1804,1804,1804,1804,1804,1804,1804,1794,1794,1794,1794,1785,1785,1785,1785,1776,1766,1766,1766,1766,1766,1757,1757,1766,1757,1757,1757,1757,1748,1739,1731,1731,1731,1731,1731,1731,1731,1731,1731,1731,1731,1722,1722,1722,1722,1722,1722,1722,1713,1705,1705,1705,1696,1696,1696,1696,1696,1696,1696,1696,1696,1696,1696,1696,1696,1705,1705,1713,1713,1713,1713,2116,2103,2103,2103,2090,2078,2065,2065,2053,2053,2053,2053,2053,2053,2053,1680,1680,1680,1680,1680,1671,1671,1663,1663,1663,1663,1663,1671,1671,1680,1680,1680,1680,1680,1688,1688,1688,1688,1688,1688,1696,1696,1696,1696,1696,1705,1705,1705,1713,1713,1713,1713,1713,1713,0,0,0,0,1080,1077,1077,1077,1073,1073,1070,1067,1063,1063,1063,1063,1060,1060,1060,1060,1063,1063,1063,1067,1067,1070,1070,1070,1067,1067,1070,1070,1022,1010,1010,1010,1007,1001,998,995,992,989,989,987,987,984,984,975,975,975,975,975,1833,1833,1823,1813,1804,1804,1804,1804,1804,1804,1794,1794,1785,1785,1785,1776,1776,1766,1757,1757,1748,903,903,903,898,896,896,1722,1713,1713,1713,0,0,0,0,0,0,0,0,0,0,0,829,829,829,827,825,823,821,821,819,817,817,813,813,811,811,811,809,809,811,811,813,813,815,815,817,819,819,819,821,821,821,819,819,819,0,0,0,0,0,0,1489,1489,1489,1489,1483,1483,1477,1470,1464,1458,1458,1452,1445,1445,1445,1445,1439,1439,1433,1433,1433,1421,1421,1415,1415,1410,1404,1398,1398,1392,1392,1392,1381,1381,1376,1376,1376,1370,1370,1370,1365,1359,1354,1349,1349,1349,1343,1338,1338,1333,1333,1328,1328,1328,1322,1322,1312,1312,1307,1302,1302,1297,1297,1292,1292,1288,1288,1288,1283,1283,1278,1273,1268,1268,1264,1264,1259,1255,1255,1255,1250,1250,1250,1241,1236,1236,1232,1232,1227,1227,1223,1219,1219,1219,1214,1214,1214,1206,1202,1202,1202,1197,1197,1193,1189,1189,1185,1185,1185,1185,1181,1181,1177,1173,1169,1169,1165,1161,1161,1157,1153,1153,1153,1153,1149,1149,1145,1141,1138,1138,1134,1130,1130,1126,1126,1123,1123,1119,1119,1115,1112,1108,1108,1105,1105,1105,1101,1097,1097,1094,1094,1094,1090,1090,1087,1084,1080,1080,1077,1077,1077,1073,1073,1070,1067,1063,1060,1060,1057,1057,1054,1054,1054,1050,1050,1050,1047,1044,1041,1041,1041,1038,1034,1031,1031,1028,1028,1028,1025,1025,1025,1022,1022,1022,1019,1016,1013,1010,1010,1007,1007,1007,1004,1004,1001,1001,998,995,992,992,992,989,989,989,0,0,0,0,0,0,0,0,0,0,0,0,0,0,0,0,0,0,0,0,0,0,0,0,0,0,0,0,0,0
0,0,0,0,0,0,0,0,0,0,0,0,0,0,0,0,0,2226,2226,2226,2212,2212,2212,2212,2212,2212,2212,2116,2078,2078,2065,2065,2065,2065,2053,2053,2053,2040,2040,2040,2028,2028,2028,2028,2016,2016,2005,2005,2005,2005,2005,2005,2005,2005,2005,2005,2005,2005,1993,1993,1993,1981,1981,1981,1981,1981,1970,1970,1970,1970,1959,1959,1947,1947,1936,1936,1936,1936,1936,1936,1936,1936,1936,1926,1926,1926,1926,1926,1926,1915,1915,1915,1915,1904,1904,1904,1904,1894,1894,1883,1883,1883,1883,1883,1883,1883,1883,1883,1883,1873,1873,1873,1863,1863,1863,1863,1863,1863,1863,1863,1853,1843,1843,1843,1833,1833,1833,1833,1833,1833,1823,1823,1813,1813,1813,1813,1813,1813,1804,1804,1804,1804,1804,1804,1794,1794,1794,1794,1794,1785,1785,1785,1776,1766,1766,1766,1766,1766,1766,1766,1766,1757,1757,1757,1757,1748,1739,1739,1739,1739,1739,1731,1731,1731,1731,1731,1731,1731,1722,1722,1722,1722,1722,1722,1722,1713,1705,1705,1705,1696,1696,1696,1696,1696,1696,1696,1696,1696,1696,1696,1696,1696,1705,1705,1713,1722,1713,1713,1722,2103,2103,2103,2090,2078,2065,2065,2065,2053,2053,2053,2053,2040,2040,2040,1688,1688,1680,1680,1680,1671,1663,1663,1671,1663,1663,1671,1671,1680,1680,1680,1680,1688,1688,1688,1688,1688,1688,1696,1696,1696,1696,1696,1705,1705,1705,1713,1713,1713,1713,1713,1713,1713,0,0,0,0,1080,1077,1077,1073,1073,1073,1070,1067,1063,1063,1063,1063,1060,1060,1060,1060,1060,1063,1063,1063,1063,1070,1070,1067,1060,1060,1025,1025,1022,1019,1010,1010,1007,1004,1001,1001,998,992,992,989,987,984,978,975,975,978,975,975,975,970,970,956,956,956,1813,1804,948,946,946,1804,1794,1794,1794,1776,1776,1766,1766,1757,1748,903,903,903,898,896,896,1722,1713,1713,0,0,0,0,0,0,0,0,0,0,0,0,829,829,829,827,825,823,821,821,819,817,817,815,813,813,811,811,811,811,811,811,813,813,815,817,817,819,819,821,821,821,821,819,819,0,0,0,0,0,0,0,1489,1489,1489,1489,1483,1483,1477,1470,1464,1458,1458,1452,1445,1445,1445,1445,1439,1439,1433,1433,1433,1421,1421,1421,1415,1410,1410,1404,1398,1398,1392,1392,1381,1381,1376,1376,1376,1376,1370,1370,1365,1359,1354,1354,1349,1349,1343,1338,1338,1333,1333,1328,1328,1328,1322,1322,1317,1312,1307,1307,1302,1297,1297,1292,1292,1288,1288,1288,1288,1283,1278,1273,1268,1268,1264,1264,1259,1255,1255,1255,1255,1250,1250,1241,1241,1236,1232,1232,1227,1227,1223,1223,1219,1219,1214,1214,1210,1206,1206,1202,1202,1197,1197,1193,1189,1189,1185,1185,1185,1185,1181,1181,1177,1173,1173,1169,1165,1165,1161,1157,1157,1153,1153,1153,1149,1149,1145,1141,1138,1138,1134,1130,1130,1126,1126,1123,1123,1119,1119,1115,1112,1108,1108,1108,1105,1105,1101,1097,1097,1094,1094,1094,1094,1090,1087,1084,1080,1077,1077,1077,1077,1073,1073,1070,1067,1063,1063,1060,1060,1057,1054,1054,1054,1050,1050,1050,1047,1044,1044,1041,1041,1038,1034,1034,1031,1028,1028,1028,1028,1025,1025,1022,1022,1022,1016,1016,1013,1010,1010,1007,1007,1004,1004,1004,1001,1001,998,998,995,992,992,989,989,989,0,0,0,0,0,0,0,0,0,0,0,0,0,0,0,0,0,0,0,0,0,0,0,0,0,0,0,0,0,0
0,0,0,0,0,0,0,0,0,0,0,0,0,0,0,0,2226,2226,2226,2226,2212,2212,2212,2212,2212,2212,2212,2212,2078,2078,2065,2065,2065,2065,2053,2053,2053,2040,2040,2040,2028,2028,2028,2028,2016,2016,2016,2005,2005,2005,2005,2005,2005,2005,2005,2005,2005,2005,2005,1993,1993,1981,1981,1981,1981,1970,1970,1970,1970,1970,1959,1959,1959,1947,1936,1936,1936,1936,1936,1936,1936,1936,1936,1936,1936,1926,1926,1926,1926,1915,1915,1915,1915,1904,1904,1904,1904,1894,1894,1883,1883,1883,1883,1883,1883,1883,1883,1883,1883,1873,1873,1873,1873,1873,1873,1873,1863,1863,1863,1863,1853,1853,1843,1843,1843,1833,1833,1833,1833,1833,1833,1823,1813,1813,1813,1813,1813,1813,1804,1804,1804,1804,1804,1804,1804,1794,1794,1794,1794,1794,1785,1785,1776,1766,1766,1766,1766,1766,1766,1766,1766,1757,1757,1757,1757,1748,1739,1739,1739,1739,1739,1739,1739,1739,1731,1731,1731,1731,1731,1722,1722,1722,1722,1722,1722,1722,1722,1722,1705,1696,1696,1696,1696,1696,1696,1696,1696,1696,1696,1696,1696,1705,1705,1705,1713,1713,1722,1722,1722,2103,2103,2103,2090,2078,2065,2065,2065,2065,2053,2053,2040,2040,2028,2028,1696,1688,1688,1680,1680,1671,1671,1671,1671,1671,1671,1671,1671,1680,1680,1680,1680,1688,1688,1688,1688,1696,1696,1696,1696,1696,1696,1696,1705,1705,1705,1713,1713,1713,1713,1713,1713,0,0,0,0,0,0,1077,1077,1073,1073,1073,1070,1067,1063,1063,1063,1063,1060,1060,1060,1060,1060,1060,1050,1050,1060,1067,1067,1034,1028,1028,1025,1025,1022,1016,1010,1010,1007,1007,1004,1001,998,995,992,989,987,984,978,975,975,975,973,973,973,967,962,956,956,956,951,948,948,946,946,946,943,943,1804,1794,1794,1776,1766,1757,1739,903,903,903,901,896,896,1722,1713,1713,0,0,0,0,0,0,0,0,0,0,0,0,0,831,829,827,825,823,821,821,819,817,817,815,813,813,811,811,811,811,811,813,813,815,817,817,819,819,819,821,821,821,821,821,821,0,0,0,0,0,0,0,1489,1489,1489,1489,1489,1483,1477,1470,1464,1458,1458,1452,1452,1445,1445,1445,1439,1439,1439,1433,1433,1421,1421,1421,1415,1410,1410,1404,1398,1398,1392,1392,1392,1381,1381,1376,1376,1376,1370,1370,1365,1359,1359,1354,1349,1349,1343,1343,1338,1333,1333,1333,1328,1328,1322,1322,1312,1312,1307,1307,1307,1302,1297,1297,1292,1292,1288,1288,1283,1283,1278,1273,1268,1268,1264,1264,1259,1255,1255,1255,1255,1250,1250,1245,1241,1236,1236,1232,1232,1227,1223,1223,1219,1219,1214,1214,1210,1210,1206,1206,1202,1202,1197,1197,1193,1189,1189,1185,1185,1185,1181,1177,1177,1173,1173,1169,1165,1165,1161,1157,1157,1153,1153,1153,1149,1149,1145,1141,1138,1138,1134,1134,1130,1126,1126,1123,1123,1119,1119,1115,1112,1108,1108,1108,1105,1105,1101,1097,1097,1094,1094,1094,1094,1090,1087,1084,1080,1077,1077,1077,1077,1077,1073,1070,1067,1063,1063,1060,1060,1057,1057,1054,1054,1054,1050,1050,1047,1044,1044,1041,1041,1038,1034,1034,1031,1028,1028,1028,1028,1025,1025,1022,1022,1022,1016,1016,1016,1010,1010,1007,1007,1004,1004,1004,1001,1001,998,998,995,992,992,989,989,0,0,0,0,0,0,0,0,0,0,0,0,0,0,0,0,0,0,0,0,0,0,0,0,0,0,0,0,0,0,0
0,0,0,0,0,0,0,0,0,0,0,0,0,0,0,0,2226,2226,2226,2226,2226,2226,2226,2226,2226,2212,2212,2198,2198,2078,2065,2065,2065,2065,2053,2053,2040,2040,2040,2040,2040,2028,2028,2028,2028,2016,2016,2016,2005,2005,2005,2005,2005,2005,2005,2005,2005,2005,2005,1993,1981,1981,1981,1981,1981,1970,1970,1970,1970,1970,1959,1959,1959,1959,1947,1947,1947,1947,1947,1947,1947,1936,1936,1947,1936,1936,1936,1926,1926,1915,1915,1915,1915,1904,1904,1904,1904,1894,1894,1883,1883,1883,1883,1894,1883,1883,1883,1883,1883,1883,1873,1873,1873,1873,1873,1873,1873,1873,1863,1863,1853,1853,1843,1843,1843,1833,1833,1833,1833,1833,1833,1823,1813,1813,1823,1813,1813,1813,1813,1813,1804,1804,1804,1804,1804,1794,1794,1794,1794,1794,1794,1785,1785,1776,1776,1766,1766,1766,1766,1766,1766,1766,1757,1757,1757,1757,1748,1748,1748,1739,1739,1739,1739,1739,1739,1731,1731,1731,1731,1731,1731,1731,1731,1731,1722,1722,1722,1722,1705,1696,1696,1696,1696,1696,1696,1696,1696,1696,1696,1696,1696,1705,1705,1705,1713,1713,1722,1722,1722,2103,2103,2103,2090,2078,2078,2065,2065,2065,2053,2053,2040,2040,2028,2028,1688,1688,1680,1680,1680,1671,1671,1671,1671,1671,1671,1671,1680,1680,1680,1688,1688,1688,1688,1688,1688,1696,1696,1696,1696,1696,1696,1696,1705,1705,1705,1713,1713,1713,1713,1713,1713,0,0,0,0,0,1080,1077,1077,1077,1073,1073,1070,1067,1063,1063,1063,1063,1060,1060,1057,1054,1050,1050,1050,1047,1047,1050,1038,1034,1028,1028,1025,1022,1022,1016,1013,1010,1010,1010,1004,1001,998,992,989,989,987,987,981,978,978,975,973,973,970,967,959,956,956,956,951,948,948,946,946,946,943,938,938,938,920,915,915,915,913,913,906,903,901,898,898,1722,1713,1713,1713,0,0,0,0,0,0,0,0,0,0,0,0,831,829,827,827,823,821,821,819,817,817,815,813,813,811,811,811,811,813,815,815,817,817,819,819,819,821,821,821,821,821,821,821,0,0,0,0,0,0,0,1489,1489,1489,1489,1489,1483,1483,1470,1470,1464,1458,1452,1452,1445,1445,1445,1439,1439,1439,1433,1427,1421,1421,1421,1415,1410,1410,1404,1398,1398,1392,1392,1392,1387,1381,1376,1376,1376,1370,1370,1365,1365,1359,1354,1349,1349,1349,1343,1338,1338,1333,1333,1328,1328,1322,1322,1312,1312,1307,1307,1307,1302,1302,1297,1292,1292,1288,1288,1283,1283,1278,1273,1273,1268,1268,1264,1259,1259,1255,1255,1255,1250,1250,1245,1241,1236,1236,1232,1232,1227,1223,1223,1219,1219,1214,1214,1210,1210,1206,1206,1202,1202,1197,1197,1193,1189,1189,1185,1185,1185,1181,1177,1177,1173,1169,1169,1165,1165,1165,1161,1157,1153,1153,1153,1149,1149,1145,1141,1138,1138,1134,1134,1130,1130,1126,1126,1123,1119,1119,1115,1112,1108,1108,1108,1105,1105,1101,1101,1097,1097,1097,1094,1094,1090,1090,1084,1080,1080,1077,1077,1077,1073,1070,1070,1067,1067,1063,1063,1060,1060,1057,1054,1054,1054,1050,1050,1050,1047,1044,1044,1041,1038,1038,1038,1031,1028,1028,1028,1028,1025,1025,1022,1022,1019,1016,1016,1016,1013,1010,1007,1007,1004,1004,1004,1001,1001,998,998,995,992,992,989,989,0,0,0,0,0,0,0,0,0,0,0,0,0,0,0,0,0,0,0,0,0,0,0,0,0,0,0,0,0,0,0
0,0,0,0,0,0,0,0,0,0,0,0,0,0,0,0,2241,2226,2226,2226,2226,2226,2226,2226,2226,2226,2212,2198,2198,2078,2065,2065,2065,2053,2053,2053,2040,2040,2040,2040,2040,2028,2028,2028,2028,2016,2016,2016,2016,2005,2005,2005,2005,2005,2005,2005,2005,2005,2005,1993,1981,1981,1981,1981,1981,1970,1970,1970,1970,1970,1959,1959,1959,1959,1947,1947,1947,1947,1947,1947,1947,1947,1947,1947,1947,1936,1926,1926,1926,1915,1915,1915,1915,1904,1904,1904,1904,1894,1894,1883,1883,1883,1894,1894,1894,1894,1894,1883,1883,1883,1873,1873,1873,1873,1873,1873,1873,1873,1863,1863,1853,1853,1843,1843,1843,1843,1843,1843,1833,1833,1833,1823,1823,1823,1823,1823,1823,1813,1813,1813,1804,1804,1804,1804,1804,1794,1794,1794,1794,1794,1794,1794,1785,1785,1776,1776,1766,1766,1766,1766,1766,1766,1766,1757,1757,1757,1748,1748,1748,1739,1739,1739,1739,1739,1739,1731,1731,1731,1731,1731,1731,1731,1731,1731,1722,1722,1722,1722,1713,1705,1705,1696,1696,1696,1696,1696,1696,1696,1696,1696,1696,1696,1705,1705,1713,1713,1713,1722,1722,2103,2103,2103,2090,2090,2078,2065,2065,2065,2053,2053,2053,2040,2040,1722,1688,1688,1680,1680,1680,1671,1671,1671,1671,1671,1680,1680,1688,1688,1688,1688,1688,1688,1688,1688,1696,1696,1696,1696,1696,1696,1696,1705,1705,1705,1705,1713,1713,1713,1713,1713,1713,0,0,0,0,0,1080,1077,1077,1077,1077,1073,1070,1067,1063,1063,1063,1063,1060,1057,1054,1050,1050,1050,1047,1047,1047,1038,1034,1031,1028,1028,1025,1022,1022,1016,1016,1010,1010,1007,1004,1001,998,992,989,989,987,987,981,978,975,975,973,973,970,967,959,956,956,954,954,951,948,946,946,943,940,928,925,923,920,918,915,915,913,913,910,908,901,898,898,898,896,891,0,0,0,0,0,0,0,0,0,0,0,0,0,831,829,829,827,823,821,821,819,817,817,815,815,813,813,811,811,811,813,815,815,817,819,819,819,821,821,821,821,821,821,821,821,0,0,0,0,0,0,0,1489,1489,1489,1489,1489,1483,1477,1470,1470,1464,1458,1458,1452,1445,1445,1445,1439,1439,1439,1433,1427,1421,1421,1421,1415,1415,1410,1404,1398,1398,1392,1392,1392,1387,1381,1381,1376,1376,1376,1370,1370,1365,1359,1354,1349,1349,1349,1343,1338,1333,1333,1333,1328,1328,1322,1322,1317,1312,1307,1307,1307,1307,1302,1297,1292,1292,1288,1288,1283,1283,1278,1273,1273,1268,1268,1264,1259,1259,1255,1255,1255,1250,1250,1245,1241,1241,1236,1236,1232,1232,1227,1223,1219,1219,1219,1214,1214,1210,1210,1206,1202,1202,1197,1197,1193,1193,1189,1189,1185,1185,1181,1177,1177,1173,1169,1169,1165,1165,1165,1161,1161,1157,1153,1153,1149,1149,1145,1141,1141,1138,1138,1134,1134,1130,1130,1126,1123,1123,1119,1115,1112,1112,1108,1108,1108,1105,1105,1101,1101,1097,1097,1097,1094,1090,1090,1087,1084,1080,1077,1077,1077,1073,1070,1070,1070,1067,1063,1063,1063,1060,1057,1054,1054,1054,1050,1050,1050,1047,1044,1044,1041,1038,1038,1038,1034,1031,1028,1028,1028,1025,1025,1022,1022,1019,1016,1016,1016,1016,1013,1010,1007,1007,1004,1004,1001,1001,1001,998,995,992,992,989,989,0,0,0,0,0,0,0,0,0,0,0,0,0,0,0,0,0,0,0,0,0,0,0,0,0,0,0,0,0,0,0
0,0,0,0,0,0,0,0,0,0,0,0,0,0,0,0,2241,2226,2226,2226,2226,2226,2226,2241,2226,2226,2212,2116,2103,2090,2065,2065,2065,2053,2053,2053,2040,2040,2040,2040,2040,2028,2028,2028,2028,2016,2016,2016,2016,2016,2016,2005,2005,2005,2005,2005,2005,2005,2005,1993,1981,1981,1981,1981,1981,1970,1970,1970,1970,1970,1970,1959,1959,1959,1947,1947,1947,1959,1947,1947,1947,1947,1947,1947,1936,1936,1926,1926,1926,1926,1915,1915,1915,1915,1904,1904,1904,1904,1894,1894,1894,1894,1894,1894,1894,1894,1894,1883,1883,1883,1873,1873,1873,1873,1873,1873,1873,1873,1863,1853,1853,1843,1843,1843,1843,1843,1843,1833,1833,1833,1833,1823,1823,1823,1823,1823,1823,1813,1813,1813,1804,1804,1804,1804,1804,1804,1804,1804,1794,1794,1794,1794,1794,1785,1785,1776,1776,1766,1766,1766,1766,1766,1766,1757,1757,1757,1748,1748,1748,1748,1748,1748,1739,1739,1739,1739,1739,1731,1731,1731,1731,1731,1731,1731,1722,1722,1722,1722,1722,1713,1705,1705,1705,1696,1696,1696,1696,1696,1696,1696,1696,1696,1705,1705,1713,1713,1713,1722,1722,1722,2103,2090,2090,2090,2078,2065,2065,2065,2053,2053,2053,2040,2040,1722,1688,1688,1680,1680,1680,1680,1671,1671,1680,1680,1680,1680,1688,1688,1688,1688,1688,1688,1688,1688,1696,1696,1696,1696,1696,1696,1696,1705,1705,1705,1705,1713,1713,1713,1713,1713,1713,0,0,0,0,0,0,1077,1077,1077,1077,1073,1070,1067,1063,1063,1063,1063,1060,1057,1054,1050,1050,1050,1047,1047,1047,1038,1034,1031,1028,1028,1025,1022,1022,1019,1016,1010,1010,1007,1004,1001,998,992,989,989,989,987,981,978,975,973,970,970,970,967,962,959,956,954,954,948,948,946,943,943,938,928,925,923,920,918,918,915,913,913,910,906,901,898,896,896,896,891,0,896,896,896,896,896,0,0,0,0,0,0,0,831,829,829,827,825,821,821,819,819,817,817,815,813,813,811,811,813,813,815,815,817,819,819,819,821,821,821,821,821,823,823,823,0,0,0,0,0,0,0,1496,1489,1489,1489,1483,1483,1470,1470,1470,1464,1464,1458,1452,1452,1445,1445,1445,1439,1439,1433,1427,1427,1421,1421,1415,1415,1410,1404,1398,1398,1392,1392,1392,1387,1381,1381,1381,1376,1376,1370,1370,1365,1359,1354,1354,1349,1349,1343,1338,1333,1333,1333,1328,1328,1322,1322,1317,1312,1312,1312,1307,1307,1302,1297,1292,1292,1288,1288,1283,1283,1278,1273,1273,1273,1268,1268,1264,1259,1259,1255,1255,1255,1250,1250,1245,1241,1236,1236,1232,1232,1227,1223,1219,1219,1219,1214,1214,1214,1210,1206,1206,1202,1202,1197,1197,1193,1193,1189,1185,1185,1181,1177,1177,1173,1169,1169,1165,1165,1165,1161,1161,1157,1153,1153,1153,1149,1145,1141,1141,1138,1138,1134,1134,1130,1130,1126,1123,1123,1119,1115,1112,1112,1108,1108,1108,1105,1105,1101,1101,1097,1097,1097,1094,1090,1090,1087,1084,1080,1080,1077,1077,1077,1070,1070,1070,1067,1063,1063,1063,1060,1057,1054,1054,1050,1050,1050,1050,1047,1044,1044,1041,1038,1038,1038,1034,1034,1031,1028,1028,1028,1025,1022,1022,1019,1016,1016,1016,1013,1013,1010,1010,1007,1004,1004,1001,1001,1001,998,995,992,992,989,989,0,0,0,0,0,0,0,0,0,0,0,0,0,0,0,0,0,0,0,0,0,0,0,0,0,0,0,0,0,0,0
0,0,0,0,0,0,0,0,0,0,0,0,0,0,0,0,2241,2226,2226,2212,2212,2226,2226,2226,2226,2226,2212,2116,2103,2090,2078,2065,2065,2053,2053,2053,2040,2040,2040,2040,2040,2040,2028,2028,2028,2016,2016,2016,2016,2005,2005,2016,2016,2016,2005,2005,2005,2005,2005,1993,1981,1981,1981,1981,1981,1970,1970,1970,1970,1970,1970,1959,1959,1959,1959,1959,1959,1959,1959,1959,1959,1947,1947,1947,1936,1936,1936,1936,1926,1926,1926,1926,1915,1915,1915,1915,1904,1904,1894,1894,1894,1894,1894,1904,1904,1894,1894,1883,1883,1883,1873,1873,1873,1873,1873,1873,1873,1873,1863,1853,1853,1843,1843,1843,1843,1843,1843,1833,1833,1833,1833,1833,1823,1823,1823,1823,1823,1823,1813,1813,1804,1804,1804,1804,1804,1804,1804,1804,1804,1804,1794,1794,1794,1785,1785,1785,1776,1776,1766,1766,1766,1766,1766,1766,1757,1757,1757,1757,1757,1748,1748,1748,1748,1739,1739,1739,1739,1739,1731,1731,1731,1731,1731,1722,1722,1722,1722,1713,1713,1713,1705,1705,1705,1705,1705,1705,1696,1696,1696,1696,1696,1705,1705,1713,1713,1713,1722,1722,1722,1722,1731,2090,2090,2090,2078,2065,2065,2065,2053,2053,2040,2040,2040,1722,1696,1696,1696,1680,1680,1680,1680,1680,1680,1680,1680,1680,1688,1688,1688,1688,1688,1688,1688,1688,1688,1696,1696,1696,1696,1696,1705,1705,1705,1705,1705,1713,1713,1713,1713,1713,1713,0,0,0,0,0,0,1077,1077,1077,1077,1077,1073,1067,1063,1063,1063,1060,1060,1057,1054,1050,1050,1050,1047,1047,1038,1038,1034,1031,1028,1028,1025,1025,1022,1016,1016,1010,1010,1007,1004,1001,998,992,989,989,989,987,981,981,975,973,970,970,970,967,962,959,956,954,954,948,948,946,943,943,938,930,928,925,920,918,918,915,913,913,910,906,903,898,896,894,891,891,891,889,889,896,896,896,896,896,0,0,0,0,0,829,829,829,827,825,821,821,819,817,817,815,815,813,813,813,813,813,813,815,815,817,819,819,819,821,821,821,823,823,823,825,827,0,0,0,0,0,0,0,1496,1496,1489,1489,1483,1483,1470,1470,1470,1464,1464,1458,1458,1452,1445,1445,1445,1439,1439,1433,1427,1427,1421,1421,1415,1415,1410,1410,1398,1398,1398,1392,1392,1387,1381,1381,1381,1376,1376,1376,1370,1370,1365,1354,1354,1349,1349,1343,1343,1338,1333,1333,1328,1328,1322,1322,1317,1312,1312,1312,1307,1307,1302,1297,1297,1292,1292,1288,1288,1283,1278,1278,1273,1273,1268,1268,1264,1259,1259,1255,1255,1255,1250,1250,1245,1241,1236,1236,1232,1232,1227,1227,1223,1219,1219,1214,1214,1214,1210,1210,1206,1202,1202,1197,1197,1193,1193,1189,1185,1185,1181,1177,1177,1177,1173,1169,1169,1165,1165,1165,1161,1157,1157,1153,1153,1149,1145,1141,1141,1138,1138,1134,1134,1134,1130,1126,1123,1123,1119,1119,1115,1112,1108,1108,1108,1105,1105,1101,1101,1097,1097,1094,1094,1090,1090,1087,1084,1084,1080,1080,1077,1077,1073,1073,1070,1070,1067,1067,1063,1060,1057,1057,1054,1050,1050,1050,1050,1047,1044,1044,1041,1041,1038,1038,1034,1034,1031,1031,1028,1028,1025,1025,1022,1022,1019,1016,1016,1013,1013,1010,1007,1007,1004,1004,1001,1001,1001,998,998,992,992,989,989,0,0,0,0,0,0,0,0,0,0,0,0,0,0,0,0,0,0,0,0,0,0,0,0,0,0,0,0,0,0,0
0,0,0,0,0,0,0,0,0,0,0,0,0,0,0,0,2241,2226,2226,2212,2212,2226,2226,2226,2241,2241,2226,2116,2090,2078,2065,2065,2065,2053,2053,2053,2053,2053,2053,2053,2040,2040,2028,2028,2028,2016,2016,2016,2016,2005,2005,2016,2005,2005,2005,2005,2005,2005,2005,1993,1981,1981,1981,1993,1981,1970,1970,1970,1970,1981,1970,1959,1959,1970,1959,1959,1959,1959,1959,1959,1959,1959,1959,1959,1947,1947,1926,1926,1926,1926,1926,1926,1926,1915,1915,1915,1904,1904,1904,1904,1894,1894,1904,1904,1904,1894,1894,1883,1883,1883,1873,1873,1873,1873,1873,1873,1873,1873,1863,1863,1853,1843,1843,1843,1843,1843,1843,1833,1833,1833,1833,1833,1833,1833,1823,1823,1823,1823,1813,1813,1813,1804,1804,1813,1804,1804,1804,1804,1804,1804,1794,1794,1794,1785,1785,1785,1776,1776,1766,1766,1766,1766,1766,1766,1766,1757,1757,1757,1757,1757,1757,1748,1748,1748,1748,1739,1739,1739,1731,1731,1731,1731,1731,1722,1722,1722,1722,1713,1713,1713,1705,1705,1705,1705,1705,1705,1705,1705,1696,1696,1705,1705,1705,1713,1722,1722,1722,1722,1722,1722,1731,2116,2103,2103,2090,2078,2065,2065,2053,2053,2040,2040,2040,1722,1713,1688,1688,1680,1680,1680,1680,1680,1680,1680,1680,1688,1688,1688,1688,1688,1688,1688,1688,1688,1688,1688,1696,1696,1696,1696,1705,1705,1705,1705,1705,1713,1713,1713,1713,1713,1713,0,0,0,0,0,0,1077,1077,1077,1077,1077,1073,1063,1063,1063,1060,1060,1060,1057,1054,1054,1050,1050,1047,1047,1038,1038,1034,1034,1031,1028,1025,1025,1022,1016,1016,1010,1010,1007,1004,1001,998,995,989,989,989,987,984,981,975,973,970,970,970,967,962,959,956,954,954,951,948,946,943,940,938,930,928,925,920,918,915,915,913,913,910,906,901,896,896,894,891,891,891,889,889,894,894,894,894,894,0,0,0,0,0,829,829,829,827,825,823,821,819,817,817,815,815,813,813,813,813,813,813,815,817,819,819,819,821,821,821,821,823,823,825,827,827,0,0,0,0,0,0,0,1496,1496,1496,1489,1483,1477,1477,1470,1470,1464,1464,1464,1458,1452,1445,1445,1445,1439,1439,1433,1427,1427,1421,1421,1415,1415,1410,1410,1404,1398,1398,1392,1392,1387,1381,1381,1381,1376,1376,1376,1370,1365,1365,1354,1354,1354,1349,1343,1343,1338,1333,1333,1333,1328,1328,1322,1312,1312,1307,1307,1307,1307,1302,1297,1297,1292,1292,1288,1288,1283,1278,1278,1278,1273,1268,1268,1264,1259,1259,1255,1255,1255,1250,1250,1250,1241,1236,1236,1232,1232,1227,1227,1223,1219,1219,1214,1214,1214,1210,1210,1206,1206,1202,1197,1197,1193,1193,1193,1185,1181,1181,1177,1177,1177,1173,1169,1169,1169,1165,1165,1161,1161,1157,1153,1153,1149,1145,1145,1141,1141,1138,1138,1134,1134,1130,1130,1123,1123,1119,1119,1115,1112,1112,1108,1108,1105,1105,1101,1101,1097,1097,1094,1094,1090,1090,1087,1084,1084,1080,1080,1080,1077,1073,1073,1070,1070,1067,1067,1067,1063,1060,1057,1054,1054,1054,1050,1050,1047,1044,1041,1041,1041,1041,1038,1038,1034,1031,1031,1028,1028,1025,1025,1022,1022,1019,1016,1016,1013,1013,1010,1007,1007,1004,1004,1004,1001,1001,1001,998,995,992,989,989,0,0,0,0,0,0,0,0,0,0,0,0,0,0,0,0,0,0,0,0,0,0,0,0,0,0,0,0,0,0,0
0,0,0,0,0,0,0,0,0,0,0,0,0,0,0,0,2241,2241,2226,2226,2226,2226,2226,2241,2256,2256,2256,2116,2090,2078,2065,2065,2065,2053,2053,2053,2040,2040,2040,2040,2040,2040,2040,2040,2028,2016,2016,2016,2016,2016,2016,2016,2005,2005,2005,2005,2005,2005,2005,1993,1981,1981,1981,1981,1981,1970,1970,1970,1970,1970,1970,1970,1970,1970,1970,1970,1970,1970,1970,1959,1959,1959,1959,1959,1959,1947,1926,1926,1926,1926,1926,1926,1926,1915,1915,1915,1915,1904,1904,1904,1904,1904,1904,1904,1904,1894,1894,1883,1883,1883,1883,1873,1873,1873,1873,1873,1873,1873,1863,1863,1853,1853,1843,1843,1843,1843,1843,1833,1833,1833,1833,1833,1833,1833,1833,1833,1833,1823,1823,1813,1813,1804,1804,1804,1804,1804,1804,1804,1804,1804,1794,1794,1794,1794,1785,1785,1776,1776,1776,1766,1766,1766,1766,1766,1766,1766,1766,1757,1757,1757,1757,1748,1748,1748,1748,1739,1739,1739,1739,1731,1731,1731,1731,1722,1722,1722,1722,1722,1713,1713,1713,1713,1705,1705,1705,1705,1705,1705,1705,1705,1705,1705,1713,1713,1722,1722,1722,1722,1722,1722,1731,2116,2103,2103,2103,2090,2078,2065,2065,2053,2053,2053,2040,1731,1722,1688,1688,1688,1680,1680,1680,1680,1680,1688,1688,1688,1688,1688,1688,1688,1688,1688,1688,1688,1688,1688,1696,1696,1696,1696,1705,1705,1705,1705,1705,1713,1713,1713,1713,1713,1713,0,0,0,0,0,0,1080,1077,1077,1077,1077,1070,1063,1063,1063,1060,1060,1060,1057,1054,1054,1050,1050,1047,1047,1038,1038,1034,1034,1031,1028,1025,1025,1022,1016,1013,1010,1010,1007,1004,1001,998,995,989,989,989,987,984,981,975,973,970,970,970,967,962,959,956,954,954,948,946,946,940,938,935,933,928,925,920,918,915,915,913,913,910,906,901,896,896,894,891,891,891,889,889,891,891,891,891,891,891,0,0,0,0,829,829,829,827,825,823,821,819,817,817,815,815,813,813,813,813,813,815,817,817,819,819,821,821,821,823,823,823,823,825,827,827,0,0,0,0,0,0,0,1503,1496,1496,1489,1489,1477,1477,1470,1470,1464,1464,1464,1458,1452,1445,1445,1445,1445,1439,1433,1427,1427,1421,1421,1415,1415,1410,1410,1404,1398,1398,1398,1392,1387,1387,1381,1381,1376,1376,1376,1370,1365,1365,1354,1354,1354,1349,1349,1343,1338,1333,1333,1333,1328,1328,1322,1312,1312,1307,1307,1307,1302,1302,1297,1297,1297,1292,1288,1288,1288,1283,1278,1278,1273,1268,1268,1264,1259,1259,1255,1255,1255,1250,1250,1245,1241,1241,1236,1236,1232,1232,1227,1223,1223,1219,1219,1214,1214,1214,1210,1206,1206,1202,1202,1197,1197,1197,1193,1185,1181,1181,1177,1177,1177,1173,1169,1169,1169,1165,1165,1165,1161,1157,1153,1153,1149,1149,1145,1145,1141,1138,1138,1134,1134,1134,1130,1123,1123,1119,1119,1119,1115,1115,1112,1108,1108,1108,1105,1101,1101,1097,1094,1094,1090,1090,1087,1087,1084,1080,1080,1080,1077,1077,1073,1073,1070,1067,1067,1067,1063,1060,1057,1054,1054,1054,1050,1050,1047,1044,1041,1041,1041,1041,1038,1038,1038,1034,1034,1031,1028,1028,1025,1022,1022,1019,1016,1016,1013,1013,1010,1010,1007,1004,1004,1004,1001,1001,1001,998,992,992,989,989,0,0,0,0,0,0,0,0,0,0,0,0,0,0,0,0,0,0,0,0,0,0,0,0,0,0,0,0,0,0,0
0,0,0,0,0,0,0,0,0,0,0,0,0,0,0,0,2271,2271,2241,2226,2226,2256,2256,2271,2271,2286,2286,2286,2103,2090,2078,2078,2078,2065,2053,2053,2040,2040,2040,2040,2040,2053,2040,2040,2040,2028,2028,2016,2016,2016,2016,2016,2016,2016,2005,2005,2016,2016,2016,1993,1981,1981,1981,1981,1981,1970,1970,1970,1970,1970,1970,1970,1970,1970,1970,1970,1970,1970,1970,1959,1959,1959,1959,1959,1959,1947,1936,1936,1936,1936,1936,1926,1926,1926,1915,1915,1915,1915,1915,1904,1904,1904,1904,1904,1904,1904,1894,1894,1883,1883,1883,1883,1873,1873,1873,1873,1873,1873,1863,1863,1853,1853,1853,1843,1843,1843,1843,1833,1833,1843,1833,1833,1833,1833,1833,1833,1833,1823,1823,1813,1813,1804,1804,1804,1804,1804,1804,1804,1804,1804,1804,1794,1794,1794,1785,1785,1776,1776,1776,1776,1766,1766,1766,1766,1766,1766,1757,1757,1757,1757,1757,1757,1757,1757,1757,1748,1748,1748,1739,1739,1731,1731,1731,1722,1722,1722,1722,1722,1722,1713,1713,1713,1713,1705,1705,1705,1705,1705,1705,1705,1705,1705,1713,1722,1722,1722,1722,1722,1722,1722,2116,2116,2103,2103,2103,2090,2078,2065,2065,2053,2053,2053,2040,1731,1705,1696,1696,1688,1688,1688,1688,1680,1680,1688,1688,1688,1688,1688,1688,1688,1688,1688,1688,1688,1696,1696,1696,1696,1696,1705,1705,1705,1705,1705,1713,1713,1713,1713,1713,1713,1713,0,0,0,0,0,0,1080,1077,1077,1077,1077,1070,1063,1063,1063,1060,1060,1060,1057,1054,1054,1050,1050,1047,1047,1038,1038,1034,1034,1031,1028,1025,1025,1022,1016,1013,1010,1010,1007,1004,1001,998,995,989,989,989,987,984,978,975,973,970,970,970,967,962,959,956,954,954,948,946,946,940,938,933,930,928,925,920,920,918,915,913,913,908,903,901,896,894,894,891,889,889,889,889,889,889,889,889,889,889,0,0,0,0,829,829,829,827,825,823,821,819,817,815,815,813,813,813,813,813,813,815,817,819,819,819,821,821,821,823,823,823,823,825,827,827,0,0,0,0,0,0,0,1503,1496,1496,1489,1489,1483,1477,1477,1470,1470,1464,1464,1458,1458,1452,1452,1445,1445,1439,1433,1427,1427,1421,1421,1415,1415,1410,1410,1404,1398,1398,1398,1392,1387,1387,1387,1381,1381,1376,1376,1370,1370,1365,1354,1354,1354,1349,1349,1343,1338,1338,1333,1333,1328,1328,1322,1317,1312,1312,1312,1307,1302,1302,1297,1297,1297,1292,1288,1288,1283,1283,1283,1278,1273,1273,1268,1264,1259,1259,1255,1255,1255,1250,1250,1245,1241,1241,1236,1236,1232,1232,1227,1227,1223,1219,1219,1214,1214,1214,1210,1210,1206,1202,1202,1197,1197,1197,1193,1189,1185,1181,1177,1177,1177,1173,1173,1169,1169,1165,1165,1165,1161,1157,1153,1153,1153,1149,1145,1145,1145,1141,1138,1134,1134,1134,1130,1123,1123,1119,1119,1119,1115,1115,1112,1108,1108,1108,1105,1101,1101,1097,1094,1094,1090,1090,1087,1087,1084,1080,1080,1080,1077,1077,1073,1073,1070,1067,1067,1067,1063,1060,1060,1057,1054,1054,1050,1050,1050,1044,1044,1044,1041,1041,1038,1038,1038,1034,1034,1031,1031,1028,1025,1025,1022,1019,1019,1016,1016,1013,1010,1010,1007,1004,1004,1004,1001,1001,1001,998,992,992,989,989,0,0,0,0,0,0,0,0,0,0,0,0,0,0,0,0,0,0,0,0,0,0,0,0,0,0,0,0,0,0,0
0,0,0,0,0,0,0,0,0,0,0,0,0,0,0,0,0,2271,2256,2256,2256,2271,2271,2271,2286,2301,2301,2301,2103,2090,2090,2090,2078,2065,2065,2053,2053,2053,2053,2053,2053,2053,2053,2053,2040,2028,2028,2028,2016,2016,2016,2016,2016,2016,2016,2016,2016,2016,2016,1993,1993,1981,1981,1981,1981,1970,1970,1970,1970,1970,1981,1970,1970,1970,1970,1970,1970,1970,1970,1959,1959,1959,1959,1959,1959,1947,1936,1936,1936,1936,1936,1936,1926,1926,1926,1926,1915,1915,1915,1915,1904,1904,1915,1915,1904,1904,1904,1894,1883,1883,1883,1883,1873,1873,1873,1873,1873,1873,1863,1863,1863,1863,1853,1843,1843,1843,1843,1843,1843,1843,1833,1833,1833,1833,1833,1833,1833,1823,1823,1813,1813,1804,1804,1804,1804,1804,1804,1804,1804,1804,1804,1794,1794,1794,1785,1785,1785,1785,1776,1776,1766,1766,1766,1766,1766,1766,1757,1757,1757,1757,1757,1757,1757,1757,1757,1757,1748,1748,1748,1739,1739,1731,1731,1731,1731,1722,1722,1722,1722,1722,1713,1713,1713,1713,1713,1713,1705,1705,1705,1705,1705,1705,1713,1722,1722,1722,1722,1722,1722,1722,2116,2116,2103,2103,2103,2090,2078,2078,2065,2065,2053,2053,2053,2028,1705,1696,1688,1688,1688,1688,1680,1680,1680,1688,1688,1688,1688,1688,1688,1688,1688,1688,1688,1688,1696,1696,1696,1696,1696,1705,1713,1713,1713,1713,1713,1713,1713,1713,1713,1713,1713,0,0,0,0,0,0,1084,1077,1077,1077,1077,1073,1067,1063,1063,1063,1060,1060,1057,1054,1054,1050,1050,1047,1041,1038,1038,1034,1034,1031,1028,1028,1025,1022,1016,1013,1010,1010,1007,1004,1001,998,995,992,989,987,987,984,978,975,973,970,970,967,967,962,959,956,954,954,948,946,946,943,938,933,930,928,923,920,918,918,915,913,910,906,903,898,896,894,891,889,889,889,887,887,885,882,882,882,885,885,885,880,837,829,829,829,829,827,825,823,821,819,817,815,815,813,813,813,813,813,815,815,817,819,819,821,821,821,821,823,823,823,825,827,827,827,0,0,0,0,0,0,0,1503,1496,1496,1496,1489,1483,1483,1477,1470,1470,1464,1464,1458,1458,1452,1452,1445,1445,1439,1433,1427,1427,1421,1421,1415,1415,1410,1410,1404,1404,1398,1398,1392,1392,1387,1387,1381,1381,1376,1376,1370,1370,1365,1365,1354,1349,1349,1343,1343,1338,1338,1333,1333,1328,1328,1322,1322,1312,1312,1312,1307,1307,1302,1297,1297,1297,1292,1292,1288,1283,1283,1283,1278,1273,1273,1268,1264,1259,1259,1255,1255,1255,1250,1250,1245,1241,1241,1236,1236,1236,1232,1232,1227,1223,1223,1219,1219,1214,1214,1210,1210,1206,1202,1202,1197,1197,1197,1193,1189,1185,1181,1177,1177,1177,1173,1173,1169,1169,1169,1165,1165,1165,1161,1157,1153,1153,1149,1149,1145,1145,1141,1138,1138,1134,1134,1130,1123,1123,1123,1119,1119,1115,1115,1112,1112,1108,1108,1105,1105,1101,1097,1094,1094,1090,1090,1090,1087,1084,1084,1080,1080,1080,1077,1077,1073,1070,1067,1067,1067,1063,1063,1060,1057,1054,1054,1054,1050,1047,1044,1044,1044,1041,1041,1041,1038,1038,1038,1034,1034,1031,1028,1028,1025,1022,1019,1016,1016,1016,1013,1010,1010,1007,1004,1004,1004,1001,1001,1001,998,998,992,992,992,0,0,0,0,0,0,0,0,0,0,0,0,0,0,0,0,0,0,0,0,0,0,0,0,0,0,0,0,0,0,0
