0,0,0,0,0,0,0,0,0,0,0,0,0,0,1624,1624,1624,1624,1616,1616,1609,1609,1609,1609,1609,1609,1609,1609,1609,1609,1609,1609,1609,1609,1609,1609,1601,1601,1601,1601,1609,1609,1609,1609,1609,1609,1609,1609,1609,1609,1601,1601,1609,1609,1609,1609,1609,1609,1609,1609,1609,1609,1601,1601,1601,1601,1601,1601,1601,1609,1601,1601,1601,1601,1601,1601,1601,1601,1601,1601,1601,1601,1601,1601,1609,1609,1609,1609,1609,1609,1601,1594,1594,1594,1757,1757,915,915,918,918,920,920,915,915,923,915,915,915,918,920,920,923,923,925,925,925,925,928,928,928,928,930,930,930,928,928,928,928,928,928,928,928,928,930,930,928,928,928,928,928,925,920,918,918,923,925,925,925,925,925,925,925,925,928,930,928,925,925,925,923,920,920,915,915,920,923,918,918,918,920,915,915,918,920,920,925,923,923,920,918,918,918,915,915,918,915,915,918,906,903,903,903,903,920,906,906,920,920,918,915,913,910,910,910,910,903,903,903,906,908,913,918,920,920,920,915,915,913,910,910,913,910,910,913,910,908,908,908,908,908,906,906,908,915,923,920,913,910,901,901,908,908,906,906,908,908,908,908,908,908,910,910,906,906,903,903,903,903,903,903,903,896,896,903,898,898,898,898,896,891,891,898,894,889,889,901,901,901,901,901,903,903,903,903,903,903,903,898,898,894,894,894,894,891,891,894,891,891,891,891,891,896,896,896,896,894,891,891,894,894,894,891,889,889,891,894,894,891,889,889,889,889,887,885,885,887,887,887,887,894,898,898,898,898,896,896,891,882,880,880,880,880,880,880,880,882,882,885,887,889,891,891,896,901,906,908,913,915,920,923,925,925,925,925,925,0,0,0,0,1516,1503,1503,1496,1496,1496,1489,1489,1489,1483,1483,1483,1477,1477,1477,1470,1470,1470,1470,1470,1470,1464,1464,1464,1458,1458,1458,1452,1452,1452,1445,1445,1445,1445,1439,1439,1439,1433,1433,1433,1433,1427,1421,1421,1421,1421,1421,1415,1415,1415,1415,1410,1410,1410,1404,1404,1398,1398,1398,1398,1398,1392,1392,1392,1392,1392,1392,1387,1381,1381,1381,1376,1376,1370,1370,1370,1370,1370,1370,1370,1370,1365,1365,1365,1359,1359,1354,1354,1349,1349,1349,1349,1349,1343,1343,1338,1338,1338,1333,1333,1333,1333,1333,1328,1328,1328,1328,1322,1317,1317,1312,1312,1312,1312,1312,1307,1307,1307,1307,1302,1302,1297,1297,1297,1297,1292,1292,1292,1288,1288,1288,1288,1288,1283,1283,1278,1278,1278,1273,1273,1273,1273,1268,1268,1268,1264,1264,1264,1264,1259,1255,1255,1255,1255,1255,1255,1250,1250,1250,1250,1250,1245,1241,1241,1236,1236,1236,1232,1232,1232,1232,1232,1232,1227,1227,1223,1223,1219,1219,1214,1214,1214,1214,1214,1214,1210,1210,1210,1206,1202,1202,1202,1202,1202,1197,1197,1197,1197,1197,1193,1193,1189,1189,1185,1185,1185,1185,1185,1181,1181,1181,1181,1177,1177,1173,1173,1169,1169,1169,1169,1169,1169,1165,1165,1165,1165,1165,1165,1165,1161,1161,1153,1153,1153,1153,1153,1153,1149,1149,1149,1149,1149,0,0,0,0,0,0,0,0,0,0,0,0,0,0,0,0,0,0,0,0,0,0,0,0,0,0,0,0,0
0,0,0,0,0,0,0,0,0,0,0,0,0,0,1616,1616,1624,1624,1616,1609,1609,1609,1609,1609,1609,1609,1609,1609,1609,1609,1609,1609,1609,1609,1609,1609,1601,1601,1601,1601,1609,1609,1609,1609,1609,1609,1609,1609,1609,1609,1601,1601,1609,1609,1609,1609,1609,1609,1609,1616,1609,1609,1609,1609,1601,1601,1601,1601,1601,1601,1601,1601,1601,1601,1601,1601,1601,1601,1601,1601,1601,1601,1601,1601,1609,1609,1609,1609,1609,1601,1594,1586,1586,910,910,913,913,913,913,913,913,913,915,915,915,915,915,915,915,918,918,918,920,920,923,923,923,923,925,925,925,925,928,925,925,920,920,923,923,923,923,925,925,925,925,925,925,923,923,923,918,915,915,915,918,923,923,923,923,920,920,920,920,920,920,920,923,923,923,923,918,918,913,913,918,920,915,915,915,915,913,913,910,908,908,910,918,918,915,913,913,913,913,913,915,913,908,906,903,903,903,903,903,906,906,906,906,918,913,910,908,901,901,903,901,898,898,898,901,896,896,896,896,896,898,896,896,896,896,898,889,889,910,913,908,906,906,906,906,906,903,894,889,889,889,889,891,894,894,894,901,901,903,903,906,906,906,903,901,901,906,910,903,903,901,898,898,896,896,896,896,894,894,894,896,896,896,894,891,887,887,885,885,885,887,887,891,891,894,896,901,901,901,901,898,898,898,894,891,889,887,885,885,887,887,882,882,878,878,885,885,885,885,887,894,891,889,889,889,889,887,887,889,889,889,891,891,889,889,887,887,885,885,882,882,882,882,880,880,880,898,898,898,896,896,896,889,880,878,878,878,878,878,878,878,880,882,882,885,887,889,889,891,898,906,908,913,918,920,923,925,925,928,928,0,0,0,0,1516,1516,1509,1503,1503,1496,1496,1496,1489,1489,1489,1483,1483,1483,1483,1477,1477,1477,1477,1470,1470,1470,1464,1464,1464,1464,1458,1458,1458,1452,1452,1452,1445,1445,1445,1439,1439,1439,1439,1439,1433,1433,1427,1421,1421,1421,1421,1421,1421,1415,1415,1415,1410,1410,1410,1404,1404,1398,1398,1398,1398,1398,1398,1398,1392,1392,1392,1392,1387,1381,1381,1381,1376,1376,1376,1376,1376,1370,1370,1370,1370,1370,1370,1365,1365,1365,1359,1354,1354,1349,1349,1349,1349,1349,1349,1343,1343,1343,1338,1333,1333,1333,1333,1333,1328,1328,1328,1328,1322,1317,1317,1312,1312,1312,1312,1312,1307,1307,1307,1307,1302,1302,1302,1302,1297,1297,1297,1292,1292,1292,1288,1288,1288,1288,1288,1283,1278,1278,1278,1273,1273,1273,1273,1268,1268,1268,1268,1268,1264,1264,1264,1259,1259,1259,1255,1255,1255,1255,1250,1250,1250,1250,1245,1245,1241,1236,1236,1236,1232,1232,1232,1232,1232,1232,1227,1227,1227,1223,1219,1219,1214,1214,1214,1214,1214,1214,1214,1214,1210,1206,1206,1206,1202,1202,1202,1202,1202,1197,1197,1197,1197,1193,1193,1189,1185,1185,1185,1185,1185,1181,1181,1181,1181,1181,1177,1177,1173,1173,1173,1169,1169,1169,1169,1169,1165,1165,1165,1165,1165,1165,1161,1161,1157,1153,1153,1153,1153,1153,1153,1153,1149,1149,1149,0,0,0,0,0,0,0,0,0,0,0,0,0,0,0,0,0,0,0,0,0,0,0,0,0,0,0,0,0
0,0,0,0,0,0,0,0,0,0,0,0,0,0,1616,1616,1624,1624,1616,1609,1609,1609,1609,1609,1609,1609,1616,1616,1616,1616,1616,1609,1609,1609,1609,1609,1609,1601,1601,1601,1609,1609,1609,1609,1609,1609,1609,1609,1609,1609,1609,1609,1609,1609,1609,1609,1609,1609,1616,1616,1616,1616,1609,1609,1609,1601,1601,1601,1601,1601,1601,1601,1601,1601,1601,1601,1601,1601,1601,1601,1601,1601,1601,1601,1609,1609,1601,1601,1609,1601,1594,1586,1586,910,910,910,910,913,913,913,913,913,915,915,915,913,913,913,913,915,915,915,913,913,918,918,918,918,918,918,923,923,923,918,918,913,913,913,913,913,913,913,923,923,923,925,923,923,923,915,915,913,913,913,915,918,918,918,915,915,915,913,910,910,908,908,923,923,923,918,910,910,908,908,910,915,915,913,913,913,913,913,908,898,898,898,898,896,896,910,910,908,908,908,906,903,903,901,901,901,901,901,901,901,903,903,903,903,906,906,903,898,898,898,898,896,896,896,896,894,894,894,894,896,896,894,894,894,889,887,887,887,887,887,887,903,894,894,903,903,891,889,889,889,887,887,889,889,889,887,887,891,896,896,896,896,906,901,894,889,889,910,901,896,896,891,891,894,894,894,894,894,891,891,894,894,894,891,885,885,880,880,885,885,885,887,887,887,885,885,885,901,901,901,896,896,891,889,887,885,880,880,875,875,878,878,878,875,875,878,882,882,882,880,880,885,880,880,880,878,878,882,885,885,887,887,887,887,885,882,882,882,880,880,878,878,878,878,873,873,871,871,871,873,871,871,875,875,875,875,875,875,875,878,878,880,880,882,885,887,889,889,891,898,906,910,915,920,923,925,928,928,928,0,0,0,0,0,1516,1516,1509,1503,1503,1503,1496,1496,1489,1489,1489,1489,1489,1483,1483,1483,1477,1477,1477,1470,1470,1470,1470,1464,1464,1464,1464,1458,1458,1452,1452,1452,1445,1445,1445,1445,1439,1439,1439,1439,1439,1433,1427,1427,1427,1421,1421,1421,1421,1415,1415,1415,1410,1410,1410,1410,1404,1404,1398,1398,1398,1398,1398,1398,1398,1392,1392,1392,1392,1387,1387,1381,1376,1376,1376,1376,1376,1370,1370,1370,1370,1370,1370,1370,1365,1365,1359,1354,1354,1354,1349,1349,1349,1349,1349,1343,1343,1343,1338,1338,1333,1333,1333,1333,1333,1333,1328,1328,1322,1322,1317,1312,1312,1312,1312,1312,1312,1307,1307,1307,1307,1307,1302,1302,1302,1302,1297,1297,1292,1292,1288,1288,1288,1288,1288,1283,1278,1278,1278,1278,1273,1273,1273,1273,1268,1268,1268,1268,1264,1264,1264,1259,1259,1259,1255,1255,1255,1250,1250,1250,1250,1250,1250,1245,1241,1241,1236,1236,1236,1236,1236,1232,1232,1232,1232,1227,1227,1223,1223,1219,1214,1214,1214,1214,1214,1214,1214,1214,1210,1210,1206,1206,1206,1202,1202,1202,1202,1197,1197,1197,1197,1193,1193,1189,1189,1185,1185,1185,1185,1185,1185,1181,1181,1181,1177,1177,1177,1173,1173,1169,1169,1169,1169,1169,1169,1165,1165,1165,1165,1165,1165,1161,1157,1157,1157,1157,1157,1153,1153,1153,1153,1149,1149,0,0,0,0,0,0,0,0,0,0,0,0,0,0,0,0,0,0,0,0,0,0,0,0,0,0,0,0,0
0,0,0,0,0,0,0,0,0,0,0,0,0,0,1616,1616,1624,1624,1616,1616,1616,1616,1616,1616,1616,1616,1616,1616,1616,1616,1616,1616,1616,1616,1609,1609,1609,1609,1609,1609,1609,1609,1616,1609,1609,1609,1609,1609,1609,1609,1609,1609,1609,1609,1609,1609,1609,1616,1616,1616,1616,1616,1609,1609,1609,1609,1601,1601,1601,1601,1601,1601,1601,1601,1601,1601,1601,1601,1601,1601,1601,1601,1601,1601,1601,1609,1601,1601,1601,1601,913,913,915,913,910,910,910,910,910,913,915,915,913,913,913,913,913,913,913,910,910,910,908,908,913,915,915,915,913,910,908,908,915,913,913,910,910,910,910,910,908,898,898,920,920,923,898,898,906,906,908,908,910,910,913,915,915,915,913,913,913,908,903,903,903,898,898,898,894,894,901,906,906,906,908,913,913,910,910,910,910,878,878,896,894,894,894,894,894,896,896,896,896,903,903,901,901,901,898,898,898,898,898,898,901,901,901,901,901,901,898,896,896,894,894,894,894,894,894,891,891,891,891,891,889,889,889,889,889,887,887,885,885,885,887,885,885,885,903,903,887,887,887,887,887,887,887,889,887,885,885,885,887,887,885,885,885,887,885,882,882,882,885,885,887,887,887,887,889,891,891,891,891,891,894,894,887,885,880,880,880,880,880,880,880,882,882,882,878,869,867,867,875,875,875,875,878,878,878,878,878,875,873,873,875,875,875,875,875,875,878,880,880,878,871,871,873,878,875,873,873,875,882,882,885,882,882,882,878,878,875,875,875,875,869,869,873,873,871,871,869,869,864,864,867,867,871,871,871,871,871,873,875,875,878,878,880,882,885,887,889,889,891,901,906,913,918,920,923,925,928,928,928,930,0,0,0,0,1516,1516,1516,1509,1509,1503,1503,1496,1496,1496,1489,1489,1489,1489,1483,1483,1483,1477,1477,1477,1470,1470,1470,1470,1464,1464,1464,1464,1458,1458,1458,1452,1452,1445,1445,1445,1439,1439,1439,1439,1439,1439,1433,1427,1427,1427,1427,1421,1421,1421,1421,1415,1415,1410,1410,1410,1410,1404,1404,1398,1398,1398,1398,1398,1398,1398,1392,1392,1392,1387,1387,1381,1381,1376,1376,1376,1376,1370,1370,1370,1370,1370,1370,1370,1365,1365,1359,1359,1354,1354,1354,1349,1349,1349,1349,1349,1349,1349,1343,1338,1338,1338,1338,1333,1333,1333,1328,1328,1322,1322,1317,1317,1312,1312,1312,1312,1312,1312,1307,1307,1307,1307,1302,1302,1302,1302,1297,1297,1292,1292,1292,1288,1288,1288,1288,1283,1278,1278,1278,1278,1278,1273,1273,1273,1268,1268,1268,1268,1264,1264,1264,1259,1259,1259,1255,1255,1255,1250,1250,1250,1250,1250,1250,1250,1245,1241,1241,1236,1236,1236,1236,1232,1232,1232,1232,1227,1227,1227,1223,1223,1219,1219,1219,1219,1214,1214,1214,1214,1210,1210,1210,1206,1206,1206,1202,1202,1202,1197,1197,1197,1197,1197,1193,1193,1189,1189,1185,1185,1185,1185,1185,1185,1181,1181,1181,1177,1177,1177,1173,1173,1173,1169,1169,1169,1169,1169,1169,1165,1165,1165,1165,1161,1161,1157,1157,1157,1157,1157,1153,1153,1153,1149,1149,0,0,0,0,0,0,0,0,0,0,0,0,0,0,0,0,0,0,0,0,0,0,0,0,0,0,0,0,0
0,0,0,0,0,0,0,0,0,0,0,0,0,0,1616,1616,1624,1616,1616,1616,1616,1616,1616,1616,1616,1616,1616,1616,1616,1616,1616,1616,1616,1616,1616,1616,1609,1609,1616,1616,1616,1616,1616,1616,1616,1616,1616,1616,1609,1609,1609,1609,1616,1616,1616,1609,1609,1616,1616,1616,1616,1616,1609,1609,1609,1609,1609,1609,1601,1601,1601,1601,1601,1601,1601,1601,1601,1601,1601,894,894,894,894,896,898,903,903,903,903,903,906,908,910,913,910,908,908,908,908,908,908,908,908,910,910,910,910,910,908,908,906,906,903,903,903,901,901,913,910,908,906,906,906,906,906,906,908,908,908,908,903,894,894,894,894,896,896,896,896,898,901,903,908,910,913,915,915,915,913,910,910,903,898,898,896,896,894,894,891,891,894,898,898,901,901,906,910,906,889,880,880,878,878,891,891,891,891,894,894,894,894,891,891,889,889,894,898,901,898,898,898,896,896,896,896,896,896,896,896,898,896,894,894,891,891,891,891,891,891,889,889,889,889,887,885,882,882,885,885,885,885,885,882,882,882,882,880,878,878,878,880,880,882,882,882,882,882,885,885,882,880,880,880,885,878,873,873,878,878,880,880,880,878,878,878,878,880,878,878,878,891,891,891,891,887,887,878,878,878,878,878,878,878,878,878,878,878,880,875,867,864,864,871,871,871,871,873,871,871,871,873,869,869,871,871,871,873,871,871,867,867,867,869,869,869,869,869,869,871,869,869,871,869,869,878,875,875,875,875,873,871,871,873,871,867,867,871,871,871,869,867,864,862,862,862,864,864,867,869,869,869,871,871,873,875,878,880,882,885,887,889,889,896,903,908,913,918,923,923,925,928,928,928,930,0,0,0,0,0,1516,1516,1509,1509,1503,1503,1496,1496,1496,1489,1489,1489,1489,1483,1483,1483,1477,1477,1477,1470,1470,1470,1470,1464,1464,1464,1464,1458,1458,1458,1452,1452,1445,1445,1445,1445,1439,1439,1439,1439,1433,1433,1427,1427,1427,1427,1421,1421,1421,1421,1415,1415,1415,1415,1410,1410,1404,1404,1398,1398,1398,1398,1398,1398,1398,1392,1392,1392,1387,1387,1381,1381,1376,1376,1376,1376,1376,1370,1370,1370,1370,1370,1365,1365,1365,1359,1359,1354,1354,1354,1349,1349,1349,1349,1349,1349,1349,1343,1343,1338,1338,1338,1333,1333,1333,1328,1328,1328,1322,1317,1317,1312,1312,1312,1312,1312,1312,1307,1307,1307,1307,1307,1307,1302,1302,1297,1297,1292,1292,1292,1288,1288,1288,1288,1288,1283,1278,1278,1278,1278,1273,1273,1273,1268,1268,1268,1268,1264,1264,1264,1264,1264,1259,1259,1255,1255,1255,1250,1250,1250,1250,1250,1250,1245,1245,1241,1241,1236,1236,1236,1232,1232,1232,1232,1227,1227,1227,1223,1223,1219,1219,1219,1219,1214,1214,1214,1214,1214,1210,1210,1210,1206,1206,1206,1202,1202,1197,1197,1197,1197,1197,1193,1193,1193,1189,1189,1185,1185,1185,1185,1185,1181,1181,1181,1181,1177,1177,1177,1177,1173,1173,1173,1169,1169,1169,1169,1169,1165,1165,1165,1161,1161,1161,1161,1157,1157,1157,1153,1153,1153,1153,1153,0,0,0,0,0,0,0,0,0,0,0,0,0,0,0,0,0,0,0,0,0,0,0,0,0,0,0,0,0
0,0,0,0,0,0,0,0,0,0,0,0,0,0,1624,1624,1624,1616,1616,1616,1616,1616,1616,1616,1616,1616,1616,1616,1616,1624,1616,1616,1616,1616,1616,1616,1616,1624,1624,1624,1624,1624,1624,1624,1624,1624,1616,1616,1616,1616,1616,1616,1616,1616,1616,1616,1616,1616,1616,1616,1616,1616,1616,1616,1609,1609,1609,1609,1609,1609,1609,1609,1609,1601,1601,1601,894,891,891,891,891,891,894,896,898,901,903,903,903,903,903,906,906,906,910,908,906,906,906,906,906,906,906,906,906,906,906,906,906,903,901,901,896,891,891,889,889,887,887,889,901,901,903,903,903,903,901,898,898,903,898,891,891,891,891,894,894,891,891,894,889,889,887,887,885,885,885,887,887,901,906,898,896,896,891,891,894,891,889,889,889,894,891,887,880,880,901,885,880,880,880,878,878,878,878,878,880,880,891,889,889,889,887,887,887,885,885,887,891,894,896,894,894,894,894,894,891,891,894,894,891,891,891,889,887,887,887,887,887,887,887,885,882,882,882,882,882,882,882,882,882,882,880,880,880,880,878,875,875,875,873,873,873,873,875,878,878,878,880,878,878,875,873,873,875,869,869,875,875,873,873,871,871,875,873,873,875,871,860,860,871,860,860,860,860,887,873,873,873,873,875,875,875,875,875,875,875,878,873,862,862,862,862,862,869,869,869,869,869,869,869,867,867,869,871,871,871,871,869,867,862,862,864,867,867,867,869,869,869,867,867,864,860,858,858,860,860,860,864,869,869,869,871,869,867,867,869,869,869,864,864,864,860,858,858,860,862,862,862,867,867,867,871,873,875,878,880,882,885,885,889,891,896,906,908,913,918,923,925,925,928,930,930,930,0,0,0,0,0,1516,1516,1509,1509,1503,1503,1496,1496,1496,1496,1489,1489,1489,1489,1483,1483,1483,1483,1477,1470,1470,1470,1470,1464,1464,1464,1458,1458,1458,1458,1452,1452,1445,1445,1445,1445,1439,1439,1439,1439,1433,1433,1427,1427,1427,1427,1421,1421,1421,1421,1415,1415,1415,1415,1410,1410,1410,1404,1404,1404,1404,1404,1398,1398,1398,1398,1392,1392,1387,1387,1381,1381,1381,1376,1376,1376,1376,1370,1370,1370,1370,1370,1365,1365,1365,1359,1359,1354,1354,1354,1354,1354,1349,1349,1349,1349,1349,1343,1343,1343,1343,1338,1338,1333,1333,1333,1328,1328,1322,1322,1317,1312,1312,1312,1312,1312,1312,1312,1312,1307,1307,1307,1307,1302,1302,1302,1297,1292,1292,1292,1292,1292,1288,1288,1288,1283,1278,1278,1278,1278,1278,1273,1273,1273,1268,1268,1268,1268,1268,1264,1264,1264,1259,1259,1255,1255,1255,1255,1250,1250,1250,1250,1250,1245,1245,1241,1241,1236,1236,1236,1232,1232,1232,1232,1227,1227,1227,1223,1223,1219,1219,1219,1219,1219,1219,1214,1214,1214,1214,1214,1210,1210,1206,1206,1202,1202,1202,1202,1197,1197,1197,1197,1193,1193,1193,1189,1189,1185,1185,1185,1185,1185,1181,1181,1181,1181,1181,1177,1177,1177,1173,1173,1173,1169,1169,1169,1165,1165,1165,1165,1161,1161,1161,1161,1161,1161,1161,1157,1157,1153,1153,1153,0,0,0,0,0,0,0,0,0,0,0,0,0,0,0,0,0,0,0,0,0,0,0,0,0,0,0,0,0
0,0,0,0,0,0,0,0,0,0,0,0,0,0,1624,1624,1624,1624,1616,1616,1616,1616,1616,1616,1616,1616,1616,1616,1616,1624,1616,1616,1616,1616,1616,1616,1624,1624,1624,1624,1624,1624,1624,1624,1624,1624,1624,1616,1616,1616,1616,1616,1616,1616,1616,1616,1616,1616,1616,1616,1616,1616,1616,1616,1609,1609,1609,1609,1609,1609,1609,1601,1601,1601,1616,1616,894,891,891,891,891,891,891,894,896,898,901,901,901,901,898,898,898,898,898,906,903,903,903,903,901,901,901,903,903,903,906,906,903,901,891,889,889,887,887,887,887,885,885,887,887,891,891,894,894,896,891,887,887,887,887,887,889,889,889,891,891,889,889,891,889,887,887,885,885,885,885,887,887,889,894,896,891,891,887,887,889,889,889,887,887,889,885,880,878,878,878,880,880,880,880,878,878,878,878,878,880,880,880,885,885,885,882,882,882,880,878,878,878,878,878,880,880,894,894,871,869,869,869,869,887,887,887,887,885,882,882,882,882,885,885,885,882,882,882,880,880,880,880,880,880,880,875,875,875,878,875,875,875,875,871,869,869,869,869,869,869,867,867,875,873,869,864,864,869,869,869,871,873,873,871,869,869,867,864,864,864,869,860,860,869,860,860,858,858,858,867,869,869,869,871,871,873,873,873,873,875,875,867,860,860,860,860,860,860,858,858,860,869,867,867,864,864,869,869,869,869,869,867,864,860,860,862,864,864,864,867,867,867,864,864,862,860,856,856,860,856,856,856,854,854,858,867,862,862,862,862,862,867,860,860,858,856,856,856,858,860,862,862,862,864,864,869,871,875,878,880,882,885,885,889,891,898,908,910,915,918,923,925,928,930,930,930,930,935,0,0,0,0,1516,1509,1509,1509,1503,1503,1503,1496,1496,1496,1489,1489,1489,1489,1489,1483,1483,1483,1477,1477,1477,1470,1470,1464,1464,1464,1458,1458,1458,1458,1458,1452,1452,1445,1445,1445,1445,1439,1439,1439,1439,1433,1433,1433,1427,1427,1427,1421,1421,1421,1415,1415,1415,1415,1410,1410,1410,1410,1404,1404,1404,1404,1398,1398,1398,1398,1392,1392,1387,1387,1387,1381,1381,1381,1376,1376,1376,1376,1370,1370,1370,1370,1370,1370,1365,1365,1359,1359,1354,1354,1354,1354,1354,1354,1349,1349,1349,1349,1343,1343,1343,1343,1338,1338,1333,1333,1328,1328,1322,1322,1322,1317,1312,1312,1312,1312,1312,1312,1312,1307,1307,1307,1307,1307,1302,1302,1302,1297,1292,1292,1292,1292,1288,1288,1288,1283,1283,1283,1283,1278,1278,1278,1278,1278,1273,1268,1268,1268,1268,1268,1264,1264,1264,1259,1255,1255,1255,1255,1250,1250,1250,1250,1250,1245,1245,1245,1241,1236,1236,1236,1232,1232,1232,1232,1227,1227,1227,1223,1223,1219,1219,1219,1219,1219,1219,1219,1219,1214,1214,1214,1210,1210,1206,1206,1202,1202,1202,1202,1197,1197,1197,1197,1193,1193,1193,1189,1189,1189,1185,1185,1185,1185,1185,1181,1181,1181,1181,1177,1177,1177,1177,1173,1173,1169,1169,1169,1165,1165,1165,1165,1165,1165,1165,1165,1161,1161,1161,1161,1161,1157,1153,1153,0,0,0,0,0,0,0,0,0,0,0,0,0,0,0,0,0,0,0,0,0,0,0,0,0,0,0,0,0
0,0,0,0,0,0,0,0,0,0,0,0,0,0,1624,1624,1624,1624,1624,1624,1624,1624,1624,1616,1616,1616,1624,1616,1616,1624,1624,1624,1616,1616,1624,1624,1624,1624,1624,1624,1624,1624,1624,1624,1624,1624,1624,1624,1616,1616,1616,1616,1616,1616,1616,1616,1616,1616,1616,1616,1616,1609,1609,1616,1609,1609,1609,1609,1609,1609,1609,885,885,885,889,891,891,891,891,891,891,891,891,894,894,896,898,896,896,896,894,891,889,889,889,891,896,896,896,894,894,894,896,898,898,901,903,903,889,889,887,885,885,885,885,885,885,885,885,885,885,885,885,885,885,885,885,885,885,885,885,885,885,885,885,887,889,889,887,887,887,885,885,880,880,882,885,885,885,887,891,891,887,885,885,885,885,887,885,882,880,880,880,878,878,875,875,878,878,878,878,878,878,878,878,875,875,869,869,880,880,880,878,873,873,878,873,873,873,873,873,873,871,869,869,869,867,862,862,862,860,860,880,880,880,878,878,878,878,880,875,871,869,869,875,878,878,878,878,875,875,875,873,873,873,873,875,873,873,873,871,867,867,867,867,867,867,867,867,873,869,864,862,862,862,864,862,862,862,867,867,867,864,862,862,860,858,856,856,867,867,860,860,858,858,858,860,862,864,864,867,869,869,871,860,860,875,860,860,858,858,858,858,858,860,856,856,856,851,851,851,851,864,869,864,864,864,864,864,858,858,858,858,860,862,864,864,864,856,856,860,858,856,854,854,854,854,854,851,851,851,851,849,849,851,854,854,856,856,856,854,854,851,851,851,856,858,860,860,862,862,864,867,871,873,878,880,882,885,887,891,894,901,910,913,918,920,923,925,928,930,933,933,933,935,0,0,0,0,0,1509,1509,1509,1503,1503,1503,1496,1496,1496,1496,1489,1489,1489,1489,1483,1483,1483,1477,1477,1477,1470,1470,1464,1464,1464,1464,1458,1458,1458,1458,1458,1452,1452,1445,1445,1445,1439,1439,1439,1439,1433,1433,1433,1427,1427,1427,1427,1421,1421,1421,1415,1415,1415,1415,1410,1410,1410,1404,1404,1404,1404,1404,1398,1398,1398,1398,1392,1387,1387,1387,1387,1381,1381,1376,1376,1376,1376,1376,1370,1370,1370,1370,1370,1365,1365,1359,1359,1359,1359,1354,1354,1354,1354,1349,1349,1349,1349,1349,1349,1343,1343,1343,1338,1338,1333,1333,1328,1328,1322,1322,1317,1312,1312,1312,1312,1312,1312,1312,1307,1307,1307,1307,1307,1307,1302,1302,1297,1292,1292,1292,1292,1288,1288,1288,1283,1283,1283,1283,1283,1283,1278,1278,1278,1273,1273,1268,1268,1268,1268,1264,1264,1264,1259,1259,1255,1255,1255,1255,1250,1250,1250,1250,1245,1245,1245,1241,1241,1236,1236,1232,1232,1232,1232,1227,1227,1227,1227,1227,1223,1219,1219,1219,1219,1219,1219,1219,1214,1214,1214,1214,1210,1206,1206,1202,1202,1202,1202,1202,1197,1197,1197,1197,1193,1193,1189,1189,1189,1189,1189,1185,1185,1185,1185,1181,1181,1181,1181,1177,1177,1177,1173,1173,1169,1169,1169,1169,1169,1165,1165,1165,1165,1165,1165,1165,1165,1165,1161,1161,1157,1157,1157,0,0,0,0,0,0,0,0,0,0,0,0,0,0,0,0,0,0,0,0,0,0,0,0,0,0,0,0,0
0,0,0,0,0,0,0,0,0,0,0,0,0,1624,1624,1624,1624,1624,1624,1624,1624,1624,1624,1624,1616,1616,1624,1624,1624,1624,1624,1624,1624,1624,1624,1624,1624,1624,1624,1624,1624,1624,1624,1624,1624,1624,1624,1624,1624,1616,1616,1616,1616,1616,1616,1616,1616,1616,1616,1616,1616,1609,1609,1616,1609,1609,1609,1616,1616,880,880,880,882,882,885,887,887,887,887,887,891,891,891,891,894,894,896,894,891,891,889,889,887,887,887,889,889,894,891,891,894,894,894,896,891,889,889,885,885,880,878,878,880,882,885,885,885,882,882,882,882,882,880,880,880,880,880,880,880,880,882,882,882,882,880,880,882,882,882,885,885,882,878,878,875,875,873,873,873,869,869,871,871,880,880,880,880,880,882,878,878,878,875,875,875,873,873,873,875,875,875,875,875,875,875,873,871,869,869,869,871,871,871,869,869,873,871,871,871,871,871,869,867,867,867,864,862,862,862,862,860,860,860,860,878,875,875,875,875,873,871,869,869,869,869,871,873,873,873,873,873,873,873,867,867,873,873,871,867,864,862,862,860,860,864,864,862,860,858,858,858,862,860,858,858,858,858,858,858,858,858,858,862,860,860,858,856,854,851,851,851,851,851,854,854,854,856,858,858,862,864,864,864,867,854,851,851,851,854,858,856,856,854,854,856,849,849,849,845,845,845,843,843,841,841,841,843,843,843,851,851,851,849,849,849,849,837,837,843,847,845,845,854,851,851,851,851,851,849,847,847,845,843,843,843,845,845,845,845,845,849,849,849,849,849,854,858,860,860,862,862,864,867,871,873,878,880,882,885,887,891,898,908,913,915,918,923,925,925,928,930,933,933,933,933,0,0,0,0,0,1516,1509,1509,1503,1503,1503,1496,1496,1496,1496,1489,1489,1489,1489,1483,1483,1483,1477,1477,1477,1470,1470,1464,1464,1464,1464,1464,1458,1458,1458,1458,1452,1452,1452,1445,1445,1445,1439,1439,1439,1439,1433,1433,1433,1433,1427,1427,1427,1421,1421,1421,1415,1415,1415,1415,1410,1410,1410,1410,1410,1404,1404,1398,1398,1398,1398,1392,1392,1387,1387,1387,1381,1381,1376,1376,1376,1376,1376,1370,1370,1370,1370,1370,1370,1365,1365,1365,1359,1359,1354,1354,1354,1354,1354,1349,1349,1349,1349,1349,1349,1343,1343,1338,1338,1333,1333,1333,1328,1328,1322,1317,1317,1317,1312,1312,1312,1312,1312,1312,1312,1312,1312,1307,1307,1302,1302,1302,1297,1292,1292,1292,1292,1292,1288,1283,1283,1283,1283,1283,1283,1283,1283,1278,1278,1273,1273,1268,1268,1268,1268,1268,1264,1264,1259,1259,1255,1255,1255,1255,1250,1250,1250,1250,1245,1245,1241,1241,1236,1236,1232,1232,1232,1232,1227,1227,1227,1227,1227,1223,1223,1223,1223,1219,1219,1219,1219,1214,1214,1214,1214,1210,1206,1206,1202,1202,1202,1202,1202,1202,1197,1197,1197,1197,1193,1193,1193,1193,1189,1189,1189,1185,1185,1185,1185,1181,1181,1181,1181,1177,1177,1177,1173,1169,1169,1169,1169,1169,1165,1165,1165,1165,1165,1165,1165,1165,1165,1165,1161,1157,1157,1157,0,0,0,0,0,0,0,0,0,0,0,0,0,0,0,0,0,0,0,0,0,0,0,0,0,0,0,0,0
0,0,0,0,0,0,0,0,0,0,0,0,0,1624,1624,1624,1624,1632,1632,1632,1632,1624,1624,1632,1632,1632,1632,1624,1624,1624,1624,1624,1624,1624,1624,1624,1624,1624,1624,1624,1624,1624,1624,1624,1624,860,858,858,1624,1616,1616,1616,1616,1616,1616,1616,1616,1616,1624,1616,1616,1609,1609,1609,1609,1609,878,878,878,878,878,878,880,880,880,882,882,885,885,885,885,885,887,887,882,882,889,889,887,887,887,887,885,885,885,885,885,885,885,885,887,887,887,889,887,885,882,882,882,880,878,878,880,882,882,882,882,882,880,880,880,875,875,875,878,878,878,878,875,875,878,878,875,875,875,875,878,880,878,878,878,878,875,875,875,873,871,871,871,869,869,869,869,871,871,875,875,878,878,875,875,875,873,873,871,871,869,869,869,869,873,873,873,873,873,871,869,867,867,867,869,869,869,869,869,871,871,871,871,869,869,867,864,862,862,862,860,860,862,860,858,858,858,858,860,873,871,871,851,851,869,867,867,864,864,867,869,869,867,867,862,860,860,856,854,854,854,854,854,854,858,860,858,858,860,860,860,860,854,854,858,854,854,851,851,851,854,854,851,851,854,851,851,854,854,851,851,849,845,845,849,849,849,849,849,849,849,851,851,851,851,854,849,845,845,843,843,843,849,856,854,854,851,847,847,849,843,843,843,841,841,839,839,839,839,837,837,839,839,843,845,847,845,845,845,839,837,837,841,841,841,845,845,847,849,849,849,849,849,847,847,841,839,839,839,839,839,843,843,843,845,845,845,845,847,851,854,858,860,862,862,864,867,869,873,878,882,885,887,889,894,906,913,915,915,920,923,925,928,928,930,933,933,933,933,0,0,0,0,0,1516,1509,1509,1509,1503,1503,1496,1496,1496,1496,1496,1489,1489,1489,1489,1483,1483,1483,1477,1477,1477,1470,1470,1464,1464,1464,1464,1464,1464,1464,1464,1458,1458,1458,1445,1445,1445,1439,1439,1439,1439,1439,1433,1433,1433,1433,1433,1427,1427,1421,1421,1415,1415,1415,1415,1410,1410,1410,1410,1410,1410,1404,1404,1398,1398,1398,1392,1392,1392,1387,1387,1381,1381,1381,1376,1376,1376,1376,1376,1370,1370,1370,1370,1370,1370,1365,1365,1365,1359,1359,1354,1354,1354,1354,1349,1349,1349,1349,1349,1349,1343,1343,1338,1338,1333,1333,1333,1333,1328,1322,1322,1317,1317,1317,1317,1312,1312,1312,1312,1312,1312,1312,1307,1307,1302,1302,1302,1297,1292,1292,1292,1292,1292,1288,1288,1283,1283,1283,1283,1283,1283,1283,1278,1278,1273,1273,1268,1268,1268,1268,1268,1264,1264,1264,1259,1255,1255,1255,1255,1250,1250,1250,1250,1250,1245,1245,1241,1236,1236,1236,1232,1232,1232,1227,1227,1227,1227,1227,1227,1227,1223,1223,1223,1219,1219,1219,1219,1214,1214,1214,1214,1210,1206,1206,1206,1202,1202,1202,1202,1197,1197,1197,1197,1197,1197,1193,1193,1193,1193,1189,1185,1185,1185,1185,1185,1181,1181,1181,1177,1177,1177,1173,1169,1169,1169,1169,1169,1165,1165,1165,1165,1165,1165,1165,1165,1165,1165,1165,1161,1157,1157,0,0,0,0,0,0,0,0,0,0,0,0,0,0,0,0,0,0,0,0,0,0,0,0,0,0,0,0,0
0,0,0,0,0,0,0,0,0,0,0,0,0,1624,1624,1624,1624,1632,1632,1632,1632,1632,1632,1632,1632,1632,1632,1632,1632,1632,1624,1624,1624,1624,1624,1624,1624,1624,1624,1624,1624,1624,1624,1624,1624,860,858,858,858,858,1609,1616,1616,1624,1624,1624,1624,869,869,1624,1616,878,878,878,878,878,875,875,878,878,878,878,878,878,878,878,878,882,880,878,878,878,880,875,875,878,882,885,885,885,885,885,882,882,882,880,880,880,880,880,880,882,882,885,882,873,873,878,878,878,875,875,878,878,878,880,878,875,875,875,871,871,871,871,873,873,871,871,873,873,873,871,869,869,869,869,869,869,869,869,875,875,869,869,873,871,869,869,867,867,867,858,858,864,871,871,873,875,875,873,873,873,869,869,869,869,867,860,860,860,873,862,862,864,869,867,864,862,862,864,864,864,864,864,864,867,869,867,864,864,858,858,862,860,860,862,860,860,860,860,856,856,856,854,854,854,851,851,851,849,849,849,862,860,860,860,860,854,851,849,849,851,851,851,851,851,851,851,851,851,854,856,856,856,860,860,860,845,843,843,843,845,851,847,845,845,851,851,849,849,849,849,843,843,845,847,845,843,843,843,843,845,847,847,847,847,847,847,845,845,849,847,847,845,845,843,843,843,843,843,845,845,845,841,841,841,841,841,841,839,839,839,839,839,839,837,837,837,839,841,843,843,843,843,843,837,837,837,837,837,837,835,833,833,835,835,849,849,849,847,841,839,837,837,837,839,839,841,841,843,843,845,845,845,847,847,851,858,860,860,862,862,864,869,873,878,882,885,889,903,906,908,913,915,915,920,923,925,928,928,930,933,933,935,935,0,0,0,0,0,1516,1516,1509,1509,1509,1503,1503,1496,1496,1496,1496,1489,1489,1489,1489,1489,1483,1483,1483,1477,1477,1470,1470,1470,1464,1464,1464,1464,1464,1464,1464,1458,1458,1458,1445,1445,1445,1445,1439,1439,1439,1439,1439,1433,1433,1433,1433,1427,1427,1421,1421,1415,1415,1415,1415,1410,1410,1410,1410,1410,1410,1404,1404,1398,1398,1398,1392,1392,1392,1392,1387,1387,1387,1381,1381,1376,1376,1376,1376,1370,1370,1370,1370,1370,1370,1370,1370,1365,1365,1359,1359,1354,1354,1354,1354,1349,1349,1349,1349,1349,1343,1343,1343,1338,1338,1333,1333,1333,1333,1328,1322,1322,1317,1317,1317,1317,1312,1312,1312,1312,1312,1312,1307,1307,1302,1302,1302,1297,1297,1292,1292,1292,1292,1288,1288,1288,1288,1288,1283,1283,1283,1283,1283,1278,1273,1273,1273,1273,1268,1268,1268,1268,1264,1264,1259,1259,1259,1255,1255,1250,1250,1250,1250,1250,1245,1245,1241,1241,1241,1236,1236,1236,1232,1232,1227,1227,1227,1227,1227,1227,1227,1223,1223,1219,1219,1219,1219,1214,1214,1214,1214,1210,1206,1206,1206,1202,1202,1202,1202,1202,1197,1197,1197,1197,1197,1197,1193,1193,1189,1189,1185,1185,1185,1185,1185,1181,1181,1181,1177,1177,1177,1173,1169,1169,1169,1169,1169,1165,1165,1165,1165,1165,1165,1165,1165,1165,1165,1165,1161,1157,1157,0,0,0,0,0,0,0,0,0,0,0,0,0,0,0,0,0,0,0,0,0,0,0,0,0,0,0,0,0
0,0,0,0,0,0,0,0,0,0,0,0,0,1632,1632,1632,1632,1632,1632,1632,1632,1632,1632,1632,1632,1632,1632,1632,1632,1632,1624,1624,1624,1624,1624,1624,1624,1624,1624,1624,1624,1624,1624,1624,862,860,858,858,858,858,860,864,869,869,869,869,867,867,867,869,869,869,871,878,878,878,875,875,873,873,873,873,873,875,875,873,873,873,873,873,873,871,871,875,875,873,873,875,875,882,882,882,875,875,875,875,875,875,875,871,869,860,851,851,869,869,869,871,871,875,873,873,871,871,873,873,873,871,871,869,869,869,867,867,869,864,864,864,860,860,864,864,864,862,862,862,867,867,867,867,867,869,867,867,864,864,862,862,864,862,862,858,858,860,860,860,860,860,860,860,860,860,856,856,854,851,851,854,851,851,856,856,856,856,860,862,862,860,860,860,862,862,851,851,849,849,849,849,849,851,849,849,849,858,858,858,858,858,858,858,854,854,851,851,849,847,847,847,847,847,849,849,856,849,849,849,847,847,849,847,847,849,849,849,849,849,849,847,847,849,849,854,851,851,854,854,858,845,843,843,843,843,847,843,841,841,843,847,845,843,843,843,841,841,841,841,841,839,839,839,839,841,843,845,845,847,847,847,843,843,843,837,837,843,841,841,841,841,837,837,841,843,841,839,839,839,837,837,837,837,837,837,837,837,837,837,837,837,837,839,839,841,841,839,839,835,835,833,833,833,833,833,831,831,829,829,849,849,849,847,837,835,835,833,833,835,837,837,839,841,843,843,845,845,847,847,851,858,860,860,862,862,864,869,873,880,882,887,891,908,910,913,915,915,918,920,923,925,928,928,930,935,935,935,938,0,0,0,0,0,1523,1516,1516,1509,1509,1509,1503,1503,1503,1496,1496,1496,1489,1489,1489,1489,1489,1483,1483,1483,1477,1470,1470,1470,1464,1464,1464,1464,1464,1464,1464,1464,1458,1458,1452,1452,1445,1445,1445,1439,1439,1439,1439,1433,1433,1433,1433,1433,1427,1427,1427,1421,1415,1415,1415,1415,1415,1410,1410,1410,1410,1404,1404,1398,1398,1398,1398,1392,1392,1392,1392,1387,1387,1381,1381,1381,1381,1376,1376,1376,1370,1370,1370,1370,1370,1370,1370,1370,1365,1365,1359,1359,1354,1354,1354,1349,1349,1349,1349,1349,1349,1343,1343,1338,1338,1338,1338,1333,1333,1333,1322,1322,1322,1317,1317,1317,1312,1312,1312,1312,1312,1312,1312,1307,1307,1307,1302,1302,1297,1292,1292,1292,1292,1288,1288,1288,1288,1288,1288,1288,1283,1283,1283,1278,1278,1273,1273,1273,1268,1268,1268,1268,1268,1264,1264,1259,1259,1255,1255,1250,1250,1250,1250,1250,1250,1245,1245,1245,1241,1241,1236,1236,1232,1232,1232,1227,1227,1227,1227,1227,1227,1223,1223,1219,1219,1219,1219,1219,1214,1214,1214,1210,1206,1206,1206,1202,1202,1202,1202,1202,1202,1202,1197,1197,1197,1197,1193,1193,1189,1189,1185,1185,1185,1185,1185,1185,1181,1181,1181,1177,1177,1173,1173,1169,1169,1169,1169,1169,1169,1165,1165,1165,1165,1165,1165,1165,1165,1165,1161,1157,1157,0,0,0,0,0,0,0,0,0,0,0,0,0,0,0,0,0,0,0,0,0,0,0,0,0,0,0,0,0
0,0,0,0,0,0,0,0,0,0,0,0,0,1632,1632,1632,1632,1632,1632,1632,1632,1632,1632,1632,1632,1632,1632,1632,1632,1632,1632,1624,1624,1624,1624,1624,1624,1624,1624,1624,1624,1624,1624,864,862,860,858,858,860,860,860,860,862,864,864,864,864,867,867,867,867,869,871,875,875,875,875,875,873,871,871,871,871,871,871,869,869,869,869,869,869,869,869,873,875,873,873,873,862,862,860,860,862,869,867,867,869,867,867,864,862,860,851,851,858,860,862,864,867,867,871,871,869,869,869,871,869,869,869,867,867,864,860,860,858,858,858,860,860,860,862,862,860,860,860,860,860,860,858,856,856,856,867,864,860,860,858,858,860,860,858,858,860,858,858,854,854,854,854,854,849,849,849,849,849,849,849,849,851,851,851,851,851,854,856,858,860,858,858,858,860,843,843,849,843,843,845,847,847,849,847,847,847,858,856,856,858,858,858,849,849,849,849,849,847,847,847,845,843,843,843,843,843,845,847,847,845,845,847,845,845,845,845,845,845,845,845,845,845,845,843,843,843,843,843,854,858,845,843,841,841,839,839,839,839,837,837,839,841,841,841,843,841,837,837,837,837,837,837,837,837,837,839,841,843,845,845,841,839,837,837,837,835,835,835,835,835,835,835,835,837,837,839,837,837,835,835,835,835,835,835,835,835,837,837,837,835,835,835,835,833,833,835,835,835,835,833,833,833,833,831,831,829,829,829,827,827,827,823,823,823,825,827,831,831,833,835,835,837,839,841,843,845,845,845,847,851,858,860,860,862,862,864,869,871,880,882,889,908,913,913,915,915,918,918,920,923,925,928,930,933,935,938,938,940,0,0,0,0,0,1523,1516,1516,1509,1509,1509,1509,1509,1503,1496,1496,1496,1496,1489,1489,1489,1489,1483,1483,1477,1477,1470,1470,1470,1464,1464,1464,1464,1464,1464,1464,1464,1464,1464,1452,1452,1452,1445,1445,1445,1445,1439,1439,1439,1439,1439,1433,1433,1433,1427,1427,1421,1421,1415,1415,1415,1415,1410,1410,1410,1410,1404,1404,1404,1404,1398,1398,1398,1398,1398,1392,1392,1387,1387,1387,1381,1381,1376,1376,1376,1376,1370,1370,1370,1370,1370,1370,1370,1370,1365,1365,1359,1359,1354,1354,1354,1354,1349,1349,1349,1349,1343,1343,1343,1338,1338,1338,1338,1333,1333,1328,1328,1322,1322,1317,1317,1317,1317,1317,1317,1312,1312,1312,1312,1307,1307,1302,1302,1297,1297,1292,1292,1292,1292,1288,1288,1288,1288,1288,1288,1283,1283,1283,1278,1278,1273,1273,1273,1273,1268,1268,1268,1268,1268,1264,1264,1259,1259,1255,1255,1250,1250,1250,1250,1250,1245,1245,1245,1245,1241,1236,1236,1236,1232,1232,1232,1232,1232,1227,1227,1227,1227,1223,1223,1219,1219,1219,1214,1214,1214,1214,1210,1210,1210,1206,1206,1206,1206,1202,1202,1202,1202,1197,1197,1197,1197,1197,1193,1189,1189,1189,1189,1185,1185,1185,1185,1181,1181,1181,1177,1177,1173,1173,1173,1169,1169,1169,1169,1169,1169,1169,1165,1165,1165,1165,1165,1165,1165,1161,1157,1157,0,0,0,0,0,0,0,0,0,0,0,0,0,0,0,0,0,0,0,0,0,0,0,0,0,0,0,0,0
0,0,0,0,0,0,0,0,0,0,0,0,0,1632,1632,1632,1632,1632,1632,1632,1632,1632,1632,1632,1632,1632,1632,1632,1632,1632,1632,1632,1632,1624,1624,1624,1624,1624,1624,1624,1624,1624,1624,862,860,860,858,858,858,860,860,860,860,860,860,862,862,864,864,867,867,867,869,869,871,875,873,873,871,869,869,869,869,869,869,867,867,867,867,867,864,864,867,867,869,867,862,862,860,860,858,858,860,862,862,862,862,862,864,862,860,858,854,854,856,856,862,864,867,867,869,869,867,862,858,858,862,864,862,862,862,860,860,858,858,856,854,854,856,856,858,858,858,858,856,856,851,851,854,854,854,849,849,849,854,856,854,854,856,856,856,856,856,854,854,851,851,851,851,849,847,845,845,847,849,849,849,849,849,849,849,849,849,849,849,851,856,856,856,845,845,843,843,845,843,843,843,843,843,845,843,843,843,843,845,845,845,837,837,841,843,843,841,841,843,843,843,843,843,843,843,843,843,843,841,841,841,843,843,843,843,843,843,843,843,843,843,843,841,841,841,841,837,837,837,837,835,835,839,837,837,835,835,837,837,837,837,839,841,839,839,843,841,837,837,837,835,835,835,835,835,835,835,835,835,835,835,835,833,833,833,833,833,833,833,833,833,831,831,831,831,831,835,835,835,833,833,833,833,833,833,833,833,833,835,835,833,833,833,833,827,827,835,819,819,833,833,831,829,829,829,829,829,829,825,825,823,823,823,823,823,823,825,829,829,831,833,835,837,839,841,843,845,845,845,847,851,856,860,862,862,862,869,869,871,901,901,908,908,913,915,915,918,918,918,923,925,925,928,930,933,935,938,938,940,0,0,0,0,0,1523,1516,1516,1516,1509,1509,1509,1509,1503,1503,1496,1496,1496,1496,1489,1489,1489,1489,1483,1477,1477,1477,1470,1470,1470,1470,1464,1464,1464,1464,1464,1464,1464,1464,1452,1452,1452,1445,1445,1445,1445,1445,1439,1439,1439,1439,1439,1433,1433,1427,1427,1421,1421,1415,1415,1415,1415,1415,1415,1410,1410,1410,1404,1404,1404,1398,1398,1398,1398,1398,1392,1392,1392,1387,1387,1381,1381,1381,1376,1376,1376,1376,1376,1376,1370,1370,1370,1370,1370,1370,1365,1365,1359,1354,1354,1354,1354,1349,1349,1349,1349,1349,1343,1343,1338,1338,1338,1338,1333,1333,1333,1328,1328,1322,1322,1322,1322,1317,1317,1317,1317,1317,1312,1312,1312,1307,1307,1302,1297,1297,1297,1292,1292,1292,1288,1288,1288,1288,1288,1288,1288,1288,1283,1278,1278,1273,1273,1273,1273,1273,1273,1268,1268,1268,1264,1264,1264,1259,1255,1255,1255,1250,1250,1250,1250,1250,1245,1245,1245,1241,1241,1241,1236,1236,1232,1232,1232,1232,1227,1227,1232,1227,1227,1223,1223,1219,1219,1214,1214,1214,1214,1214,1210,1210,1210,1206,1206,1206,1206,1202,1202,1202,1202,1202,1202,1197,1197,1197,1197,1193,1189,1189,1185,1185,1185,1185,1185,1181,1181,1181,1177,1177,1173,1173,1173,1169,1169,1169,1169,1169,1169,1165,1165,1165,1165,1165,1165,1165,1161,1161,1161,0,0,0,0,0,0,0,0,0,0,0,0,0,0,0,0,0,0,0,0,0,0,0,0,0,0,0,0,0
0,0,0,0,0,0,0,0,0,0,0,0,0,1632,1632,1632,1639,1632,1632,1632,1632,1632,1632,1632,1632,1632,1632,1632,1624,1624,1624,1624,1632,1632,1632,1632,1632,1632,1624,1624,1624,860,860,860,858,858,858,858,858,858,858,858,858,860,860,860,862,864,864,867,867,867,869,867,867,873,873,873,869,867,867,867,867,867,867,864,862,862,860,860,860,860,860,860,860,860,858,858,858,858,858,858,858,860,858,856,856,856,860,858,858,856,854,854,854,854,862,864,864,864,867,867,864,856,851,851,851,851,854,854,858,856,856,854,854,851,849,849,849,851,856,856,856,854,851,843,843,841,841,841,841,843,843,843,845,845,847,849,851,854,854,854,854,851,851,847,845,845,845,849,847,845,845,845,847,847,847,847,847,847,841,841,847,843,843,839,837,837,837,835,835,839,839,841,841,841,839,839,839,841,841,841,841,839,839,843,839,837,837,837,837,837,837,837,837,841,841,841,839,839,839,839,837,837,837,835,835,835,837,837,839,841,841,841,841,841,841,839,839,835,835,835,833,833,833,833,833,833,835,835,835,835,835,837,837,837,837,841,843,839,839,843,841,833,833,833,831,831,833,833,831,831,831,831,827,827,827,827,827,829,829,829,829,829,829,831,827,827,827,827,827,827,829,829,831,831,831,829,829,829,829,827,827,827,827,829,827,825,825,833,821,821,819,817,817,819,821,819,819,823,823,827,827,825,821,819,819,819,821,821,821,823,823,825,827,829,831,835,837,839,841,843,845,845,845,847,851,856,860,862,864,903,903,906,906,908,908,908,910,913,915,915,918,918,920,923,925,925,928,928,933,935,938,938,940,0,0,0,0,1523,1523,1516,1516,1516,1516,1509,1509,1509,1509,1503,1503,1496,1496,1496,1489,1489,1489,1489,1483,1477,1477,1477,1477,1470,1470,1470,1470,1470,1464,1464,1464,1464,1464,1464,1452,1452,1452,1445,1445,1445,1445,1445,1439,1439,1439,1439,1439,1433,1433,1427,1427,1427,1421,1421,1421,1415,1415,1415,1415,1415,1410,1410,1410,1404,1404,1404,1398,1398,1398,1398,1392,1392,1392,1387,1387,1387,1387,1381,1381,1381,1376,1376,1376,1376,1370,1370,1370,1370,1370,1370,1365,1365,1365,1359,1354,1354,1354,1354,1349,1349,1349,1349,1343,1343,1338,1338,1338,1338,1333,1333,1333,1328,1328,1322,1322,1322,1322,1317,1317,1317,1317,1317,1312,1312,1312,1312,1307,1302,1302,1297,1297,1292,1292,1292,1292,1292,1292,1288,1288,1288,1288,1288,1283,1283,1278,1278,1273,1273,1273,1273,1273,1268,1268,1268,1268,1264,1264,1259,1255,1255,1255,1250,1250,1250,1250,1250,1245,1245,1245,1245,1241,1241,1236,1236,1232,1232,1232,1232,1227,1227,1232,1232,1227,1223,1223,1219,1219,1219,1214,1214,1214,1214,1210,1210,1210,1206,1206,1206,1206,1206,1206,1202,1202,1202,1202,1197,1197,1197,1197,1193,1189,1189,1185,1185,1185,1185,1185,1181,1181,1181,1177,1177,1177,1173,1173,1173,1173,1169,1169,1169,1169,1169,1165,1165,1165,1165,1165,1165,1161,1161,1161,0,0,0,0,0,0,0,0,0,0,0,0,0,0,0,0,0,0,0,0,0,0,0,0,0,0,0,0,0
0,0,0,0,0,0,0,0,0,0,0,0,0,1632,1632,1632,1639,1632,1632,1632,1632,1632,1632,1632,1632,1632,1632,1632,1624,1624,1624,1624,1632,1632,1632,1632,1632,1632,847,854,854,854,854,856,858,858,856,856,858,858,858,858,858,856,856,858,860,862,864,862,862,864,862,858,856,856,856,856,860,862,862,862,862,862,860,860,858,858,856,856,856,858,858,858,856,856,856,856,856,856,856,856,856,856,856,851,851,851,851,851,845,845,847,847,849,849,847,847,851,851,851,860,854,851,845,845,845,845,845,849,849,851,849,849,851,849,847,845,845,845,845,845,847,847,845,843,843,839,839,839,837,837,837,837,839,843,843,843,843,843,845,845,849,849,849,843,843,843,843,841,841,843,843,843,843,843,843,843,845,841,839,837,837,841,837,835,835,837,837,835,835,837,837,837,837,837,837,835,835,833,833,833,833,833,833,837,835,835,835,837,837,837,835,835,837,837,837,835,835,837,835,835,833,833,829,827,827,827,829,831,831,831,831,833,837,835,835,833,833,829,829,831,831,831,831,831,831,831,829,829,833,831,831,833,835,835,835,841,843,843,825,825,829,829,831,831,829,829,829,827,825,821,819,819,819,817,815,815,821,823,825,825,825,825,819,819,821,821,827,827,827,827,829,829,829,827,825,821,821,825,825,825,819,819,819,823,823,817,817,819,819,819,817,817,817,813,813,811,811,819,819,821,821,819,817,817,817,817,819,819,819,821,823,823,825,827,829,835,837,839,841,843,845,845,845,847,854,856,860,898,898,901,903,906,906,908,908,910,913,915,915,918,918,918,920,923,925,928,928,928,933,938,940,943,946,0,0,0,0,1523,1516,1516,1516,1516,1516,1509,1509,1509,1509,1503,1503,1503,1496,1496,1496,1489,1489,1489,1483,1483,1477,1477,1477,1470,1470,1470,1470,1470,1464,1464,1464,1464,1464,1464,1452,1452,1452,1445,1445,1445,1445,1445,1445,1439,1439,1439,1439,1439,1433,1433,1433,1427,1421,1421,1421,1415,1415,1415,1415,1415,1410,1410,1410,1410,1404,1404,1398,1398,1398,1398,1392,1392,1392,1392,1387,1387,1387,1381,1381,1381,1376,1376,1376,1376,1370,1370,1370,1370,1370,1370,1365,1365,1365,1359,1354,1354,1354,1354,1349,1349,1349,1349,1343,1343,1343,1338,1338,1338,1338,1333,1333,1333,1328,1328,1328,1322,1322,1317,1317,1317,1317,1317,1312,1312,1312,1312,1307,1302,1302,1297,1297,1297,1292,1292,1292,1292,1292,1292,1288,1288,1288,1288,1288,1283,1278,1278,1278,1273,1273,1273,1273,1268,1268,1268,1268,1264,1264,1259,1259,1255,1255,1255,1255,1250,1250,1250,1250,1245,1245,1245,1245,1245,1241,1236,1236,1232,1232,1232,1227,1227,1232,1227,1227,1223,1223,1223,1219,1219,1219,1214,1214,1214,1214,1214,1210,1210,1210,1210,1210,1206,1206,1202,1202,1202,1202,1197,1197,1197,1197,1197,1193,1193,1189,1189,1185,1185,1185,1185,1185,1181,1181,1181,1181,1177,1177,1177,1177,1173,1173,1169,1169,1169,1169,1169,1169,1165,1165,1165,1165,1161,1161,0,0,0,0,0,0,0,0,0,0,0,0,0,0,0,0,0,0,0,0,0,0,0,0,0,0,0,0,0
0,0,0,0,0,0,0,0,0,0,0,0,0,1632,1632,1632,1632,1632,1632,1632,1632,1632,1632,1632,1632,1624,1624,1624,1624,1624,1624,1624,1624,1632,1632,1632,1632,0,0,847,851,851,851,851,854,851,851,854,856,858,856,856,854,854,854,854,854,854,856,854,854,854,854,851,851,851,851,851,854,860,860,860,860,860,860,858,854,854,851,851,854,854,851,851,851,851,851,854,854,854,851,851,851,849,849,847,847,847,843,843,841,841,841,841,841,839,839,847,847,847,843,843,845,845,843,841,841,839,839,843,843,847,847,847,847,845,841,841,841,835,835,839,843,843,843,841,841,837,835,835,835,835,835,835,835,837,839,837,837,833,833,835,849,843,843,841,841,837,837,839,839,837,837,839,839,841,839,839,839,839,837,835,835,837,835,833,833,835,835,833,833,833,835,835,833,833,833,831,829,829,829,829,827,827,829,827,827,831,831,831,833,833,831,831,833,829,829,829,835,835,829,829,829,829,825,825,825,825,825,825,825,827,827,821,821,821,821,827,827,827,827,827,827,827,827,829,827,827,825,823,823,819,819,833,831,831,831,819,819,843,821,821,829,829,831,831,827,827,827,823,819,819,817,817,817,815,813,813,819,821,821,821,821,817,817,813,813,813,813,811,811,811,811,811,811,811,811,813,813,815,815,815,819,817,817,817,817,815,813,811,811,817,817,817,817,813,813,811,811,817,817,815,813,813,813,813,815,815,817,819,819,821,821,823,825,827,829,833,833,839,841,843,845,845,845,847,851,894,894,896,898,901,901,903,906,906,908,910,913,915,918,918,920,920,923,925,925,928,928,930,935,940,943,946,946,0,0,0,0,0,1516,1516,1516,1516,1516,1516,1516,1509,1509,1503,1503,1503,1503,1496,1496,1496,1489,1489,1483,1483,1483,1477,1477,1477,1470,1470,1470,1470,1470,1464,1464,1464,1464,1464,1464,1458,1452,1452,1452,1445,1445,1445,1445,1439,1439,1439,1439,1439,1439,1433,1433,1427,1427,1421,1421,1421,1415,1415,1415,1415,1415,1415,1410,1410,1404,1404,1398,1398,1398,1398,1398,1392,1392,1392,1392,1387,1387,1381,1381,1381,1376,1376,1376,1376,1376,1370,1370,1370,1370,1370,1370,1365,1365,1365,1359,1354,1354,1354,1354,1349,1349,1349,1349,1343,1343,1338,1338,1338,1338,1338,1333,1333,1333,1328,1328,1322,1322,1317,1317,1317,1317,1317,1312,1312,1312,1312,1307,1307,1302,1302,1302,1297,1297,1297,1292,1292,1292,1292,1288,1288,1288,1288,1288,1283,1283,1278,1278,1278,1273,1273,1273,1268,1268,1268,1268,1264,1264,1259,1259,1255,1255,1255,1255,1250,1250,1250,1250,1250,1250,1250,1245,1245,1241,1236,1236,1236,1232,1232,1232,1232,1232,1227,1227,1227,1223,1223,1219,1219,1219,1214,1214,1214,1214,1214,1210,1210,1210,1210,1210,1206,1206,1206,1202,1202,1202,1197,1197,1197,1197,1197,1193,1193,1189,1189,1185,1185,1185,1185,1185,1181,1181,1181,1181,1181,1181,1181,1177,1177,1177,1173,1169,1169,1169,1169,1165,1165,1165,1165,1165,1161,1161,0,0,0,0,0,0,0,0,0,0,0,0,0,0,0,0,0,0,0,0,0,0,0,0,0,0,0,0,0
0,0,0,0,0,0,0,0,0,0,0,0,0,1632,1632,1632,1632,1632,1632,1632,1632,1632,1632,1624,1624,1624,1624,1624,1624,1616,1616,1624,1624,1624,1624,837,0,837,837,847,847,847,849,849,851,849,849,849,851,854,856,851,851,851,849,847,847,847,847,849,849,849,849,849,847,847,847,841,841,858,858,858,858,845,845,847,847,845,845,845,845,849,851,851,851,847,847,849,849,849,849,845,845,843,843,845,843,839,839,839,839,839,839,837,835,833,833,833,841,841,839,837,837,837,839,839,837,835,835,837,837,841,841,841,841,841,839,839,837,835,835,835,835,835,837,839,839,835,835,835,833,833,833,833,833,837,837,833,833,827,821,819,819,819,821,825,825,825,823,823,823,825,823,823,825,825,827,827,827,829,829,829,833,829,829,829,831,831,833,831,831,831,833,831,827,827,827,829,827,827,827,827,825,825,825,821,821,821,821,823,825,827,825,825,823,823,823,821,821,821,821,823,823,823,821,821,823,823,819,817,817,817,819,819,817,817,819,819,821,821,823,825,825,825,825,823,821,819,819,819,819,819,819,819,819,819,817,813,811,811,817,817,817,817,817,819,821,827,819,819,819,817,817,817,817,813,813,811,811,817,819,815,815,813,813,813,813,809,809,807,807,807,809,809,809,809,809,811,811,809,809,811,811,809,809,809,811,811,809,809,805,805,815,813,813,811,811,809,809,813,813,811,807,807,809,811,813,815,815,817,817,819,821,823,825,827,829,831,831,839,841,843,845,845,847,851,851,889,894,894,896,901,901,903,906,906,908,910,915,918,918,920,923,923,923,925,928,930,930,935,938,940,946,946,948,0,0,0,0,0,1516,1516,1516,1516,1516,1516,1516,1516,1509,1509,1509,1503,1503,1496,1496,1496,1496,1489,1483,1483,1483,1483,1477,1477,1477,1470,1470,1470,1470,1470,1464,1464,1464,1464,1464,1458,1458,1452,1452,1445,1445,1445,1445,1445,1439,1439,1439,1439,1439,1433,1433,1427,1427,1427,1421,1421,1421,1415,1415,1415,1415,1415,1415,1410,1410,1410,1404,1404,1398,1398,1398,1398,1392,1392,1392,1392,1392,1387,1387,1381,1376,1376,1376,1376,1376,1370,1370,1370,1370,1370,1370,1365,1365,1365,1359,1354,1354,1354,1354,1354,1349,1349,1349,1349,1343,1343,1343,1343,1338,1338,1333,1333,1333,1328,1328,1322,1322,1322,1317,1317,1317,1317,1312,1312,1312,1312,1307,1307,1307,1302,1302,1302,1297,1297,1297,1292,1292,1292,1292,1288,1288,1288,1288,1288,1283,1283,1278,1278,1273,1273,1273,1268,1268,1268,1268,1268,1264,1259,1259,1255,1255,1255,1255,1250,1250,1250,1250,1250,1250,1250,1245,1245,1241,1236,1236,1236,1232,1232,1232,1232,1232,1232,1232,1227,1223,1223,1219,1219,1219,1219,1214,1214,1214,1214,1210,1210,1210,1210,1210,1210,1210,1206,1206,1206,1202,1197,1197,1197,1197,1197,1197,1193,1193,1189,1185,1185,1185,1185,1185,1181,1181,1181,1181,1181,1181,1181,1177,1177,1177,1173,1169,1169,1169,1169,1165,1165,1165,1165,1165,1161,1161,0,0,0,0,0,0,0,0,0,0,0,0,0,0,0,0,0,0,0,0,0,0,0,0,0,0,0,0,0
0,0,0,0,0,0,0,0,0,0,0,0,0,1624,1624,1632,1624,1624,1624,1624,1624,1624,1624,1624,1624,1624,1624,1624,1624,1616,1616,1616,0,841,839,837,837,837,837,837,837,845,845,845,849,849,847,847,847,849,851,847,847,847,845,843,843,843,843,843,843,845,845,845,843,843,837,837,835,835,843,837,835,835,841,841,843,841,841,841,841,839,839,851,854,847,847,849,847,847,845,839,835,835,835,833,833,833,835,835,835,835,835,835,833,831,831,831,829,829,829,833,833,833,835,835,835,833,833,833,835,829,829,829,837,837,837,837,835,831,829,829,829,829,829,829,829,833,833,831,829,829,831,829,829,829,829,827,825,825,821,819,819,819,819,821,823,821,821,821,821,821,823,823,821,821,823,825,825,825,825,825,827,827,825,825,821,821,823,823,821,821,829,825,823,823,825,825,825,825,825,825,821,821,821,819,819,819,819,819,819,821,817,815,815,815,817,815,815,815,815,817,817,817,817,817,819,817,817,815,815,815,815,817,817,817,817,817,819,819,819,819,819,819,819,821,817,817,817,817,817,819,817,817,817,811,811,811,809,809,809,811,811,811,813,813,815,815,817,817,817,815,815,815,813,811,809,807,807,805,803,803,809,809,809,809,809,807,805,803,803,803,805,803,803,803,803,809,809,807,807,807,809,807,807,805,802,800,798,798,800,803,803,803,809,809,809,809,805,805,809,807,805,805,807,809,811,813,815,817,817,819,821,823,825,827,827,829,831,839,841,845,847,847,880,885,887,889,891,894,896,898,901,903,906,908,908,910,918,918,920,923,925,925,925,928,928,930,930,935,940,943,946,948,948,0,0,0,0,1516,1516,1516,1516,1516,1516,1516,1516,1516,1509,1509,1509,1503,1503,1496,1496,1496,1496,1489,1483,1483,1483,1483,1483,1477,1477,1477,1477,1477,1470,1470,1470,1464,1464,1464,1464,1458,1458,1452,1452,1445,1445,1445,1445,1445,1445,1439,1439,1439,1439,1433,1433,1433,1427,1427,1427,1421,1421,1421,1421,1421,1415,1415,1415,1415,1410,1410,1404,1404,1398,1398,1398,1398,1392,1392,1392,1392,1392,1387,1387,1387,1381,1376,1376,1376,1376,1370,1370,1370,1370,1370,1370,1365,1365,1365,1359,1359,1354,1354,1354,1354,1349,1349,1349,1349,1349,1343,1343,1343,1343,1338,1338,1333,1333,1328,1328,1328,1322,1322,1322,1322,1322,1322,1317,1312,1312,1312,1312,1307,1307,1307,1307,1302,1302,1302,1297,1297,1292,1292,1292,1288,1288,1288,1288,1288,1288,1283,1283,1278,1278,1273,1273,1268,1268,1268,1268,1268,1264,1264,1259,1259,1255,1255,1255,1255,1250,1250,1250,1250,1250,1250,1250,1250,1241,1241,1236,1236,1236,1236,1232,1232,1232,1232,1232,1227,1227,1223,1223,1219,1219,1219,1219,1219,1214,1214,1214,1214,1214,1210,1210,1210,1210,1210,1206,1206,1202,1202,1197,1197,1197,1197,1197,1193,1193,1189,1189,1185,1185,1185,1185,1185,1185,1181,1181,1181,1181,1181,1181,1181,1177,1173,1173,1169,1169,1169,1169,1169,1165,1165,1165,1161,1161,0,0,0,0,0,0,0,0,0,0,0,0,0,0,0,0,0,0,0,0,0,0,0,0,0,0,0,0,0
0,0,0,0,0,0,0,0,0,0,0,0,0,1624,1624,1632,1624,1624,1624,1624,1624,1624,1624,1624,0,0,0,0,0,0,0,843,843,841,839,837,837,837,835,835,835,837,843,843,843,845,843,843,843,847,847,845,843,843,839,839,841,839,839,839,837,837,839,837,837,839,837,835,835,835,835,835,831,831,835,837,841,841,839,839,839,829,827,825,825,825,849,849,843,839,839,837,835,833,829,829,829,831,831,833,833,833,833,833,831,831,829,829,827,827,827,825,825,825,825,833,829,829,829,829,827,827,825,825,825,835,835,833,833,827,827,825,825,825,823,823,829,829,829,827,825,825,823,821,819,819,819,817,817,819,817,817,817,815,815,817,817,819,819,819,819,819,819,819,819,819,819,821,821,821,819,819,817,815,815,821,819,819,817,815,815,815,819,819,819,819,819,823,823,821,821,821,819,819,817,817,815,815,815,815,815,811,811,811,811,811,813,813,811,811,811,809,809,809,809,811,811,815,815,811,811,811,811,813,815,815,815,815,817,817,817,815,815,809,809,815,813,813,815,813,813,817,813,813,811,811,809,809,807,803,803,807,809,809,809,809,807,807,809,809,809,809,809,809,809,807,805,805,803,803,802,802,802,805,807,805,805,805,803,803,803,803,803,803,803,802,802,803,807,802,802,802,802,803,803,800,800,798,798,798,796,796,796,798,809,807,805,798,798,800,800,805,805,805,805,809,809,813,813,817,819,819,821,821,823,825,827,829,829,875,875,875,880,880,880,882,885,887,891,891,896,898,901,903,906,908,908,910,920,920,923,925,925,925,925,928,928,930,930,935,943,943,948,948,0,0,0,0,0,1516,1516,1516,1516,1516,1516,1516,1516,1516,1516,1509,1509,1503,1503,1503,1496,1496,1496,1489,1489,1489,1483,1483,1483,1483,1483,1483,1477,1477,1470,1470,1470,1464,1464,1464,1464,1458,1458,1458,1452,1452,1445,1445,1445,1445,1445,1445,1439,1439,1439,1439,1439,1433,1433,1433,1427,1427,1421,1421,1421,1421,1415,1415,1415,1415,1415,1410,1404,1404,1398,1398,1398,1398,1392,1392,1392,1392,1392,1392,1392,1392,1381,1381,1376,1376,1376,1370,1370,1370,1370,1370,1370,1370,1365,1365,1359,1359,1359,1354,1354,1354,1354,1354,1349,1349,1349,1349,1349,1343,1343,1338,1333,1333,1333,1328,1328,1328,1322,1322,1322,1322,1322,1322,1317,1312,1312,1312,1312,1307,1307,1307,1307,1307,1302,1302,1297,1297,1297,1292,1292,1288,1288,1288,1288,1288,1288,1283,1283,1278,1278,1273,1273,1273,1268,1268,1268,1268,1264,1264,1259,1259,1255,1255,1255,1255,1250,1250,1250,1250,1250,1250,1250,1250,1245,1241,1236,1236,1236,1236,1232,1232,1232,1232,1227,1227,1227,1223,1223,1219,1219,1219,1219,1219,1214,1214,1214,1214,1214,1214,1210,1210,1210,1210,1206,1202,1202,1202,1202,1197,1197,1197,1197,1193,1193,1193,1189,1189,1185,1185,1185,1185,1185,1185,1185,1181,1181,1181,1181,1181,1177,1173,1173,1169,1169,1169,1169,1169,1165,1165,1165,1165,1165,0,0,0,0,0,0,0,0,0,0,0,0,0,0,0,0,0,0,0,0,0,0,0,0,0,0,0,0,0
0,0,0,0,0,0,0,0,0,0,0,0,0,1624,1624,1632,1624,1624,1624,1624,0,0,0,0,0,0,0,0,0,0,847,847,843,841,839,837,835,835,833,833,833,833,833,833,837,837,839,839,835,835,847,843,841,841,835,835,835,835,835,835,835,835,835,835,835,837,835,833,833,833,831,831,829,829,829,831,837,837,837,829,827,827,823,823,823,823,823,829,831,831,833,833,833,829,829,827,827,827,827,829,829,829,829,829,829,829,829,827,825,825,825,825,825,825,825,827,827,827,827,827,825,825,823,823,823,823,823,833,833,823,821,819,819,817,815,815,819,819,819,819,819,819,819,817,815,815,813,813,813,815,813,813,811,811,813,811,811,811,815,815,815,817,817,817,817,815,815,815,817,817,809,805,805,805,805,805,807,807,807,811,811,811,813,813,817,817,817,819,819,817,817,817,817,817,817,815,815,815,813,807,807,807,807,807,807,807,807,809,809,807,807,805,805,805,807,807,809,809,809,809,809,805,805,805,803,803,805,803,803,803,802,802,802,800,798,798,809,809,807,805,803,803,811,811,809,809,805,805,805,803,803,803,803,803,800,800,800,802,803,802,802,803,805,807,803,803,803,802,802,802,802,802,802,800,796,796,802,802,802,802,802,803,803,802,802,800,800,802,800,800,796,794,794,800,796,796,794,794,794,790,790,790,792,792,792,792,792,792,796,798,798,800,803,803,805,807,809,811,813,817,819,821,821,821,823,823,827,829,864,864,867,873,878,880,880,882,882,885,889,891,896,898,901,903,906,908,910,913,923,923,923,925,928,928,928,928,928,933,933,938,943,946,946,948,0,0,0,0,0,1516,1516,1516,1516,1523,1516,1516,1516,1516,1516,1509,1509,1509,1503,1503,1496,1496,1496,1489,1489,1489,1489,1489,1483,1483,1483,1483,1483,1477,1477,1470,1470,1470,1464,1464,1464,1458,1458,1458,1452,1452,1452,1452,1445,1445,1445,1445,1439,1439,1439,1439,1439,1433,1433,1433,1433,1427,1427,1421,1421,1421,1421,1415,1415,1415,1415,1410,1404,1404,1398,1398,1398,1398,1398,1392,1392,1392,1392,1392,1392,1392,1387,1381,1376,1376,1376,1376,1370,1370,1370,1370,1370,1370,1365,1365,1365,1359,1359,1354,1354,1354,1354,1354,1354,1349,1349,1349,1349,1349,1343,1338,1333,1333,1333,1328,1328,1328,1328,1328,1322,1322,1322,1322,1317,1317,1317,1312,1312,1307,1307,1307,1307,1307,1302,1302,1302,1297,1297,1292,1292,1288,1288,1288,1288,1288,1288,1288,1283,1283,1278,1278,1273,1273,1268,1268,1268,1268,1268,1264,1264,1259,1255,1255,1255,1255,1255,1250,1250,1250,1250,1250,1250,1250,1250,1241,1241,1241,1236,1236,1232,1232,1232,1232,1227,1227,1227,1223,1223,1223,1219,1219,1219,1219,1219,1214,1214,1214,1214,1214,1214,1210,1210,1210,1206,1202,1202,1202,1202,1197,1197,1197,1197,1193,1193,1193,1189,1189,1185,1185,1185,1185,1185,1185,1185,1185,1181,1181,1181,1181,1177,1173,1173,1173,1169,1169,1169,1169,1169,1165,1165,1165,1165,0,0,0,0,0,0,0,0,0,0,0,0,0,0,0,0,0,0,0,0,0,0,0,0,0,0,0,0,0
0,0,0,0,0,0,0,0,0,0,0,0,0,1624,1624,1632,1624,1624,0,0,0,0,0,0,0,0,0,0,0,0,847,843,843,841,839,837,835,833,833,831,829,827,827,827,829,833,833,833,831,831,831,831,831,831,833,833,833,833,833,833,829,829,835,835,835,835,833,833,831,829,829,829,827,827,827,827,831,833,833,825,825,821,821,819,819,821,821,825,827,827,827,827,827,827,827,827,827,825,825,825,825,827,827,825,825,825,825,825,823,821,819,819,825,825,825,825,823,823,821,817,817,819,819,817,817,815,815,815,815,815,817,815,815,815,813,813,813,813,813,813,813,815,813,813,813,813,813,811,811,811,811,809,809,807,805,805,805,803,803,807,813,813,811,811,811,811,809,809,809,807,805,805,805,805,803,803,805,805,805,805,803,803,809,809,811,811,811,817,815,813,813,817,817,815,815,813,813,811,807,805,803,803,805,803,803,803,803,805,805,805,805,803,803,805,805,803,803,803,803,805,805,803,803,803,803,802,802,802,800,800,798,796,796,798,796,796,796,796,805,803,796,796,796,796,796,800,800,803,803,802,802,802,802,796,796,798,798,798,798,798,798,798,798,798,798,798,800,800,798,798,794,794,800,796,796,796,800,800,800,800,800,802,802,802,800,789,789,789,789,790,792,790,790,794,794,794,792,792,792,789,789,787,787,789,789,789,790,792,792,796,796,798,802,802,805,805,805,811,813,817,819,821,823,823,823,823,827,829,864,864,867,873,875,880,880,882,882,885,889,891,896,898,903,903,906,908,910,915,923,923,925,925,928,928,928,930,930,935,935,940,943,946,946,948,0,0,0,0,0,1516,1516,1516,1523,1523,1523,1516,1516,1516,1516,1509,1509,1509,1503,1503,1496,1496,1496,1489,1489,1489,1489,1489,1489,1483,1483,1483,1483,1483,1477,1477,1470,1470,1470,1464,1464,1464,1458,1458,1458,1452,1452,1452,1452,1445,1445,1445,1445,1439,1439,1439,1439,1433,1433,1433,1433,1433,1427,1421,1421,1421,1421,1415,1415,1415,1415,1410,1404,1404,1398,1398,1398,1398,1398,1398,1392,1392,1392,1392,1392,1392,1392,1387,1381,1376,1376,1376,1376,1370,1370,1370,1370,1370,1365,1365,1365,1365,1359,1359,1359,1354,1354,1354,1354,1354,1349,1349,1349,1349,1343,1343,1338,1333,1333,1328,1328,1328,1328,1328,1322,1322,1322,1322,1317,1317,1312,1312,1312,1312,1307,1307,1307,1307,1307,1302,1302,1302,1297,1292,1292,1288,1288,1288,1288,1288,1288,1288,1288,1283,1278,1278,1273,1273,1273,1268,1268,1268,1268,1264,1264,1259,1259,1259,1259,1255,1255,1250,1250,1250,1250,1250,1250,1250,1250,1245,1241,1241,1236,1236,1236,1232,1232,1232,1232,1227,1227,1227,1223,1223,1219,1219,1219,1219,1219,1214,1214,1214,1214,1214,1214,1214,1214,1210,1210,1206,1202,1202,1202,1197,1197,1197,1197,1197,1193,1193,1193,1189,1189,1185,1185,1185,1185,1185,1185,1185,1185,1181,1181,1181,1177,1177,1177,1173,1173,1169,1169,1169,1169,1165,1165,1165,1165,0,0,0,0,0,0,0,0,0,0,0,0,0,0,0,0,0,0,0,0,0,0,0,0,0,0,0,0,0
0,0,0,0,0,0,0,0,0,0,0,0,0,1632,1632,1632,1632,0,0,0,0,0,0,0,0,0,0,0,0,0,845,843,843,841,839,837,835,833,831,829,827,827,825,825,825,825,825,825,827,827,821,821,823,823,823,823,833,833,833,827,827,827,827,827,827,831,831,829,829,827,827,827,825,823,823,821,821,823,821,819,819,819,819,819,819,819,819,819,823,823,823,823,825,825,825,825,825,823,823,817,817,817,819,817,817,817,819,821,815,815,815,815,817,819,817,817,819,819,815,813,811,809,809,811,811,811,811,811,811,811,813,813,813,813,813,813,813,811,811,811,811,811,811,809,809,809,809,809,809,809,809,807,807,805,805,803,803,803,803,803,805,805,805,811,805,805,805,805,803,803,803,803,803,803,802,802,803,803,803,803,802,802,803,802,802,802,803,803,803,802,802,802,803,803,803,803,803,803,800,800,800,800,802,802,802,802,802,802,802,803,803,803,803,803,803,802,802,800,800,800,800,800,800,800,796,794,794,794,794,796,796,794,794,796,794,794,794,794,794,794,794,792,792,790,790,792,792,792,798,800,798,798,794,794,796,796,796,796,796,796,796,796,794,794,796,796,796,796,796,796,790,790,789,789,789,789,794,796,796,798,798,800,802,802,800,789,789,789,789,789,789,789,789,790,792,792,792,792,790,787,785,785,785,785,787,789,789,790,792,796,796,798,800,802,803,805,805,811,813,817,819,821,823,823,823,823,862,864,864,864,869,873,875,878,880,880,882,885,889,891,896,898,903,906,908,908,913,915,923,925,925,928,928,928,928,930,933,935,938,940,943,946,946,948,0,0,0,0,0,1516,1516,1516,1523,1523,1523,1523,1523,1516,1516,1516,1509,1509,1509,1503,1503,1496,1496,1489,1489,1489,1489,1489,1489,1489,1489,1489,1483,1483,1477,1477,1470,1470,1470,1464,1464,1464,1464,1458,1458,1458,1458,1458,1452,1452,1445,1445,1445,1445,1439,1439,1439,1433,1433,1433,1433,1433,1427,1427,1421,1421,1421,1415,1415,1415,1415,1410,1410,1404,1398,1398,1398,1398,1398,1398,1398,1398,1392,1392,1392,1392,1392,1387,1381,1381,1381,1376,1376,1370,1370,1370,1370,1370,1370,1365,1365,1365,1359,1359,1359,1354,1354,1354,1354,1354,1354,1349,1349,1349,1343,1343,1338,1333,1333,1328,1328,1328,1328,1328,1328,1328,1322,1322,1317,1317,1312,1312,1312,1312,1312,1312,1307,1307,1307,1307,1302,1302,1297,1292,1292,1288,1288,1288,1288,1288,1288,1288,1288,1283,1283,1278,1278,1273,1273,1268,1268,1268,1268,1268,1264,1264,1264,1264,1259,1255,1255,1255,1255,1250,1250,1250,1250,1250,1250,1245,1241,1241,1236,1236,1236,1236,1236,1232,1232,1227,1227,1227,1227,1223,1223,1223,1223,1219,1219,1219,1214,1214,1214,1214,1214,1214,1214,1210,1210,1206,1202,1202,1202,1202,1197,1197,1197,1197,1197,1197,1193,1193,1189,1189,1185,1185,1185,1185,1185,1185,1185,1181,1181,1177,1177,1177,1173,1173,1173,1169,1169,1169,1169,1169,1165,1165,1165,0,0,0,0,0,0,0,0,0,0,0,0,0,0,0,0,0,0,0,0,0,0,0,0,0,0,0,0,0
0,0,0,0,0,0,0,0,0,0,0,0,0,1632,1632,1639,0,0,0,0,0,0,0,0,0,0,0,0,0,0,845,843,843,841,839,837,835,831,831,829,825,825,825,823,823,823,821,821,821,821,819,819,821,819,817,817,829,829,829,821,819,819,821,821,821,821,819,819,821,823,821,821,819,817,817,819,817,817,815,815,817,819,817,817,817,819,819,819,821,821,821,821,819,819,823,821,819,819,817,815,815,815,815,813,809,805,805,811,809,809,809,811,815,815,809,805,805,803,803,805,805,805,807,807,807,807,807,809,809,809,811,811,811,811,811,811,809,809,809,809,809,807,807,807,807,807,807,805,805,807,807,805,803,803,803,802,802,802,802,802,803,803,803,805,803,803,803,803,802,802,802,802,802,802,802,802,802,802,802,802,800,800,800,800,798,798,798,796,796,800,800,800,800,800,798,796,796,796,796,796,796,796,798,798,798,798,798,798,798,800,802,802,802,802,802,800,798,796,796,792,790,790,796,796,794,792,792,792,790,790,792,792,792,794,792,792,790,789,789,789,789,789,792,787,787,785,785,787,794,794,792,790,790,792,792,796,794,794,794,792,792,792,790,790,792,792,792,794,792,790,790,789,787,787,787,787,789,789,790,798,798,800,800,800,800,787,787,787,787,789,789,789,787,787,792,792,792,785,785,785,785,783,783,785,785,787,789,789,790,794,796,798,798,802,803,805,805,811,813,817,819,821,823,823,823,860,862,864,864,864,869,871,871,878,878,880,882,885,889,891,896,898,903,906,908,910,915,918,923,925,925,928,928,928,930,930,933,935,938,943,946,946,948,948,948,0,0,0,0,1523,1523,1523,1523,1523,1523,1523,1523,1516,1516,1516,1516,1509,1509,1503,1503,1496,1496,1489,1489,1489,1489,1489,1489,1489,1489,1489,1489,1483,1483,1477,1470,1470,1470,1470,1464,1464,1464,1464,1458,1458,1458,1458,1452,1452,1445,1445,1445,1445,1439,1439,1439,1439,1433,1433,1433,1433,1427,1427,1427,1421,1421,1421,1421,1415,1415,1415,1410,1410,1404,1398,1398,1398,1398,1398,1398,1398,1398,1398,1398,1392,1392,1392,1387,1387,1387,1381,1376,1376,1376,1376,1376,1370,1370,1370,1370,1365,1365,1359,1359,1359,1354,1354,1354,1354,1354,1349,1349,1349,1349,1343,1338,1338,1333,1333,1328,1328,1328,1328,1328,1328,1328,1322,1322,1317,1312,1312,1312,1312,1312,1312,1307,1307,1307,1307,1302,1302,1297,1297,1292,1292,1288,1288,1288,1288,1288,1288,1288,1283,1283,1283,1278,1273,1273,1273,1268,1268,1268,1268,1264,1264,1264,1264,1264,1259,1255,1255,1255,1255,1250,1250,1250,1250,1250,1245,1245,1241,1241,1236,1236,1236,1236,1232,1232,1232,1227,1227,1227,1223,1223,1223,1223,1219,1219,1219,1219,1214,1214,1214,1214,1214,1214,1210,1210,1206,1206,1202,1202,1202,1202,1202,1197,1197,1197,1197,1193,1193,1189,1189,1189,1185,1185,1189,1185,1185,1185,1185,1181,1177,1177,1177,1173,1173,1173,1169,1169,1169,1169,1169,1165,1165,1165,0,0,0,0,0,0,0,0,0,0,0,0,0,0,0,0,0,0,0,0,0,0,0,0,0,0,0,0,0
0,0,0,0,0,0,0,0,0,0,0,0,0,1632,1632,1639,1639,0,0,0,0,0,0,0,0,0,0,0,0,0,845,841,841,839,837,835,833,831,831,829,825,825,825,823,821,821,821,821,821,819,819,817,817,817,811,807,803,803,803,803,803,803,803,811,815,813,813,811,811,811,813,813,815,815,815,817,815,813,813,813,815,815,813,813,815,817,817,817,817,817,819,805,805,805,811,813,813,815,815,811,811,811,809,805,805,803,803,803,802,802,805,805,803,803,802,802,802,800,800,802,802,803,803,805,805,807,807,805,805,805,807,807,805,805,807,807,805,805,805,803,803,802,802,803,805,805,805,805,805,805,803,803,802,802,800,800,798,798,800,800,800,802,802,802,803,802,802,802,802,802,802,802,800,800,800,800,800,798,798,796,794,792,792,792,792,792,790,790,790,794,796,796,796,796,796,794,794,794,794,794,794,794,796,796,796,796,794,794,794,800,800,802,800,800,800,794,794,792,792,789,789,789,790,792,792,790,790,792,790,790,792,792,792,792,790,790,789,789,787,787,783,783,792,783,783,781,781,781,781,794,792,790,787,787,787,787,789,787,787,787,787,785,785,783,783,790,790,790,790,789,787,787,785,785,785,783,783,783,781,781,802,802,800,800,783,783,783,783,785,785,783,783,787,787,787,769,785,785,776,776,781,781,781,783,785,787,787,789,790,794,796,798,798,802,805,805,805,811,813,817,821,821,823,823,854,858,860,864,864,867,869,871,871,878,878,880,882,885,889,891,896,898,903,906,908,913,918,920,923,925,925,928,928,928,930,930,933,938,938,943,946,946,948,948,948,0,0,0,0,0,1523,1523,1523,1523,1523,1523,1523,1516,1516,1516,1516,1516,1509,1509,1503,1503,1496,1496,1496,1489,1489,1489,1489,1489,1489,1489,1489,1483,1483,1477,1477,1470,1470,1470,1470,1464,1464,1464,1458,1458,1458,1458,1452,1452,1445,1445,1445,1445,1439,1439,1439,1439,1439,1439,1433,1433,1433,1427,1427,1421,1421,1421,1421,1415,1415,1415,1415,1410,1404,1404,1398,1398,1398,1398,1398,1398,1398,1398,1398,1392,1392,1392,1392,1392,1387,1381,1381,1376,1376,1376,1376,1370,1370,1370,1370,1365,1365,1359,1359,1359,1359,1354,1354,1354,1354,1354,1349,1349,1349,1343,1338,1338,1333,1333,1333,1333,1328,1328,1328,1328,1328,1328,1322,1317,1312,1312,1312,1312,1312,1312,1307,1307,1307,1307,1302,1302,1297,1297,1292,1292,1292,1292,1292,1288,1288,1288,1288,1283,1283,1283,1278,1273,1273,1273,1268,1268,1268,1268,1264,1264,1264,1264,1264,1264,1259,1255,1255,1255,1250,1250,1250,1250,1250,1245,1245,1245,1241,1241,1236,1236,1236,1236,1232,1232,1232,1227,1227,1227,1223,1223,1223,1223,1219,1219,1219,1219,1219,1214,1214,1214,1214,1210,1210,1206,1206,1202,1202,1206,1202,1202,1202,1197,1197,1197,1197,1193,1193,1193,1189,1189,1189,1189,1185,1185,1185,1185,1181,1181,1177,1177,1177,1177,1173,1173,1173,1173,1169,1169,1165,1165,1165,0,0,0,0,0,0,0,0,0,0,0,0,0,0,0,0,0,0,0,0,0,0,0,0,0,0,0,0,0
0,0,0,0,0,0,0,0,0,0,0,0,0,1639,1639,1639,1639,1639,0,0,0,0,0,0,0,0,0,0,0,0,845,841,841,839,837,835,833,831,831,829,825,825,825,823,821,821,821,819,819,817,817,815,815,815,807,805,803,802,802,803,803,803,803,803,807,809,809,809,809,809,809,809,809,809,811,813,811,811,811,809,809,807,807,807,807,815,815,813,813,813,805,803,803,802,802,805,807,807,807,807,807,805,803,803,802,802,802,802,800,800,798,798,798,798,800,798,798,798,798,798,798,798,800,802,802,803,803,803,802,802,803,803,802,802,802,803,803,802,802,800,800,798,798,798,798,800,800,800,800,800,800,800,798,798,798,798,798,798,798,798,798,800,800,800,800,800,800,790,790,796,796,800,800,796,796,796,792,792,792,790,790,789,789,789,789,789,789,789,789,789,792,792,792,792,792,792,790,790,790,792,792,792,792,792,792,794,792,792,792,789,787,776,776,776,774,774,785,787,787,785,785,785,783,783,787,787,787,789,789,789,789,789,787,787,789,781,781,781,781,781,780,778,776,776,778,780,778,778,778,778,778,780,780,785,787,785,781,781,781,781,781,781,781,783,783,787,787,787,787,787,785,781,780,780,781,778,776,776,778,776,774,773,773,773,773,773,773,781,778,778,780,783,773,773,771,769,769,773,774,774,778,778,780,781,781,785,787,789,790,794,796,798,800,802,805,805,805,811,813,817,821,821,849,851,854,856,858,860,864,867,869,871,871,878,880,880,882,887,891,891,896,901,903,906,910,915,918,920,923,925,928,928,928,930,930,933,933,938,938,943,946,946,948,948,948,948,0,0,0,1523,1523,1523,1523,1523,1523,1523,1523,1523,1516,1516,1516,1516,1509,1509,1503,1503,1496,1496,1496,1496,1496,1496,1489,1489,1489,1489,1489,1483,1483,1477,1477,1470,1470,1470,1470,1464,1464,1464,1464,1458,1458,1458,1458,1452,1452,1445,1445,1445,1439,1439,1439,1439,1439,1439,1439,1433,1433,1427,1427,1421,1421,1421,1421,1421,1415,1415,1415,1410,1410,1404,1404,1398,1398,1398,1398,1398,1398,1398,1398,1392,1392,1392,1392,1392,1392,1387,1381,1376,1376,1376,1376,1376,1376,1370,1370,1370,1365,1365,1365,1359,1359,1359,1354,1354,1354,1354,1349,1349,1349,1343,1343,1338,1338,1333,1333,1333,1333,1328,1328,1328,1328,1328,1322,1317,1312,1312,1312,1312,1312,1312,1307,1307,1307,1307,1302,1302,1297,1297,1297,1292,1292,1292,1292,1292,1288,1288,1288,1283,1283,1283,1278,1273,1273,1273,1268,1268,1268,1268,1268,1264,1264,1264,1264,1264,1259,1255,1255,1255,1255,1250,1250,1250,1250,1250,1250,1245,1241,1241,1236,1236,1236,1236,1232,1232,1232,1232,1227,1227,1223,1223,1223,1223,1219,1219,1219,1219,1219,1219,1214,1214,1214,1210,1210,1206,1206,1206,1206,1206,1202,1202,1202,1197,1197,1197,1197,1197,1193,1193,1193,1189,1189,1189,1185,1185,1185,1185,1181,1181,1181,1181,1177,1177,1173,1173,1173,1173,1173,1169,1169,1169,1169,0,0,0,0,0,0,0,0,0,0,0,0,0,0,0,0,0,0,0,0,0,0,0,0,0,0,0,0,0
0,0,0,0,0,0,0,0,0,0,0,0,0,1647,1647,1647,1639,1639,0,0,0,0,0,0,0,0,0,0,0,0,845,843,843,841,839,837,833,831,831,827,825,825,825,823,821,821,819,819,819,817,815,813,811,811,807,805,803,802,802,803,802,802,803,803,803,805,805,805,803,803,803,803,805,807,807,807,807,807,807,805,803,803,803,802,802,800,800,800,798,798,802,802,800,798,798,800,802,802,802,803,802,802,800,798,798,798,798,798,796,796,796,798,796,796,796,796,796,796,796,798,798,798,798,798,800,800,800,800,800,800,800,800,800,798,798,796,796,796,796,796,796,796,796,796,796,796,796,796,798,798,796,796,796,796,796,794,794,794,794,794,798,800,789,789,789,789,789,789,789,789,790,790,794,794,792,787,787,787,789,787,787,787,785,785,787,787,787,787,787,787,787,787,787,790,790,787,783,783,781,781,789,789,790,792,792,790,790,789,776,776,776,776,776,776,774,774,780,783,783,781,781,780,780,780,778,778,780,783,785,785,785,781,780,780,781,780,780,780,776,776,776,774,774,774,776,776,776,776,776,776,776,776,778,776,776,776,778,776,776,776,774,774,776,778,780,785,785,780,780,781,781,778,778,780,776,774,774,774,774,774,773,773,773,773,773,773,771,771,771,761,761,762,762,767,767,767,769,771,773,773,774,776,778,780,781,785,787,789,789,794,796,798,800,802,803,805,805,813,813,845,845,849,849,851,854,854,858,860,864,867,869,871,878,880,880,882,885,887,891,896,898,901,906,908,910,915,920,920,925,925,928,928,930,930,933,933,935,938,940,943,946,948,948,948,0,0,0,0,0,1523,1523,1523,1523,1529,1523,1523,1523,1523,1516,1516,1516,1516,1509,1509,1503,1503,1503,1496,1496,1496,1496,1496,1496,1489,1489,1489,1489,1489,1483,1477,1477,1470,1470,1470,1470,1470,1470,1464,1464,1464,1464,1458,1458,1458,1452,1452,1445,1445,1445,1445,1439,1439,1439,1439,1439,1433,1433,1427,1427,1421,1421,1421,1421,1421,1415,1415,1415,1415,1410,1410,1404,1404,1404,1398,1398,1398,1398,1398,1398,1398,1392,1392,1392,1392,1392,1387,1381,1381,1376,1376,1376,1376,1376,1376,1370,1370,1370,1365,1365,1365,1359,1359,1354,1354,1354,1354,1349,1349,1349,1343,1343,1338,1338,1338,1333,1333,1333,1328,1328,1328,1328,1328,1322,1317,1317,1317,1312,1312,1312,1312,1312,1307,1307,1307,1302,1302,1302,1297,1297,1297,1292,1292,1292,1292,1288,1288,1288,1288,1283,1283,1278,1278,1278,1273,1273,1268,1268,1268,1268,1268,1268,1264,1264,1264,1264,1259,1259,1255,1255,1255,1250,1250,1250,1250,1250,1250,1245,1245,1241,1236,1236,1236,1236,1232,1232,1232,1232,1227,1227,1227,1227,1223,1223,1219,1219,1219,1219,1219,1214,1214,1214,1214,1210,1210,1206,1206,1206,1206,1202,1202,1202,1197,1197,1197,1197,1197,1193,1193,1193,1189,1189,1189,1189,1185,1185,1185,1181,1181,1181,1181,1177,1177,1177,1173,1173,1173,1173,1169,1169,1169,1169,0,0,0,0,0,0,0,0,0,0,0,0,0,0,0,0,0,0,0,0,0,0,0,0,0,0,0,0,0
0,0,0,0,0,0,0,0,0,0,0,0,0,1647,1647,1647,1647,1647,1647,0,0,0,0,0,0,0,0,0,0,0,845,843,843,841,839,837,835,831,831,827,825,825,825,823,821,821,819,819,819,815,813,811,811,809,807,805,803,802,802,802,802,802,802,802,802,802,802,802,800,800,802,802,802,803,802,802,802,802,802,802,800,800,802,800,800,798,798,798,798,798,798,798,798,796,796,796,794,794,789,789,790,790,794,794,796,796,796,794,792,792,794,794,794,794,796,796,796,796,796,796,796,794,794,796,796,796,794,794,794,789,789,789,790,789,789,789,789,792,789,787,787,792,792,792,792,792,794,794,794,794,794,794,794,794,794,792,790,790,789,787,785,783,783,783,787,785,785,787,787,787,787,787,787,787,787,783,783,783,785,785,785,785,781,781,783,783,785,785,783,783,785,785,783,780,780,780,780,780,780,778,778,778,778,785,787,787,781,778,776,776,776,776,776,776,776,776,778,778,778,776,776,774,774,776,774,774,778,780,780,776,776,776,774,774,774,774,774,774,773,773,773,773,773,773,773,774,776,776,774,774,774,774,774,773,769,769,774,773,771,771,773,771,771,773,773,773,767,767,780,780,780,778,778,778,776,774,774,773,773,771,771,771,771,771,769,769,769,767,767,761,761,762,762,767,767,767,767,769,771,773,774,776,778,780,781,783,787,789,789,794,796,798,800,802,803,803,805,841,843,845,847,847,851,851,854,854,858,860,864,867,869,878,878,880,880,882,885,887,894,896,901,903,906,908,910,918,920,923,925,925,928,930,930,933,933,935,935,938,940,943,946,948,948,948,951,951,0,0,0,1523,1523,1523,1529,1529,1523,1523,1523,1523,1516,1516,1516,1516,1516,1509,1509,1503,1503,1496,1496,1496,1496,1496,1496,1496,1496,1489,1489,1489,1483,1483,1477,1477,1470,1470,1470,1470,1470,1470,1464,1464,1464,1458,1458,1458,1458,1452,1452,1445,1445,1445,1445,1439,1439,1439,1439,1433,1433,1427,1427,1427,1421,1421,1421,1421,1415,1415,1415,1415,1415,1410,1410,1404,1404,1398,1398,1398,1398,1398,1398,1392,1392,1392,1392,1392,1392,1387,1387,1381,1376,1376,1376,1376,1376,1376,1370,1370,1370,1365,1365,1365,1359,1359,1354,1354,1354,1354,1349,1349,1349,1349,1343,1338,1338,1338,1338,1333,1333,1333,1328,1328,1328,1328,1322,1317,1317,1317,1312,1312,1312,1312,1312,1307,1307,1307,1307,1307,1302,1302,1302,1297,1297,1297,1292,1292,1292,1292,1288,1288,1288,1283,1283,1278,1278,1273,1273,1268,1268,1268,1268,1268,1268,1264,1264,1264,1264,1259,1259,1255,1255,1255,1250,1250,1250,1250,1250,1250,1245,1245,1241,1241,1241,1241,1236,1236,1236,1232,1232,1232,1227,1227,1227,1223,1223,1223,1219,1219,1219,1219,1214,1214,1214,1214,1210,1210,1210,1206,1206,1206,1202,1202,1202,1202,1197,1197,1197,1197,1193,1193,1193,1189,1189,1189,1189,1189,1189,1185,1185,1185,1181,1181,1177,1177,1177,1177,1177,1177,1177,1173,1169,1169,1169,0,0,0,0,0,0,0,0,0,0,0,0,0,0,0,0,0,0,0,0,0,0,0,0,0,0,0,0,0
0,0,0,0,0,0,0,0,0,0,0,0,0,1647,1647,1647,1647,1647,1647,1647,0,0,0,0,0,0,0,0,0,0,0,843,843,841,839,837,835,833,833,829,827,827,825,823,821,821,821,819,819,815,813,811,809,807,807,805,803,802,802,802,802,802,800,800,800,800,800,800,798,798,798,798,796,794,792,792,792,792,792,792,798,798,796,796,796,796,794,794,794,794,794,796,796,794,794,794,790,790,789,789,789,789,789,792,792,792,792,792,790,790,790,789,789,790,792,792,794,792,790,790,792,789,787,787,789,789,787,787,789,789,787,787,785,785,785,781,781,781,783,781,781,781,783,783,783,789,789,789,789,789,789,790,792,792,792,789,787,785,783,781,780,780,780,780,781,783,783,783,783,783,783,781,781,783,783,781,780,778,778,780,780,781,778,778,780,780,781,781,780,780,781,781,780,778,774,774,774,776,774,774,774,773,773,774,774,773,773,773,773,773,773,773,773,773,771,771,774,774,774,774,774,773,773,774,773,773,773,774,774,774,773,773,773,771,771,773,773,773,771,771,771,773,773,773,773,773,774,773,773,773,773,769,769,769,767,767,767,767,767,767,771,769,766,766,766,766,766,764,762,762,780,778,778,778,773,773,773,767,767,767,767,767,766,766,766,766,766,766,766,761,761,762,762,764,766,766,767,767,769,771,773,774,776,780,781,783,787,789,789,794,796,798,800,800,802,803,837,841,843,845,845,847,851,851,854,854,858,860,864,869,871,878,878,880,880,882,887,889,894,898,901,903,906,910,913,918,920,923,925,928,930,933,933,933,935,935,938,938,940,943,946,948,948,951,951,954,954,0,0,0,1523,1523,1529,1529,1529,1529,1523,1523,1523,1516,1516,1516,1516,1509,1509,1509,1503,1503,1496,1496,1496,1496,1496,1496,1496,1489,1489,1489,1483,1483,1477,1477,1470,1470,1470,1470,1470,1470,1470,1464,1464,1464,1458,1458,1458,1452,1452,1452,1445,1445,1445,1445,1439,1439,1439,1439,1433,1433,1427,1427,1427,1421,1421,1421,1415,1415,1415,1415,1415,1410,1410,1404,1404,1398,1398,1398,1398,1398,1398,1392,1392,1392,1392,1392,1392,1387,1387,1381,1381,1376,1376,1376,1376,1376,1370,1370,1370,1365,1365,1365,1359,1359,1359,1354,1354,1354,1349,1349,1349,1349,1349,1343,1343,1343,1338,1338,1333,1333,1333,1328,1328,1328,1328,1322,1317,1317,1317,1312,1312,1312,1312,1312,1307,1307,1307,1307,1302,1302,1302,1302,1297,1297,1292,1292,1292,1292,1288,1288,1288,1283,1283,1283,1278,1278,1273,1273,1268,1268,1268,1268,1268,1268,1264,1264,1264,1259,1259,1255,1255,1255,1255,1250,1250,1250,1250,1250,1245,1245,1241,1241,1241,1241,1236,1236,1236,1236,1232,1232,1232,1227,1227,1223,1223,1223,1219,1219,1219,1219,1219,1214,1214,1214,1214,1210,1210,1210,1210,1206,1202,1202,1202,1202,1197,1197,1197,1197,1197,1193,1193,1193,1193,1193,1189,1189,1189,1189,1185,1185,1181,1181,1181,1181,1177,1177,1177,1177,1177,1173,1173,1169,1169,0,0,0,0,0,0,0,0,0,0,0,0,0,0,0,0,0,0,0,0,0,0,0,0,0,0,0,0,0
0,0,0,0,0,0,0,0,0,0,0,0,0,1655,1647,1647,1647,1647,1647,1647,1647,1647,1647,1647,0,0,0,0,0,0,0,843,843,841,839,837,835,835,833,833,829,827,825,825,823,823,821,819,819,815,813,811,809,807,805,805,803,802,802,800,800,800,800,796,796,796,796,796,796,794,794,794,790,789,789,789,787,787,787,787,789,792,792,792,789,787,787,787,790,792,790,790,792,792,790,790,789,789,787,787,787,787,787,789,787,787,790,790,789,787,783,783,783,781,781,781,781,781,783,781,781,781,783,783,783,785,783,783,785,787,785,783,783,783,783,781,781,781,780,778,778,776,776,778,778,778,778,778,778,780,780,787,787,792,790,783,783,781,780,776,776,778,778,780,780,781,781,781,783,781,781,778,778,778,778,778,776,776,776,776,776,774,774,774,776,776,759,759,773,767,767,767,767,767,771,769,769,773,773,773,773,771,771,773,773,771,769,769,769,769,771,769,769,769,771,771,771,773,773,773,773,771,771,769,767,767,767,767,767,771,771,771,771,769,769,771,771,771,769,767,767,769,769,769,769,769,769,771,771,769,769,767,767,766,766,766,764,762,762,761,761,766,762,762,764,762,762,761,759,759,761,759,759,773,767,767,767,767,766,766,766,766,766,764,764,764,762,762,761,761,761,761,761,762,764,764,766,767,769,771,773,774,776,780,781,783,787,789,789,792,794,798,798,798,802,835,835,841,843,843,845,847,851,851,854,854,860,862,864,869,871,878,878,880,882,887,889,891,896,898,903,906,908,910,915,918,920,923,925,928,930,933,933,935,935,935,938,938,940,943,948,948,951,954,954,954,954,0,0,0,0,0,1529,1529,1529,1529,1523,1523,1523,1523,1516,1516,1516,1516,1516,1509,1509,1503,1496,1496,1496,1496,1496,1496,1496,1489,1489,1489,1483,1483,1477,1477,1470,1470,1470,1470,1470,1470,1470,1464,1464,1464,1464,1458,1458,1458,1458,1452,1445,1445,1445,1445,1439,1439,1439,1439,1439,1433,1433,1427,1427,1421,1421,1421,1415,1415,1415,1415,1415,1410,1410,1410,1410,1404,1404,1398,1398,1398,1398,1398,1392,1392,1392,1392,1392,1392,1387,1387,1381,1381,1381,1376,1376,1376,1370,1370,1370,1370,1365,1365,1365,1365,1359,1354,1354,1354,1354,1349,1349,1349,1349,1349,1349,1349,1343,1343,1333,1333,1333,1333,1333,1328,1328,1322,1322,1317,1317,1312,1312,1312,1312,1312,1312,1307,1307,1307,1307,1302,1302,1302,1302,1297,1297,1292,1292,1292,1288,1288,1288,1288,1283,1283,1283,1278,1278,1273,1273,1273,1268,1268,1268,1268,1264,1264,1264,1259,1259,1255,1255,1255,1255,1255,1250,1250,1250,1250,1250,1245,1245,1241,1241,1241,1241,1236,1236,1236,1236,1232,1232,1232,1227,1223,1223,1223,1223,1219,1219,1219,1219,1214,1214,1214,1214,1210,1210,1210,1210,1206,1206,1202,1202,1202,1202,1202,1197,1197,1197,1197,1193,1193,1193,1193,1189,1189,1189,1189,1185,1185,1181,1181,1181,1181,1181,1177,1177,1177,1177,1173,1173,1173,1173,0,0,0,0,0,0,0,0,0,0,0,0,0,0,0,0,0,0,0,0,0,0,0,0,0,0,0,0,0
0,0,0,0,0,0,0,0,0,0,0,0,0,1655,1647,1647,1655,1647,1647,1647,1647,1647,1647,1647,1655,1655,0,0,0,0,0,0,0,841,841,839,837,835,835,833,829,827,827,825,825,825,823,821,819,815,813,811,809,807,805,805,803,802,802,800,800,798,796,796,796,796,790,790,790,790,790,789,789,787,787,781,781,783,783,783,785,787,789,789,787,780,780,781,781,781,780,780,783,785,785,785,787,787,787,785,785,787,787,785,783,781,781,781,781,783,781,781,780,780,780,780,780,780,780,778,778,780,780,780,781,781,781,781,783,785,783,781,781,781,781,780,780,774,774,776,776,774,774,776,776,776,776,773,773,773,773,774,769,767,767,769,778,778,778,776,776,776,776,778,778,778,780,780,780,778,773,771,771,771,771,771,773,773,773,773,773,773,771,769,766,766,759,759,767,764,764,766,764,764,767,767,767,769,771,771,769,767,767,769,769,767,766,764,764,766,764,762,762,767,767,767,767,767,767,767,767,767,767,767,766,766,766,766,767,767,767,767,771,769,769,769,769,769,767,766,766,766,764,764,766,766,766,771,769,767,767,766,766,764,764,761,761,757,755,755,755,761,759,759,761,761,761,759,755,755,759,759,755,755,755,766,755,755,762,762,762,759,759,755,755,759,761,757,757,759,759,759,761,761,762,764,766,767,769,771,771,773,780,780,781,783,787,789,789,792,794,798,798,798,833,835,835,841,841,843,845,847,851,851,854,856,860,862,867,869,871,878,878,880,882,887,891,896,898,903,906,906,908,913,915,918,920,923,928,928,930,933,935,935,935,935,938,938,940,943,948,951,951,954,954,954,954,0,0,0,0,0,1536,1536,1529,1529,1523,1523,1523,1523,1516,1516,1516,1516,1516,1516,1509,1509,1503,1496,1496,1496,1496,1496,1496,1489,1489,1489,1483,1483,1477,1477,1470,1470,1470,1470,1470,1470,1470,1464,1464,1464,1464,1464,1464,1458,1458,1452,1445,1445,1445,1445,1445,1439,1439,1439,1439,1433,1433,1427,1427,1427,1421,1421,1421,1415,1415,1415,1415,1410,1410,1410,1410,1404,1404,1398,1398,1398,1398,1398,1398,1392,1392,1392,1392,1392,1387,1387,1381,1381,1381,1376,1376,1376,1370,1370,1370,1370,1370,1365,1365,1365,1359,1359,1354,1354,1354,1349,1349,1349,1349,1349,1349,1349,1343,1343,1338,1333,1333,1333,1333,1328,1328,1328,1322,1322,1317,1317,1317,1312,1312,1312,1312,1307,1307,1307,1307,1307,1307,1302,1302,1302,1297,1292,1292,1292,1288,1288,1288,1288,1283,1283,1283,1278,1278,1273,1273,1273,1268,1268,1268,1268,1268,1264,1264,1259,1259,1259,1255,1255,1255,1255,1250,1250,1250,1250,1250,1245,1245,1245,1241,1241,1241,1236,1236,1236,1236,1232,1232,1232,1227,1227,1227,1227,1223,1223,1219,1219,1219,1219,1219,1214,1214,1210,1210,1210,1210,1206,1206,1202,1202,1202,1202,1202,1202,1197,1197,1197,1193,1193,1193,1193,1193,1193,1189,1189,1185,1185,1185,1181,1181,1181,1181,1177,1177,1177,1177,1177,1173,1173,1173,0,0,0,0,0,0,0,0,0,0,0,0,0,0,0,0,0,0,0,0,0,0,0,0,0,0,0,0,0
0,0,0,0,0,0,0,0,0,0,0,0,0,1655,1647,1647,1655,1647,1647,1647,1655,1655,1655,1655,1655,1647,1647,0,0,0,0,0,0,0,0,0,837,837,835,835,833,829,829,827,827,827,825,821,819,815,813,811,809,807,807,805,803,802,802,800,798,796,796,794,790,790,790,789,789,789,789,787,787,785,785,781,781,781,781,781,781,781,785,783,781,778,778,778,778,780,780,780,780,780,781,781,783,785,785,783,783,785,785,783,780,780,780,780,780,780,778,778,778,776,776,776,776,776,776,774,774,776,778,778,780,780,780,780,783,785,783,780,780,780,780,774,774,773,773,774,774,773,773,773,774,773,773,773,773,771,769,767,766,766,766,767,769,773,774,773,773,774,774,774,766,766,780,778,776,767,764,764,766,766,767,767,767,769,767,766,764,764,767,766,764,762,761,761,764,764,764,762,762,764,766,766,766,766,767,767,767,766,766,766,766,766,764,762,762,762,761,761,761,761,761,761,761,766,766,766,766,767,762,762,762,762,761,761,761,766,766,767,767,767,767,767,766,766,766,766,764,764,764,752,752,752,749,749,747,747,766,764,761,759,759,757,755,755,754,754,754,755,755,755,755,757,754,754,754,754,752,752,752,752,752,754,754,754,754,754,754,755,755,754,754,755,757,755,755,757,759,759,759,761,762,764,766,767,769,771,771,773,778,778,781,783,789,789,789,790,794,821,827,831,833,835,837,841,841,843,845,847,849,851,854,856,860,864,869,871,875,878,880,882,885,889,891,896,898,901,903,906,908,913,915,918,920,925,928,930,933,933,935,935,935,938,938,940,940,946,948,951,954,956,956,954,954,0,0,0,0,1536,1536,1529,1529,1536,1529,1523,1523,1523,1523,1523,1516,1516,1516,1516,1509,1509,1503,1496,1496,1496,1496,1496,1496,1496,1489,1489,1489,1483,1483,1477,1470,1470,1470,1470,1470,1470,1470,1464,1464,1464,1464,1464,1464,1464,1464,1458,1452,1445,1445,1445,1445,1439,1439,1439,1439,1439,1433,1433,1427,1427,1421,1421,1421,1415,1415,1415,1415,1415,1410,1410,1410,1404,1404,1398,1398,1398,1398,1398,1398,1398,1398,1392,1392,1392,1387,1387,1381,1381,1381,1376,1376,1376,1376,1370,1370,1370,1370,1370,1365,1365,1359,1359,1354,1354,1354,1354,1349,1349,1349,1349,1349,1349,1349,1343,1338,1338,1333,1333,1333,1333,1333,1328,1322,1322,1322,1317,1317,1317,1317,1312,1312,1312,1307,1307,1307,1307,1307,1307,1302,1302,1297,1292,1292,1292,1288,1288,1288,1288,1288,1283,1283,1283,1278,1278,1273,1273,1273,1268,1268,1268,1268,1264,1264,1264,1259,1259,1255,1255,1255,1255,1255,1250,1250,1250,1250,1250,1245,1245,1245,1241,1241,1241,1236,1236,1236,1232,1232,1232,1232,1227,1227,1227,1227,1223,1223,1219,1219,1219,1219,1214,1214,1214,1214,1210,1210,1206,1206,1206,1206,1202,1202,1202,1202,1202,1197,1197,1197,1193,1193,1189,1189,1189,1189,1189,1189,1185,1185,1185,1181,1181,1181,1181,1181,1181,1181,1177,1177,1177,1177,0,0,0,0,0,0,0,0,0,0,0,0,0,0,0,0,0,0,0,0,0,0,0,0,0,0,0,0,0
0,0,0,0,0,0,0,0,0,0,0,0,0,1655,1655,1655,1655,1655,1647,1647,1655,1655,1655,1655,1655,1647,1639,1639,0,0,0,0,0,0,0,0,0,0,837,835,833,833,829,827,827,827,825,823,819,817,813,811,809,807,807,805,803,802,802,800,798,796,796,794,790,790,789,789,787,787,787,785,785,783,783,781,781,780,780,780,780,780,780,778,776,774,774,774,774,776,776,774,774,776,776,773,773,773,785,781,781,781,781,781,778,778,778,776,776,776,774,774,774,774,774,773,773,773,773,773,773,773,776,778,778,778,778,778,783,783,781,780,778,778,778,773,771,769,769,771,767,767,769,769,773,771,771,771,771,771,767,766,766,764,764,764,762,762,766,766,771,764,764,766,766,762,761,761,761,762,762,762,762,762,762,762,764,766,767,764,761,761,764,761,761,757,754,754,759,759,761,761,761,764,764,764,764,764,766,766,766,766,762,762,766,764,762,761,761,759,759,759,759,759,757,757,755,755,755,757,757,764,761,761,761,761,761,759,759,762,762,762,767,767,767,767,766,766,766,761,759,759,754,750,749,749,749,749,747,747,747,747,749,749,749,754,754,754,752,750,750,752,752,752,752,754,754,754,750,750,750,750,750,749,749,750,752,752,752,750,750,752,752,750,750,750,754,755,755,757,757,759,759,761,762,764,766,767,769,773,773,773,778,778,780,783,789,789,789,790,819,821,827,829,833,835,839,841,841,843,845,847,849,851,856,860,862,867,869,871,875,878,880,882,885,889,894,896,901,901,903,906,908,910,915,918,920,928,933,933,933,935,935,935,938,938,938,940,943,946,948,951,954,956,956,956,0,0,0,0,0,1536,1529,1529,1529,1529,1529,1529,1523,1523,1523,1523,1516,1516,1516,1516,1516,1509,1503,1496,1496,1496,1496,1496,1496,1496,1489,1489,1489,1489,1483,1483,1477,1470,1470,1470,1470,1470,1470,1464,1464,1464,1464,1464,1464,1464,1464,1458,1452,1445,1445,1445,1445,1439,1439,1439,1439,1439,1433,1433,1433,1427,1427,1421,1421,1421,1415,1415,1415,1415,1415,1410,1410,1410,1404,1398,1398,1398,1398,1398,1398,1398,1398,1392,1392,1392,1392,1387,1387,1381,1381,1376,1376,1376,1376,1376,1370,1370,1370,1370,1365,1365,1359,1359,1359,1354,1354,1354,1354,1354,1349,1349,1349,1349,1349,1343,1338,1338,1333,1333,1333,1333,1333,1328,1328,1328,1328,1322,1322,1317,1317,1317,1312,1312,1312,1307,1307,1307,1307,1307,1302,1302,1297,1297,1292,1292,1292,1288,1288,1288,1288,1288,1288,1283,1283,1278,1278,1273,1273,1273,1273,1268,1268,1264,1264,1264,1264,1259,1259,1255,1255,1255,1250,1250,1250,1250,1250,1250,1245,1245,1245,1241,1241,1241,1236,1236,1236,1232,1232,1232,1232,1227,1227,1227,1227,1223,1223,1219,1219,1219,1219,1219,1214,1214,1214,1214,1210,1206,1206,1206,1206,1206,1202,1202,1202,1202,1197,1197,1197,1193,1193,1189,1189,1189,1189,1189,1189,1185,1185,1185,1181,1181,1181,1181,1181,1181,1181,1181,1177,1177,1177,0,0,0,0,0,0,0,0,0,0,0,0,0,0,0,0,0,0,0,0,0,0,0,0,0,0,0,0,0
0,0,0,0,0,0,0,0,0,0,0,0,0,1655,1655,1655,1655,1655,1655,1655,1655,1655,1655,1655,1655,1647,1639,1639,1647,0,0,0,0,0,0,0,0,0,0,0,833,833,829,829,827,827,827,823,819,817,811,809,809,807,807,805,805,803,802,800,798,796,794,792,790,789,789,787,787,787,785,783,783,783,781,780,780,778,778,778,778,776,774,774,773,771,771,771,771,773,773,773,773,773,773,771,769,769,769,769,769,773,771,771,773,773,774,774,774,774,773,773,773,773,771,771,771,773,773,771,771,771,774,774,762,762,761,761,761,761,761,778,774,774,774,769,769,766,766,766,766,767,767,767,771,769,766,766,767,767,766,764,764,762,762,762,761,761,761,761,761,761,761,762,762,762,761,759,759,761,761,761,761,761,761,761,761,761,761,761,755,755,759,757,757,755,752,747,747,754,757,755,755,757,757,762,762,764,764,764,762,762,759,757,755,755,755,755,755,755,755,755,757,757,757,755,754,754,754,754,750,749,749,749,759,755,755,754,754,762,759,752,752,752,759,759,750,750,750,754,754,754,754,750,749,749,749,749,747,747,747,747,749,749,749,747,747,749,749,747,747,747,747,747,747,749,749,749,747,747,746,746,746,741,741,742,744,749,749,744,744,746,746,747,747,747,752,752,754,754,757,757,759,761,762,764,766,767,769,773,773,774,778,778,780,781,789,817,817,821,821,823,827,829,833,835,839,841,843,843,845,849,854,854,858,860,864,867,871,871,875,878,880,882,885,889,891,898,901,901,903,906,908,910,913,915,915,930,933,935,935,935,935,935,938,938,940,940,946,948,951,951,956,956,956,956,956,0,0,0,0,1536,1529,1529,1529,1529,1529,1529,1523,1523,1523,1523,1523,1516,1516,1516,1516,1509,1503,1503,1503,1503,1496,1496,1496,1496,1496,1489,1489,1489,1489,1483,1483,1477,1477,1477,1470,1470,1470,1470,1464,1464,1464,1464,1464,1464,1464,1452,1452,1445,1445,1445,1445,1445,1439,1439,1439,1439,1439,1433,1433,1433,1427,1427,1421,1421,1421,1421,1415,1415,1415,1410,1410,1410,1404,1398,1398,1398,1398,1398,1398,1398,1398,1398,1392,1392,1392,1392,1387,1381,1381,1381,1376,1376,1376,1376,1376,1370,1370,1370,1370,1370,1365,1359,1359,1359,1354,1354,1354,1354,1354,1349,1349,1349,1349,1343,1338,1338,1333,1333,1333,1333,1333,1333,1333,1328,1328,1322,1322,1322,1317,1317,1312,1312,1312,1312,1312,1307,1307,1307,1307,1302,1297,1297,1292,1292,1292,1292,1292,1288,1288,1288,1288,1283,1283,1278,1278,1273,1273,1273,1273,1268,1268,1268,1264,1264,1264,1259,1259,1259,1255,1255,1250,1250,1250,1250,1250,1250,1245,1245,1245,1241,1241,1241,1236,1236,1236,1232,1232,1232,1232,1227,1227,1227,1227,1227,1227,1223,1223,1219,1219,1219,1214,1214,1214,1214,1214,1210,1210,1210,1206,1206,1202,1202,1202,1202,1197,1197,1197,1193,1193,1193,1193,1193,1189,1189,1189,1185,1185,1185,1185,1181,1181,1181,1181,1181,1181,1181,1177,1177,1177,0,0,0,0,0,0,0,0,0,0,0,0,0,0,0,0,0,0,0,0,0,0,0,0,0,0,0,0,0
0,0,0,0,0,0,0,0,0,0,0,0,0,1663,1663,1663,1663,1663,1655,1655,1655,1655,1655,1655,1655,1647,1647,1647,1647,0,0,0,0,0,0,0,0,0,0,0,0,0,831,831,831,833,827,825,819,819,805,805,805,807,807,805,805,803,802,800,798,796,794,792,790,789,789,787,787,787,785,783,781,781,780,778,778,776,776,776,774,774,773,771,769,769,767,767,767,769,771,769,769,769,769,767,767,767,767,767,766,766,762,762,766,762,762,761,761,762,771,771,773,771,769,769,767,767,769,766,764,764,762,762,761,761,761,761,759,759,759,759,762,766,762,762,764,764,761,761,761,762,761,761,761,761,759,757,757,759,762,755,755,761,761,759,759,759,759,759,759,755,754,752,752,759,759,757,757,757,759,759,761,759,759,757,757,759,757,757,754,754,754,754,755,754,752,747,747,749,749,750,749,749,750,754,754,754,750,749,749,752,752,749,749,752,752,752,752,752,752,754,755,755,755,754,752,752,752,750,749,747,747,746,746,746,744,744,746,741,741,750,750,759,759,759,752,750,750,749,747,747,750,749,747,747,747,747,747,747,747,747,747,747,746,746,747,749,747,747,747,747,747,747,747,747,749,747,746,746,744,744,744,741,741,741,741,741,741,741,741,742,744,744,746,747,747,752,754,754,755,757,759,759,761,764,766,767,771,773,774,776,776,778,780,781,815,817,817,821,821,825,827,829,833,835,839,841,843,843,845,851,854,854,860,862,864,867,871,871,875,880,882,885,887,889,891,896,898,901,903,906,908,910,913,915,915,935,935,935,935,938,938,938,938,938,940,940,946,948,951,954,956,956,956,956,956,0,0,0,0,0,1529,1529,1529,1536,1529,1529,1529,1523,1523,1523,1523,1523,1516,1516,1516,1516,1509,1503,1503,1503,1496,1496,1496,1496,1496,1496,1489,1489,1489,1483,1483,1477,1477,1477,1470,1470,1470,1470,1470,1470,1464,1464,1464,1464,1464,1452,1452,1445,1445,1445,1445,1445,1439,1439,1439,1439,1439,1439,1433,1433,1433,1427,1421,1421,1421,1421,1415,1415,1415,1410,1410,1410,1404,1398,1398,1398,1398,1398,1398,1398,1398,1398,1398,1392,1392,1392,1387,1381,1381,1376,1376,1376,1376,1376,1376,1370,1370,1370,1370,1370,1365,1365,1359,1359,1354,1354,1354,1354,1354,1349,1349,1349,1349,1343,1338,1338,1333,1333,1333,1333,1333,1333,1333,1333,1328,1328,1328,1322,1322,1317,1317,1312,1312,1312,1312,1307,1307,1307,1307,1302,1302,1297,1297,1292,1292,1292,1292,1292,1288,1288,1288,1283,1283,1283,1278,1278,1278,1273,1273,1273,1273,1268,1268,1264,1264,1264,1259,1259,1259,1259,1255,1255,1255,1250,1250,1250,1245,1245,1245,1241,1241,1241,1236,1236,1236,1232,1232,1232,1232,1227,1227,1227,1227,1227,1227,1223,1223,1223,1219,1219,1219,1219,1214,1214,1214,1210,1210,1210,1210,1210,1206,1202,1202,1202,1197,1197,1197,1197,1197,1193,1193,1193,1193,1193,1193,1189,1189,1185,1185,1181,1181,1181,1181,1181,1181,1181,1177,1177,1177,0,0,0,0,0,0,0,0,0,0,0,0,0,0,0,0,0,0,0,0,0,0,0,0,0,0,0,0,0
