0,0,0,0,0,0,0,0,0,0,0,0,0,0,1863,1863,1873,1873,1873,1873,1873,1873,1873,1863,1863,1863,1863,1853,1853,1853,1843,1843,1843,1843,1843,1843,1843,1843,1843,1833,1833,1833,1833,1833,1833,1833,1833,1833,1823,1823,1823,1823,1823,1823,1823,1823,1823,1823,1823,1823,1823,1823,1813,1813,1813,1813,1813,1813,1813,1813,1813,1804,1804,1804,1804,1804,1804,1794,1794,1794,1794,1794,1794,1794,1794,1794,1794,1794,1794,1794,1794,1794,1794,1785,1785,1785,1785,1785,1785,1785,1776,1776,1776,1776,1776,1766,1766,1766,1766,1766,1766,1766,1757,1757,1757,1757,1757,1757,1757,1757,1757,1757,1757,1757,1757,1757,1757,1757,1766,1766,1776,1776,1776,1883,1904,1904,1904,1904,1904,1904,1904,1904,1904,1915,1915,1915,1915,1915,1915,1904,1894,1883,1766,1766,1766,1766,1766,1757,1757,1757,1757,1757,1766,1766,1766,1766,1766,1766,1776,1776,1785,1785,1794,1794,1794,1794,1794,1804,1804,1804,1804,1813,1813,1823,1823,1823,1823,1833,1833,1833,1833,1833,1833,1833,0,0,0,1157,1153,1153,1149,1149,1145,1145,1145,1141,1138,1138,1138,1138,1141,1145,1145,1149,1149,1153,1153,1153,1157,1161,1161,1161,1161,1161,0,0,0,1959,1959,1959,1959,1959,1959,1970,1970,1970,1970,1970,1970,1970,1970,1981,1970,1970,1970,1970,1970,1959,1959,1959,1947,1947,1936,1926,1926,1915,1915,1915,1915,1915,1904,1904,1894,1894,1883,1883,1873,1873,1873,1853,1853,1853,1843,1843,1843,1843,1833,1833,1823,1813,1813,1804,1794,1794,1794,0,0,0,0,0,0,0,925,925,925,923,923,923,920,918,915,915,913,913,913,913,913,915,915,915,915,918,918,920,923,925,925,925,928,928,928,930,0,0,0,0,0,0,1639,1632,1632,1632,1632,1624,1616,1616,1609,1609,1601,1601,1594,1594,1594,1586,1586,1579,1579,1572,1572,1572,1564,1564,1557,1557,1550,1550,1550,1550,1543,1543,1536,1536,1523,1523,1523,1523,1516,1516,1509,1509,1503,1503,1496,1496,1496,1489,1489,1489,1483,1483,1477,1470,1470,1470,1470,1464,1464,1458,1458,1458,1452,1445,1445,1445,1439,1439,1439,1433,1433,1427,1421,1421,1421,1421,1421,1415,1415,1415,1410,1404,1404,1398,1398,1392,1392,1392,1392,1387,1387,1381,1381,1376,1376,1376,1376,1370,1370,1370,1370,1365,1365,1359,1359,1354,1354,1349,1343,1338,1338,1338,1333,1333,1333,1328,1328,1328,1328,1322,1317,1312,1312,1312,1312,1307,1307,1302,1297,1292,1292,1292,1292,1288,1288,1288,1288,1283,1283,1278,1273,1273,1273,1268,1268,1268,1264,1264,1264,1259,1259,1255,1255,1250,1250,1245,1245,1241,1241,1236,1236,1236,1236,1232,1232,1232,1227,1227,1223,1223,1219,1214,1214,1214,1210,1206,1206,1202,1202,1197,1197,1197,1193,1193,1189,1185,1185,1185,1181,1181,1181,1181,1177,1177,1173,1169,1169,1165,1165,1165,1165,1161,1157,1157,1153,1153,1153,1149,1149,1149,1145,1145,1141,1138,1138,1138,1134,1134,1130,1130,1126,1126,1126,1123,1123,1123,1123,1119,1119,1115,1115,1112,1108,1108,1108,1105,1105,1105,1105,1101,1101,1097,1097,1094,1094,1090,1087,1087,1087,1087,1084,1084,1080,1080,1080,1080,1077,1077,1077,1073,1073,1070,1067,1067,1063,1063,1063,1060,1060,1057,1057,1057,1054,1054,1054,1054,1050,1050,1047,1047,0,0,0,0,0,0,0,0,0,0,0,0,0,0,0,0,0,0,0,0,0,0,0,0,0,0,0,0,0,0,0,0
0,0,0,0,0,0,0,0,0,0,0,0,0,0,1873,1873,1873,1873,1873,1873,1873,1873,1873,1873,1863,1863,1863,1853,1853,1843,1843,1843,1843,1843,1853,1853,1853,1843,1843,1833,1833,1833,1833,1833,1833,1833,1833,1833,1833,1833,1823,1823,1823,1823,1823,1823,1823,1823,1823,1823,1823,1823,1813,1813,1823,1813,1813,1813,1813,1813,1813,1804,1804,1804,1804,1804,1804,1804,1804,1804,1794,1794,1794,1794,1794,1794,1794,1794,1794,1794,1794,1794,1794,1785,1785,1785,1785,1785,1785,1785,1776,1776,1776,1776,1776,1766,1766,1766,1766,1766,1766,1766,1766,1766,1766,1757,1757,1757,1757,1757,1757,1757,1757,1757,1757,1757,1757,1757,1766,1766,1776,1776,1776,1883,1904,1904,1904,1904,1904,1904,1915,1904,1904,1915,1915,1915,1915,1915,1915,1904,1904,1883,1766,1766,1766,1766,1766,1757,1757,1757,1757,1757,1766,1766,1766,1766,1766,1776,1776,1776,1785,1785,1794,1794,1794,1794,1804,1804,1804,1804,1813,1813,1823,1823,1823,1823,1833,1833,1833,1833,1833,1833,1833,1833,0,0,0,1153,1153,1153,1149,1149,1145,1145,1145,1141,1138,1138,1138,1138,1141,1145,1145,1149,1149,1153,1157,1157,1161,1161,1161,1161,1161,0,0,0,0,1959,1959,1959,1959,1959,1959,1970,1970,1970,1970,1970,1970,1970,1970,1981,1970,1970,1970,1970,1970,1970,1959,1959,1959,1947,1936,1926,1926,1926,1915,1915,1915,1915,1915,1904,1904,1894,1883,1883,1873,1873,1873,1853,1853,1853,1843,1843,1843,1843,1833,1833,1823,1813,1813,1804,1804,1804,1804,0,0,0,0,0,0,0,925,925,925,923,923,923,923,918,915,915,915,913,913,910,910,915,915,915,915,918,918,920,923,925,925,925,928,928,928,930,0,0,0,0,0,0,1632,1632,1632,1632,1632,1624,1616,1616,1609,1609,1609,1601,1601,1594,1594,1586,1586,1579,1579,1572,1572,1572,1564,1564,1557,1557,1550,1550,1550,1550,1543,1543,1536,1536,1529,1523,1523,1523,1516,1516,1516,1509,1509,1503,1496,1496,1496,1496,1489,1489,1489,1483,1477,1470,1470,1470,1470,1464,1464,1458,1458,1458,1452,1445,1445,1445,1445,1439,1439,1433,1433,1427,1427,1421,1421,1421,1421,1415,1415,1415,1410,1404,1404,1398,1398,1398,1392,1392,1392,1387,1387,1381,1381,1376,1376,1376,1376,1376,1370,1370,1370,1370,1365,1359,1359,1354,1354,1349,1349,1343,1338,1338,1333,1333,1333,1328,1328,1328,1328,1322,1317,1312,1312,1312,1312,1307,1307,1302,1297,1297,1292,1292,1292,1292,1288,1288,1288,1288,1283,1278,1273,1273,1273,1268,1268,1268,1268,1264,1264,1259,1259,1255,1255,1250,1250,1250,1245,1241,1241,1236,1236,1236,1236,1232,1232,1232,1232,1227,1227,1223,1219,1219,1214,1214,1210,1206,1206,1202,1202,1202,1197,1197,1197,1193,1193,1189,1185,1185,1185,1181,1181,1181,1177,1177,1173,1169,1169,1169,1165,1165,1165,1165,1161,1157,1157,1153,1153,1149,1149,1149,1145,1145,1141,1141,1138,1138,1138,1134,1134,1130,1126,1126,1126,1126,1123,1123,1123,1119,1119,1119,1115,1112,1108,1108,1108,1108,1108,1105,1105,1105,1101,1101,1097,1094,1094,1090,1090,1090,1090,1087,1084,1084,1080,1080,1080,1080,1077,1077,1077,1077,1073,1070,1070,1067,1067,1063,1063,1063,1060,1057,1057,1057,1057,1054,1054,1054,1050,1050,1047,1047,0,0,0,0,0,0,0,0,0,0,0,0,0,0,0,0,0,0,0,0,0,0,0,0,0,0,0,0,0,0,0,0
0,0,0,0,0,0,0,0,0,0,0,0,0,0,1873,1873,1873,1873,1873,1873,1863,1863,1863,1863,1863,1863,1863,1853,1853,1843,1843,1843,1843,1843,1853,1853,1853,1843,1843,1843,1843,1833,1833,1833,1833,1833,1833,1833,1833,1833,1833,1823,1823,1823,1823,1823,1823,1823,1823,1823,1823,1823,1813,1813,1823,1813,1813,1813,1813,1813,1813,1804,1804,1804,1804,1804,1804,1804,1804,1804,1804,1804,1804,1794,1794,1794,1794,1794,1794,1794,1794,1794,1794,1785,1785,1785,1776,1776,1785,1785,1776,1776,1776,1776,1776,1766,1766,1766,1776,1766,1766,1766,1766,1766,1766,1766,1757,1757,1757,1757,1757,1757,1757,1757,1757,1757,1757,1757,1766,1766,1776,1776,1776,1804,1904,1915,1915,1915,1915,1915,1915,1915,1915,1915,1915,1915,1915,1915,1915,1904,1904,1883,1766,1766,1766,1766,1766,1766,1766,1766,1766,1766,1766,1766,1766,1766,1766,1776,1776,1776,1785,1785,1794,1794,1794,1794,1804,1804,1804,1813,1813,1823,1823,1823,1823,1823,1833,1833,1833,1833,1833,1833,1833,1833,0,0,0,1153,1153,1153,1149,1149,1145,1145,1145,1141,1138,1138,1138,1138,1141,1145,1149,1149,1153,1157,1157,1161,1161,1161,1161,1161,1165,0,0,0,1959,1959,1959,1959,1959,1959,1959,1970,1970,1970,1970,1970,1970,1970,1970,1981,1981,1981,1970,1970,1970,1970,1970,1959,1959,1947,1936,1926,1926,1926,1915,1915,1915,1915,1915,1904,1904,1894,1883,1883,1883,1873,1873,1853,1853,1853,1843,1843,1843,1843,1833,1833,1823,1823,1823,1813,1804,1804,1804,0,0,0,0,0,0,0,913,913,925,923,923,923,923,920,918,915,915,913,910,910,910,913,915,915,918,918,918,920,923,925,925,925,928,930,930,930,933,0,0,0,0,0,1632,1632,1632,1632,1632,1624,1616,1616,1609,1609,1609,1601,1601,1601,1594,1594,1586,1586,1579,1579,1572,1572,1572,1564,1564,1557,1557,1550,1550,1550,1543,1543,1536,1536,1529,1523,1523,1523,1523,1516,1516,1516,1509,1509,1496,1496,1496,1496,1489,1489,1489,1483,1477,1470,1470,1470,1470,1464,1464,1464,1464,1458,1458,1452,1445,1445,1445,1439,1439,1433,1433,1427,1427,1421,1421,1421,1421,1415,1415,1415,1410,1410,1404,1398,1398,1398,1392,1392,1392,1392,1387,1387,1381,1381,1376,1376,1376,1376,1370,1370,1370,1365,1365,1359,1359,1354,1354,1349,1349,1343,1343,1338,1333,1333,1333,1328,1328,1328,1328,1322,1317,1317,1312,1312,1312,1307,1307,1302,1297,1297,1292,1292,1292,1292,1288,1288,1288,1288,1283,1278,1278,1273,1273,1273,1273,1268,1268,1264,1264,1259,1259,1255,1255,1250,1250,1250,1245,1241,1241,1236,1236,1236,1236,1232,1232,1232,1232,1232,1227,1223,1219,1219,1214,1214,1214,1210,1206,1206,1206,1202,1202,1197,1197,1197,1193,1189,1185,1185,1185,1181,1181,1181,1181,1177,1173,1169,1169,1169,1169,1165,1165,1165,1161,1161,1157,1157,1153,1153,1149,1149,1149,1145,1141,1141,1138,1138,1138,1134,1134,1130,1130,1126,1126,1126,1123,1123,1123,1123,1119,1119,1115,1115,1112,1108,1108,1108,1108,1105,1105,1105,1101,1101,1097,1094,1094,1094,1090,1090,1090,1087,1087,1084,1084,1080,1080,1080,1077,1077,1077,1077,1073,1070,1070,1067,1067,1063,1063,1063,1060,1060,1060,1060,1057,1054,1054,1054,1050,1050,1047,1047,0,0,0,0,0,0,0,0,0,0,0,0,0,0,0,0,0,0,0,0,0,0,0,0,0,0,0,0,0,0,0,0
0,0,0,0,0,0,0,0,0,0,0,0,0,0,1873,1873,1873,1873,1873,1863,1863,1863,1863,1863,1863,1863,1863,1853,1853,1853,1853,1843,1843,1853,1853,1853,1853,1843,1843,1843,1843,1833,1833,1843,1843,1843,1843,1843,1833,1833,1833,1833,1833,1823,1823,1823,1823,1823,1823,1823,1823,1823,1823,1823,1823,1813,1813,1813,1813,1813,1813,1813,1813,1813,1804,1804,1804,1804,1804,1804,1804,1804,1804,1804,1804,1804,1804,1794,1794,1794,1794,1794,1794,1785,1785,1785,1776,1776,1785,1785,1776,1776,1776,1776,1776,1776,1776,1776,1776,1776,1766,1766,1766,1766,1766,1766,1757,1757,1766,1757,1757,1757,1757,1757,1757,1757,1757,1757,1766,1766,1776,1776,1776,1785,1904,1904,1915,1904,1904,1904,1915,1915,1915,1915,1915,1915,1915,1915,1915,1904,1904,1883,1883,1776,1766,1766,1766,1766,1766,1766,1766,1766,1766,1766,1766,1776,1776,1776,1776,1776,1785,1785,1794,1794,1794,1794,1804,1804,1804,1813,1823,1833,1833,1833,1833,1833,1833,1833,1833,1833,1833,1833,1833,1833,0,0,0,1153,1153,1153,1149,1149,1145,1145,1145,1141,1141,1138,1138,1141,1145,1145,1149,1149,1153,1157,1157,1161,1161,1161,1161,1161,1165,0,0,0,0,1959,1959,1959,1959,1959,1970,1970,1970,1970,1970,1970,1970,1970,1970,1981,1981,1981,1981,1981,1970,1970,1970,1970,1959,1947,1947,1936,1936,1926,1915,1915,1915,1915,1915,1904,1904,1894,1883,1883,1883,1873,1873,1863,1853,1853,1843,1843,1843,1843,1833,1833,1823,1823,1823,1813,1813,1813,0,0,0,0,0,0,0,0,913,913,923,923,923,923,923,920,918,915,913,913,910,910,910,913,915,915,918,918,918,923,923,925,925,928,928,930,930,930,933,0,0,0,0,0,0,1632,1632,1632,1632,1624,1616,1616,1609,1609,1609,1601,1601,1601,1594,1594,1586,1586,1579,1579,1579,1572,1572,1564,1564,1557,1557,1550,1550,1550,1543,1543,1536,1536,1529,1529,1523,1523,1523,1516,1516,1516,1516,1509,1503,1496,1496,1496,1496,1489,1489,1483,1483,1477,1470,1470,1470,1464,1464,1464,1464,1458,1458,1452,1445,1445,1445,1439,1439,1433,1433,1433,1427,1427,1421,1421,1421,1421,1415,1415,1410,1410,1410,1404,1404,1398,1398,1398,1392,1392,1387,1387,1381,1381,1376,1376,1376,1376,1370,1370,1370,1365,1365,1359,1359,1354,1354,1349,1349,1349,1343,1338,1333,1333,1333,1333,1328,1328,1328,1322,1317,1317,1312,1312,1312,1307,1307,1302,1302,1297,1292,1292,1292,1292,1288,1288,1288,1288,1283,1283,1278,1273,1273,1273,1273,1268,1268,1264,1264,1259,1259,1255,1255,1255,1250,1250,1245,1245,1241,1236,1236,1236,1236,1232,1232,1232,1232,1232,1227,1223,1219,1219,1214,1214,1214,1210,1210,1206,1206,1202,1202,1197,1197,1197,1193,1189,1189,1185,1185,1181,1181,1181,1181,1177,1173,1169,1169,1169,1169,1165,1165,1165,1165,1161,1161,1157,1153,1153,1153,1149,1149,1145,1141,1141,1141,1138,1138,1134,1134,1134,1130,1126,1126,1126,1126,1123,1123,1123,1119,1119,1115,1115,1112,1108,1108,1108,1108,1105,1105,1105,1101,1101,1097,1094,1094,1094,1090,1090,1090,1090,1087,1084,1084,1084,1080,1080,1080,1080,1077,1077,1073,1073,1070,1070,1067,1067,1063,1063,1063,1060,1060,1060,1057,1054,1054,1054,1050,1050,1047,1047,0,0,0,0,0,0,0,0,0,0,0,0,0,0,0,0,0,0,0,0,0,0,0,0,0,0,0,0,0,0,0,0
0,0,0,0,0,0,0,0,0,0,0,0,0,0,1873,1873,1873,1873,1873,1863,1863,1863,1863,1863,1863,1863,1863,1863,1853,1853,1853,1853,1853,1853,1853,1853,1853,1843,1843,1843,1843,1843,1843,1843,1843,1843,1843,1843,1833,1833,1833,1833,1833,1833,1823,1823,1823,1823,1823,1823,1823,1823,1823,1823,1823,1823,1823,1813,1813,1813,1813,1813,1813,1813,1813,1813,1804,1804,1804,1804,1804,1804,1804,1804,1804,1804,1804,1804,1804,1794,1794,1794,1794,1785,1785,1785,1776,1776,1785,1785,1776,1776,1776,1776,1776,1776,1776,1776,1776,1776,1776,1766,1766,1766,1766,1766,1766,1766,1766,1757,1757,1757,1757,1757,1757,1757,1757,1766,1766,1766,1776,1785,1785,1785,1904,1904,1915,1904,1904,1904,1915,1915,1915,1915,1915,1915,1915,1915,1915,1915,1904,1894,1894,1776,1776,1766,1766,1766,1766,1766,1766,1766,1766,1776,1776,1776,1776,1776,1776,1785,1785,1794,1794,1794,1794,1794,1804,1804,1804,1813,1823,1823,1833,1833,1833,1833,1833,1833,1833,1833,1833,1833,1833,1833,0,0,0,0,1153,1153,1149,1149,1145,1145,1145,1141,1141,1141,1141,1141,1145,1145,1149,1149,1153,1157,1161,1161,1161,1165,1165,1165,1165,1165,0,0,0,1959,1959,1959,1959,1959,1959,1970,1970,1970,1970,1970,1970,1970,1970,1981,1981,1981,1981,1981,1981,1970,1970,1970,1959,1959,1947,1947,1947,1926,1926,1926,1915,1915,1915,1904,1904,1894,1894,1883,1883,1873,1873,1863,1863,1853,1853,1853,1843,1843,1833,1833,1833,1823,1823,1813,1813,1813,0,0,0,0,0,0,0,0,0,925,923,923,923,923,923,920,918,915,913,913,910,910,910,915,915,915,918,918,918,923,925,925,925,928,928,930,930,930,935,0,0,0,0,0,0,1632,1632,1632,1632,1624,1624,1616,1616,1609,1609,1609,1601,1601,1601,1594,1594,1586,1579,1579,1579,1572,1572,1572,1564,1564,1557,1550,1550,1550,1550,1543,1543,1536,1529,1529,1523,1523,1523,1516,1516,1516,1516,1509,1503,1496,1496,1496,1496,1489,1489,1489,1483,1483,1477,1477,1470,1464,1464,1464,1464,1458,1458,1452,1445,1445,1445,1445,1439,1439,1433,1433,1427,1427,1421,1421,1421,1421,1415,1415,1415,1415,1410,1410,1404,1398,1398,1398,1392,1392,1387,1387,1381,1381,1376,1376,1376,1376,1370,1370,1370,1365,1365,1359,1359,1354,1354,1349,1349,1349,1343,1338,1338,1333,1333,1333,1333,1328,1328,1322,1322,1317,1312,1312,1312,1307,1307,1307,1302,1302,1297,1297,1292,1292,1288,1288,1288,1288,1288,1283,1278,1278,1273,1273,1273,1268,1268,1268,1264,1264,1259,1255,1255,1255,1250,1250,1250,1245,1241,1236,1236,1236,1236,1232,1232,1232,1232,1232,1227,1223,1223,1219,1219,1214,1214,1214,1214,1210,1206,1206,1202,1202,1197,1197,1193,1189,1189,1185,1185,1185,1181,1181,1181,1181,1177,1173,1169,1169,1169,1165,1165,1165,1165,1165,1161,1161,1157,1153,1153,1149,1149,1145,1141,1141,1141,1138,1138,1138,1134,1134,1130,1130,1130,1126,1126,1123,1123,1123,1119,1119,1115,1115,1112,1108,1108,1108,1108,1105,1105,1105,1105,1101,1097,1094,1094,1094,1090,1090,1090,1090,1090,1087,1087,1084,1080,1080,1080,1080,1077,1077,1073,1073,1073,1070,1067,1067,1067,1063,1063,1060,1060,1060,1057,1057,1054,1054,1054,1050,1050,1050,0,0,0,0,0,0,0,0,0,0,0,0,0,0,0,0,0,0,0,0,0,0,0,0,0,0,0,0,0,0,0,0
0,0,0,0,0,0,0,0,0,0,0,0,0,0,1873,1873,1873,1873,1873,1863,1863,1863,1863,1863,1863,1863,1863,1863,1863,1853,1853,1853,1853,1863,1863,1853,1853,1843,1843,1843,1843,1843,1843,1843,1843,1843,1843,1843,1843,1843,1833,1833,1833,1833,1833,1833,1823,1823,1833,1833,1833,1833,1833,1833,1823,1823,1823,1823,1823,1813,1813,1813,1813,1813,1813,1813,1804,1804,1804,1804,1804,1804,1804,1804,1804,1804,1804,1804,1804,1804,1804,1794,1794,1794,1785,1785,1776,1776,1785,1785,1785,1785,1785,1785,1776,1776,1776,1776,1776,1776,1776,1766,1766,1766,1766,1766,1766,1766,1766,1766,1757,1757,1766,1766,1766,1766,1766,1766,1766,1776,1776,1785,1785,1785,1794,1804,1915,1915,1915,1915,1915,1915,1915,1915,1915,1915,1915,1915,1915,1915,1904,1904,1904,1785,1776,1766,1766,1766,1766,1766,1766,1766,1766,1776,1776,1776,1776,1776,1776,1785,1785,1794,1794,1794,1794,1804,1804,1804,1804,1813,1823,1823,1833,1833,1833,1833,1833,1833,1833,1833,1833,1833,1833,1833,1833,0,0,1153,1153,1153,1149,1149,1145,1145,1145,1141,1141,1141,1141,1141,1145,1149,1149,1153,1157,1157,1161,1161,1165,1161,1161,1161,1161,1165,0,0,0,1959,1959,1959,1959,1959,1959,1970,1970,1970,1970,1970,1970,1970,1970,1981,1993,1993,1981,1981,1981,1970,1970,1970,1959,1959,1947,1947,1947,1936,1926,1926,1915,1915,1915,1915,1904,1894,1894,1883,1883,1883,1873,1873,1863,1863,1853,1853,1843,1843,1843,1833,1833,1833,1833,1823,1823,1823,0,0,0,0,0,0,0,0,0,925,925,925,925,923,923,920,918,915,915,913,913,910,910,915,915,915,918,918,920,923,925,925,925,928,930,930,930,930,935,0,0,0,0,0,0,1632,1632,1632,1632,1624,1624,1616,1616,1609,1609,1609,1601,1601,1601,1594,1594,1586,1579,1579,1579,1572,1572,1572,1564,1557,1557,1550,1550,1550,1543,1543,1543,1536,1536,1529,1529,1523,1523,1523,1516,1516,1516,1509,1503,1503,1496,1496,1496,1496,1489,1489,1483,1483,1483,1477,1477,1470,1464,1464,1464,1458,1458,1452,1452,1445,1445,1445,1439,1439,1433,1433,1427,1427,1427,1421,1421,1421,1421,1415,1415,1415,1415,1410,1404,1398,1398,1398,1392,1392,1387,1387,1381,1381,1376,1376,1376,1376,1376,1370,1370,1365,1365,1359,1359,1354,1354,1349,1349,1349,1343,1338,1338,1338,1333,1333,1333,1328,1328,1328,1322,1322,1317,1317,1312,1307,1307,1307,1302,1302,1297,1297,1292,1292,1292,1288,1288,1288,1288,1283,1278,1278,1273,1273,1273,1268,1268,1268,1264,1264,1259,1259,1255,1255,1250,1250,1250,1245,1245,1236,1236,1236,1236,1232,1232,1232,1232,1232,1227,1223,1223,1219,1214,1214,1214,1214,1210,1210,1210,1206,1202,1202,1197,1197,1197,1193,1189,1189,1185,1185,1181,1181,1181,1181,1177,1173,1173,1169,1169,1169,1165,1165,1165,1165,1161,1161,1157,1153,1153,1153,1149,1145,1145,1141,1141,1138,1138,1138,1134,1134,1134,1130,1130,1130,1126,1123,1123,1123,1119,1119,1115,1115,1112,1108,1108,1108,1108,1105,1105,1105,1105,1105,1097,1094,1094,1094,1090,1090,1090,1090,1090,1087,1087,1087,1084,1084,1080,1080,1077,1077,1073,1073,1073,1070,1067,1067,1067,1067,1063,1063,1060,1060,1060,1057,1054,1054,1054,1050,1050,1050,0,0,0,0,0,0,0,0,0,0,0,0,0,0,0,0,0,0,0,0,0,0,0,0,0,0,0,0,0,0,0,0
0,0,0,0,0,0,0,0,0,0,0,0,0,0,1873,1873,1873,1863,1863,1863,1863,1863,1863,1863,1863,1863,1863,1863,1863,1853,1853,1863,1863,1863,1863,1863,1853,1853,1843,1843,1843,1843,1843,1843,1843,1843,1843,1843,1843,1843,1843,1843,1843,1833,1833,1833,1833,1833,1833,1833,1833,1833,1833,1833,1823,1823,1823,1823,1823,1813,1813,1823,1823,1813,1813,1813,1813,1813,1804,1804,1804,1804,1804,1804,1804,1804,1804,1804,1804,1804,1804,1804,1804,1794,1785,1785,1785,1785,1785,1785,1785,1785,1785,1785,1776,1776,1776,1776,1776,1776,1776,1776,1766,1766,1766,1766,1766,1766,1766,1766,1766,1766,1766,1766,1766,1766,1766,1766,1766,1776,1776,1785,1785,1794,1794,1804,1883,1915,1915,1915,1915,1915,1915,1915,1915,1915,1915,1915,1915,1915,1915,1904,1904,1785,1776,1766,1766,1766,1766,1766,1766,1766,1766,1776,1776,1776,1776,1776,1776,1785,1785,1794,1794,1794,1794,1804,1804,1804,1804,1813,1823,1823,1833,1833,1833,1833,1833,1833,1833,1833,1833,1833,1833,1833,1833,0,0,1153,1153,1153,1149,1149,1145,1145,1145,1141,1141,1141,1141,1141,1145,1149,1149,1153,1157,1157,1161,1161,1161,1161,1161,1161,1161,1161,1161,0,0,1959,1959,1959,1959,1959,1970,1970,1970,1970,1970,1970,1970,1970,1970,1981,1993,1993,1981,1981,1981,1970,1970,1970,1959,1959,1947,1947,1947,1936,1926,1926,1915,1915,1915,1915,1904,1894,1894,1883,1883,1883,1883,1873,1873,1863,1853,1853,1853,1843,1843,1833,1833,1833,1833,1833,1833,1833,0,0,0,0,0,0,0,0,0,928,925,925,925,923,923,920,918,915,915,913,913,913,913,915,915,918,918,918,920,923,925,925,928,928,930,930,930,933,935,0,0,0,0,0,0,1632,1632,1632,1632,1632,1624,1624,1616,1616,1609,1609,1601,1601,1601,1601,1594,1586,1579,1579,1579,1572,1572,1572,1564,1557,1557,1550,1550,1550,1543,1543,1543,1543,1536,1536,1529,1523,1523,1523,1523,1516,1516,1509,1509,1503,1503,1496,1496,1496,1489,1489,1489,1483,1483,1483,1477,1470,1470,1464,1464,1458,1458,1458,1452,1452,1445,1445,1439,1439,1439,1433,1433,1427,1427,1427,1421,1421,1421,1415,1415,1415,1415,1410,1404,1398,1398,1398,1392,1392,1387,1387,1381,1381,1376,1376,1376,1376,1370,1370,1370,1370,1365,1359,1359,1354,1354,1354,1349,1349,1349,1343,1338,1338,1338,1333,1333,1333,1328,1328,1322,1322,1317,1317,1312,1312,1312,1307,1307,1302,1302,1297,1292,1292,1292,1292,1288,1288,1288,1283,1278,1278,1273,1273,1273,1273,1268,1268,1268,1264,1259,1259,1255,1255,1250,1250,1250,1245,1245,1236,1236,1236,1236,1232,1232,1232,1232,1232,1227,1223,1223,1219,1214,1214,1214,1214,1210,1210,1210,1206,1206,1202,1202,1197,1197,1193,1193,1189,1189,1185,1181,1181,1181,1181,1177,1177,1173,1169,1169,1169,1165,1165,1165,1165,1161,1161,1157,1153,1153,1153,1153,1149,1145,1141,1141,1138,1138,1138,1134,1134,1134,1130,1130,1130,1126,1123,1123,1123,1123,1119,1119,1115,1112,1112,1108,1108,1108,1108,1105,1105,1105,1101,1097,1094,1094,1094,1094,1090,1090,1090,1090,1090,1087,1087,1084,1084,1080,1080,1080,1077,1077,1073,1073,1070,1067,1067,1067,1067,1063,1063,1060,1060,1060,1057,1054,1054,1054,1050,1050,1050,0,0,0,0,0,0,0,0,0,0,0,0,0,0,0,0,0,0,0,0,0,0,0,0,0,0,0,0,0,0,0,0
0,0,0,0,0,0,0,0,0,0,0,0,0,0,1873,1873,1873,1863,1863,1863,1863,1863,1863,1863,1863,1863,1863,1863,1863,1853,1853,1863,1863,1863,1863,1863,1863,1853,1853,1843,1843,1853,1843,1843,1843,1843,1843,1843,1843,1843,1843,1843,1843,1843,1843,1843,1833,1833,1833,1833,1833,1833,1833,1833,1833,1823,1823,1823,1823,1823,1823,1823,1823,1823,1813,1813,1813,1813,1804,1804,1804,1804,1804,1804,1804,1804,1804,1804,1804,1804,1804,1804,1804,1794,1794,1794,1794,1794,1785,1785,1785,1785,1785,1785,1785,1776,1776,1785,1776,1776,1776,1776,1766,1766,1766,1766,1766,1766,1766,1766,1766,1766,1766,1766,1766,1766,1766,1766,1766,1776,1776,1785,1785,1794,1794,1804,1883,1915,1915,1915,1915,1915,1915,1915,1915,1915,1915,1915,1915,1915,1915,1915,1915,1785,1776,1766,1766,1766,1766,1766,1766,1766,1766,1766,1776,1776,1776,1776,1785,1785,1794,1794,1794,1794,1804,1804,1804,1804,1804,1823,1823,1823,1823,1833,1833,1833,1833,1833,1833,1833,1833,1833,1843,0,0,0,1149,0,1153,1153,1153,1149,1145,1145,1145,1141,1141,1141,1141,1145,1145,1149,1149,1149,1157,1157,1157,1161,1161,1161,1161,1161,1161,1161,1161,0,0,1970,1970,1959,1959,1970,1970,1970,1970,1970,1970,1970,1970,1970,1981,1981,1993,1993,1993,1993,1981,1981,1970,1970,1959,1959,1959,1947,1947,1947,1926,1926,1926,1915,1915,1915,1904,1904,1894,1883,1883,1883,1883,1873,1873,1873,1863,1863,1853,1843,1843,1833,1833,1833,1833,1833,1833,0,0,0,0,0,0,0,0,0,0,930,928,928,925,923,923,920,918,915,915,913,913,913,913,915,915,918,918,920,920,923,925,928,928,930,933,933,933,933,933,0,0,0,0,0,0,1632,1632,1632,1632,1632,1624,1624,1616,1616,1616,1609,1609,1601,1601,1601,1594,1586,1586,1579,1579,1579,1572,1572,1564,1557,1557,1550,1550,1550,1543,1543,1543,1543,1536,1536,1529,1529,1523,1523,1523,1523,1516,1516,1509,1509,1503,1496,1496,1496,1489,1489,1489,1489,1483,1483,1477,1470,1470,1464,1464,1464,1464,1458,1452,1452,1445,1445,1445,1445,1439,1439,1439,1433,1427,1427,1421,1421,1421,1415,1415,1415,1415,1410,1404,1398,1398,1398,1392,1392,1387,1387,1387,1381,1381,1376,1376,1376,1370,1370,1370,1370,1365,1365,1359,1354,1354,1354,1354,1349,1349,1343,1343,1338,1338,1333,1333,1333,1328,1328,1322,1322,1317,1317,1312,1312,1312,1307,1307,1307,1302,1302,1297,1292,1292,1292,1288,1288,1288,1288,1283,1283,1278,1273,1273,1273,1268,1268,1268,1264,1264,1259,1255,1255,1250,1250,1250,1245,1245,1236,1236,1236,1236,1232,1232,1232,1232,1232,1227,1223,1223,1219,1214,1214,1214,1214,1210,1210,1210,1206,1206,1202,1197,1197,1197,1193,1193,1193,1189,1189,1185,1181,1181,1181,1177,1177,1177,1169,1169,1169,1165,1165,1165,1165,1161,1161,1157,1157,1153,1153,1153,1149,1145,1145,1141,1138,1138,1138,1138,1138,1134,1134,1134,1130,1130,1123,1123,1123,1123,1119,1119,1119,1115,1112,1112,1108,1108,1108,1108,1105,1105,1101,1097,1094,1094,1094,1094,1090,1090,1090,1090,1090,1090,1087,1087,1084,1080,1080,1077,1077,1077,1077,1073,1070,1070,1067,1067,1067,1067,1063,1063,1060,1060,1057,1054,1054,1054,1050,1050,1050,0,0,0,0,0,0,0,0,0,0,0,0,0,0,0,0,0,0,0,0,0,0,0,0,0,0,0,0,0,0,0,0
0,0,0,0,0,0,0,0,0,0,0,0,0,0,1873,1873,1873,1873,1863,1863,1863,1873,1863,1863,1863,1863,1863,1863,1863,1853,1853,1863,1863,1863,1863,1863,1863,1853,1853,1853,1853,1853,1843,1843,1843,1843,1843,1843,1843,1843,1843,1843,1843,1843,1843,1843,1843,1843,1833,1833,1833,1833,1833,1833,1833,1833,1833,1833,1823,1823,1823,1823,1823,1823,1823,1823,1813,1813,1804,1804,1804,1804,1804,1804,1804,1804,1804,1804,1804,1804,1804,1804,1804,1794,1794,1794,1794,1794,1794,1785,1785,1785,1785,1785,1785,1776,1776,1785,1776,1776,1776,1776,1776,1776,1766,1766,1766,1766,1766,1766,1766,1766,1766,1766,1766,1766,1766,1766,1766,1776,1776,1785,1785,1785,1794,1804,1915,1915,1915,1915,1915,1915,1915,1915,1915,1915,1915,1915,1915,1915,1915,1915,1904,1794,1776,1766,1766,1766,1766,1766,1766,1766,1766,1766,1776,1776,1776,1776,1785,1785,1794,1794,1794,1794,1804,1804,1804,1804,1804,1823,1823,1823,1823,1833,1833,1833,1833,1833,1833,1833,1833,1833,1833,1145,1145,1145,1149,1149,1149,1149,1149,1145,1145,1145,1145,1141,1141,1141,1141,1145,1145,1149,1149,1149,1153,1157,1157,1157,1157,1157,1157,1157,1157,1157,1157,1145,1145,1970,1970,1970,1970,1970,1970,1970,1970,1970,1970,1970,1970,1970,1981,1981,1993,1993,1993,1993,1981,1981,1970,1970,1970,1959,1959,1947,1947,1936,1926,1926,1926,1926,1915,1915,1904,1904,1894,1894,1894,1883,1883,1873,1873,1873,1863,1863,1853,1843,1843,1833,1833,1833,1833,1833,1833,0,0,0,0,0,0,0,0,0,0,930,928,928,925,925,923,920,918,915,915,913,913,913,913,915,918,918,920,920,923,925,925,928,928,930,933,933,933,933,933,0,0,0,0,0,0,1639,1639,1639,1632,1632,1624,1624,1616,1616,1616,1609,1609,1601,1601,1601,1601,1594,1586,1579,1579,1579,1572,1572,1564,1557,1557,1550,1550,1550,1550,1550,1543,1543,1543,1536,1536,1529,1523,1523,1523,1523,1516,1516,1516,1509,1503,1496,1496,1496,1496,1489,1489,1489,1483,1483,1477,1470,1470,1470,1464,1464,1464,1458,1458,1452,1445,1445,1445,1445,1439,1439,1439,1433,1433,1427,1421,1421,1421,1421,1415,1415,1415,1410,1404,1404,1398,1398,1392,1392,1392,1387,1387,1381,1381,1376,1376,1376,1376,1370,1370,1370,1365,1365,1359,1359,1354,1354,1354,1349,1349,1349,1343,1343,1338,1338,1333,1333,1328,1328,1328,1322,1322,1317,1312,1312,1312,1312,1307,1307,1302,1302,1297,1292,1292,1292,1288,1288,1288,1288,1283,1283,1278,1273,1273,1273,1268,1268,1268,1264,1264,1259,1259,1255,1250,1250,1250,1245,1245,1236,1236,1236,1236,1232,1232,1232,1232,1232,1227,1223,1223,1219,1219,1214,1214,1214,1214,1210,1210,1206,1206,1202,1197,1197,1197,1197,1193,1193,1193,1189,1185,1185,1181,1181,1177,1177,1177,1173,1169,1169,1169,1165,1165,1165,1165,1161,1161,1157,1153,1153,1153,1149,1145,1145,1141,1141,1138,1138,1138,1138,1134,1134,1134,1130,1130,1123,1123,1123,1123,1119,1119,1119,1115,1112,1112,1108,1108,1108,1108,1108,1105,1105,1101,1097,1094,1094,1094,1094,1094,1094,1090,1090,1090,1087,1087,1084,1080,1080,1077,1077,1077,1077,1073,1073,1070,1070,1067,1067,1067,1063,1063,1060,1060,1057,1054,1054,1054,1050,1050,1050,0,0,0,0,0,0,0,0,0,0,0,0,0,0,0,0,0,0,0,0,0,0,0,0,0,0,0,0,0,0,0,0
0,0,0,0,0,0,0,0,0,0,0,0,0,0,1873,1873,1873,1873,1863,1863,1863,1873,1863,1863,1863,1863,1863,1863,1863,1863,1863,1863,1863,1863,1863,1863,1863,1853,1853,1853,1853,1853,1843,1843,1843,1843,1843,1843,1843,1843,1843,1843,1843,1843,1843,1843,1843,1843,1843,1833,1833,1833,1833,1833,1833,1833,1833,1833,1833,1823,1823,1823,1823,1823,1823,1823,1813,1813,1813,1813,1813,1804,1804,1804,1804,1804,1804,1813,1804,1804,1804,1804,1804,1804,1794,1794,1794,1794,1794,1785,1785,1785,1785,1785,1785,1776,1776,1785,1785,1776,1776,1776,1776,1776,1766,1766,1766,1766,1766,1766,1766,1766,1766,1766,1766,1766,1766,1766,1766,1776,1776,1785,1785,1785,1794,1794,1926,1915,1915,1915,1915,1915,1915,1915,1915,1915,1915,1915,1915,1915,1915,1915,1904,1794,1776,1766,1766,1766,1766,1766,1766,1766,1766,1766,1766,1776,1776,1776,1785,1794,1794,1794,1794,1794,1804,1804,1804,1804,1804,1823,1823,1823,1823,1833,1833,1833,1833,1833,1833,1833,1833,1833,1833,1145,1145,1145,1138,1138,1141,1145,1145,1145,1141,1141,1141,1141,1141,1141,1141,1141,1141,1145,1149,1149,1153,1153,1157,1157,1157,1157,1153,1153,1153,1149,1145,1145,1145,1970,1970,1970,1970,1970,1970,1970,1970,1970,1970,1970,1970,1970,1981,1993,1993,1993,1993,1993,1993,1981,1981,1970,1970,1959,1959,1959,1947,1936,1926,1926,1926,1926,1915,1915,1915,1904,1904,1894,1894,1883,1883,1873,1873,1873,1873,1863,1853,1853,1843,1843,1833,1833,1833,1833,1833,0,0,0,0,0,0,0,0,0,0,0,930,928,928,925,923,920,918,915,915,913,913,913,913,915,918,918,920,920,923,925,928,928,930,930,933,933,933,933,935,0,0,0,0,0,0,1639,1639,1639,1632,1632,1632,1632,1624,1616,1616,1609,1609,1601,1601,1601,1594,1594,1586,1579,1579,1579,1579,1572,1572,1564,1557,1557,1550,1550,1550,1550,1543,1543,1543,1543,1536,1529,1529,1523,1523,1523,1516,1516,1516,1509,1509,1503,1496,1496,1496,1489,1489,1489,1489,1483,1477,1470,1470,1470,1464,1464,1464,1458,1458,1452,1452,1445,1445,1445,1445,1439,1439,1439,1433,1427,1421,1421,1421,1421,1415,1415,1415,1410,1404,1404,1398,1398,1392,1392,1392,1387,1387,1387,1381,1381,1376,1376,1376,1370,1370,1370,1370,1365,1365,1359,1354,1354,1354,1349,1349,1349,1343,1343,1343,1338,1333,1333,1333,1328,1328,1322,1322,1317,1312,1312,1312,1312,1307,1307,1307,1302,1297,1292,1292,1292,1292,1288,1288,1288,1283,1283,1278,1278,1273,1273,1273,1268,1268,1268,1264,1264,1259,1255,1255,1250,1250,1250,1245,1241,1236,1236,1236,1232,1232,1232,1232,1232,1227,1227,1223,1219,1219,1214,1214,1214,1214,1214,1210,1206,1206,1202,1202,1197,1197,1197,1193,1193,1193,1189,1185,1185,1181,1181,1177,1177,1177,1173,1169,1169,1169,1169,1165,1165,1165,1161,1161,1157,1153,1153,1153,1149,1149,1145,1141,1141,1138,1138,1138,1138,1134,1134,1134,1134,1130,1126,1123,1123,1123,1119,1119,1119,1115,1112,1112,1108,1108,1108,1108,1108,1105,1105,1101,1097,1097,1094,1094,1094,1094,1094,1090,1090,1090,1090,1087,1084,1080,1080,1077,1077,1077,1077,1073,1073,1070,1070,1067,1067,1067,1063,1063,1063,1060,1057,1057,1054,1054,1054,1050,1050,0,0,0,0,0,0,0,0,0,0,0,0,0,0,0,0,0,0,0,0,0,0,0,0,0,0,0,0,0,0,0,0
0,0,0,0,0,0,0,0,0,0,0,0,0,0,1873,1873,1873,1873,1873,1873,1873,1883,1873,1873,1863,1863,1863,1863,1863,1863,1863,1863,1863,1863,1863,1863,1863,1853,1853,1853,1853,1853,1853,1853,1843,1843,1843,1843,1843,1843,1843,1843,1843,1843,1843,1843,1843,1843,1843,1843,1843,1843,1833,1833,1843,1843,1833,1833,1833,1833,1823,1823,1823,1823,1823,1823,1813,1813,1813,1813,1813,1813,1813,1813,1813,1813,1813,1813,1804,1804,1804,1804,1804,1804,1794,1794,1794,1794,1794,1794,1794,1794,1794,1794,1785,1785,1785,1785,1785,1785,1785,1785,1776,1776,1776,1766,1766,1766,1766,1766,1766,1766,1766,1766,1766,1766,1766,1766,1766,1776,1776,1785,1785,1785,1794,1794,1915,1915,1915,1915,1915,1915,1915,1915,1915,1915,1915,1915,1915,1915,1915,1915,1904,1794,1776,1776,1766,1766,1766,1766,1766,1766,1766,1766,1766,1776,1776,1776,1785,1794,1794,1794,1794,1794,1804,1804,1804,1804,1804,1813,1823,1823,1823,1823,1833,1833,1833,1833,1833,1833,1833,1145,1145,1145,1145,1138,1138,1138,1141,1141,1145,1145,1141,1141,1141,1138,1138,1138,1138,1138,1138,1141,1141,1145,1145,1145,1149,1149,1149,1149,1149,1141,1141,1141,1138,1138,1138,1130,1130,1970,1970,1970,1970,1970,1970,1970,1970,1970,1970,1970,1981,1993,1993,1993,1993,1993,1993,1981,1981,1970,1970,1959,1959,1959,1947,1936,1926,1926,1926,1926,1915,1915,1915,1915,1904,1904,1894,1883,1883,1883,1873,1873,1873,1863,1853,1853,1843,1843,1833,1833,1833,1833,1833,0,0,0,0,0,0,0,0,0,0,933,930,928,928,925,923,920,918,915,915,913,913,913,913,918,918,918,920,920,923,925,928,928,930,930,933,933,933,933,935,0,0,0,0,0,0,1639,1639,1639,1639,1632,1632,1632,1624,1616,1616,1616,1609,1601,1601,1601,1594,1594,1586,1579,1579,1579,1579,1572,1572,1564,1557,1557,1550,1550,1550,1550,1550,1543,1543,1543,1536,1536,1529,1529,1523,1523,1516,1516,1516,1509,1509,1503,1496,1496,1496,1489,1489,1489,1489,1483,1483,1477,1470,1470,1464,1464,1464,1458,1458,1452,1452,1445,1445,1445,1445,1439,1439,1439,1433,1427,1427,1421,1421,1421,1415,1415,1415,1410,1410,1404,1398,1398,1392,1392,1392,1387,1387,1387,1381,1381,1376,1376,1376,1370,1370,1370,1370,1365,1365,1359,1354,1354,1354,1354,1349,1349,1349,1343,1343,1338,1338,1333,1333,1328,1328,1328,1322,1317,1317,1312,1312,1312,1312,1307,1307,1307,1302,1297,1292,1292,1292,1288,1288,1288,1288,1283,1278,1278,1273,1273,1273,1268,1268,1268,1268,1264,1259,1255,1255,1255,1250,1250,1245,1245,1241,1236,1236,1236,1236,1232,1232,1232,1232,1227,1223,1219,1219,1219,1214,1214,1214,1214,1214,1210,1210,1206,1202,1197,1197,1197,1197,1193,1193,1189,1185,1185,1181,1181,1181,1181,1177,1173,1169,1169,1169,1169,1169,1165,1165,1161,1161,1157,1153,1153,1153,1149,1149,1145,1145,1141,1141,1138,1138,1138,1134,1134,1134,1134,1130,1126,1123,1123,1123,1119,1119,1119,1115,1112,1112,1112,1108,1108,1108,1108,1105,1105,1101,1101,1097,1097,1094,1094,1094,1094,1090,1090,1090,1090,1087,1084,1080,1080,1080,1077,1077,1077,1073,1073,1070,1070,1067,1067,1067,1067,1063,1063,1060,1060,1057,1057,1054,1054,1050,1050,0,0,0,0,0,0,0,0,0,0,0,0,0,0,0,0,0,0,0,0,0,0,0,0,0,0,0,0,0,0,0,0
0,0,0,0,0,0,0,0,0,0,0,0,0,1883,1873,1873,1873,1873,1883,1883,1883,1883,1883,1873,1873,1863,1863,1863,1863,1863,1853,1853,1863,1863,1863,1863,1863,1853,1853,1853,1853,1853,1853,1853,1853,1853,1843,1843,1843,1843,1843,1843,1843,1843,1843,1843,1843,1843,1843,1843,1843,1843,1833,1833,1843,1843,1833,1833,1833,1833,1833,1823,1823,1823,1823,1823,1823,1823,1813,1813,1813,1813,1813,1813,1813,1813,1813,1813,1813,1813,1804,1804,1804,1804,1804,1794,1794,1794,1794,1794,1794,1794,1794,1794,1794,1785,1785,1794,1785,1785,1785,1785,1776,1776,1776,1766,1766,1766,1766,1766,1766,1766,1766,1766,1766,1766,1766,1766,1776,1776,1776,1776,1776,1785,1785,1794,1915,1915,1915,1915,1915,1915,1915,1915,1915,1915,1915,1915,1926,1926,1915,1904,1894,1804,1776,1776,1776,1766,1766,1766,1766,1766,1766,1766,1766,1766,1776,1776,1785,1794,1794,1794,1794,1794,1804,1804,1804,1804,1813,1813,1823,1823,1130,1130,1130,1126,1126,1126,1130,1134,1134,1138,1138,1141,1138,1138,1134,1134,1138,1138,1141,1141,1138,1138,1141,1138,1134,1130,1130,1130,1130,1130,1130,1130,1130,1130,1130,1134,1134,1134,1138,1134,1134,1134,1130,1130,1130,1130,1130,1970,1970,1970,1970,1970,1970,1970,1970,1970,1970,1970,1981,1993,1993,1993,1993,1993,1993,1981,1981,1970,1970,1959,1959,1959,1947,1936,1936,1926,1926,1926,1926,1915,1915,1915,1904,1904,1904,1883,1883,1883,1873,1873,1873,1863,1863,1853,1843,1843,1843,1833,1833,1833,1833,0,0,0,0,0,0,0,0,0,0,933,930,930,928,925,925,923,918,918,915,915,915,915,915,918,918,918,920,920,923,925,928,930,933,933,935,933,933,933,933,0,0,0,0,0,0,1639,1639,1639,1639,1632,1632,1632,1624,1624,1616,1616,1609,1609,1609,1601,1594,1594,1586,1579,1579,1579,1579,1572,1572,1564,1557,1557,1557,1550,1550,1550,1550,1543,1543,1543,1543,1536,1536,1529,1523,1523,1516,1516,1516,1516,1509,1503,1503,1496,1496,1496,1489,1489,1489,1489,1483,1477,1477,1470,1470,1464,1464,1464,1458,1458,1452,1445,1445,1445,1445,1439,1439,1439,1439,1433,1427,1421,1421,1421,1421,1415,1415,1410,1410,1404,1398,1398,1392,1392,1392,1392,1387,1387,1381,1381,1376,1376,1376,1370,1370,1370,1370,1365,1365,1359,1359,1354,1354,1354,1349,1349,1349,1343,1343,1338,1338,1333,1333,1328,1328,1328,1328,1317,1317,1317,1312,1312,1312,1307,1307,1307,1302,1297,1292,1292,1292,1288,1288,1288,1288,1283,1278,1278,1273,1273,1273,1273,1268,1268,1268,1264,1259,1259,1255,1255,1255,1250,1250,1245,1245,1241,1236,1236,1236,1236,1232,1232,1232,1227,1223,1219,1219,1219,1219,1214,1214,1214,1214,1210,1210,1202,1202,1197,1197,1197,1197,1193,1193,1189,1185,1185,1181,1181,1181,1181,1177,1173,1173,1169,1169,1169,1169,1165,1165,1161,1161,1157,1153,1153,1153,1149,1149,1145,1145,1141,1141,1138,1138,1138,1138,1134,1134,1134,1130,1130,1126,1123,1123,1123,1119,1119,1119,1115,1112,1112,1108,1108,1108,1108,1105,1105,1101,1101,1097,1097,1094,1094,1094,1090,1090,1090,1090,1090,1087,1084,1084,1080,1080,1077,1077,1077,1073,1073,1070,1070,1067,1067,1067,1067,1063,1063,1060,1060,1057,1057,1054,1054,1054,1054,0,0,0,0,0,0,0,0,0,0,0,0,0,0,0,0,0,0,0,0,0,0,0,0,0,0,0,0,0,0,0,0
0,0,0,0,0,0,0,0,0,0,0,0,0,1883,1873,1873,1883,1883,1883,1883,1883,1883,1883,1873,1873,1863,1863,1863,1863,1863,1853,1853,1863,1863,1863,1863,1863,1863,1863,1853,1853,1853,1853,1853,1853,1853,1853,1853,1843,1843,1843,1843,1843,1843,1843,1843,1843,1843,1843,1843,1843,1833,1833,1833,1843,1833,1833,1833,1833,1833,1833,1823,1823,1823,1823,1823,1823,1823,1813,1813,1813,1813,1813,1813,1813,1813,1813,1813,1813,1813,1804,1804,1804,1804,1804,1804,1804,1794,1794,1794,1794,1794,1794,1794,1794,1785,1785,1794,1785,1785,1785,1785,1776,1776,1776,1776,1776,1776,1766,1766,1776,1776,1776,1776,1766,1766,1766,1766,1776,1776,1776,1776,1776,1785,1785,1794,1794,1915,1915,1915,1915,1915,1915,1915,1915,1915,1915,1915,1915,1915,1915,1904,1894,1873,1785,1776,1776,1766,1766,1766,1766,1766,1766,1766,1766,1766,1776,1776,1785,1794,1794,1794,1115,1115,1119,1119,1123,1123,1123,1126,1126,1126,1126,1130,1126,1126,1126,1126,1130,1130,1130,1134,1138,1138,1134,1134,1134,1134,1134,1134,1138,1134,1134,1134,1134,1134,1130,1126,1123,1123,1123,1123,1123,1123,1123,1123,1123,1126,1126,1126,1126,1126,1126,1126,1130,1130,1126,1126,1130,1126,1126,1123,1119,1119,1119,1115,1115,1115,1970,1981,1981,1993,1993,2005,2005,2005,1993,1993,1981,1970,1970,1959,1959,1959,1947,1936,1936,1926,1926,1926,1926,1915,1915,1915,1915,1915,1904,1894,1883,1883,1873,1873,1873,1873,1863,1853,1843,1843,1843,1833,1833,1833,0,0,0,0,0,0,0,0,0,0,0,933,930,928,928,925,925,923,920,918,915,915,915,915,915,918,918,918,920,923,925,928,930,933,933,935,935,935,933,933,933,0,0,0,0,0,0,1639,1639,1639,1639,1639,1632,1632,1632,1624,1624,1616,1609,1609,1609,1601,1601,1594,1594,1586,1586,1579,1579,1572,1572,1564,1564,1557,1557,1550,1550,1550,1550,1550,1543,1543,1543,1543,1536,1529,1523,1523,1523,1516,1516,1516,1509,1503,1503,1503,1496,1496,1496,1489,1489,1489,1483,1483,1477,1470,1470,1464,1464,1464,1458,1458,1452,1445,1445,1445,1445,1439,1439,1439,1439,1433,1427,1427,1421,1421,1421,1421,1415,1415,1410,1404,1404,1398,1398,1392,1392,1392,1392,1387,1387,1381,1376,1376,1376,1370,1370,1370,1370,1370,1370,1365,1359,1359,1354,1354,1354,1349,1349,1349,1343,1343,1338,1338,1333,1333,1328,1328,1328,1322,1317,1317,1312,1312,1312,1312,1307,1307,1302,1302,1297,1297,1292,1292,1288,1288,1288,1283,1278,1278,1278,1273,1273,1273,1273,1268,1268,1264,1264,1259,1255,1255,1255,1250,1250,1250,1245,1241,1241,1236,1236,1236,1232,1232,1232,1227,1223,1219,1219,1219,1219,1214,1214,1214,1214,1210,1210,1202,1202,1202,1197,1197,1197,1197,1193,1189,1189,1185,1185,1181,1181,1181,1181,1177,1173,1173,1169,1169,1169,1165,1165,1161,1161,1157,1153,1153,1153,1149,1149,1149,1145,1145,1141,1141,1138,1138,1138,1138,1134,1134,1134,1130,1126,1123,1123,1123,1123,1119,1119,1115,1115,1112,1112,1112,1108,1108,1105,1105,1101,1101,1101,1097,1094,1094,1094,1090,1090,1090,1090,1090,1087,1084,1084,1080,1080,1077,1077,1077,1073,1073,1070,1070,1067,1067,1067,1067,1063,1063,1060,1060,1057,1057,1057,1054,1054,1054,0,0,0,0,0,0,0,0,0,0,0,0,0,0,0,0,0,0,0,0,0,0,0,0,0,0,0,0,0,0,0,0
0,0,0,0,0,0,0,0,0,0,0,0,0,1883,1883,1883,1883,1883,1894,1883,1883,1883,1883,1883,1873,1863,1863,1863,1863,1863,1853,1853,1863,1863,1863,1863,1863,1863,1863,1863,1863,1853,1853,1853,1853,1853,1853,1853,1853,1843,1843,1843,1843,1843,1843,1843,1843,1843,1843,1843,1843,1833,1833,1843,1843,1833,1833,1833,1833,1833,1833,1823,1823,1823,1823,1823,1823,1823,1813,1813,1813,1813,1813,1813,1813,1813,1813,1813,1813,1813,1804,1804,1804,1804,1804,1804,1804,1794,1794,1794,1794,1794,1794,1794,1794,1794,1794,1794,1794,1785,1785,1785,1785,1785,1785,1776,1776,1776,1776,1776,1766,1766,1766,1766,1776,1766,1766,1766,1776,1776,1776,1785,1785,1785,1794,1794,1794,1926,1926,1926,1915,1915,1915,1915,1915,1915,1915,1915,1915,1915,1915,1904,1904,1883,1794,1785,1776,1776,1766,1766,1766,1766,1766,1757,1757,1766,1776,1776,1785,1794,1115,1115,1115,1115,1119,1119,1123,1123,1123,1126,1126,1126,1126,1126,1123,1123,1126,1126,1130,1130,1130,1130,1134,1134,1134,1130,1130,1130,1126,1126,1130,1130,1126,1126,1126,1126,1123,1123,1123,1123,1119,1119,1119,1119,1119,1119,1119,1119,1119,1119,1119,1115,1115,1115,1115,1115,1119,1123,1123,1123,1119,1119,1119,1115,1115,1112,1112,1115,1115,1105,2005,2005,2005,2005,2005,2005,2005,1993,1981,1970,1970,1959,1959,1959,1947,1947,1936,1926,1926,1926,1926,1915,1915,1915,1915,1915,1904,1894,1883,1883,1883,1873,1873,1873,1863,1853,1843,1843,1843,1833,1833,1833,0,0,0,0,0,0,0,0,0,0,0,933,930,928,925,925,925,923,920,915,915,915,915,915,915,918,918,920,923,925,925,928,930,933,933,935,935,935,933,933,933,0,0,0,0,0,0,1647,1639,1639,1639,1639,1632,1632,1632,1624,1624,1616,1609,1609,1609,1601,1601,1594,1594,1586,1586,1579,1579,1579,1572,1572,1564,1564,1557,1550,1550,1550,1550,1550,1550,1543,1543,1543,1536,1536,1529,1523,1523,1523,1516,1516,1509,1509,1503,1503,1496,1496,1496,1489,1489,1489,1483,1483,1477,1470,1470,1470,1464,1464,1458,1458,1452,1445,1445,1445,1445,1439,1439,1439,1439,1433,1427,1427,1421,1421,1421,1421,1415,1415,1410,1410,1404,1404,1398,1398,1392,1392,1392,1392,1387,1381,1376,1376,1376,1376,1370,1370,1370,1370,1370,1365,1359,1359,1354,1354,1354,1349,1349,1349,1343,1343,1338,1338,1333,1333,1328,1328,1322,1322,1317,1317,1317,1312,1312,1312,1307,1307,1302,1302,1297,1297,1292,1292,1288,1288,1288,1283,1283,1278,1278,1273,1273,1273,1273,1268,1268,1268,1264,1259,1259,1255,1255,1255,1250,1250,1245,1245,1241,1236,1236,1236,1232,1232,1232,1227,1223,1223,1219,1219,1219,1219,1214,1214,1214,1210,1210,1206,1202,1202,1202,1197,1197,1197,1193,1189,1189,1185,1185,1185,1181,1181,1181,1177,1173,1173,1169,1169,1169,1169,1165,1165,1161,1161,1157,1153,1153,1153,1149,1149,1149,1145,1145,1141,1141,1138,1138,1138,1134,1134,1134,1130,1130,1123,1123,1123,1123,1119,1119,1115,1115,1115,1112,1112,1108,1108,1108,1105,1105,1101,1101,1097,1094,1094,1094,1094,1094,1094,1090,1090,1087,1087,1084,1080,1080,1077,1077,1077,1077,1073,1073,1070,1067,1067,1067,1067,1067,1063,1063,1063,1060,1057,1057,1054,1054,1054,0,0,0,0,0,0,0,0,0,0,0,0,0,0,0,0,0,0,0,0,0,0,0,0,0,0,0,0,0,0,0,0
0,0,0,0,0,0,0,0,0,0,0,0,0,1883,1883,1883,1883,1883,1883,1883,1883,1883,1883,1883,1873,1863,1863,1863,1863,1863,1853,1853,1863,1863,1863,1863,1863,1863,1863,1863,1863,1853,1853,1853,1853,1853,1853,1853,1853,1853,1843,1843,1843,1843,1843,1843,1843,1843,1843,1843,1843,1843,1843,1843,1843,1843,1833,1833,1833,1833,1833,1833,1833,1833,1833,1833,1823,1823,1823,1823,1823,1813,1813,1813,1813,1813,1813,1813,1813,1813,1813,1813,1804,1804,1804,1804,1804,1794,1794,1794,1794,1794,1794,1794,1794,1794,1794,1794,1794,1785,1785,1785,1785,1785,1785,1776,1776,1776,1776,1776,1766,1766,1766,1766,1776,1766,1766,1766,1776,1776,1776,1785,1785,1785,1794,1794,1794,1936,1926,1926,1915,1915,1915,1915,1915,1915,1915,1926,1926,1915,1915,1904,1904,1883,1863,1794,1785,1776,1766,1766,1766,1766,1766,1105,1105,1105,1766,1119,1119,1119,1115,1115,1115,1115,1119,1119,1119,1119,1119,1123,1123,1123,1123,1123,1119,1119,1123,1126,1126,1126,1126,1130,1126,1126,1126,1126,1126,1123,1119,1115,1115,1119,1119,1115,1115,1119,1119,1119,1119,1119,1115,1115,1115,1115,1115,1115,1112,1112,1112,1112,1112,1112,1112,1108,1108,1108,1112,1115,1115,1112,1112,1115,1115,1112,1112,1108,1105,1105,1105,1105,1101,2005,2005,2005,2005,2005,2005,1993,1981,1970,1970,1959,1959,1959,1947,1947,1947,1936,1926,1926,1926,1926,1915,1915,1915,1915,1904,1894,1883,1883,1883,1873,1873,1873,1863,1853,1853,1843,1843,1833,1833,1833,0,0,0,0,0,0,0,0,0,0,0,933,930,928,925,925,925,923,920,915,915,915,915,915,915,918,918,920,923,925,928,928,930,933,933,935,935,935,935,933,933,0,0,0,0,0,0,1647,1639,1639,1639,1639,1632,1632,1632,1624,1624,1616,1616,1609,1609,1601,1601,1601,1594,1586,1586,1586,1579,1579,1572,1572,1572,1564,1557,1557,1550,1550,1550,1550,1550,1543,1543,1543,1536,1536,1529,1523,1523,1523,1516,1516,1516,1509,1503,1503,1496,1496,1496,1496,1489,1489,1483,1483,1477,1470,1470,1470,1464,1464,1464,1458,1452,1452,1445,1445,1445,1439,1439,1439,1439,1433,1433,1427,1421,1421,1421,1421,1415,1415,1415,1410,1410,1404,1398,1398,1398,1392,1392,1392,1387,1381,1381,1376,1376,1376,1370,1370,1370,1370,1370,1365,1359,1359,1354,1354,1354,1349,1349,1349,1343,1343,1343,1338,1333,1333,1328,1328,1322,1322,1322,1317,1317,1312,1312,1312,1307,1307,1307,1302,1297,1297,1292,1292,1288,1288,1288,1288,1283,1278,1278,1273,1273,1273,1273,1273,1268,1268,1268,1264,1259,1259,1255,1255,1250,1250,1250,1245,1245,1241,1236,1236,1232,1232,1232,1227,1227,1223,1223,1219,1219,1219,1219,1214,1214,1214,1210,1206,1202,1202,1202,1197,1197,1197,1193,1193,1193,1189,1185,1185,1181,1181,1181,1177,1173,1173,1169,1169,1169,1169,1165,1165,1161,1157,1157,1153,1153,1153,1153,1149,1149,1145,1145,1141,1141,1138,1138,1138,1138,1134,1134,1134,1130,1130,1123,1123,1123,1123,1119,1119,1115,1115,1112,1112,1108,1108,1108,1105,1105,1105,1101,1101,1097,1094,1094,1094,1094,1094,1090,1090,1090,1087,1084,1080,1080,1077,1077,1077,1077,1073,1073,1070,1070,1070,1067,1067,1067,1063,1063,1063,1060,1060,1057,1057,1054,1054,0,0,0,0,0,0,0,0,0,0,0,0,0,0,0,0,0,0,0,0,0,0,0,0,0,0,0,0,0,0,0,0
0,0,0,0,0,0,0,0,0,0,0,0,0,1883,1883,1883,1883,1883,1883,1883,1883,1883,1883,1883,1873,1873,1863,1863,1863,1863,1863,1863,1863,1863,1863,1863,1863,1863,1873,1873,1863,1853,1853,1853,1853,1853,1853,1853,1853,1853,1853,1853,1843,1843,1843,1843,1843,1843,1843,1843,1843,1843,1843,1843,1843,1843,1833,1833,1833,1833,1833,1823,1823,1823,1833,1833,1823,1823,1823,1823,1823,1813,1813,1823,1823,1813,1813,1813,1813,1823,1813,1813,1804,1804,1804,1804,1804,1804,1794,1794,1794,1794,1794,1794,1794,1794,1794,1794,1794,1785,1785,1785,1785,1785,1785,1776,1776,1776,1776,1776,1776,1776,1776,1776,1776,1776,1776,1776,1776,1776,1785,1785,1785,1794,1794,1794,1794,1947,1936,1926,1926,1926,1926,1926,1926,1926,1926,1926,1926,1926,1915,1915,1904,1883,1863,1863,1785,1776,1766,1766,1766,1101,1101,1105,1105,1105,1108,1112,1115,1115,1115,1115,1119,1119,1119,1119,1119,1119,1119,1119,1119,1115,1115,1119,1119,1119,1123,1126,1126,1123,1123,1126,1123,1119,1119,1119,1119,1119,1115,1112,1112,1112,1115,1112,1112,1115,1115,1115,1115,1115,1112,1112,1112,1112,1108,1108,1108,1108,1108,1105,1105,1105,1105,1105,1105,1105,1105,1105,1108,1105,1105,1105,1105,1105,1105,1105,1105,1105,1101,1101,1101,1101,1101,2016,2016,2005,2005,1993,1981,1970,1970,1959,1959,1959,1947,1947,1947,1936,1926,1926,1926,1926,1915,1915,1915,1915,1904,1894,1894,1883,1883,1873,1873,1873,1863,1863,1853,1843,1843,1843,1843,1843,0,0,0,0,0,0,0,0,0,0,0,933,930,928,925,925,925,923,920,918,915,915,915,915,915,918,920,920,923,925,928,930,930,933,935,935,935,935,935,933,933,0,0,0,0,0,0,1647,1639,1639,1639,1639,1632,1632,1632,1624,1624,1616,1616,1609,1609,1601,1601,1601,1594,1594,1586,1586,1579,1579,1579,1572,1572,1572,1564,1557,1557,1550,1550,1550,1550,1543,1543,1543,1543,1536,1529,1523,1523,1523,1516,1516,1516,1509,1503,1503,1503,1496,1496,1496,1489,1489,1489,1483,1477,1470,1470,1470,1464,1464,1464,1458,1458,1452,1445,1445,1445,1445,1439,1439,1439,1439,1433,1427,1427,1421,1421,1421,1415,1415,1415,1410,1410,1404,1404,1398,1398,1392,1392,1392,1392,1387,1381,1376,1376,1376,1370,1370,1370,1370,1370,1365,1359,1359,1354,1354,1354,1349,1349,1349,1349,1343,1343,1338,1333,1333,1333,1328,1328,1322,1322,1317,1317,1317,1312,1312,1307,1307,1307,1302,1302,1297,1292,1292,1292,1292,1288,1288,1288,1283,1278,1273,1273,1273,1273,1273,1268,1268,1268,1264,1264,1259,1259,1255,1255,1250,1250,1245,1245,1241,1241,1236,1232,1232,1232,1227,1227,1223,1223,1219,1219,1219,1219,1219,1214,1214,1210,1206,1206,1202,1202,1197,1197,1197,1193,1193,1189,1189,1185,1185,1185,1181,1181,1181,1177,1173,1169,1169,1169,1169,1165,1165,1161,1157,1157,1153,1153,1153,1153,1149,1149,1149,1145,1145,1141,1141,1138,1138,1138,1138,1134,1134,1134,1126,1123,1123,1123,1123,1119,1119,1115,1115,1112,1112,1108,1108,1108,1105,1105,1105,1105,1101,1097,1094,1094,1094,1094,1094,1090,1090,1090,1087,1084,1080,1080,1077,1077,1077,1077,1077,1073,1073,1070,1070,1067,1067,1067,1063,1063,1063,1060,1060,1057,1057,1054,1054,0,0,0,0,0,0,0,0,0,0,0,0,0,0,0,0,0,0,0,0,0,0,0,0,0,0,0,0,0,0,0,0
0,0,0,0,0,0,0,0,0,0,0,0,0,1883,1883,1883,1883,1883,1883,1883,1883,1883,1883,1883,1873,1873,1873,1873,1873,1873,1873,1863,1863,1863,1863,1863,1873,1873,1873,1873,1873,1863,1863,1863,1863,1853,1853,1853,1853,1853,1853,1853,1843,1843,1853,1853,1853,1843,1843,1843,1843,1843,1843,1843,1843,1843,1833,1833,1833,1833,1833,1823,1823,1823,1833,1833,1823,1823,1823,1823,1823,1823,1823,1823,1823,1823,1823,1813,1813,1823,1813,1813,1813,1813,1804,1804,1804,1804,1794,1794,1794,1794,1794,1794,1794,1794,1794,1794,1794,1794,1794,1794,1785,1785,1785,1785,1776,1776,1776,1776,1776,1776,1776,1776,1776,1776,1776,1776,1776,1776,1785,1785,1785,1794,1794,1794,1785,1785,1947,1936,1926,1926,1926,1926,1926,1926,1926,1926,1926,1915,1915,1915,1915,1883,1863,1863,1785,1766,1766,1101,1097,1097,1101,1105,1105,1105,1108,1112,1112,1112,1112,1112,1115,1115,1115,1115,1115,1115,1115,1115,1112,1112,1112,1112,1112,1115,1115,1119,1119,1115,1115,1119,1119,1115,1112,1112,1112,1112,1108,1105,1105,1105,1105,1105,1105,1108,1112,1112,1112,1112,1112,1112,1105,1097,1097,1101,1101,1101,1101,1101,1101,1101,1101,1097,1097,1094,1094,1097,1101,1101,1101,1101,1097,1097,1097,1097,1097,1097,1101,1097,1097,1090,1087,1087,1087,1080,2005,2005,1981,1981,1970,1970,1959,1947,1947,1947,1947,1936,1936,1926,1926,1926,1915,1915,1915,1915,1904,1894,1894,1883,1883,1883,1873,1873,1863,1863,1853,1853,1843,1843,1843,1843,0,0,0,0,0,0,0,0,0,0,935,933,930,928,925,925,925,923,923,918,918,915,915,915,915,918,920,923,925,925,928,930,930,933,935,935,935,935,935,935,935,0,0,0,0,0,1663,1655,1639,1639,1639,1639,1632,1632,1632,1624,1624,1616,1616,1616,1609,1609,1601,1601,1601,1594,1594,1586,1579,1579,1579,1572,1572,1572,1564,1557,1557,1557,1550,1550,1550,1543,1543,1543,1543,1536,1529,1523,1523,1523,1516,1516,1516,1509,1503,1503,1503,1503,1496,1496,1489,1489,1489,1483,1477,1477,1470,1470,1464,1464,1464,1464,1458,1452,1445,1445,1445,1445,1439,1439,1439,1439,1433,1433,1427,1421,1421,1421,1415,1415,1415,1410,1410,1404,1404,1398,1398,1398,1392,1392,1392,1392,1381,1381,1376,1376,1376,1370,1370,1370,1370,1365,1365,1359,1354,1354,1354,1349,1349,1349,1349,1343,1343,1338,1333,1333,1333,1328,1328,1328,1322,1322,1317,1317,1317,1312,1312,1307,1307,1307,1302,1297,1292,1292,1292,1292,1288,1288,1288,1283,1278,1273,1273,1273,1273,1273,1268,1268,1268,1268,1264,1264,1259,1255,1255,1255,1250,1250,1250,1245,1241,1236,1236,1232,1232,1227,1227,1227,1223,1223,1219,1219,1219,1219,1214,1214,1210,1206,1206,1202,1202,1202,1197,1197,1193,1193,1189,1189,1185,1185,1185,1181,1181,1181,1177,1173,1173,1173,1169,1169,1165,1165,1161,1161,1157,1157,1153,1153,1153,1149,1149,1149,1145,1145,1145,1141,1138,1138,1138,1138,1134,1134,1134,1126,1126,1123,1123,1123,1119,1119,1119,1119,1115,1112,1112,1108,1108,1108,1105,1105,1105,1101,1097,1094,1094,1094,1094,1094,1094,1090,1090,1090,1087,1084,1080,1080,1080,1077,1077,1077,1077,1073,1070,1070,1070,1067,1067,1067,1063,1063,1063,1060,1057,1057,1057,1057,0,0,0,0,0,0,0,0,0,0,0,0,0,0,0,0,0,0,0,0,0,0,0,0,0,0,0,0,0,0,0,0
0,0,0,0,0,0,0,0,0,0,0,0,0,1883,1883,1883,1883,1883,1883,1883,1883,1883,1883,1883,1873,1873,1873,1873,1873,1873,1873,1873,1873,1873,1873,1873,1873,1873,1873,1873,1873,1873,1873,1873,1873,1863,1863,1853,1853,1853,1853,1853,1853,1853,1843,1843,1843,1843,1843,1843,1843,1843,1843,1843,1843,1843,1833,1833,1843,1833,1833,1833,1833,1833,1833,1833,1823,1823,1823,1823,1823,1823,1823,1823,1823,1823,1823,1823,1823,1823,1813,1813,1813,1813,1813,1813,1804,1804,1794,1794,1794,1794,1794,1794,1794,1794,1794,1794,1794,1794,1794,1794,1785,1785,1785,1785,1776,1776,1785,1785,1785,1776,1776,1776,1776,1776,1776,1776,1776,1776,1785,1785,1785,1794,1794,1794,1785,1785,1947,1936,1926,1926,1926,1926,1926,1926,1926,1926,1926,1915,1915,1915,1105,1105,1105,1105,1105,1105,1101,1101,1097,1097,1105,1105,1105,1105,1108,1108,1112,1112,1112,1112,1112,1112,1112,1112,1108,1108,1112,1112,1108,1108,1108,1108,1108,1108,1108,1108,1112,1108,1108,1108,1108,1108,1108,1105,1105,1105,1105,1101,1101,1101,1101,1097,1097,1094,1094,1101,1097,1097,1101,1097,1094,1090,1090,1094,1097,1097,1094,1094,1094,1094,1094,1094,1090,1090,1090,1090,1094,1097,1094,1094,1094,1090,1090,1090,1090,1090,1090,1090,1090,1090,1087,1080,1080,1080,1080,1080,1981,1981,1970,1970,1959,1947,1947,1947,1947,1947,1936,1936,1926,1926,1926,1915,1915,1915,1904,1894,1894,1883,1883,1883,1873,1873,1873,1863,1863,1853,1843,1843,1843,1843,0,0,0,0,0,0,0,0,0,0,935,933,930,930,928,925,925,923,923,918,918,915,915,915,915,920,920,923,925,925,928,930,930,933,935,935,935,935,935,935,0,0,0,0,0,0,1663,1647,1647,1639,1639,1639,1632,1632,1632,1632,1624,1624,1624,1616,1609,1609,1601,1601,1601,1594,1594,1586,1586,1579,1579,1579,1572,1572,1564,1564,1564,1557,1557,1550,1550,1543,1543,1543,1543,1536,1529,1523,1523,1523,1516,1516,1516,1509,1509,1509,1503,1503,1496,1496,1489,1489,1489,1483,1477,1477,1470,1470,1470,1464,1464,1464,1458,1452,1445,1445,1445,1445,1439,1439,1439,1439,1433,1433,1427,1427,1421,1421,1415,1415,1415,1415,1410,1410,1404,1398,1398,1398,1398,1392,1392,1392,1381,1381,1376,1376,1376,1376,1370,1370,1370,1365,1365,1359,1354,1354,1354,1354,1349,1349,1349,1343,1343,1338,1333,1333,1333,1328,1328,1328,1322,1322,1317,1317,1317,1312,1312,1307,1307,1307,1302,1297,1292,1292,1292,1292,1288,1288,1288,1283,1278,1278,1273,1273,1273,1273,1268,1268,1268,1268,1264,1264,1259,1255,1255,1255,1250,1250,1250,1245,1241,1236,1236,1232,1232,1232,1232,1227,1223,1223,1223,1219,1219,1219,1219,1214,1210,1206,1206,1202,1202,1202,1197,1197,1193,1193,1193,1189,1185,1185,1185,1185,1181,1181,1177,1177,1173,1173,1169,1169,1169,1165,1165,1161,1161,1157,1157,1153,1153,1149,1149,1149,1145,1145,1145,1141,1138,1138,1138,1138,1134,1134,1134,1130,1126,1123,1123,1123,1123,1119,1119,1119,1119,1115,1112,1112,1108,1108,1105,1105,1105,1101,1097,1094,1094,1094,1094,1094,1094,1090,1090,1090,1090,1084,1080,1080,1080,1080,1077,1077,1077,1073,1070,1070,1070,1067,1067,1067,1067,1063,1063,1060,1060,1060,1057,1057,0,0,0,0,0,0,0,0,0,0,0,0,0,0,0,0,0,0,0,0,0,0,0,0,0,0,0,0,0,0,0,0
0,0,0,0,0,0,0,0,0,0,0,0,0,1883,1883,1883,1883,1883,1883,1883,1883,1883,1883,1883,1883,1883,1873,1873,1873,1873,1873,1873,1873,1873,1873,1873,1883,1873,1873,1873,1873,1873,1873,1873,1873,1863,1863,1863,1863,1863,1853,1853,1853,1853,1843,1843,1843,1843,1843,1843,1843,1843,1843,1843,1843,1843,1833,1833,1833,1833,1833,1823,1823,1823,1833,1833,1833,1833,1823,1823,1833,1833,1833,1833,1823,1823,1823,1823,1823,1823,1823,1823,1813,1813,1813,1813,1804,1804,1804,1804,1794,1794,1794,1794,1794,1794,1794,1794,1794,1794,1794,1794,1785,1785,1785,1785,1776,1776,1785,1785,1785,1776,1776,1776,1776,1776,1776,1776,1776,1776,1785,1785,1785,1794,1794,1794,1785,1785,1947,1936,1936,1926,1926,1926,1926,1926,1926,1926,1926,1915,1915,1915,1101,1101,1101,1101,1101,1101,1101,1101,1101,1101,1101,1101,1105,1105,1105,1105,1108,1105,1105,1108,1112,1108,1108,1105,1101,1097,1097,1097,1097,1105,1105,1105,1105,1101,1101,1101,1105,1101,1101,1101,1101,1101,1101,1101,1101,1101,1101,1097,1097,1097,1097,1094,1094,1090,1090,1094,1090,1090,1090,1090,1087,1087,1087,1087,1087,1087,1087,1087,1090,1090,1090,1090,1087,1087,1087,1087,1084,1080,1080,1084,1087,1084,1084,1080,1080,1084,1080,1080,1080,1080,1080,1080,1080,1080,1080,1077,1077,1077,1077,1077,1947,1947,1947,1947,1947,1936,1936,1936,1926,1926,1926,1915,1915,1904,1904,1894,1894,1883,1883,1883,1873,1873,1873,1873,1863,1863,1853,1853,1843,1843,0,0,0,0,0,0,0,0,0,0,935,933,930,930,928,925,925,925,923,918,918,918,915,915,918,920,920,923,925,925,928,930,930,933,935,935,935,935,935,935,0,0,0,0,0,0,1663,1647,1647,1639,1639,1639,1639,1632,1632,1632,1632,1624,1624,1616,1609,1609,1609,1601,1601,1601,1594,1594,1586,1579,1579,1579,1572,1572,1564,1564,1564,1557,1557,1550,1550,1543,1543,1543,1536,1536,1529,1523,1523,1523,1523,1516,1516,1516,1509,1509,1503,1503,1496,1496,1489,1489,1489,1483,1477,1477,1470,1470,1470,1464,1464,1464,1458,1458,1452,1445,1445,1445,1445,1445,1439,1439,1439,1433,1427,1427,1427,1421,1421,1415,1415,1415,1410,1410,1404,1398,1398,1398,1398,1392,1392,1392,1387,1381,1376,1376,1376,1376,1376,1370,1370,1370,1370,1365,1354,1354,1354,1354,1349,1349,1349,1343,1343,1343,1333,1333,1333,1328,1328,1328,1322,1322,1317,1317,1317,1312,1312,1307,1307,1307,1302,1297,1292,1292,1292,1292,1292,1288,1288,1283,1283,1278,1273,1273,1273,1268,1268,1268,1268,1268,1268,1264,1259,1259,1255,1255,1250,1250,1250,1245,1241,1236,1236,1232,1232,1232,1232,1227,1227,1223,1223,1223,1219,1219,1219,1214,1214,1206,1206,1206,1202,1202,1197,1197,1197,1193,1193,1189,1189,1185,1185,1185,1181,1181,1181,1177,1177,1173,1173,1169,1169,1165,1165,1165,1161,1161,1157,1153,1153,1153,1149,1149,1145,1145,1145,1141,1138,1138,1138,1138,1134,1134,1134,1130,1126,1123,1123,1123,1123,1119,1119,1119,1119,1115,1112,1112,1108,1108,1105,1105,1105,1101,1101,1097,1097,1094,1094,1094,1094,1090,1090,1090,1090,1084,1084,1080,1080,1080,1077,1077,1077,1077,1073,1073,1070,1070,1067,1067,1067,1063,1063,1063,1060,1060,1057,1057,0,0,0,0,0,0,0,0,0,0,0,0,0,0,0,0,0,0,0,0,0,0,0,0,0,0,0,0,0,0,0,0
0,0,0,0,0,0,0,0,0,0,0,0,0,1883,1883,1883,1883,1883,1883,1883,1883,1883,1883,1883,1883,1883,1883,1883,1883,1883,1883,1873,1873,1873,1883,1883,1883,1873,1873,1873,1873,1873,1873,1873,1873,1863,1863,1863,1863,1863,1863,1853,1853,1853,1853,1853,1853,1843,1843,1853,1853,1843,1843,1843,1843,1843,1843,1843,1833,1833,1833,1823,1823,1823,1833,1833,1833,1833,1823,1823,1833,1833,1833,1833,1823,1823,1823,1823,1823,1823,1823,1823,1823,1823,1813,1813,1804,1804,1804,1804,1804,1794,1794,1804,1804,1804,1794,1794,1794,1794,1794,1794,1794,1794,1794,1794,1785,1785,1785,1785,1785,1776,1776,1776,1776,1776,1776,1776,1776,1776,1785,1785,1785,1794,1794,1794,1785,1785,1959,1947,1936,1936,1936,1926,1915,1915,1926,1926,1926,1915,1915,1915,1090,1090,1094,1094,1101,1101,1101,1101,1097,1097,1097,1097,1101,1101,1101,1101,1101,1094,1094,1101,1097,1097,1097,1094,1094,1090,1090,1090,1090,1090,1090,1094,1094,1097,1094,1094,1094,1094,1094,1094,1094,1094,1094,1094,1094,1097,1097,1094,1094,1094,1094,1090,1090,1087,1087,1087,1087,1084,1084,1080,1080,1084,1080,1077,1077,1080,1080,1080,1084,1084,1087,1087,1084,1080,1080,1080,1077,1077,1077,1080,1080,1080,1080,1077,1077,1077,1077,1077,1077,1077,1077,1077,1073,1073,1073,1070,1070,1070,1067,1067,1067,1063,1060,1060,1947,1936,1936,1936,1926,1926,1926,1915,1915,1904,1904,1894,1894,1883,1883,1883,1883,1873,1873,1873,1863,1863,1853,1853,1843,1843,1843,0,0,0,0,0,0,0,0,0,935,933,933,930,928,925,925,925,923,920,918,918,918,918,918,920,923,923,925,925,928,930,930,933,935,935,935,935,935,935,0,0,0,0,0,1671,1663,1647,1647,1647,1639,1639,1639,1639,1632,1632,1632,1624,1624,1624,1616,1609,1609,1609,1601,1601,1594,1594,1586,1586,1579,1579,1579,1572,1572,1564,1564,1564,1557,1550,1550,1543,1543,1543,1536,1536,1529,1523,1523,1523,1523,1516,1516,1509,1509,1509,1503,1503,1496,1496,1489,1489,1489,1483,1483,1483,1477,1470,1470,1464,1464,1464,1464,1458,1452,1445,1445,1445,1445,1445,1439,1439,1439,1433,1433,1427,1427,1421,1421,1415,1415,1415,1410,1410,1404,1398,1398,1398,1398,1398,1392,1392,1392,1381,1381,1376,1376,1376,1376,1370,1370,1370,1370,1365,1359,1354,1354,1354,1349,1349,1349,1349,1343,1343,1338,1333,1333,1333,1328,1328,1328,1322,1322,1322,1317,1312,1312,1312,1307,1307,1307,1302,1297,1292,1292,1292,1292,1288,1288,1283,1283,1278,1278,1273,1273,1268,1268,1268,1268,1268,1268,1264,1264,1259,1255,1255,1250,1250,1250,1245,1241,1236,1236,1236,1232,1232,1232,1232,1227,1227,1223,1223,1219,1219,1219,1214,1214,1206,1206,1206,1202,1202,1197,1197,1197,1197,1193,1193,1189,1185,1185,1185,1185,1181,1181,1177,1177,1173,1173,1169,1169,1169,1165,1165,1165,1161,1157,1157,1153,1153,1153,1149,1149,1145,1145,1141,1141,1138,1138,1138,1134,1134,1134,1130,1130,1126,1123,1123,1123,1123,1119,1119,1119,1115,1115,1112,1108,1108,1105,1105,1105,1105,1101,1097,1097,1094,1094,1094,1094,1094,1090,1090,1090,1084,1084,1080,1080,1080,1077,1077,1077,1077,1073,1073,1070,1070,1067,1067,1067,1067,1063,1063,1060,1060,1057,1057,0,0,0,0,0,0,0,0,0,0,0,0,0,0,0,0,0,0,0,0,0,0,0,0,0,0,0,0,0,0,0,0
0,0,0,0,0,0,0,0,0,0,0,0,0,1883,1883,1883,1883,1883,1883,1883,1883,1883,1883,1883,1883,1883,1883,1883,1883,1883,1883,1883,1873,1873,1883,1883,1883,1883,1883,1873,1873,1873,1873,1873,1873,1873,1863,1863,1863,1863,1863,1853,1853,1853,1853,1853,1853,1853,1853,1853,1853,1843,1843,1843,1843,1843,1843,1843,1843,1833,1833,1833,1823,1823,1833,1833,1833,1833,1823,1823,1833,1833,1833,1833,1823,1823,1833,1823,1823,1823,1823,1823,1823,1823,1813,1813,1804,1804,1804,1804,1804,1804,1804,1804,1804,1804,1794,1794,1794,1794,1794,1794,1794,1794,1794,1794,1794,1794,1794,1794,1785,1785,1776,1776,1776,1776,1776,1776,1776,1776,1785,1785,1785,1794,1794,1794,1785,1785,1959,1947,1936,1936,1090,1084,1080,1080,1080,1080,1080,1080,1084,1084,1087,1090,1090,1094,1101,1101,1101,1097,1097,1097,1094,1094,1097,1094,1094,1094,1094,1090,1090,1094,1090,1090,1090,1087,1087,1087,1087,1087,1087,1084,1084,1087,1087,1087,1084,1084,1084,1090,1087,1087,1087,1087,1087,1087,1087,1090,1090,1090,1090,1090,1087,1087,1087,1084,1084,1084,1080,1080,1080,1077,1077,1080,1077,1077,1077,1077,1077,1077,1077,1077,1080,1080,1077,1077,1077,1077,1073,1073,1073,1073,1073,1073,1073,1073,1070,1070,1070,1070,1067,1067,1067,1067,1067,1070,1063,1063,1060,1060,1057,1057,1057,1060,1060,1060,1060,1057,1054,1050,1926,1926,1926,1915,1915,1904,1904,1894,1894,1883,1883,1883,1883,1883,1873,1873,1863,1863,1853,1853,1853,1843,1843,0,0,0,0,0,0,0,0,935,935,933,933,930,928,928,925,925,923,920,920,918,918,918,918,920,923,923,925,925,928,930,930,933,935,935,935,935,935,0,0,0,0,0,0,1671,1663,1655,1647,1647,1639,1639,1639,1639,1632,1632,1632,1632,1632,1624,1616,1609,1609,1609,1601,1601,1601,1601,1594,1586,1586,1579,1579,1572,1572,1564,1564,1557,1557,1550,1550,1543,1543,1543,1536,1536,1529,1523,1523,1523,1523,1516,1516,1509,1509,1509,1503,1503,1496,1496,1489,1489,1489,1483,1483,1483,1477,1470,1470,1470,1464,1464,1464,1464,1452,1445,1445,1445,1445,1445,1439,1439,1439,1439,1433,1433,1433,1427,1427,1421,1415,1415,1415,1410,1404,1404,1398,1398,1398,1398,1392,1392,1392,1381,1381,1376,1376,1376,1376,1376,1370,1370,1370,1365,1365,1359,1354,1354,1354,1354,1349,1349,1343,1343,1338,1333,1333,1333,1328,1328,1328,1322,1322,1322,1317,1317,1312,1312,1312,1307,1307,1302,1297,1292,1292,1292,1292,1288,1288,1288,1283,1283,1278,1273,1273,1268,1268,1268,1268,1268,1268,1264,1264,1259,1255,1255,1255,1250,1250,1245,1241,1236,1236,1236,1236,1232,1232,1232,1232,1227,1227,1223,1223,1219,1219,1214,1214,1206,1206,1206,1202,1202,1197,1197,1197,1197,1193,1193,1189,1185,1185,1185,1185,1181,1181,1177,1177,1173,1173,1169,1169,1169,1165,1165,1165,1165,1161,1157,1153,1153,1153,1149,1149,1149,1145,1145,1141,1138,1138,1138,1134,1134,1134,1130,1130,1126,1126,1123,1123,1123,1119,1119,1119,1115,1115,1112,1108,1108,1105,1105,1105,1105,1101,1101,1101,1097,1097,1094,1094,1094,1090,1090,1090,1087,1084,1080,1080,1080,1077,1077,1077,1077,1073,1073,1073,1070,1070,1067,1067,1067,1063,1063,1060,1060,1060,1060,0,0,0,0,0,0,0,0,0,0,0,0,0,0,0,0,0,0,0,0,0,0,0,0,0,0,0,0,0,0,0,0
0,0,0,0,0,0,0,0,0,0,0,0,0,1883,1883,1883,1883,1883,1883,1883,1883,1883,1883,1883,1883,1883,1883,1883,1883,1883,1883,1883,1883,1883,1883,1883,1883,1883,1883,1873,1873,1873,1873,1873,1873,1873,1873,1863,1863,1863,1863,1863,1853,1853,1853,1853,1853,1853,1853,1853,1853,1853,1853,1843,1843,1843,1843,1843,1843,1833,1833,1833,1833,1833,1833,1833,1833,1833,1833,1833,1833,1833,1833,1833,1833,1833,1833,1833,1833,1823,1823,1823,1823,1823,1813,1813,1813,1813,1813,1804,1804,1804,1804,1804,1804,1804,1804,1794,1794,1794,1794,1794,1794,1794,1794,1794,1794,1794,1794,1794,1785,1785,1785,1785,1776,1776,1776,1776,1776,1776,1776,1785,1785,1794,1794,1794,1776,1776,1094,1094,1090,1087,1087,1084,1080,1080,1080,1080,1080,1080,1080,1084,1087,1090,1090,1097,1097,1097,1097,1097,1094,1094,1090,1090,1090,1087,1087,1087,1087,1087,1087,1087,1087,1087,1084,1084,1084,1084,1080,1080,1080,1077,1077,1080,1080,1084,1084,1080,1080,1080,1080,1080,1080,1080,1080,1080,1080,1080,1080,1080,1080,1084,1084,1084,1084,1080,1077,1077,1077,1073,1073,1073,1073,1073,1073,1070,1070,1070,1070,1070,1067,1067,1070,1073,1073,1073,1073,1073,1070,1070,1070,1070,1070,1070,1067,1067,1067,1063,1063,1060,1057,1057,1057,1057,1054,1050,1050,1054,1054,1054,1054,1054,1054,1054,1054,1054,1057,1057,1054,1050,1047,1047,1926,1915,1915,1904,1904,1894,1894,1883,1883,1883,1883,1883,1873,1873,1873,1863,1853,1853,1853,1853,1853,1863,0,0,0,0,0,0,0,935,935,933,933,933,930,928,925,925,923,920,920,918,918,918,918,923,923,925,925,928,928,930,933,933,935,935,935,935,935,0,0,0,0,0,0,1671,1663,1663,1655,1647,1647,1639,1639,1639,1639,1639,1632,1632,1632,1624,1624,1609,1609,1609,1601,1601,1601,1601,1594,1586,1586,1579,1579,1579,1572,1572,1564,1557,1557,1550,1550,1543,1543,1543,1536,1536,1529,1523,1523,1523,1523,1516,1516,1509,1509,1509,1509,1503,1503,1496,1489,1489,1489,1489,1483,1483,1477,1477,1470,1470,1470,1464,1464,1464,1452,1445,1445,1445,1445,1445,1445,1439,1439,1439,1433,1433,1433,1427,1427,1421,1415,1415,1415,1410,1410,1404,1404,1398,1398,1398,1392,1392,1392,1387,1381,1376,1376,1376,1376,1376,1370,1370,1370,1370,1365,1365,1365,1354,1354,1354,1349,1349,1343,1343,1338,1333,1333,1333,1333,1328,1328,1328,1322,1322,1322,1317,1312,1312,1312,1312,1307,1307,1302,1302,1292,1292,1292,1288,1288,1288,1283,1283,1278,1273,1273,1268,1268,1268,1268,1268,1268,1264,1264,1259,1255,1255,1255,1250,1250,1250,1241,1241,1236,1236,1236,1232,1232,1232,1232,1227,1227,1227,1223,1219,1219,1214,1214,1210,1210,1206,1202,1202,1202,1197,1197,1197,1193,1193,1189,1189,1185,1185,1185,1185,1181,1177,1177,1173,1173,1169,1169,1169,1165,1165,1165,1165,1161,1157,1157,1153,1153,1149,1149,1149,1145,1145,1141,1141,1138,1138,1138,1134,1134,1130,1130,1126,1126,1123,1123,1123,1119,1119,1119,1119,1115,1115,1112,1108,1108,1108,1105,1105,1105,1105,1101,1097,1097,1094,1094,1094,1090,1090,1090,1087,1084,1084,1080,1080,1080,1077,1077,1077,1073,1073,1073,1070,1070,1067,1067,1067,1063,1063,1063,1060,1060,1060,0,0,0,0,0,0,0,0,0,0,0,0,0,0,0,0,0,0,0,0,0,0,0,0,0,0,0,0,0,0,0,0
0,0,0,0,0,0,0,0,0,0,0,0,0,1894,1883,1883,1894,1894,1883,1883,1883,1894,1894,1894,1894,1894,1894,1883,1883,1883,1883,1883,1883,1883,1883,1883,1883,1883,1883,1873,1873,1873,1873,1873,1873,1873,1873,1863,1863,1863,1863,1863,1853,1853,1853,1853,1853,1853,1853,1853,1853,1853,1853,1853,1843,1843,1843,1843,1843,1833,1833,1833,1833,1833,1833,1833,1833,1833,1833,1833,1833,1833,1833,1833,1833,1833,1833,1823,1823,1823,1823,1823,1823,1823,1823,1823,1813,1813,1813,1813,1804,1804,1804,1804,1804,1804,1804,1794,1794,1794,1794,1794,1794,1794,1794,1794,1794,1794,1794,1794,1785,1785,1785,1776,1776,1776,1776,1776,1776,1776,1776,1776,1785,1785,1794,1794,1776,1776,1087,1087,1090,1084,1084,1084,1080,1080,1080,1080,1077,1077,1077,1080,1084,1084,1087,1090,1090,1090,1094,1090,1087,1087,1084,1080,1080,1084,1080,1080,1080,1080,1084,1084,1084,1080,1080,1077,1077,1077,1077,1077,1077,1077,1077,1077,1077,1080,1077,1077,1077,1077,1077,1073,1073,1073,1073,1073,1077,1077,1077,1077,1077,1077,1077,1077,1077,1073,1073,1070,1070,1067,1067,1067,1067,1067,1067,1063,1063,1063,1063,1063,1063,1063,1067,1067,1067,1067,1067,1067,1067,1063,1063,1067,1067,1067,1063,1063,1060,1057,1054,1054,1050,1050,1050,1050,1050,1050,1050,1050,1050,1050,1050,1050,1050,1050,1050,1050,1050,1047,1047,1047,1047,1047,1047,1038,1038,1038,1883,1883,1883,1883,1883,1883,1883,1883,1883,1873,1873,1873,1863,1863,1873,1863,1863,1863,0,0,0,0,0,0,0,935,935,933,933,933,930,928,928,925,923,923,920,918,918,918,918,923,923,925,925,928,928,930,933,935,935,935,935,935,935,0,0,0,0,0,0,1671,1663,1663,1655,1647,1647,1639,1639,1639,1639,1639,1632,1632,1632,1624,1624,1609,1609,1609,1609,1601,1601,1601,1594,1586,1586,1579,1579,1579,1572,1572,1564,1564,1557,1550,1550,1550,1543,1543,1536,1536,1529,1529,1523,1523,1523,1516,1516,1509,1509,1509,1509,1503,1503,1496,1496,1489,1489,1489,1489,1483,1483,1477,1477,1470,1470,1470,1464,1464,1458,1452,1452,1452,1445,1445,1445,1439,1439,1439,1433,1433,1433,1427,1427,1421,1421,1415,1415,1415,1410,1410,1404,1404,1398,1398,1398,1392,1392,1387,1381,1376,1376,1376,1376,1376,1376,1370,1370,1370,1370,1365,1365,1359,1354,1354,1349,1349,1349,1343,1338,1338,1338,1333,1333,1328,1328,1328,1328,1322,1322,1317,1317,1312,1312,1312,1307,1307,1302,1302,1297,1292,1292,1292,1288,1288,1283,1283,1283,1278,1273,1268,1268,1268,1268,1268,1268,1264,1264,1259,1259,1255,1255,1255,1250,1250,1245,1241,1236,1236,1236,1236,1236,1232,1232,1227,1227,1227,1223,1219,1219,1214,1214,1210,1210,1206,1206,1202,1202,1202,1197,1197,1193,1193,1193,1185,1185,1185,1185,1185,1181,1181,1177,1173,1173,1169,1169,1169,1165,1165,1165,1165,1161,1157,1157,1157,1153,1149,1149,1149,1145,1145,1145,1141,1138,1138,1138,1134,1134,1134,1130,1130,1126,1123,1123,1123,1119,1119,1119,1119,1115,1115,1112,1108,1108,1108,1105,1105,1105,1105,1105,1101,1097,1097,1094,1094,1090,1090,1090,1087,1084,1084,1084,1080,1080,1080,1077,1077,1073,1073,1073,1070,1070,1067,1067,1063,1063,1063,1063,1060,1060,1060,0,0,0,0,0,0,0,0,0,0,0,0,0,0,0,0,0,0,0,0,0,0,0,0,0,0,0,0,0,0,0,0
0,0,0,0,0,0,0,0,0,0,0,0,0,1894,1894,1894,1894,1894,1894,1894,1894,1894,1894,1894,1894,1894,1894,1894,1883,1883,1883,1883,1883,1883,1883,1883,1883,1883,1873,1873,1873,1873,1873,1873,1873,1873,1873,1873,1873,1873,1863,1863,1853,1853,1853,1853,1853,1853,1853,1853,1853,1853,1853,1853,1853,1843,1843,1843,1843,1843,1843,1833,1833,1833,1833,1833,1833,1833,1833,1833,1833,1833,1833,1833,1833,1833,1833,1823,1823,1823,1823,1823,1823,1823,1823,1823,1813,1813,1813,1813,1804,1804,1804,1804,1804,1804,1804,1794,1794,1794,1794,1794,1794,1794,1794,1794,1794,1794,1785,1785,1776,1776,1776,1776,1776,1067,1067,1063,1063,1063,1063,1063,1067,1070,1070,1073,1077,1077,1077,1077,1077,1077,1077,1080,1077,1077,1077,1077,1077,1077,1077,1077,1077,1077,1080,1080,1084,1084,1087,1084,1080,1080,1077,1073,1073,1073,1073,1073,1073,1073,1073,1077,1077,1073,1073,1073,1073,1073,1070,1070,1070,1070,1070,1070,1070,1070,1073,1073,1073,1073,1073,1070,1070,1070,1067,1067,1067,1067,1067,1067,1070,1070,1070,1067,1067,1070,1067,1067,1063,1063,1063,1063,1063,1063,1060,1060,1060,1057,1057,1057,1057,1054,1054,1057,1057,1063,1060,1060,1060,1060,1060,1060,1057,1057,1057,1057,1057,1050,1050,1047,1047,1047,1047,1047,1047,1047,1047,1047,1047,1047,1047,1047,1047,1050,1044,1044,1044,1044,1044,1044,1044,1038,1038,1038,1038,1038,1034,1034,1883,1883,1883,1025,1022,1022,1022,1022,1022,1022,1022,1863,1873,1873,1873,0,0,0,0,0,0,0,0,935,935,933,933,933,930,930,928,925,923,923,920,920,920,920,920,923,923,925,928,928,930,930,933,935,935,938,938,935,935,0,0,0,0,0,0,1671,1663,1663,1655,1655,1647,1647,1639,1639,1639,1639,1632,1632,1632,1632,1624,1616,1609,1609,1609,1601,1601,1601,1594,1594,1586,1579,1579,1579,1572,1572,1564,1564,1557,1550,1550,1550,1543,1543,1536,1536,1529,1529,1529,1523,1523,1523,1516,1516,1516,1516,1509,1509,1503,1496,1496,1489,1489,1489,1489,1483,1483,1477,1477,1470,1470,1470,1464,1464,1464,1458,1452,1452,1445,1445,1445,1445,1439,1439,1439,1439,1433,1433,1427,1421,1421,1415,1415,1415,1410,1410,1404,1404,1404,1398,1398,1398,1392,1387,1381,1381,1376,1376,1376,1376,1376,1370,1370,1370,1370,1370,1365,1359,1359,1354,1349,1349,1349,1343,1343,1338,1338,1333,1333,1333,1328,1328,1328,1328,1322,1322,1317,1312,1312,1312,1312,1307,1307,1302,1297,1292,1292,1292,1288,1288,1288,1283,1283,1278,1273,1273,1273,1268,1268,1268,1268,1264,1264,1259,1259,1255,1255,1255,1250,1250,1250,1245,1241,1236,1236,1236,1236,1232,1232,1232,1227,1227,1223,1223,1219,1219,1214,1210,1210,1210,1206,1202,1202,1202,1202,1197,1197,1193,1193,1185,1185,1185,1185,1185,1181,1181,1177,1173,1173,1173,1169,1169,1169,1165,1165,1165,1161,1161,1157,1157,1153,1153,1149,1149,1149,1145,1145,1141,1141,1138,1138,1134,1134,1134,1134,1130,1126,1126,1123,1123,1123,1119,1119,1119,1115,1115,1115,1112,1108,1108,1108,1105,1105,1105,1105,1101,1101,1097,1094,1094,1090,1090,1090,1087,1084,1084,1084,1080,1080,1080,1077,1077,1077,1073,1073,1070,1070,1067,1067,1063,1063,1063,1063,1060,1060,1060,0,0,0,0,0,0,0,0,0,0,0,0,0,0,0,0,0,0,0,0,0,0,0,0,0,0,0,0,0,0,0,0
0,0,0,0,0,0,0,0,0,0,0,0,0,1904,1894,1894,1904,1904,1894,1894,1894,1894,1894,1894,1894,1894,1894,1894,1883,1883,1883,1883,1883,1883,1883,1883,1883,1873,1873,1873,1873,1873,1873,1873,1873,1873,1873,1873,1873,1873,1863,1863,1863,1863,1863,1853,1853,1853,1853,1853,1853,1853,1853,1853,1853,1843,1843,1843,1843,1843,1843,1843,1843,1833,1833,1833,1833,1833,1833,1833,1833,1833,1833,1833,1833,1833,1833,1833,1823,1823,1823,1823,1823,1823,1823,1823,1813,1813,1813,1813,1804,1804,1804,1804,1804,1804,1794,1794,1794,1794,1794,1794,1794,1794,1794,1794,1794,1794,1785,1785,1776,1776,1776,1073,1073,1067,1063,1063,1063,1063,1063,1063,1067,1067,1070,1073,1070,1070,1070,1073,1073,1073,1073,1077,1073,1073,1073,1073,1077,1077,1073,1073,1073,1073,1073,1073,1073,1070,1070,1073,1070,1070,1070,1070,1070,1070,1070,1070,1070,1067,1067,1067,1067,1070,1070,1067,1067,1067,1067,1067,1067,1067,1067,1067,1067,1067,1067,1070,1070,1067,1067,1067,1067,1063,1063,1063,1060,1060,1060,1060,1060,1060,1060,1063,1063,1063,1060,1060,1060,1060,1060,1057,1057,1057,1057,1057,1057,1054,1054,1054,1054,1054,1054,1054,1054,1057,1057,1054,1054,1054,1054,1054,1047,1047,1047,1047,1047,1047,1044,1044,1044,1044,1044,1044,1044,1044,1044,1044,1044,1044,1044,1044,1044,1044,1041,1041,1044,1041,1041,1041,1041,1038,1038,1038,1038,1038,1031,1031,1028,1025,1022,1022,1022,1022,1022,1019,1016,1016,1016,1013,1013,1013,0,0,0,0,0,0,0,0,0,935,935,933,933,933,930,930,928,925,923,923,920,920,920,920,920,923,923,925,928,928,930,930,933,935,935,938,938,938,938,938,0,0,0,0,0,1671,1663,1663,1655,1655,1647,1647,1639,1639,1639,1639,1639,1632,1632,1632,1624,1624,1609,1609,1609,1601,1601,1601,1601,1594,1586,1579,1579,1579,1572,1572,1564,1564,1564,1557,1550,1550,1543,1543,1543,1536,1536,1536,1536,1529,1523,1523,1523,1516,1516,1516,1509,1509,1503,1503,1496,1496,1489,1489,1489,1489,1483,1483,1477,1477,1470,1470,1464,1464,1464,1464,1458,1452,1452,1445,1445,1445,1439,1439,1439,1439,1433,1433,1427,1421,1421,1421,1415,1415,1415,1410,1410,1404,1404,1404,1398,1398,1392,1387,1387,1381,1381,1376,1376,1376,1376,1376,1376,1370,1370,1370,1365,1359,1359,1354,1349,1349,1349,1349,1343,1343,1338,1333,1333,1333,1333,1328,1328,1328,1322,1322,1317,1312,1312,1312,1312,1307,1307,1307,1302,1297,1292,1292,1288,1288,1288,1288,1283,1278,1278,1273,1273,1268,1268,1268,1268,1264,1264,1259,1259,1255,1255,1255,1255,1250,1250,1245,1245,1241,1236,1236,1236,1232,1232,1232,1227,1227,1223,1223,1219,1219,1214,1214,1210,1210,1206,1206,1202,1202,1202,1197,1197,1197,1197,1189,1185,1185,1185,1185,1181,1181,1177,1173,1173,1173,1169,1169,1169,1165,1165,1165,1161,1161,1157,1157,1153,1153,1149,1149,1149,1145,1145,1145,1141,1138,1138,1134,1134,1134,1134,1130,1126,1126,1123,1123,1123,1119,1119,1119,1119,1115,1115,1112,1108,1108,1108,1108,1105,1105,1105,1101,1097,1097,1094,1094,1094,1090,1090,1087,1087,1084,1084,1080,1080,1080,1080,1077,1077,1073,1073,1073,1070,1067,1067,1067,1063,1063,1063,1063,1060,1060,0,0,0,0,0,0,0,0,0,0,0,0,0,0,0,0,0,0,0,0,0,0,0,0,0,0,0,0,0,0,0,0
0,0,0,0,0,0,0,0,0,0,0,0,0,1904,1904,1904,1904,1904,1904,1904,1904,1904,1894,1894,1894,1894,1894,1894,1883,1883,1883,1883,1883,1883,1883,1883,1883,1873,1873,1873,1873,1873,1873,1873,1873,1873,1873,1873,1873,1873,1873,1873,1863,1863,1863,1863,1863,1853,1853,1853,1853,1853,1853,1853,1853,1843,1843,1843,1843,1843,1843,1843,1843,1843,1843,1843,1843,1833,1833,1833,1833,1833,1833,1833,1833,1833,1833,1833,1823,1823,1823,1823,1823,1823,1823,1823,1823,1823,1813,1813,1804,1804,1804,1804,1804,1804,1794,1794,1794,1794,1794,1794,1794,1794,1794,1794,1794,1794,1785,1785,1785,1785,1776,1073,1073,1063,1063,1063,1063,1063,1063,1063,1067,1067,1067,1070,1067,1067,1067,1067,1067,1067,1067,1070,1070,1070,1073,1073,1073,1073,1073,1073,1070,1070,1067,1067,1067,1063,1063,1063,1063,1063,1063,1063,1063,1060,1060,1063,1063,1063,1060,1060,1060,1063,1063,1063,1063,1063,1063,1063,1063,1063,1060,1060,1063,1063,1063,1060,1060,1060,1060,1057,1057,1057,1057,1057,1054,1054,1054,1054,1054,1054,1054,1054,1054,1054,1054,1057,1054,1054,1054,1054,1050,1050,1054,1050,1050,1050,1047,1047,1047,1047,1047,1047,1047,1047,1050,1047,1047,1047,1047,1047,1044,1041,1041,1041,1041,1044,1041,1041,1041,1041,1041,1041,1041,1041,1041,1044,1044,1041,1041,1041,1038,1038,1034,1034,1038,1038,1038,1038,1038,1034,1034,1034,1034,1034,1028,1028,1025,1025,1022,1022,1022,1019,1019,1019,1016,1016,1016,1013,1013,1010,1010,0,0,0,0,0,0,0,0,935,935,935,935,933,933,930,928,925,923,923,920,920,920,920,920,923,925,925,928,928,930,933,933,935,935,938,938,938,938,938,0,0,0,0,0,0,1663,1663,1663,1663,1655,1647,1647,1639,1639,1639,1639,1632,1632,1632,1624,1624,1609,1609,1609,1601,1601,1601,1601,1594,1586,1579,1579,1579,1579,1572,1572,1564,1564,1557,1557,1550,1550,1543,1543,1543,1536,1536,1536,1529,1529,1529,1523,1523,1516,1516,1509,1509,1503,1503,1496,1496,1489,1489,1489,1489,1483,1483,1483,1477,1470,1470,1464,1464,1464,1464,1458,1452,1452,1445,1445,1445,1439,1439,1439,1439,1433,1433,1427,1421,1421,1421,1415,1415,1415,1415,1410,1410,1410,1404,1398,1398,1392,1392,1387,1387,1381,1381,1381,1376,1376,1376,1376,1370,1370,1370,1365,1359,1359,1354,1354,1349,1349,1349,1343,1343,1338,1333,1333,1333,1333,1328,1328,1328,1328,1322,1322,1317,1312,1312,1312,1307,1307,1307,1302,1297,1292,1292,1292,1288,1288,1288,1283,1283,1278,1278,1273,1273,1273,1268,1268,1264,1264,1259,1259,1259,1255,1255,1255,1250,1250,1250,1250,1241,1241,1236,1236,1232,1232,1232,1232,1227,1227,1223,1219,1219,1214,1214,1210,1210,1206,1206,1202,1202,1202,1197,1197,1197,1197,1189,1189,1189,1185,1185,1181,1181,1177,1177,1177,1173,1169,1169,1169,1165,1165,1165,1161,1161,1157,1157,1153,1153,1153,1149,1149,1149,1145,1145,1141,1141,1138,1134,1134,1134,1134,1134,1130,1130,1126,1123,1123,1123,1119,1119,1119,1119,1115,1112,1108,1108,1108,1108,1105,1105,1105,1101,1097,1097,1094,1094,1094,1090,1090,1090,1087,1087,1084,1084,1080,1080,1080,1077,1077,1077,1077,1073,1070,1067,1067,1067,1063,1063,1063,1063,1060,1060,0,0,0,0,0,0,0,0,0,0,0,0,0,0,0,0,0,0,0,0,0,0,0,0,0,0,0,0,0,0,0,0
0,0,0,0,0,0,0,0,0,0,0,0,0,1904,1904,1904,1904,1904,1904,1904,1904,1904,1904,1894,1894,1894,1894,1894,1894,1894,1883,1883,1883,1883,1883,1883,1883,1873,1873,1873,1873,1873,1873,1873,1873,1873,1873,1873,1873,1873,1873,1873,1863,1863,1873,1863,1863,1863,1863,1853,1853,1853,1853,1853,1853,1843,1843,1853,1853,1853,1843,1843,1843,1853,1843,1843,1843,1843,1843,1843,1843,1843,1833,1833,1833,1833,1833,1833,1833,1823,1823,1823,1833,1823,1823,1823,1823,1823,1823,1813,1813,1804,1804,1804,1804,1794,1794,1794,1794,1794,1794,1794,1794,1794,1794,1794,1794,1794,1785,1785,1776,1776,1766,1060,1060,1060,1060,1060,1060,1060,1060,1060,1063,1063,1067,1067,1063,1063,1067,1063,1063,1063,1063,1063,1063,1063,1063,1073,1073,1070,1070,1070,1070,1063,1063,1063,1063,1063,1060,1060,1057,1057,1057,1057,1057,1057,1057,1057,1057,1057,1054,1054,1054,1057,1060,1060,1060,1060,1060,1060,1060,1060,1057,1057,1057,1054,1054,1050,1050,1054,1050,1047,1047,1047,1047,1047,1047,1047,1047,1047,1047,1047,1044,1044,1038,1038,1041,1044,1044,1044,1044,1044,1047,1047,1047,1047,1047,1044,1044,1044,1044,1044,1044,1044,1041,1041,1044,1044,1044,1041,1041,1044,1041,1038,1038,1038,1038,1038,1038,1038,1038,1038,1038,1041,1038,1038,1038,1038,1041,1038,1034,1034,1031,1028,1028,1031,1031,1031,1031,1031,1031,1031,1031,1031,1031,1031,1025,1025,1022,1022,1019,1019,1019,1019,1016,1016,1016,1016,1013,1013,1013,1010,1007,1007,0,0,0,0,0,0,0,0,938,935,935,933,933,933,928,925,923,923,920,920,920,920,920,925,925,925,928,930,930,933,935,935,938,938,938,938,938,938,0,0,0,0,0,0,1671,1663,1663,1663,1655,1647,1647,1639,1639,1639,1639,1632,1632,1632,1624,1624,1609,1609,1609,1601,1601,1601,1601,1594,1586,1586,1579,1579,1579,1572,1572,1564,1564,1557,1557,1550,1550,1550,1543,1543,1543,1543,1543,1536,1529,1529,1523,1523,1516,1516,1509,1509,1509,1503,1496,1496,1496,1489,1489,1489,1489,1483,1483,1477,1477,1470,1470,1470,1464,1464,1464,1458,1452,1452,1445,1445,1445,1439,1439,1439,1439,1433,1427,1427,1421,1421,1421,1415,1415,1415,1415,1410,1410,1410,1398,1398,1392,1392,1387,1387,1381,1381,1381,1376,1376,1376,1376,1370,1370,1370,1365,1365,1359,1354,1354,1349,1349,1349,1343,1343,1338,1338,1333,1333,1333,1328,1328,1328,1328,1322,1322,1317,1317,1312,1312,1312,1312,1307,1302,1297,1292,1292,1292,1288,1288,1288,1288,1283,1278,1278,1273,1273,1273,1273,1268,1264,1264,1264,1259,1259,1255,1255,1255,1250,1250,1250,1250,1245,1241,1241,1236,1236,1232,1232,1232,1227,1227,1223,1223,1219,1219,1214,1214,1210,1210,1206,1202,1202,1202,1202,1197,1197,1197,1193,1189,1189,1185,1185,1185,1181,1181,1177,1177,1173,1173,1169,1169,1165,1165,1165,1161,1161,1157,1157,1153,1153,1153,1153,1149,1149,1149,1149,1145,1141,1138,1138,1134,1134,1134,1134,1130,1130,1126,1126,1123,1123,1123,1119,1119,1119,1119,1115,1112,1108,1108,1108,1105,1105,1105,1105,1101,1097,1097,1094,1094,1090,1090,1090,1087,1087,1084,1084,1084,1084,1080,1080,1077,1077,1077,1073,1073,1070,1067,1067,1067,1063,1063,1063,1060,1060,0,0,0,0,0,0,0,0,0,0,0,0,0,0,0,0,0,0,0,0,0,0,0,0,0,0,0,0,0,0,0,0
0,0,0,0,0,0,0,0,0,0,0,0,0,1904,1904,1904,1904,1904,1904,1904,1904,1904,1904,1894,1894,1894,1883,1883,1894,1894,1883,1883,1883,1883,1883,1883,1883,1873,1873,1873,1873,1873,1873,1873,1873,1873,1873,1873,1873,1873,1873,1873,1873,1873,1873,1863,1863,1863,1863,1863,1863,1853,1853,1853,1853,1853,1853,1853,1853,1853,1853,1853,1853,1853,1853,1853,1853,1843,1843,1843,1843,1843,1843,1833,1833,1833,1833,1833,1833,1823,1823,1833,1833,1833,1833,1823,1823,1833,1823,1823,1813,1813,1804,1804,1794,1794,1794,1794,1794,1794,1794,1794,1794,1050,1050,1050,1050,1047,1047,1047,1050,1050,1050,1050,1054,1054,1054,1054,1057,1057,1057,1057,1060,1060,1057,1057,1060,1060,1060,1060,1060,1060,1057,1057,1057,1057,1057,1057,1057,1057,1067,1067,1063,1060,1060,1060,1060,1060,1057,1057,1054,1054,1054,1054,1054,1054,1054,1054,1054,1050,1050,1050,1050,1050,1054,1057,1057,1057,1057,1057,1057,1054,1047,1047,1050,1047,1047,1044,1044,1047,1044,1041,1041,1041,1044,1044,1041,1041,1041,1041,1041,1041,1038,1038,1038,1034,1034,1038,1038,1034,1034,1038,1038,1038,1038,1044,1044,1041,1041,1041,1041,1041,1041,1041,1038,1038,1038,1038,1034,1034,1034,1034,1034,1034,1031,1031,1034,1034,1034,1034,1034,1034,1034,1034,1034,1034,1034,1034,1031,1031,1028,1028,1025,1025,1025,1025,1025,1028,1025,1025,1025,1025,1028,1025,1022,1022,1022,1022,1019,1019,1016,1016,1016,1016,1016,1013,1013,1010,1010,1010,1010,1007,1004,1004,1001,1001,998,998,0,0,0,938,938,935,935,933,933,933,930,925,925,923,920,920,920,923,923,925,925,928,928,930,933,933,935,935,938,938,938,938,938,938,0,0,0,0,0,0,1671,1671,1671,1663,1663,1655,1647,1647,1639,1639,1639,1639,1632,1632,1632,1624,1616,1609,1609,1601,1601,1601,1601,1594,1586,1586,1579,1579,1579,1572,1572,1572,1564,1564,1557,1550,1550,1550,1550,1543,1543,1543,1543,1536,1536,1529,1523,1523,1523,1516,1516,1509,1509,1503,1503,1496,1496,1496,1489,1489,1489,1489,1483,1477,1477,1470,1470,1470,1464,1464,1464,1458,1452,1452,1445,1445,1445,1439,1439,1439,1439,1433,1427,1427,1421,1421,1421,1415,1415,1415,1415,1410,1410,1410,1404,1398,1392,1392,1387,1387,1387,1387,1381,1381,1381,1376,1376,1370,1370,1365,1365,1365,1359,1354,1354,1354,1349,1349,1349,1343,1343,1338,1338,1333,1333,1333,1328,1328,1328,1322,1322,1317,1317,1317,1312,1312,1312,1307,1307,1302,1292,1292,1292,1288,1288,1288,1288,1283,1283,1278,1278,1273,1273,1273,1268,1268,1264,1264,1259,1259,1255,1255,1255,1255,1250,1250,1250,1245,1245,1241,1236,1236,1232,1232,1232,1227,1227,1223,1223,1219,1219,1214,1214,1214,1210,1206,1202,1202,1202,1202,1202,1197,1197,1197,1193,1189,1185,1185,1185,1181,1181,1181,1177,1177,1173,1169,1169,1165,1165,1165,1161,1161,1157,1157,1153,1153,1153,1153,1149,1149,1149,1149,1145,1141,1138,1138,1134,1134,1134,1134,1130,1130,1130,1126,1126,1123,1123,1123,1119,1119,1119,1115,1112,1108,1108,1108,1105,1105,1105,1105,1101,1097,1097,1094,1094,1090,1090,1090,1087,1087,1087,1084,1084,1084,1080,1080,1080,1077,1077,1073,1073,1070,1070,1070,1067,1063,1063,1063,1063,1063,0,0,0,0,0,0,0,0,0,0,0,0,0,0,0,0,0,0,0,0,0,0,0,0,0,0,0,0,0,0,0,0
0,0,0,0,0,0,0,0,0,0,0,0,0,1915,1915,1915,1915,1915,1915,1915,1915,1904,1904,1894,1894,1894,1883,1883,1894,1894,1883,1883,1883,1883,1883,1883,1883,1883,1883,1883,1883,1883,1873,1873,1873,1873,1873,1873,1873,1873,1873,1873,1873,1873,1873,1863,1863,1863,1863,1853,1853,1853,1853,1853,1853,1853,1853,1853,1853,1853,1853,1853,1853,1853,1853,1853,1853,1853,1853,1843,1843,1843,1843,1833,1833,1833,1833,1833,1833,1833,1833,1833,1833,1833,1833,1833,1833,1833,1823,1823,1813,1813,1804,1804,1794,1794,1794,1047,1047,1047,1047,1047,1047,1047,1050,1050,1050,1047,1047,1047,1050,1050,1050,1050,1054,1054,1054,1054,1054,1054,1054,1054,1054,1054,1054,1054,1054,1054,1054,1054,1054,1054,1054,1054,1054,1050,1050,1054,1050,1050,1050,1047,1047,1050,1054,1054,1057,1054,1050,1050,1050,1050,1050,1050,1050,1050,1050,1050,1047,1047,1047,1044,1044,1044,1041,1041,1047,1047,1044,1044,1047,1044,1044,1044,1044,1041,1041,1041,1041,1041,1038,1038,1034,1034,1038,1038,1034,1034,1034,1034,1038,1034,1034,1034,1034,1031,1031,1031,1028,1028,1028,1028,1028,1028,1025,1025,1025,1025,1025,1031,1034,1034,1034,1034,1031,1031,1031,1028,1028,1028,1025,1025,1028,1025,1025,1025,1028,1031,1031,1031,1031,1031,1028,1028,1028,1028,1025,1022,1022,1025,1025,1022,1022,1022,1022,1022,1022,1022,1019,1019,1022,1022,1022,1019,1013,1013,1016,1016,1013,1013,1013,1013,1016,1013,1013,1010,1010,1010,1007,1007,1004,1004,1004,1001,1001,1001,998,995,995,995,995,995,938,935,935,933,933,933,930,925,925,923,920,920,923,923,923,925,925,928,928,930,933,935,935,935,938,938,938,938,938,938,0,0,0,0,0,0,1671,1671,1671,1663,1663,1655,1647,1647,1639,1639,1639,1639,1639,1632,1632,1632,1616,1609,1609,1609,1609,1601,1601,1601,1594,1586,1579,1579,1579,1572,1572,1572,1564,1564,1557,1557,1550,1550,1550,1550,1543,1543,1543,1536,1536,1529,1523,1523,1523,1516,1516,1516,1509,1509,1503,1496,1496,1496,1489,1489,1489,1489,1483,1477,1477,1470,1470,1470,1464,1464,1464,1458,1458,1452,1452,1445,1445,1445,1439,1439,1439,1433,1433,1427,1421,1421,1421,1415,1415,1415,1415,1415,1415,1410,1404,1398,1398,1392,1392,1392,1387,1387,1387,1381,1381,1376,1376,1376,1370,1365,1365,1365,1359,1354,1354,1354,1349,1349,1349,1349,1343,1343,1338,1333,1333,1333,1328,1328,1328,1322,1322,1317,1317,1317,1312,1312,1312,1307,1307,1302,1297,1292,1292,1292,1288,1288,1288,1283,1283,1278,1278,1278,1273,1273,1268,1268,1268,1264,1259,1259,1255,1255,1255,1255,1250,1250,1250,1245,1245,1245,1241,1236,1236,1232,1232,1227,1227,1227,1223,1219,1219,1214,1214,1214,1214,1210,1206,1202,1202,1202,1202,1197,1197,1197,1193,1189,1185,1185,1185,1181,1181,1181,1181,1177,1177,1173,1169,1169,1165,1165,1161,1161,1161,1157,1157,1153,1153,1153,1153,1149,1149,1149,1149,1141,1138,1138,1138,1134,1134,1134,1134,1130,1130,1126,1126,1123,1123,1123,1123,1119,1119,1115,1115,1112,1108,1108,1108,1105,1105,1105,1101,1097,1097,1094,1094,1094,1090,1090,1090,1087,1087,1084,1084,1084,1080,1080,1080,1077,1077,1077,1073,1070,1070,1070,1067,1067,1063,1063,1063,1063,0,0,0,0,0,0,0,0,0,0,0,0,0,0,0,0,0,0,0,0,0,0,0,0,0,0,0,0,0,0,0,0
0,0,0,0,0,0,0,0,0,0,0,0,0,1915,1915,1915,1915,1915,1915,1915,1915,1904,1904,1894,1894,1894,1894,1894,1894,1894,1883,1883,1883,1883,1883,1883,1883,1883,1883,1883,1883,1883,1883,1873,1873,1873,1873,1873,1873,1873,1873,1873,1873,1873,1873,1873,1863,1863,1863,1853,1853,1853,1853,1853,1853,1853,1853,1863,1863,1863,1853,1853,1863,1863,1853,1853,1853,1853,1853,1843,1843,1843,1843,1843,1833,1833,1833,1833,1833,1833,1833,1833,1833,1833,1833,1833,1833,1833,1823,1813,1813,1813,1804,1794,1794,1794,1041,1041,1041,1047,1047,1047,1047,1047,1047,1047,1047,1047,1047,1047,1050,1050,1047,1047,1050,1050,1050,1050,1050,1050,1050,1050,1047,1047,1050,1050,1047,1047,1050,1050,1050,1050,1047,1047,1047,1047,1047,1047,1044,1044,1041,1041,1041,1044,1041,1041,1041,1041,1047,1047,1044,1044,1044,1044,1044,1044,1047,1044,1041,1041,1044,1041,1041,1041,1038,1038,1038,1038,1038,1038,1041,1041,1041,1041,1041,1038,1038,1038,1038,1038,1034,1031,1031,1031,1034,1031,1031,1034,1034,1034,1031,1031,1031,1028,1028,1028,1028,1028,1025,1025,1025,1025,1025,1025,1022,1022,1019,1019,1019,1019,1016,1016,1016,1025,1025,1025,1025,1022,1019,1019,1019,1019,1022,1022,1022,1019,1016,1016,1022,1022,1025,1025,1025,1025,1022,1022,1022,1016,1016,1022,1022,1019,1019,1019,1019,1016,1016,1016,1013,1013,1016,1016,1016,1007,1007,1007,1007,1004,1004,1004,1004,1007,1010,1010,1010,1010,1010,1007,1007,1004,1001,1001,1001,998,998,998,998,995,995,995,995,995,935,935,935,933,933,933,930,925,925,923,923,923,923,923,923,925,925,928,928,930,933,935,935,935,938,938,938,938,938,938,0,0,0,0,0,0,1671,1671,1671,1663,1663,1663,1655,1647,1647,1639,1639,1639,1639,1632,1632,1632,1624,1616,1616,1609,1609,1601,1601,1601,1594,1586,1586,1586,1579,1579,1572,1572,1572,1572,1564,1557,1557,1550,1550,1550,1543,1543,1543,1543,1536,1536,1529,1523,1523,1516,1516,1516,1509,1509,1503,1496,1496,1496,1489,1489,1489,1489,1483,1483,1477,1470,1470,1470,1464,1464,1464,1458,1458,1452,1452,1445,1445,1445,1445,1439,1439,1433,1433,1427,1421,1421,1421,1421,1415,1415,1415,1415,1415,1410,1404,1398,1398,1392,1392,1392,1387,1387,1387,1381,1381,1381,1376,1376,1370,1365,1365,1365,1359,1354,1354,1354,1354,1349,1349,1349,1349,1343,1343,1333,1333,1333,1333,1328,1328,1322,1322,1322,1317,1317,1312,1312,1312,1312,1307,1302,1297,1292,1292,1292,1288,1288,1288,1288,1283,1283,1278,1278,1273,1273,1273,1268,1268,1264,1264,1259,1255,1255,1255,1255,1250,1250,1250,1250,1245,1245,1241,1241,1236,1232,1232,1227,1227,1227,1223,1219,1219,1219,1214,1214,1214,1210,1206,1206,1202,1202,1202,1197,1197,1197,1193,1189,1185,1185,1185,1181,1181,1181,1181,1177,1177,1173,1169,1169,1165,1165,1161,1161,1161,1157,1157,1153,1153,1153,1153,1149,1149,1149,1149,1141,1138,1138,1138,1134,1134,1134,1134,1130,1130,1126,1126,1123,1123,1123,1123,1119,1119,1115,1115,1112,1108,1108,1108,1105,1105,1105,1101,1101,1097,1094,1094,1094,1090,1090,1090,1087,1087,1087,1084,1084,1084,1080,1080,1080,1077,1077,1073,1070,1070,1070,1067,1067,1063,1063,1063,1063,0,0,0,0,0,0,0,0,0,0,0,0,0,0,0,0,0,0,0,0,0,0,0,0,0,0,0,0,0,0,0,0
0,0,0,0,0,0,0,0,0,0,0,0,0,1915,1915,1915,1915,1915,1915,1915,1904,1904,1904,1904,1894,1894,1894,1894,1894,1894,1894,1894,1883,1883,1883,1883,1883,1883,1883,1883,1883,1883,1883,1883,1873,1873,1873,1873,1873,1873,1873,1873,1873,1873,1873,1873,1873,1863,1863,1853,1853,1863,1863,1863,1863,1863,1863,1863,1863,1863,1863,1863,1863,1863,1853,1853,1853,1853,1853,1853,1843,1843,1843,1843,1843,1833,1833,1833,1833,1833,1833,1833,1833,1833,1833,1833,1833,1833,1823,1813,1813,1813,1034,1034,1034,1038,1041,1041,1041,1047,1044,1044,1044,1044,1044,1044,1044,1044,1044,1044,1047,1044,1044,1044,1044,1047,1044,1044,1047,1047,1047,1044,1044,1044,1044,1044,1041,1041,1041,1041,1044,1044,1044,1044,1044,1044,1041,1041,1038,1038,1038,1034,1034,1038,1038,1034,1031,1031,1031,1031,1031,1031,1038,1038,1041,1041,1041,1041,1038,1038,1041,1038,1038,1038,1034,1034,1034,1034,1034,1034,1038,1038,1038,1038,1038,1031,1031,1034,1034,1034,1031,1028,1028,1031,1028,1028,1028,1028,1028,1028,1028,1025,1025,1025,1025,1022,1022,1022,1022,1022,1022,1022,1022,1022,1022,1019,1019,1019,1016,1016,1013,1013,1013,1013,1013,1013,1013,1016,1016,1016,1013,1013,1016,1016,1016,1013,1013,1013,1013,1013,1013,1016,1016,1016,1013,1013,1013,1010,1010,1013,1010,1010,1010,1013,1013,1007,1007,1004,1004,1004,1004,1004,1001,1001,1004,1004,1004,1004,1004,1001,1001,1004,1007,1007,1007,1007,1007,1004,1001,1001,1001,1001,998,998,998,998,992,992,989,989,992,995,935,935,935,933,933,933,930,925,925,923,923,923,923,923,923,925,928,928,930,930,933,935,935,938,938,938,938,938,935,935,0,0,0,0,0,0,1671,1671,1671,1663,1663,1663,1655,1655,1647,1639,1639,1639,1639,1632,1632,1632,1624,1616,1616,1609,1609,1601,1601,1601,1594,1594,1586,1586,1579,1579,1572,1572,1572,1572,1564,1557,1557,1557,1550,1550,1550,1543,1543,1543,1536,1536,1529,1529,1523,1523,1516,1516,1509,1509,1503,1496,1496,1496,1489,1489,1489,1489,1483,1483,1477,1477,1470,1470,1470,1464,1464,1464,1458,1458,1452,1452,1445,1445,1445,1439,1439,1433,1433,1427,1427,1421,1421,1421,1421,1415,1415,1415,1415,1410,1404,1398,1398,1392,1392,1392,1392,1392,1387,1387,1381,1381,1376,1376,1376,1370,1365,1365,1359,1359,1354,1354,1354,1349,1349,1349,1349,1343,1343,1333,1333,1333,1333,1328,1328,1328,1322,1322,1317,1317,1317,1312,1312,1312,1307,1302,1297,1292,1292,1292,1288,1288,1288,1288,1288,1283,1283,1278,1273,1273,1273,1268,1268,1268,1264,1259,1259,1255,1255,1255,1255,1250,1250,1250,1245,1245,1241,1241,1236,1236,1232,1232,1227,1227,1223,1223,1219,1219,1214,1214,1214,1210,1206,1206,1202,1202,1202,1202,1202,1197,1197,1193,1189,1185,1185,1181,1181,1181,1181,1181,1177,1173,1169,1169,1165,1165,1165,1161,1161,1157,1157,1153,1153,1153,1153,1149,1149,1149,1149,1141,1138,1138,1138,1138,1134,1134,1134,1130,1126,1126,1123,1123,1123,1123,1123,1119,1119,1115,1115,1112,1112,1108,1108,1105,1105,1105,1101,1101,1101,1097,1094,1094,1094,1090,1090,1090,1090,1087,1087,1084,1084,1080,1080,1080,1080,1077,1077,1073,1070,1070,1067,1067,1067,1063,1063,1063,0,0,0,0,0,0,0,0,0,0,0,0,0,0,0,0,0,0,0,0,0,0,0,0,0,0,0,0,0,0,0,0
0,0,0,0,0,0,0,0,0,0,0,0,0,1915,1915,1915,1915,1915,1915,1915,1904,1904,1904,1904,1904,1904,1904,1904,1904,1904,1904,1904,1904,1904,1894,1894,1883,1883,1883,1883,1883,1883,1883,1883,1883,1873,1873,1873,1873,1873,1873,1873,1873,1873,1873,1873,1873,1873,1873,1863,1863,1863,1863,1863,1863,1863,1863,1863,1863,1863,1863,1863,1853,1853,1853,1853,1853,1853,1853,1853,1843,1843,1843,1843,1843,1833,1833,1833,1833,1833,1833,1833,1833,1833,1833,1833,1833,1038,1034,1034,1034,1038,1034,1034,1034,1038,1038,1038,1041,1044,1044,1044,1044,1044,1044,1044,1044,1044,1044,1044,1041,1041,1038,1038,1041,1041,1041,1041,1041,1044,1044,1041,1041,1041,1044,1044,1041,1041,1041,1041,1041,1041,1038,1038,1038,1034,1034,1031,1031,1031,1031,1031,1028,1028,1031,1025,1025,1025,1025,1025,1025,1025,1025,1028,1025,1025,1028,1034,1034,1034,1034,1031,1031,1034,1028,1028,1031,1031,1031,1031,1028,1028,1031,1031,1031,1022,1022,1022,1025,1025,1022,1022,1022,1022,1025,1022,1022,1022,1022,1022,1022,1019,1019,1019,1019,1019,1019,1019,1019,1019,1016,1016,1019,1019,1019,1016,1016,1016,1013,1013,1010,1010,1010,1010,1010,1010,1010,1010,1010,1010,1010,1010,1013,1013,1013,1013,1010,1010,1010,1010,1010,1010,1001,1001,1001,1001,1004,1004,1001,1001,1001,1004,1004,1007,1004,1001,1001,1001,1001,1001,1001,1001,998,998,1001,1001,1001,1001,998,998,998,998,1001,1001,1001,998,998,1001,998,998,995,995,995,995,995,992,989,989,987,984,984,987,935,935,935,935,933,933,930,928,925,923,923,923,923,923,923,928,928,928,930,933,933,935,938,938,938,938,938,938,935,935,0,0,0,0,0,0,1671,1671,1671,1663,1663,1663,1663,1655,1655,1647,1639,1639,1639,1632,1632,1632,1624,1616,1616,1609,1609,1609,1601,1601,1601,1594,1594,1594,1579,1579,1579,1572,1572,1572,1564,1564,1557,1557,1550,1550,1550,1543,1543,1543,1543,1536,1529,1523,1523,1523,1516,1516,1516,1509,1503,1496,1496,1496,1496,1489,1489,1489,1489,1483,1477,1477,1477,1470,1470,1470,1464,1464,1458,1458,1458,1452,1445,1445,1445,1445,1439,1439,1433,1433,1427,1421,1421,1421,1421,1421,1421,1415,1415,1410,1404,1398,1398,1392,1392,1392,1392,1392,1387,1387,1387,1381,1376,1376,1370,1370,1365,1365,1359,1359,1359,1354,1354,1349,1349,1349,1349,1349,1343,1338,1333,1333,1333,1328,1328,1328,1322,1322,1317,1317,1317,1312,1312,1312,1307,1307,1297,1297,1292,1292,1288,1288,1288,1288,1288,1288,1283,1278,1273,1273,1273,1268,1268,1268,1264,1264,1259,1259,1255,1255,1255,1250,1250,1250,1245,1245,1241,1241,1236,1236,1232,1232,1232,1227,1227,1223,1219,1219,1214,1214,1214,1214,1210,1206,1206,1202,1202,1202,1202,1197,1197,1197,1189,1189,1185,1185,1185,1181,1181,1181,1177,1177,1169,1169,1169,1165,1165,1165,1161,1161,1157,1157,1153,1153,1153,1149,1149,1149,1145,1141,1138,1138,1138,1138,1134,1134,1134,1130,1126,1126,1123,1123,1123,1123,1123,1119,1119,1115,1115,1112,1112,1108,1108,1105,1105,1105,1101,1101,1101,1097,1097,1094,1094,1094,1090,1090,1090,1087,1087,1087,1084,1084,1080,1080,1080,1077,1077,1073,1073,1070,1067,1067,1067,1063,1063,1063,0,0,0,0,0,0,0,0,0,0,0,0,0,0,0,0,0,0,0,0,0,0,0,0,0,0,0,0,0,0,0,0
