0,0,0,894,894,894,894,896,896,896,898,901,903,903,903,906,908,906,906,906,0,0,0,0,0,0,0,0,0,0,0,0,0,0,0,0,778,776,776,773,767,766,764,762,761,757,757,755,754,752,750,750,749,744,738,734,733,731,728,728,727,676,675,672,671,668,666,664,664,662,662,661,659,658,657,654,653,653,653,653,652,652,650,650,649,648,648,647,647,646,646,648,647,644,644,644,644,644,644,644,644,644,644,644,643,643,643,644,644,644,646,646,646,646,646,644,644,644,644,644,646,646,647,647,648,648,649,650,650,653,654,655,657,657,657,658,658,663,664,667,671,671,671,672,672,679,682,687,688,690,690,691,694,696,697,698,700,701,701,703,703,704,706,707,710,713,714,714,716,717,720,720,722,722,723,728,731,731,733,734,738,739,739,741,744,746,747,747,747,750,750,754,754,757,757,759,0,0,0,1210,1210,1210,1210,1214,1214,1219,1219,1223,1223,1227,1227,1227,1227,1227,1227,1452,1445,1445,1445,1445,1445,1445,1445,1439,1439,1439,1439,1439,1439,1439,1445,1445,1445,1445,1452,1452,1445,1445,1445,1445,1445,1445,1445,1445,1445,1445,1439,1439,1439,1439,1439,1439,1439,1439,1439,1439,1439,1439,1439,1439,1439,1439,1433,1433,1433,1439,1433,1433,1433,1433,1433,1433,1427,1427,1427,1427,1427,1421,1421,1415,1415,1415,0,1410,0,995,995,992,989,989,989,989,987,984,981,978,978,978,978,978,978,981,984,987,987,989,989,995,998,1001,1001,1001,1001,1001,0,1421,1421,1421,1421,1421,1421,1421,1421,1415,1415,1421,1421,1415,1415,1415,1415,1415,1415,1415,1415,1415,1415,1415,1415,1415,1415,1415,1415,1415,1410,1410,1410,1410,1410,1410,1410,1410,1415,1415,1410,1410,1415,1415,1415,1410,1410,1410,1410,1404,1404,1404,1404,1404,1404,1404,1404,1410,1410,1410,1410,1404,1404,1398,1398,1398,1398,1398,1398,1398,1398,1398,1404,1398,1398,1398,1398,1398,1398,1398,1398,1398,1398,1398,1398,1398,1398,1398,1398,1398,1398,1392,1392,1392,1392,1392,1392,1392,1392,1392,1392,1392,1392,1392,1392,1392,1392,1392,1392,1392,1392,1392,1392,1392,1392,1387,1387,1387,1387,1387,1381,1381,1381,1387,1381,1381,1381,1381,1381,1381,1381,1381,1381,1376,1376,1376,1376,1376,1376,1370,1370,1370,1370,1370,1370,1370,1365,1365,1359,1354,1354,1354,1354,1349,1349,1349,1349,1343,1343,1338,1338,1333,1333,1333,1333,1328,1328,1322,1322,1322,1317,1312,1312,1312,1307,1307,1307,1307,1302,1302,1302,1302,1297,1292,1292,1292,1292,1292,1292,1288,1288,1278,1278,1278,1273,1273,1273,1268,1268,1268,1268,1268,1115,1115,1112,1108,1108,1105,1101,1097,1094,1090,1084,1080,1077,1073,1070,1067,1063,1060,1060,1060,1057,1054,1054,1050,1050,1047,1044,1041,1041,1041,1041,1041,1041,1041,1038,1034,1034,1034,1054,880,880,880,880,880,880,878,878,880,878,878,878,878,878,878,878,878,878,875,875,873,873,873,873,873,871,871,871,873,871,871,873,873,875,875,880,880,880,880,880,882,882,880,880,938,938,935,935,933,933,0,0,0,0,0,0,0,0,0,0,0,0,0,0,0,0,0,0,0,0,0,0,0,0,0,0,0,0,0,0,0,0,0,0,0
0,0,0,894,894,894,896,896,896,896,898,903,903,903,903,906,908,910,910,910,915,0,0,0,0,0,0,0,0,0,0,0,0,0,0,0,778,778,778,774,767,766,766,764,761,759,757,755,754,752,750,750,749,746,738,734,733,731,728,728,727,725,722,722,671,670,667,666,664,662,662,659,658,657,655,654,653,652,650,650,649,649,649,649,648,646,646,644,644,642,642,642,643,642,641,641,641,642,643,642,642,642,642,642,641,641,642,642,643,643,643,643,643,643,643,643,643,643,643,644,644,646,646,647,647,648,649,650,650,653,654,655,657,657,657,658,658,664,664,671,675,675,675,676,682,683,686,687,688,690,690,691,693,696,697,698,700,700,701,703,704,706,707,708,710,713,714,714,716,717,720,720,722,723,725,728,730,731,734,736,739,739,739,741,744,746,746,747,747,749,750,754,754,757,0,0,0,0,0,0,1210,1210,1210,1214,1214,1219,1219,1223,1223,1227,1227,1227,1227,1227,1227,1445,1445,1439,1439,1439,1439,1439,1439,1439,1439,1439,1439,1439,1439,1433,1433,1433,1439,1439,1445,1445,1439,1439,1439,1439,1439,1439,1439,1439,1439,1439,1439,1433,1433,1433,1433,1433,1433,1433,1433,1433,1433,1433,1433,1433,1427,1427,1427,1427,1427,1433,1433,1427,1427,1427,1427,1427,1421,1421,1421,1421,1421,1415,1415,1415,1410,1410,1410,1410,0,998,998,992,992,989,989,989,987,984,984,981,981,978,978,978,981,981,984,987,987,989,992,995,998,1001,1001,1001,1001,1001,0,1415,1415,1415,1415,1415,1415,1415,1415,1415,1415,1415,1415,1415,1415,1415,1415,1415,1410,1410,1410,1410,1410,1410,1410,1410,1410,1415,1410,1410,1410,1404,1404,1410,1404,1404,1404,1404,1410,1410,1404,1404,1404,1404,1404,1404,1404,1404,1404,1398,1398,1404,1404,1404,1404,1404,1404,1404,1404,1404,1404,1404,1404,1398,1398,1398,1398,1398,1398,1392,1392,1398,1398,1398,1398,1398,1398,1398,1398,1398,1398,1392,1392,1392,1392,1392,1392,1392,1392,1392,1392,1392,1392,1392,1392,1387,1387,1392,1387,1387,1387,1387,1387,1392,1387,1387,1387,1392,1387,1387,1387,1387,1387,1387,1381,1381,1387,1381,1381,1381,1381,1381,1381,1381,1381,1381,1381,1381,1381,1381,1381,1376,1376,1376,1376,1376,1376,1370,1370,1370,1370,1370,1370,1370,1370,1365,1365,1359,1354,1354,1354,1354,1354,1354,1349,1349,1349,1349,1343,1343,1338,1338,1333,1333,1333,1328,1328,1328,1328,1322,1322,1317,1312,1312,1307,1307,1307,1307,1302,1302,1302,1302,1297,1297,1297,1292,1292,1292,1292,1288,1288,1278,1278,1278,1273,1273,1273,1268,1268,1264,1264,1119,1115,1115,1112,1108,1108,1101,1097,1090,1087,1084,1084,1080,1077,1073,1067,1063,1063,1060,1060,1057,1054,1054,1054,1047,1047,1047,1044,1044,1041,1041,1041,1041,1041,1041,1041,1041,1054,1054,1054,880,880,880,880,880,880,880,880,880,880,878,878,878,878,878,878,878,878,878,875,875,873,873,873,873,873,873,873,873,873,873,875,875,878,880,880,882,882,882,882,882,882,880,880,938,935,935,933,933,933,0,0,0,0,0,0,0,0,0,0,0,0,0,0,0,0,0,0,0,0,0,0,0,0,0,0,0,0,0,0,0,0,0,0,0
0,0,0,894,894,894,896,896,896,898,898,903,903,906,906,908,910,910,910,913,915,0,0,0,0,1470,1464,1464,0,0,0,0,0,0,0,0,0,778,778,774,767,766,766,766,761,759,757,755,754,754,752,752,749,744,738,734,733,731,730,728,727,725,722,720,720,670,670,668,666,662,662,659,658,657,654,654,653,652,650,650,649,648,647,646,644,643,643,643,642,641,641,642,642,641,641,640,640,641,641,641,641,641,641,641,640,640,641,641,640,640,641,641,641,642,642,642,642,642,642,643,644,644,646,646,647,647,649,650,650,652,654,655,657,657,657,657,658,670,670,675,676,678,678,679,682,684,686,688,688,690,690,691,693,696,697,698,700,700,701,703,704,706,707,708,710,714,714,714,716,717,720,722,723,725,728,730,730,731,734,738,739,739,741,741,742,744,746,747,747,749,750,754,754,0,0,0,0,0,0,1202,1202,1210,1210,1210,1214,1219,1219,1223,1223,1227,1227,1227,1227,1227,1232,1439,1439,1439,1439,1439,1439,1439,1439,1439,1439,1433,1433,1433,1433,1433,1427,1427,1427,1433,1433,1433,1433,1433,1439,1439,1433,1433,1433,1433,1433,1433,1433,1433,1427,1427,1427,1427,1421,1421,1421,1421,1421,1421,1421,1421,1421,1421,1421,1421,1421,1421,1427,1421,1421,1421,1421,1421,1421,1421,1421,1421,1415,1415,1415,1415,1410,1410,1410,1410,0,992,992,992,992,992,989,989,987,987,984,981,981,978,978,978,981,984,984,987,987,989,992,998,1001,1001,1004,1004,1004,1004,1004,0,1415,1415,1415,1415,1415,1415,1415,1410,1410,1410,1410,1410,1410,1410,1410,1410,1410,1410,1404,1404,1404,1404,1404,1404,1404,1404,1404,1404,1404,1398,1398,1404,1404,1398,1398,1398,1404,1404,1398,1398,1398,1398,1398,1398,1392,1392,1398,1398,1398,1398,1398,1398,1398,1398,1398,1398,1398,1398,1398,1398,1398,1398,1392,1392,1392,1392,1392,1392,1392,1392,1392,1392,1392,1392,1392,1392,1398,1392,1392,1387,1387,1387,1387,1387,1387,1387,1387,1387,1392,1392,1387,1387,1387,1387,1387,1381,1381,1387,1381,1381,1381,1381,1381,1381,1381,1387,1387,1387,1387,1381,1381,1381,1376,1376,1381,1376,1376,1376,1376,1376,1376,1376,1376,1376,1376,1376,1376,1376,1376,1376,1376,1376,1376,1370,1370,1370,1370,1370,1370,1370,1370,1370,1370,1365,1365,1359,1354,1354,1354,1354,1354,1349,1349,1349,1349,1349,1343,1343,1343,1338,1338,1333,1333,1333,1328,1328,1328,1328,1322,1317,1312,1312,1307,1307,1307,1307,1307,1307,1302,1302,1302,1297,1297,1297,1292,1292,1292,1292,1288,1288,1283,1278,1273,1273,1273,1268,1268,1264,1264,1119,1119,1115,1112,1108,1108,1101,1097,1090,1087,1077,1077,1077,1073,1070,1067,1063,1063,1057,1057,1057,1054,1054,1047,1047,1047,1047,1044,1044,1041,1041,1041,1044,1044,1044,1044,1047,1054,1054,1063,1063,880,880,880,880,880,880,880,880,880,880,880,880,880,880,880,880,880,878,878,875,875,875,875,875,875,875,875,875,875,878,878,880,880,880,880,882,885,885,885,885,885,885,938,938,935,935,933,930,930,0,0,0,0,0,0,0,0,0,0,0,0,0,0,0,0,0,0,0,0,0,0,0,0,0,0,0,0,0,0,0,0,0,0,0
0,0,0,894,894,894,896,896,896,901,901,903,906,906,906,910,910,913,913,913,0,0,0,0,0,1470,1464,1464,1464,0,0,0,0,0,0,0,0,0,0,0,767,766,766,766,761,759,757,755,754,754,752,752,750,744,741,736,734,734,733,731,730,725,722,720,720,720,716,668,667,664,662,659,658,657,654,654,653,652,650,650,649,647,646,644,643,642,641,640,640,638,638,638,638,638,637,637,637,638,638,640,640,640,640,640,638,638,638,638,637,637,637,637,638,638,640,641,641,641,642,643,644,644,646,646,647,647,649,650,650,652,654,655,657,657,657,657,670,670,670,676,679,679,679,682,683,684,686,688,688,690,691,691,693,694,697,700,700,700,701,703,704,707,707,708,710,714,714,716,717,719,720,722,723,727,728,730,730,731,734,738,739,739,739,742,742,744,746,747,747,749,749,754,0,754,0,0,0,0,1202,1202,1202,1210,1210,1210,1214,1219,1219,1223,1223,1227,1227,1227,1227,1227,1232,1439,1439,1433,1433,1433,1433,1433,1433,1433,1433,1427,1427,1427,1427,1427,1421,1421,1421,1421,1427,1427,1427,1427,1427,1427,1427,1427,1427,1427,1427,1427,1427,1427,1427,1427,1427,1421,1421,1415,1415,1415,1415,1415,1415,1415,1415,1415,1415,1415,1421,1421,1421,1415,1415,1415,1415,1415,1415,1415,1415,1415,1415,1410,1410,1410,1404,1404,1404,1404,1022,1022,995,995,995,995,995,992,987,987,984,984,984,981,981,981,984,984,987,987,989,989,992,998,1001,1001,1004,1004,1004,1004,1004,1415,1415,1415,1415,1415,1415,1415,1410,1410,1410,1410,1410,1404,1404,1404,1404,1404,1404,1404,1398,1398,1404,1398,1398,1398,1398,1398,1398,1398,1398,1398,1398,1398,1398,1398,1398,1398,1398,1398,1398,1398,1398,1398,1398,1392,1392,1392,1392,1392,1392,1392,1392,1392,1398,1398,1398,1398,1398,1398,1398,1398,1398,1392,1392,1392,1392,1392,1392,1392,1392,1392,1392,1392,1392,1392,1392,1392,1392,1392,1387,1387,1387,1387,1387,1387,1387,1387,1387,1387,1387,1387,1387,1387,1381,1381,1381,1381,1381,1381,1381,1376,1376,1376,1376,1376,1376,1376,1376,1376,1381,1376,1376,1381,1376,1376,1376,1376,1376,1376,1376,1376,1376,1376,1376,1376,1376,1376,1376,1370,1370,1370,1370,1370,1370,1370,1370,1370,1370,1370,1370,1370,1370,1365,1365,1365,1365,1354,1354,1354,1354,1354,1354,1349,1349,1349,1349,1349,1349,1343,1343,1338,1338,1333,1333,1333,1328,1328,1328,1328,1322,1317,1312,1312,1312,1307,1307,1307,1307,1307,1307,1302,1302,1302,1297,1297,1292,1292,1292,1292,1288,1288,1288,1278,1273,1273,1273,1268,1268,1264,1123,1119,1119,1115,1112,1108,1105,1101,1097,1090,1087,1077,1077,1077,1073,1070,1067,1063,1063,1057,1057,1057,1057,1054,1047,1044,1044,1044,1044,1044,1044,1041,1041,1044,1044,1044,1050,1054,1060,1060,1060,885,882,882,880,880,880,880,880,882,882,882,880,880,880,880,880,880,880,880,878,878,878,878,875,875,875,875,878,878,878,880,880,880,880,882,882,885,885,885,887,887,885,885,938,935,935,933,933,928,928,0,0,0,0,0,0,0,0,0,0,0,0,0,0,0,0,0,0,0,0,0,0,0,0,0,0,0,0,0,0,0,0,0,0,0
0,0,0,894,894,896,896,896,896,901,903,906,906,908,910,913,913,913,913,913,0,0,0,0,0,1470,1464,1464,1464,1464,1470,0,0,0,0,0,0,0,0,0,0,0,766,766,761,759,757,755,755,754,752,752,750,742,739,738,738,736,734,733,731,728,722,722,720,720,716,668,667,666,663,661,659,657,654,653,653,652,650,649,648,647,646,644,642,642,641,640,638,637,636,636,635,635,635,636,636,637,637,637,638,638,638,637,637,637,636,636,636,636,636,636,637,637,637,640,640,641,641,643,644,644,646,646,647,648,649,650,652,653,654,655,658,657,657,671,672,674,675,678,679,679,680,682,683,684,687,688,688,690,691,691,693,694,697,700,700,700,701,704,706,707,708,708,710,713,714,716,717,720,720,723,725,727,728,730,730,731,734,738,739,739,739,742,742,744,746,747,747,749,749,749,749,0,0,0,0,1202,1202,1202,1206,1210,1210,1214,1219,1219,1219,1223,1223,1227,1227,1227,1232,1232,1232,1433,1433,1433,1433,1433,1433,1427,1427,1427,1427,1427,1427,1427,1427,1421,1421,1421,1421,1421,1421,1421,1421,1421,1421,1421,1421,1415,1415,1415,1421,1421,1421,1421,1415,1415,1421,1415,1415,1415,1415,1415,1410,1410,1410,1410,1415,1415,1415,1415,1415,1415,1415,1415,1415,1415,1415,1415,1415,1415,1415,1415,1415,1410,1410,1410,1404,1404,1404,1022,1022,1022,1019,1019,995,995,995,992,989,987,987,984,984,984,984,984,984,984,987,989,989,992,995,1001,1001,1004,1004,1004,1004,1004,1004,1004,1410,1410,1410,1410,1410,1410,1404,1404,1404,1404,1404,1404,1398,1398,1404,1398,1398,1398,1398,1398,1398,1392,1392,1392,1392,1398,1398,1398,1398,1392,1392,1398,1398,1392,1392,1392,1392,1398,1392,1392,1392,1392,1392,1392,1392,1392,1392,1392,1392,1392,1387,1387,1392,1392,1392,1392,1392,1392,1392,1392,1392,1392,1392,1392,1387,1387,1387,1387,1387,1387,1387,1387,1387,1387,1387,1387,1387,1387,1387,1381,1381,1381,1381,1381,1381,1381,1381,1381,1381,1381,1381,1381,1376,1376,1376,1376,1376,1376,1376,1370,1370,1376,1376,1376,1376,1376,1376,1376,1376,1370,1370,1376,1376,1376,1376,1370,1370,1370,1370,1370,1370,1370,1370,1370,1370,1370,1370,1370,1370,1365,1365,1365,1365,1365,1365,1365,1365,1365,1365,1365,1365,1359,1359,1359,1354,1354,1354,1354,1354,1354,1349,1349,1349,1349,1343,1343,1343,1343,1338,1338,1338,1338,1333,1333,1333,1328,1328,1328,1322,1317,1317,1312,1312,1312,1307,1307,1307,1307,1307,1302,1302,1297,1297,1297,1292,1292,1292,1292,1288,1288,1288,1283,1278,1278,1273,1268,1268,1126,1123,1119,1115,1115,1112,1108,1105,1101,1094,1090,1077,1077,1077,1070,1070,1070,1067,1063,1063,1060,1060,1060,1057,1054,1047,1044,1041,1041,1044,1044,1044,1041,1041,1044,1044,1047,1050,1054,1057,887,887,885,882,882,882,882,882,882,882,882,882,882,882,882,880,880,880,880,880,880,880,880,880,880,878,878,878,878,878,880,880,882,882,882,882,885,885,887,887,887,887,887,887,938,938,935,935,933,930,928,928,0,0,0,0,0,0,0,0,0,0,0,0,0,0,0,0,0,0,0,0,0,0,0,0,0,0,0,0,0,0,0,0,0,0,0
0,0,0,894,894,896,896,896,896,901,903,906,906,908,910,913,913,913,913,915,0,0,0,0,0,1470,1464,1464,1464,1464,1464,1464,0,0,0,0,0,0,0,0,0,0,0,766,761,759,757,755,755,754,752,752,750,742,739,739,738,738,736,736,734,722,722,720,720,720,719,716,716,716,716,661,659,655,654,653,653,652,650,649,648,647,646,644,642,641,640,638,637,636,636,635,634,634,634,634,634,634,636,637,637,637,637,636,636,636,635,635,635,635,635,635,636,636,637,640,640,641,641,643,644,644,644,646,647,647,650,650,652,653,654,655,661,661,668,671,674,674,675,678,679,679,680,683,684,686,687,688,690,690,691,693,694,696,697,700,700,700,701,704,707,707,708,710,713,713,716,717,719,720,722,723,725,727,728,730,730,731,736,738,739,739,739,742,742,744,746,747,747,749,749,749,0,0,0,1206,1206,1202,1202,1206,1210,1210,1210,1214,1219,1219,1219,1223,1227,1227,1227,1232,1232,1232,1232,1433,1433,1427,1427,1427,1427,1421,1421,1421,1421,1421,1421,1421,1421,1415,1415,1415,1415,1415,1415,1415,1415,1415,1415,1415,1415,1415,1415,1415,1415,1415,1415,1415,1415,1415,1415,1415,1415,1410,1410,1410,1410,1410,1410,1410,1410,1410,1410,1410,1415,1415,1415,1415,1410,1410,1410,1410,1410,1410,1410,1410,1410,1410,1410,1410,1404,1404,1392,1025,1022,1022,1019,1013,998,998,998,995,992,989,987,987,987,984,984,984,984,987,987,989,989,992,995,1001,1004,1004,1004,1004,1004,1004,1004,1004,1410,1410,1404,1404,1404,1404,1398,1398,1398,1398,1398,1398,1398,1398,1398,1398,1392,1392,1392,1392,1392,1392,1392,1392,1392,1392,1392,1392,1392,1392,1392,1392,1392,1392,1392,1392,1392,1392,1392,1392,1392,1392,1392,1392,1392,1387,1387,1387,1387,1387,1387,1387,1387,1387,1381,1381,1381,1387,1387,1387,1392,1387,1387,1387,1387,1387,1381,1381,1387,1387,1387,1381,1381,1381,1381,1381,1381,1381,1381,1376,1376,1376,1376,1376,1376,1376,1376,1376,1376,1376,1376,1376,1376,1376,1370,1370,1370,1370,1370,1370,1370,1370,1370,1370,1370,1370,1370,1370,1370,1365,1359,1359,1365,1370,1370,1370,1370,1370,1370,1370,1370,1370,1370,1370,1370,1370,1365,1359,1359,1359,1359,1359,1359,1359,1359,1359,1359,1359,1359,1359,1359,1354,1354,1354,1354,1354,1354,1349,1349,1349,1349,1349,1343,1343,1343,1343,1343,1343,1338,1338,1338,1338,1338,1333,1333,1328,1328,1328,1328,1322,1317,1317,1312,1312,1312,1307,1307,1307,1307,1302,1302,1297,1297,1297,1292,1292,1292,1292,1288,1288,1288,1288,1278,1278,1278,1273,1273,1126,1123,1119,1115,1115,1112,1105,1105,1097,1094,1080,1077,1077,1077,1070,1070,1067,1067,1067,1063,1060,1060,1057,1057,1054,1047,1044,1041,1041,1044,1044,1044,1041,1041,1044,1044,1047,1047,1047,1050,887,887,885,885,885,885,882,882,882,882,882,882,885,882,882,882,882,882,880,880,880,880,880,880,880,880,880,880,880,880,880,882,882,882,885,885,887,887,887,887,889,889,889,940,938,935,935,933,930,928,928,928,0,0,0,0,0,0,0,0,0,0,0,0,0,0,0,0,0,0,0,0,0,0,0,0,0,0,0,0,0,0,0,0,0,0,0
0,0,0,894,894,896,896,898,898,901,903,906,906,910,910,913,913,913,913,913,915,915,0,0,0,1470,1464,1464,1464,1464,1464,1464,0,0,0,0,0,0,0,0,0,0,0,0,764,759,755,755,755,754,754,754,752,746,741,739,738,738,738,736,734,720,720,720,720,720,719,717,717,716,716,716,654,654,654,653,653,652,650,649,648,647,646,644,641,641,638,638,636,636,635,635,634,632,632,632,632,632,632,634,632,632,635,634,634,634,634,634,634,634,635,635,636,636,636,638,640,641,642,643,644,644,644,646,647,647,650,650,652,653,654,657,662,662,670,671,674,675,676,678,679,680,680,683,684,686,687,688,690,690,691,693,694,696,697,700,700,701,703,706,707,708,708,710,714,714,716,719,720,722,722,723,725,728,728,730,730,731,736,738,739,739,739,742,744,744,746,747,747,747,1202,0,1202,1202,1202,1202,1206,1210,1210,1210,1210,1210,1210,1214,1219,1219,1219,1223,1227,1227,1227,1232,1232,1232,1236,1433,1433,1427,1427,1427,1421,1421,1415,1415,1415,1415,1415,1415,1415,1415,1415,1415,1415,1415,1415,1415,1415,1415,1415,1415,1415,1410,1410,1410,1410,1410,1410,1410,1410,1410,1410,1410,1410,1410,1410,1410,1410,1410,1410,1410,1410,1410,1410,1410,1410,1410,1410,1410,1410,1410,1410,1410,1410,1410,1410,1410,1410,1404,1404,1404,1398,1398,1392,1025,1025,1022,1022,1013,1001,1001,1001,998,992,992,989,987,987,987,987,987,987,987,987,989,989,992,998,1001,1004,1004,1004,1004,1004,1004,1004,1004,1398,1398,1398,1398,1398,1398,1398,1398,1398,1398,1398,1398,1392,1392,1398,1392,1392,1392,1392,1392,1392,1387,1387,1387,1387,1387,1387,1387,1387,1387,1387,1387,1387,1387,1387,1387,1387,1387,1387,1387,1387,1387,1387,1387,1387,1387,1387,1387,1387,1381,1381,1381,1381,1381,1376,1376,1376,1376,1381,1381,1381,1381,1381,1381,1381,1381,1381,1381,1381,1381,1376,1376,1376,1376,1376,1376,1376,1376,1376,1376,1376,1376,1376,1376,1376,1376,1376,1376,1376,1376,1376,1370,1370,1370,1370,1365,1365,1365,1365,1365,1365,1365,1365,1365,1365,1365,1365,1365,1365,1365,1354,1354,1359,1354,1354,1359,1365,1365,1365,1365,1365,1365,1365,1365,1365,1365,1359,1359,1359,1359,1359,1354,1354,1354,1354,1354,1354,1349,1349,1349,1354,1354,1354,1354,1354,1354,1349,1349,1349,1349,1349,1343,1343,1343,1338,1338,1338,1338,1338,1338,1338,1333,1333,1333,1333,1328,1328,1328,1328,1322,1322,1317,1312,1312,1312,1312,1312,1307,1307,1302,1302,1297,1297,1297,1292,1292,1288,1288,1288,1288,1288,1288,1278,1278,1278,1273,1126,1126,1119,1119,1115,1112,1108,1105,1094,1090,1084,1080,1077,1073,1073,1073,1070,1067,1067,1067,1063,1063,1063,1063,1063,1041,1041,1041,1041,1041,1044,1044,1044,1044,1044,1044,1047,1047,1047,1047,1047,887,887,885,885,885,885,882,882,882,882,882,882,885,882,882,882,882,882,882,882,882,882,882,882,882,882,882,882,882,885,887,885,885,885,887,887,887,889,887,887,887,889,943,938,938,935,933,933,930,928,925,925,0,0,0,0,0,0,0,0,0,0,0,0,0,0,0,0,0,0,0,0,0,0,0,0,0,0,0,0,0,0,0,0,0,0,0
0,0,0,894,894,896,896,896,898,903,906,906,908,910,913,913,913,913,913,913,915,915,915,0,0,0,1470,1470,1470,1464,1464,1464,0,0,0,0,0,0,0,0,0,0,0,0,0,759,755,755,754,754,752,752,750,749,742,741,739,739,738,738,738,720,720,720,720,720,719,717,717,716,710,710,654,654,654,653,653,653,650,649,648,647,646,644,641,641,638,637,636,635,635,634,632,632,631,631,630,630,630,630,630,629,629,630,631,631,632,632,632,632,634,635,635,635,636,637,640,641,642,643,644,644,646,646,647,648,650,650,652,653,655,666,666,670,671,672,675,675,678,679,679,680,682,683,683,686,687,688,690,690,691,693,694,696,697,700,700,701,704,706,707,708,708,711,714,714,716,719,720,722,722,725,727,728,728,730,730,731,736,738,739,739,741,742,744,746,746,1197,1197,1197,1202,1202,1202,1202,1202,1202,1206,1210,1210,1210,1210,1210,1210,1214,1219,1219,1219,1223,1227,1227,1232,1232,1236,1236,1427,1427,1427,1427,1427,1415,1415,1415,1415,1415,1415,1410,1410,1410,1410,1410,1410,1410,1410,1410,1410,1410,1410,1410,1410,1410,1410,1410,1410,1410,1404,1404,1410,1410,1404,1404,1404,1404,1404,1410,1410,1410,1410,1410,1410,1410,1410,1410,1410,1410,1410,1410,1404,1404,1404,1404,1404,1404,1404,1404,1398,1398,1398,1398,1398,1398,1398,1392,1392,1392,1398,1398,1022,1001,1001,1001,1001,998,998,992,989,989,987,987,987,987,987,987,987,989,989,995,998,1001,1004,1004,1004,1004,1007,1004,1004,1004,1398,1398,1392,1392,1392,1392,1392,1392,1392,1392,1392,1392,1392,1392,1392,1392,1387,1387,1387,1387,1381,1381,1381,1381,1381,1381,1381,1381,1381,1381,1381,1381,1381,1381,1381,1381,1381,1381,1381,1381,1381,1381,1387,1381,1381,1381,1381,1381,1381,1376,1376,1376,1376,1376,1376,1370,1370,1370,1370,1370,1370,1370,1376,1376,1376,1376,1376,1376,1376,1376,1370,1370,1370,1370,1370,1370,1370,1370,1370,1370,1370,1370,1370,1370,1370,1370,1370,1370,1365,1365,1365,1365,1365,1365,1365,1359,1359,1359,1359,1359,1359,1359,1359,1359,1359,1359,1359,1359,1359,1354,1354,1354,1354,1354,1354,1354,1354,1354,1354,1354,1359,1359,1359,1359,1359,1359,1354,1354,1354,1354,1354,1354,1354,1354,1354,1349,1349,1343,1343,1343,1343,1349,1349,1349,1349,1349,1349,1349,1343,1343,1343,1338,1338,1338,1338,1338,1338,1338,1333,1333,1333,1333,1333,1333,1333,1328,1328,1328,1328,1322,1322,1317,1317,1312,1312,1312,1312,1307,1307,1307,1307,1302,1297,1297,1292,1292,1288,1288,1288,1288,1288,1288,1278,1278,1273,1273,1126,1123,1119,1115,1115,1108,1108,1097,1094,1090,1084,1080,1077,1073,1073,1073,1070,1067,1067,1067,1063,1063,1063,0,0,0,1038,1038,1038,1038,1041,1044,1044,1044,1044,1044,1047,1047,1047,1047,1047,889,887,887,885,885,885,885,882,882,885,885,885,885,885,885,885,885,885,882,882,882,882,882,882,885,885,885,885,887,887,887,889,889,889,889,889,889,889,887,887,887,889,943,938,938,935,933,930,928,925,925,925,0,0,0,0,0,0,0,0,0,0,0,0,0,0,0,0,0,0,0,0,0,0,0,0,0,0,0,0,0,0,0,0,0,0,0
0,0,0,894,894,896,896,896,901,903,906,906,908,910,913,913,913,913,913,913,915,915,915,0,0,0,0,1464,1464,1458,1458,1452,1452,1458,1458,0,0,0,0,0,0,0,0,0,0,0,0,755,754,754,752,752,750,746,742,741,741,739,739,739,738,734,722,722,720,720,719,719,717,711,710,708,708,655,654,654,653,653,650,648,647,647,646,644,642,641,638,637,635,635,634,632,631,631,631,629,629,628,628,628,628,628,628,629,629,630,630,631,631,631,634,635,635,635,636,637,640,642,643,644,644,644,646,647,647,650,650,650,653,654,657,666,668,670,671,672,675,676,678,679,679,680,682,683,683,686,687,688,690,690,691,693,694,697,698,700,700,701,704,706,707,708,710,711,713,714,716,719,720,722,723,725,727,727,728,730,730,733,736,738,739,739,741,742,742,1197,1197,1197,1197,1197,1197,1202,1202,1202,1202,1202,1210,1210,1210,1210,1210,1210,1214,1214,1219,1219,1219,1223,1227,1232,1232,1232,1232,1232,1427,1427,1427,1421,1415,1415,1410,1410,1410,1410,1410,1410,1410,1410,1410,1410,1410,1410,1410,1410,1410,1410,1410,1410,1410,1410,1410,1404,1404,1404,1404,1404,1404,1404,1398,1398,1398,1398,1398,1404,1404,1404,1404,1404,1410,1410,1404,1404,1404,1404,1404,1404,1404,1404,1398,1398,1398,1398,1398,1398,1392,1392,1392,1392,1392,1392,1392,1392,1392,1392,1392,1022,1022,1010,1004,1004,1001,1001,998,995,989,989,989,987,987,987,987,987,987,989,992,995,998,1001,1004,1004,1007,1007,1007,1007,1007,1392,1392,1392,1387,1387,1387,1387,1392,1392,1392,1392,1392,1392,1387,1387,1387,1387,1381,1381,1381,1381,1381,1376,1376,1376,1376,1376,1376,1376,1376,1376,1376,1376,1376,1376,1376,1376,1376,1376,1376,1376,1376,1376,1381,1381,1376,1376,1376,1376,1376,1376,1370,1370,1370,1370,1370,1370,1370,1370,1370,1370,1370,1370,1370,1370,1370,1370,1370,1370,1370,1370,1370,1370,1365,1365,1365,1365,1365,1365,1365,1365,1365,1370,1370,1370,1365,1365,1365,1359,1359,1359,1359,1359,1359,1359,1359,1359,1359,1359,1359,1354,1354,1354,1354,1354,1354,1354,1354,1354,1354,1354,1354,1354,1354,1349,1349,1349,1349,1349,1349,1354,1354,1354,1354,1354,1354,1354,1354,1354,1354,1354,1354,1354,1354,1349,1343,1343,1343,1338,1338,1338,1338,1338,1343,1349,1349,1349,1349,1343,1343,1338,1338,1338,1333,1333,1333,1333,1338,1333,1333,1333,1333,1333,1333,1328,1328,1328,1328,1322,1322,1322,1322,1322,1317,1317,1312,1312,1312,1312,1307,1307,1307,1302,1297,1297,1292,1292,1292,1292,1288,1288,1288,1288,1278,1278,1273,1273,1126,1123,1119,1115,1112,1108,1105,1097,1094,1090,1087,1080,1077,1077,1077,1073,1070,1067,1067,1067,1063,1063,1063,0,0,0,1038,1038,1038,1038,1041,1044,1044,1044,1044,1047,1047,1047,1044,1044,1044,889,887,887,887,887,885,885,885,885,885,885,885,887,885,885,885,885,885,885,885,885,885,885,885,885,885,887,887,887,887,887,889,889,891,891,891,891,891,889,889,889,940,940,938,935,935,930,928,928,925,923,923,0,0,0,0,0,0,0,0,0,0,0,0,0,0,0,0,0,0,0,0,0,0,0,0,0,0,0,0,0,0,0,0,0,0,0
0,0,0,894,894,896,898,901,901,903,906,906,908,910,913,913,913,913,913,913,915,915,915,0,0,0,1464,1464,1452,1445,1445,1445,1445,1445,1439,1439,1439,1439,1439,0,0,0,0,0,0,0,0,0,754,754,752,752,750,746,742,741,741,741,741,739,739,738,738,723,722,722,720,720,719,711,710,708,707,706,655,654,653,653,700,648,647,647,646,644,642,641,638,637,635,635,634,632,631,630,629,629,628,628,627,627,627,627,627,628,628,629,629,630,631,631,632,634,635,635,636,637,640,642,643,644,644,646,646,647,647,650,652,653,654,655,658,666,670,670,671,672,675,676,678,679,679,680,682,683,684,686,687,690,690,691,691,693,694,697,698,700,701,703,704,706,707,708,710,713,713,716,716,719,720,722,723,723,727,727,728,730,730,733,736,738,739,739,741,741,1197,1197,1197,1197,1197,1197,1197,1197,1202,1202,1202,1206,1206,1210,1210,1210,1210,1214,1214,1214,1219,1219,1219,1223,1227,1232,1232,1232,1232,1232,1241,1427,1415,1410,1410,1410,1410,1410,1404,1404,1404,1404,1404,1404,1404,1410,1404,1404,1410,1410,1404,1404,1404,1404,1404,1404,1404,1404,1404,1404,1404,1404,1398,1398,1392,1392,1392,1392,1392,1392,1392,1398,1398,1398,1398,1398,1398,1398,1404,1398,1398,1398,1398,1398,1398,1392,1392,1392,1392,1392,1392,1392,1392,1392,1392,1387,1387,1387,1387,1387,1387,1025,1022,1010,1007,1004,1001,1001,998,998,992,992,989,987,987,987,987,987,989,989,992,995,998,1004,1004,1004,1007,1007,1010,1010,1010,1387,1381,1381,1381,1381,1381,1381,1381,1381,1387,1387,1387,1387,1387,1387,1387,1381,1381,1381,1376,1376,1376,1376,1376,1376,1376,1376,1376,1376,1376,1376,1376,1376,1376,1376,1376,1370,1370,1376,1376,1376,1376,1376,1376,1376,1376,1376,1376,1370,1370,1370,1370,1370,1365,1365,1365,1365,1365,1365,1365,1365,1365,1365,1365,1365,1365,1365,1365,1370,1370,1370,1370,1370,1365,1365,1365,1359,1359,1359,1359,1359,1359,1365,1365,1359,1359,1359,1354,1354,1354,1354,1354,1354,1354,1354,1354,1354,1354,1354,1354,1354,1354,1354,1354,1354,1354,1354,1349,1349,1349,1349,1349,1349,1349,1349,1349,1349,1349,1349,1349,1349,1349,1349,1349,1349,1349,1354,1349,1349,1349,1349,1349,1349,1349,1343,1338,1338,1338,1333,1333,1338,1338,1338,1338,1343,1343,1343,1343,1338,1338,1338,1338,1333,1333,1333,1333,1333,1333,1333,1333,1333,1333,1328,1328,1328,1328,1328,1328,1322,1322,1322,1322,1322,1317,1317,1317,1312,1312,1312,1307,1307,1307,1302,1297,1297,1292,1292,1292,1292,1288,1288,1288,1288,1288,1278,1273,1273,1126,1119,1119,1115,1108,1108,1105,1094,1090,1090,1087,1080,1080,1077,1077,1077,1070,1067,1067,1067,1063,1063,1063,0,0,0,1041,0,0,1041,1041,1044,1044,1044,1044,1047,1047,1047,1044,1044,1044,889,889,887,887,887,887,887,885,885,885,887,887,887,887,887,887,887,887,885,885,885,885,885,885,887,887,887,887,887,887,889,889,891,891,891,894,894,894,889,889,940,940,938,935,935,933,930,928,925,923,920,920,0,0,0,0,0,0,0,0,0,0,0,0,0,0,0,0,0,0,0,0,0,0,0,0,0,0,0,0,0,0,0,0,0,0,0
0,0,0,894,894,896,898,901,903,903,906,906,910,910,910,910,913,913,913,915,915,915,915,0,0,0,0,0,1452,1439,1439,1439,1439,1439,1439,1439,1439,1433,1427,1421,1421,1415,1415,1410,1404,1404,1404,0,754,754,752,752,750,746,742,742,741,741,741,741,739,738,738,727,723,722,722,720,720,719,710,708,707,706,704,703,703,700,698,697,697,647,646,646,642,641,638,637,635,635,634,632,631,630,629,628,628,627,627,627,627,627,627,627,627,628,629,630,630,631,632,634,635,635,636,637,640,642,643,644,646,646,646,647,648,650,653,654,655,655,666,670,670,671,671,672,675,676,678,679,680,680,682,683,684,686,687,690,690,691,693,693,694,697,698,701,701,703,704,706,708,708,711,713,713,714,716,720,720,722,723,723,727,727,728,730,730,733,736,0,0,0,0,1193,1197,1197,1197,1197,1197,1197,1197,1197,1202,1202,1202,1206,1206,1210,1210,1210,1214,1214,1214,1214,1219,1219,1223,1227,1227,1232,1232,1236,1236,1236,1241,1245,1410,1404,1404,1404,1404,1404,1404,1404,1398,1398,1398,1398,1398,1398,1398,1398,1398,1398,1404,1404,1404,1404,1404,1398,1398,1398,1398,1398,1398,1398,1398,1398,1392,1392,1392,1392,1392,1387,1387,1392,1392,1392,1392,1392,1392,1392,1392,1392,1392,1392,1392,1392,1392,1392,1392,1392,1387,1387,1387,1387,1387,1387,1387,1387,1387,1381,1381,1381,1381,1025,1025,1013,1013,1004,1004,1001,1001,998,992,992,989,989,987,987,987,987,989,989,992,995,998,1004,1004,1004,1007,1007,1010,1013,1013,1387,1387,1381,1381,1381,1376,1376,1376,1376,1376,1376,1376,1376,1381,1381,1381,1381,1381,1376,1376,1376,1376,1370,1370,1370,1370,1370,1370,1370,1376,1376,1370,1370,1370,1370,1370,1370,1370,1370,1370,1370,1370,1370,1370,1370,1370,1370,1370,1365,1365,1370,1365,1365,1365,1365,1365,1359,1359,1359,1359,1359,1359,1359,1359,1359,1359,1359,1359,1359,1359,1359,1359,1359,1359,1359,1359,1359,1359,1359,1354,1354,1354,1354,1354,1354,1354,1354,1354,1354,1354,1354,1354,1354,1354,1354,1354,1354,1354,1354,1354,1354,1354,1349,1349,1349,1349,1349,1349,1349,1349,1349,1349,1349,1349,1349,1349,1349,1349,1349,1349,1349,1349,1349,1343,1343,1343,1343,1343,1343,1343,1343,1349,1343,1343,1338,1333,1333,1333,1333,1333,1333,1333,1338,1338,1338,1338,1338,1338,1338,1333,1333,1333,1333,1333,1333,1333,1333,1333,1333,1333,1328,1328,1328,1328,1328,1328,1328,1328,1322,1322,1322,1317,1317,1317,1312,1312,1312,1312,1312,1307,1307,1307,1302,1302,1297,1292,1292,1292,1292,1292,1288,1288,1288,1288,1283,1278,1130,1126,1115,1115,1108,1105,1105,1097,1094,1090,1090,1087,1080,1080,1077,1077,1077,1073,1070,1067,1067,1063,1063,1063,0,0,0,0,0,0,1054,1054,1047,1044,1044,1044,1047,1047,1047,1047,1047,891,891,889,889,887,887,887,887,887,887,887,887,887,887,887,887,887,887,887,887,885,885,887,887,887,887,887,887,887,889,889,889,889,894,894,894,894,894,896,894,894,940,938,938,935,933,930,925,925,923,920,918,918,0,0,0,0,0,0,0,0,0,0,0,0,0,0,0,0,0,0,0,0,0,0,0,0,0,0,0,0,0,0,0,0,0,0,0
0,0,0,894,894,896,898,901,903,903,903,906,910,910,910,910,913,913,913,915,915,915,915,915,0,0,0,0,0,1433,1433,1439,1439,1439,1439,1433,1433,1427,1427,1421,1421,1415,1415,1410,1404,1404,1404,0,1404,0,0,0,750,746,742,742,741,741,741,741,739,738,736,728,725,723,723,722,720,719,710,708,707,707,704,703,701,700,698,697,694,694,647,647,644,640,637,637,635,635,634,632,631,629,628,628,627,627,627,627,627,627,627,627,627,628,628,630,630,631,632,634,635,635,636,637,640,642,644,644,646,646,647,648,652,652,654,655,657,663,664,670,671,671,672,674,675,676,678,679,680,680,682,683,684,687,688,690,691,691,693,693,696,697,700,701,701,703,704,707,708,710,711,713,713,714,716,720,720,722,723,725,727,727,728,730,731,733,0,0,0,1193,0,1193,1193,1193,1193,1193,1197,1197,1197,1197,1202,1202,1202,1206,1206,1210,1210,1214,1214,1214,1214,1219,1219,1223,1223,1227,1227,1232,1232,1236,1241,1241,1241,1245,1245,1398,1398,1398,1404,1398,1398,1398,1398,1392,1392,1392,1392,1392,1392,1392,1392,1392,1398,1392,1392,1392,1392,1392,1392,1392,1392,1392,1392,1392,1392,1392,1392,1392,1387,1387,1387,1387,1387,1387,1387,1387,1387,1387,1387,1387,1387,1387,1387,1387,1387,1387,1387,1387,1387,1387,1387,1387,1387,1387,1387,1387,1387,1387,1381,1381,1381,1376,1376,1025,1025,1025,1004,1004,1004,1001,1001,998,995,995,992,989,989,989,989,989,989,989,992,995,998,1004,1004,1004,1007,1007,1010,1010,1013,1387,1387,1381,1381,1376,1376,1376,1376,1376,1376,1376,1376,1370,1370,1370,1370,1376,1376,1376,1370,1370,1370,1370,1370,1370,1370,1370,1370,1370,1370,1370,1370,1370,1370,1370,1370,1365,1365,1365,1365,1365,1365,1365,1365,1365,1365,1365,1365,1359,1359,1365,1359,1359,1359,1359,1359,1359,1359,1359,1359,1359,1359,1359,1354,1354,1359,1359,1359,1359,1354,1354,1354,1354,1354,1354,1359,1354,1354,1354,1354,1354,1354,1354,1354,1354,1349,1349,1349,1354,1349,1349,1349,1349,1349,1349,1349,1349,1349,1349,1349,1349,1349,1349,1349,1349,1349,1349,1343,1343,1343,1343,1343,1343,1343,1343,1343,1343,1343,1343,1343,1343,1343,1343,1338,1338,1338,1338,1338,1338,1333,1333,1338,1338,1338,1333,1333,1333,1333,1333,1333,1333,1333,1333,1333,1338,1338,1333,1333,1333,1333,1333,1333,1328,1328,1328,1328,1328,1328,1333,1328,1328,1328,1328,1328,1328,1322,1322,1322,1317,1317,1317,1312,1312,1312,1312,1312,1312,1312,1312,1312,1307,1307,1302,1302,1297,1297,1292,1292,1292,1292,1292,1288,1288,1288,1288,1288,1130,1119,1115,1112,1105,1101,1101,1097,1094,1090,1090,1087,1084,1080,1080,1080,1077,1077,1073,1067,1067,1067,1063,1063,0,0,0,0,0,1060,1060,1057,1054,1054,1054,1050,1047,1047,1047,1047,894,894,891,889,889,889,887,887,887,887,887,887,887,887,887,887,887,887,887,887,887,887,887,887,887,887,889,889,889,889,889,889,889,891,894,896,896,894,894,896,940,940,938,938,935,933,930,928,925,923,923,918,918,918,0,0,0,0,0,0,0,0,0,0,0,0,0,0,0,0,0,0,0,0,0,0,0,0,0,0,0,0,0,0,0,0,0,0,0
0,0,0,896,896,896,898,901,903,903,903,906,910,910,910,910,913,913,913,915,915,915,915,915,0,0,0,0,0,1433,1433,1433,1433,1433,1433,1433,1433,1427,1421,1421,1421,1415,1415,1415,1404,1404,1404,1404,0,0,0,0,0,746,742,742,741,741,741,741,739,738,736,728,727,723,723,722,722,720,710,708,707,707,704,703,701,700,698,698,694,694,696,647,646,637,637,636,635,635,634,632,631,629,628,627,627,627,627,627,627,627,627,627,627,628,628,630,630,631,632,634,635,636,637,640,642,643,644,644,646,647,648,649,652,653,655,657,658,663,664,670,671,672,674,675,676,676,678,679,680,680,682,683,684,687,690,691,691,691,693,693,696,698,700,701,703,704,706,707,708,710,711,713,713,714,716,719,720,722,723,727,727,728,730,730,733,0,733,0,0,1193,1193,1193,1193,1193,1193,1193,1193,1197,1197,1197,1197,1202,1202,1206,1206,1210,1214,1214,1214,1214,1219,1219,1223,1223,1227,1227,1232,1232,1232,1236,1241,1241,1245,1245,1245,1245,1392,1392,1392,1398,1392,1392,1392,1392,1387,1387,1387,1387,1387,1387,1387,1387,1392,1387,1387,1387,1387,1387,1387,1387,1387,1387,1387,1387,1392,1387,1387,1387,1387,1381,1381,1381,1381,1381,1381,1381,1381,1381,1381,1381,1381,1381,1387,1387,1387,1387,1381,1381,1381,1381,1387,1381,1381,1381,1381,1381,1381,1381,1381,1376,1376,1376,1376,1376,1370,1007,1007,1007,1004,1001,1001,998,998,995,995,992,989,989,989,989,989,992,992,995,998,1004,1004,1007,1010,1010,1010,1013,1013,1392,1392,1381,1381,1376,1370,1370,1370,1370,1370,1370,1370,1370,1370,1370,1370,1370,1370,1370,1370,1370,1370,1365,1365,1365,1365,1365,1365,1365,1370,1370,1370,1365,1365,1365,1365,1359,1359,1359,1359,1359,1359,1359,1359,1359,1359,1359,1359,1359,1359,1359,1359,1354,1354,1354,1354,1354,1354,1354,1354,1354,1354,1354,1354,1354,1354,1354,1354,1354,1354,1354,1354,1354,1354,1354,1354,1349,1349,1354,1354,1354,1349,1349,1349,1349,1349,1349,1349,1349,1349,1349,1349,1349,1349,1349,1343,1343,1343,1349,1349,1349,1349,1349,1349,1349,1343,1343,1338,1338,1338,1338,1338,1343,1343,1343,1343,1343,1343,1338,1338,1338,1338,1338,1338,1338,1338,1338,1333,1333,1333,1333,1333,1333,1333,1333,1333,1333,1333,1328,1328,1333,1333,1333,1333,1333,1333,1328,1328,1328,1328,1328,1328,1328,1328,1328,1328,1328,1328,1328,1328,1322,1322,1322,1322,1322,1322,1317,1317,1312,1312,1312,1312,1312,1312,1312,1312,1312,1312,1312,1307,1307,1307,1302,1302,1297,1297,1292,1292,1292,1292,1292,1292,1292,1288,1288,1283,1123,1115,1108,1108,1105,1097,1097,1094,1094,1090,1090,1087,1084,1084,1080,1080,1077,1077,1073,1070,1070,1067,1067,1067,0,1067,1067,1067,0,1063,1060,1057,1054,1054,1054,1054,1054,1050,1050,1050,894,894,894,891,889,889,889,889,889,887,887,887,887,887,887,887,887,887,887,887,887,887,887,887,889,889,889,889,889,889,891,891,891,894,896,896,896,894,894,940,940,938,938,938,935,933,930,928,923,920,920,915,915,0,0,0,0,0,0,0,0,0,0,0,0,0,0,0,0,0,0,0,0,0,0,0,0,0,0,0,0,0,0,0,0,0,0,0,0
0,0,0,896,896,898,901,901,903,903,906,906,910,910,910,910,913,913,915,918,918,918,918,918,920,0,0,0,0,0,1433,1433,1433,1433,1433,1427,1427,1421,1421,1421,1421,1415,1415,1415,1410,1404,1404,1404,1404,0,0,0,0,0,0,0,741,741,741,741,739,738,734,733,728,727,725,725,722,720,711,710,707,707,704,703,701,700,698,698,697,696,696,696,637,637,637,636,634,634,634,632,631,628,628,627,627,627,627,627,627,627,627,627,627,628,628,629,630,631,632,634,635,636,637,641,642,643,644,646,647,649,649,650,653,654,655,658,659,662,663,670,671,674,674,675,676,676,678,679,680,680,682,683,684,687,690,691,691,691,693,693,696,700,701,703,703,704,707,708,710,710,711,713,713,714,717,719,720,722,723,727,728,728,730,730,0,0,0,0,1193,1193,1193,1193,1193,1193,1193,1193,1193,1193,1197,1197,1197,1202,1202,1206,1206,1210,1219,1223,1227,1223,1223,1223,1223,1227,1227,1227,1232,1232,1232,1236,1241,1241,1245,1245,1245,1245,1245,1387,1387,1392,1387,1387,1387,1387,1387,1387,1387,1387,1387,1381,1381,1381,1387,1381,1381,1381,1381,1387,1381,1381,1381,1387,1387,1387,1387,1387,1387,1381,1381,1381,1376,1376,1376,1376,1376,1376,1376,1376,1376,1376,1376,1376,1376,1381,1381,1381,1376,1376,1381,1376,1376,1376,1376,1376,1381,1381,1381,1381,1376,1376,1370,1370,1370,1370,1370,0,1007,1007,1004,1001,1001,998,998,998,995,995,992,992,992,992,992,995,995,998,998,1004,1007,1010,1010,1013,1013,1013,1016,1016,1381,1381,1381,1376,1370,1370,1370,1370,1370,1370,1370,1365,1365,1365,1365,1365,1365,1365,1365,1365,1365,1365,1365,1359,1359,1359,1359,1359,1365,1365,1365,1365,1365,1365,1359,1359,1359,1354,1354,1354,1354,1354,1354,1354,1354,1354,1354,1354,1354,1354,1354,1354,1354,1354,1354,1354,1354,1354,1354,1354,1354,1354,1354,1354,1354,1349,1349,1349,1349,1349,1349,1349,1349,1349,1349,1349,1349,1349,1349,1349,1349,1349,1349,1343,1343,1343,1343,1349,1349,1349,1349,1343,1343,1343,1343,1343,1343,1343,1343,1343,1349,1343,1343,1338,1338,1338,1338,1338,1333,1333,1338,1338,1338,1338,1338,1338,1338,1338,1338,1338,1338,1333,1333,1333,1333,1333,1333,1333,1328,1328,1328,1328,1328,1328,1328,1328,1328,1328,1328,1328,1328,1328,1328,1328,1328,1328,1328,1328,1328,1328,1328,1322,1322,1322,1322,1322,1322,1322,1322,1322,1317,1317,1317,1317,1312,1312,1312,1312,1312,1312,1312,1312,1312,1312,1312,1312,1312,1307,1307,1307,1307,1302,1302,1302,1297,1292,1292,1292,1292,1292,1292,1292,1288,1108,1108,1112,1112,1108,1105,1101,1097,1097,1094,1094,1090,1090,1087,1084,1084,1080,1080,1080,1080,1077,1073,1070,1070,1070,1090,1067,1067,1067,1067,0,1063,1063,1057,1054,1054,1054,1054,1054,1054,1054,894,894,894,894,891,889,889,889,889,889,889,887,887,887,887,887,887,887,887,887,887,889,889,889,889,889,889,889,889,891,891,891,894,894,896,896,896,896,896,946,943,940,938,938,935,935,933,928,925,923,920,918,915,915,0,0,0,0,0,0,0,0,0,0,0,0,0,0,0,0,0,0,0,0,0,0,0,0,0,0,0,0,0,0,0,0,0,0,0,0
0,0,0,896,896,898,901,901,903,903,906,908,910,910,910,910,913,913,915,918,918,918,918,918,920,0,0,0,0,0,1427,1427,1427,1427,1427,1427,1421,1421,1415,1415,1415,1415,1415,1415,1415,1415,1415,1415,1410,1410,0,0,0,0,0,0,741,741,741,741,739,738,734,731,728,727,727,725,723,720,719,710,707,707,706,704,703,701,698,698,697,694,693,693,693,687,637,637,634,634,635,632,631,628,628,627,627,627,627,627,627,627,627,627,627,628,628,629,630,631,634,635,635,636,642,642,643,644,646,647,648,649,652,653,654,655,657,658,659,662,663,666,671,674,674,675,676,676,678,679,680,682,682,684,684,687,690,691,691,691,693,694,697,700,701,703,704,706,707,708,710,711,711,713,713,714,717,720,720,722,723,727,728,728,728,0,0,0,0,0,0,1193,1193,1193,1189,1189,1189,1189,1193,1193,1193,1197,1197,1197,1202,1206,1210,1232,1232,1232,1232,1232,1227,1227,1227,1227,1227,1232,1232,1232,1232,1236,1241,1245,1245,1245,1245,1245,1245,1387,1387,1387,1387,1387,1387,1381,1381,1381,1381,1381,1381,1376,1376,1381,1381,1376,1376,1381,1381,1381,1376,1376,1376,1381,1381,1381,1381,1381,1381,1376,1376,1376,1370,1370,1370,1370,1370,1370,1370,1370,1370,1370,1370,1370,1370,1370,1376,1376,1376,1376,1376,1376,1376,1370,1370,1370,1370,1370,1370,1370,1370,1370,1370,1365,1365,1365,1365,1354,1007,1007,1007,1004,1004,1001,998,998,998,995,995,992,992,992,995,995,995,998,998,1004,1007,1010,1013,1013,1016,1016,1016,1019,1381,1381,1381,1370,1370,1370,1365,1365,1365,1365,1365,1365,1365,1359,1359,1359,1359,1359,1359,1359,1354,1354,1354,1354,1354,1359,1354,1354,1359,1359,1359,1359,1359,1359,1354,1354,1354,1354,1354,1349,1349,1349,1349,1349,1349,1349,1354,1354,1354,1354,1354,1354,1349,1349,1349,1349,1349,1349,1349,1349,1349,1349,1349,1349,1349,1349,1349,1349,1349,1343,1343,1343,1343,1349,1349,1343,1343,1349,1349,1349,1343,1343,1343,1343,1343,1338,1338,1338,1343,1343,1343,1338,1338,1338,1338,1338,1338,1338,1338,1338,1343,1343,1338,1338,1333,1333,1333,1333,1333,1333,1333,1333,1333,1333,1333,1333,1333,1333,1333,1333,1333,1333,1328,1328,1328,1328,1333,1328,1328,1328,1328,1328,1328,1328,1328,1322,1322,1322,1322,1322,1322,1322,1322,1322,1322,1322,1322,1322,1322,1322,1322,1322,1322,1322,1317,1317,1317,1317,1317,1317,1312,1312,1312,1312,1312,1312,1307,1307,1307,1307,1307,1307,1307,1312,1312,1312,1312,1307,1307,1307,1302,1302,1302,1297,1297,1297,1297,1297,1292,1292,1292,1292,1288,1108,1108,1112,1112,1105,1101,1101,1097,1097,1094,1094,1090,1090,1087,1084,1080,1080,1084,1084,1084,1084,1084,1094,1094,1090,1090,1080,1067,1067,1070,1067,1067,1063,1063,1057,1054,1054,1054,1054,1054,896,896,894,894,894,894,891,889,889,889,889,889,889,889,889,889,887,887,889,889,889,889,889,889,889,889,889,891,891,891,891,894,894,894,896,896,896,896,896,896,946,943,940,938,938,935,933,930,928,923,920,920,918,915,915,0,0,0,0,0,0,0,0,0,0,0,0,0,0,0,0,0,0,0,0,0,0,0,0,0,0,0,0,0,0,0,0,0,0,0,0
0,0,898,896,896,898,901,901,903,903,906,908,910,910,913,913,913,915,915,915,915,918,920,923,923,0,0,0,0,0,1421,1421,1421,1421,1421,1421,1415,1415,1415,1415,1415,1415,1415,1415,1415,1415,1410,1410,1410,1410,0,0,0,0,0,0,0,0,741,741,739,738,736,731,730,728,728,727,725,722,720,711,710,708,706,704,703,701,698,698,697,694,691,690,690,687,684,684,676,676,635,632,631,629,628,628,627,627,627,627,627,627,627,627,628,628,629,629,631,631,634,635,636,637,642,643,644,644,647,648,649,650,652,653,654,655,657,658,659,661,663,666,672,674,674,675,676,676,678,679,680,682,682,684,686,687,688,691,691,691,693,694,697,700,701,703,704,706,707,708,710,711,713,713,714,716,717,720,720,722,725,727,728,728,0,0,0,0,0,1185,1185,1189,1193,1193,1189,1189,1189,1189,1193,1193,1193,1193,1197,1197,1202,1376,1376,1232,1232,1232,1232,1232,1232,1227,1227,1227,1227,1232,1232,1232,1232,1241,1241,1245,1245,1245,1245,1245,1245,1381,1381,1381,1381,1381,1381,1381,1381,1376,1376,1376,1376,1376,1376,1376,1376,1370,1370,1376,1370,1370,1370,1370,1370,1370,1376,1376,1376,1376,1370,1370,1370,1370,1370,1370,1370,1370,1370,1370,1370,1370,1370,1370,1365,1365,1365,1365,1370,1370,1370,1370,1370,1370,1370,1365,1365,1365,1365,1365,1365,1365,1365,1365,1365,1359,1359,1354,1354,1354,1354,1013,1007,1007,1007,1001,1001,998,998,998,995,995,995,995,995,995,998,998,998,1004,1007,1010,1013,1013,1016,1016,1016,1013,1013,1381,1381,1365,1359,1359,1359,1359,1359,1359,1359,1359,1359,1354,1354,1354,1354,1354,1354,1354,1349,1349,1349,1349,1349,1349,1343,1343,1354,1354,1354,1354,1354,1354,1354,1354,1349,1349,1349,1349,1343,1343,1343,1343,1349,1349,1349,1349,1349,1349,1349,1349,1349,1349,1349,1343,1343,1343,1343,1343,1343,1343,1343,1343,1343,1343,1343,1343,1343,1343,1338,1338,1343,1343,1343,1343,1343,1343,1343,1343,1338,1338,1338,1333,1333,1333,1338,1338,1338,1338,1338,1333,1333,1333,1338,1333,1333,1333,1333,1333,1333,1333,1333,1333,1333,1333,1328,1328,1328,1328,1328,1328,1328,1328,1333,1333,1333,1333,1333,1333,1328,1328,1328,1328,1328,1328,1328,1328,1328,1328,1328,1328,1328,1322,1322,1322,1317,1317,1317,1312,1312,1317,1317,1317,1322,1322,1322,1322,1317,1317,1317,1317,1317,1317,1317,1312,1312,1312,1312,1312,1312,1312,1312,1312,1312,1307,1307,1307,1307,1307,1307,1307,1307,1307,1307,1307,1307,1307,1307,1302,1302,1302,1302,1297,1297,1292,1292,1297,1292,1292,1292,1288,1112,1112,1112,1112,1108,1105,1101,1101,1097,1097,1094,1094,1090,1090,1090,1084,1080,1080,1084,1084,1087,1087,1090,1094,1094,1090,1087,1080,1073,1067,1067,1063,1063,1063,1063,1063,1057,1057,1057,1057,896,896,896,896,894,894,894,894,891,889,889,889,889,889,889,889,889,889,889,889,889,889,889,889,889,889,891,891,891,891,894,894,894,896,896,896,896,896,896,896,946,946,943,940,938,935,935,933,928,923,920,918,918,915,915,915,0,0,0,0,0,0,0,0,0,0,0,0,0,0,0,0,0,0,0,0,0,0,0,0,0,0,0,0,0,0,0,0,0,0,0,0
0,0,898,898,901,898,898,901,901,903,906,908,910,913,913,913,913,915,915,915,915,920,923,923,923,0,0,0,0,1415,1415,1415,1415,1415,1421,1415,1415,1415,1415,1415,1415,1415,1415,1415,1410,1410,1410,1410,1404,1404,0,0,0,0,0,0,0,0,0,0,0,0,733,731,730,728,727,725,722,720,720,719,713,710,707,707,706,703,701,700,698,694,691,690,690,687,684,684,676,676,676,630,630,629,628,628,628,627,627,627,627,627,627,628,628,628,629,630,631,632,635,636,637,641,643,644,646,646,648,648,650,650,652,653,654,655,657,658,659,661,663,666,674,675,675,675,676,676,678,679,680,682,683,684,686,687,688,691,691,693,694,697,698,700,701,704,704,706,707,708,710,711,713,713,714,716,719,720,720,722,725,727,727,1169,1169,1169,1181,1181,1181,1181,1185,1185,1189,1189,1189,1189,1185,1185,1189,1189,1193,1193,1376,1370,1370,1370,1370,1245,1241,1236,1236,1236,1232,1232,1232,1232,1232,1232,1232,1232,1236,1241,1245,1245,1245,1245,1245,1245,1245,1376,1376,1376,1376,1376,1376,1376,1376,1376,1376,1376,1376,1370,1370,1370,1370,1370,1370,1370,1370,1370,1370,1370,1370,1370,1370,1370,1370,1370,1370,1370,1370,1370,1365,1365,1370,1370,1370,1370,1370,1370,1365,1365,1365,1365,1365,1365,1365,1365,1365,1365,1365,1365,1365,1359,1359,1359,1359,1359,1359,1359,1359,1359,1359,1359,1354,1354,1354,1354,1354,1013,1013,1010,1007,1004,1001,1001,998,998,998,995,995,995,998,998,998,1001,1001,1007,1010,1013,1013,1016,1016,1016,1016,1013,1013,1013,1354,1354,1354,1354,1354,1354,1354,1354,1354,1354,1354,1354,1349,1349,1349,1349,1349,1349,1349,1343,1343,1343,1343,1343,1343,1338,1338,1343,1343,1349,1349,1354,1349,1349,1349,1349,1343,1343,1338,1338,1338,1338,1343,1343,1343,1343,1343,1343,1343,1349,1343,1343,1343,1343,1343,1338,1338,1338,1338,1338,1338,1338,1338,1338,1338,1338,1338,1338,1333,1333,1338,1338,1338,1338,1338,1338,1338,1338,1333,1333,1333,1333,1333,1328,1328,1328,1328,1333,1333,1328,1328,1333,1333,1333,1333,1328,1328,1333,1333,1333,1328,1328,1328,1328,1328,1328,1328,1328,1328,1328,1328,1328,1328,1328,1328,1328,1328,1328,1328,1328,1328,1328,1328,1328,1328,1328,1328,1328,1322,1322,1322,1322,1322,1317,1317,1312,1312,1312,1312,1312,1312,1312,1312,1312,1317,1317,1317,1312,1312,1312,1312,1312,1312,1312,1312,1312,1312,1312,1312,1312,1312,1307,1307,1307,1307,1307,1302,1302,1302,1302,1302,1302,1302,1302,1302,1302,1302,1302,1302,1302,1302,1297,1297,1292,1292,1297,1292,1292,1288,1288,1112,1112,1112,1108,1108,1105,1101,1101,1097,1097,1094,1094,1090,1090,1090,1084,1084,1084,1087,1087,1090,1094,1094,1094,1094,1090,1087,1080,1073,1067,1063,1063,1063,1063,1063,1060,1060,1060,1060,896,896,896,896,894,894,894,894,894,894,894,891,891,891,889,889,889,889,889,889,889,889,889,889,891,891,891,891,891,894,894,894,894,896,896,896,896,896,896,896,896,946,943,940,938,935,935,930,928,925,923,920,918,918,915,913,913,0,0,0,0,0,0,0,0,0,0,0,0,0,0,0,0,0,0,0,0,0,0,0,0,0,0,0,0,0,0,0,0,0,0,0,0
0,0,901,901,901,898,898,898,898,901,906,908,910,913,913,913,913,915,915,918,918,920,923,923,923,0,0,0,0,1410,1410,1410,1410,1410,1415,1415,1415,1410,1410,1410,1410,1410,1410,1410,1410,1404,1404,1404,1398,1398,1398,0,0,0,0,0,0,0,0,0,0,0,733,731,730,728,727,725,722,719,719,716,714,711,708,708,707,704,703,701,696,694,691,690,690,687,686,684,678,678,682,630,630,629,628,628,628,628,627,627,628,628,628,628,628,629,630,631,632,634,636,637,640,642,644,644,646,647,648,649,650,650,653,653,654,655,657,658,659,661,663,666,674,675,675,676,676,676,678,679,682,682,683,684,686,687,688,691,693,693,694,697,698,700,701,704,704,706,706,708,710,711,713,714,716,717,719,720,720,722,722,1169,1169,1169,1169,1169,1177,1177,1177,1177,1181,1181,1185,1185,1185,1185,1185,1185,1185,1189,1193,1370,1370,1370,1370,1370,1370,1245,1245,1241,1241,1236,1232,1232,1232,1232,1232,1232,1232,1232,1236,1241,1245,1245,1245,1250,1250,1250,1250,1250,1370,1370,1370,1370,1370,1370,1370,1370,1376,1370,1370,1370,1370,1370,1370,1370,1370,1370,1365,1365,1365,1365,1365,1365,1370,1370,1365,1365,1365,1365,1365,1365,1365,1365,1365,1365,1365,1365,1365,1365,1365,1365,1365,1365,1359,1359,1359,1359,1359,1359,1354,1354,1359,1354,1354,1354,1354,1354,1354,1354,1354,1354,1354,1354,1354,1349,1349,1354,1354,1013,1013,1010,1010,1007,1004,1001,1001,998,998,998,998,998,998,998,998,1001,1001,1007,1010,1013,1013,1016,1016,1019,1019,1013,1013,1013,1349,1349,1349,1349,1349,1349,1349,1349,1349,1349,1349,1349,1349,1343,1343,1343,1343,1343,1343,1343,1343,1343,1343,1338,1338,1338,1338,1338,1338,1338,1338,1338,1349,1343,1343,1343,1338,1338,1338,1338,1338,1338,1338,1338,1338,1343,1343,1343,1343,1343,1343,1343,1338,1338,1338,1333,1333,1333,1333,1333,1333,1333,1333,1333,1333,1333,1333,1333,1333,1333,1333,1333,1333,1333,1333,1333,1333,1333,1333,1333,1333,1333,1328,1328,1328,1322,1322,1322,1322,1322,1328,1328,1328,1328,1328,1328,1328,1328,1328,1328,1328,1328,1328,1328,1328,1322,1322,1322,1322,1322,1322,1328,1322,1322,1322,1322,1322,1322,1322,1322,1322,1322,1322,1322,1322,1322,1322,1322,1317,1317,1317,1317,1312,1312,1312,1312,1312,1307,1307,1307,1307,1307,1307,1307,1312,1312,1312,1312,1312,1312,1312,1312,1312,1312,1307,1307,1307,1307,1307,1307,1307,1307,1307,1302,1302,1302,1302,1302,1302,1302,1302,1302,1302,1302,1297,1297,1297,1292,1292,1292,1292,1292,1292,1292,1292,1292,1292,1292,1288,1288,1112,1112,1112,1108,1108,1105,1105,1101,1097,1097,1094,1094,1090,1090,1087,1084,1084,1084,1087,1087,1090,1094,1094,1094,1094,1090,1084,1077,1070,1063,1063,1063,1063,1063,1060,1057,1057,1060,1060,896,896,896,896,894,894,894,894,894,894,894,891,891,891,891,889,889,889,889,889,889,889,889,889,891,891,891,891,894,894,894,896,896,896,896,898,898,898,896,896,946,943,943,940,938,933,933,928,928,925,920,920,918,918,915,913,913,0,0,0,0,0,0,0,0,0,0,0,0,0,0,0,0,0,0,0,0,0,0,0,0,0,0,0,0,0,0,0,0,0,0,0,0
0,0,901,901,901,898,898,898,898,901,906,908,910,913,913,913,913,915,915,918,918,918,920,920,920,0,0,0,0,1404,1404,1404,1410,1410,1410,1410,1410,1410,1410,1410,1410,1404,1404,1404,1404,1398,1398,1398,1398,1392,1392,1387,1387,0,0,0,0,0,0,0,0,0,0,0,0,0,0,0,722,719,719,716,714,713,711,710,708,707,707,703,696,694,693,691,690,688,687,686,684,682,682,682,682,628,628,628,628,628,628,628,628,628,628,628,629,630,631,632,634,635,636,638,640,643,644,646,646,647,648,649,650,652,653,654,654,655,657,658,659,661,663,666,674,675,675,676,676,678,679,680,682,683,684,686,686,687,688,691,693,694,697,698,700,701,703,704,704,706,706,708,711,711,713,714,716,717,720,720,720,722,722,1169,1169,1169,1169,1169,1169,1173,1173,1177,1181,1181,1185,1185,1185,1185,1185,1185,1185,1189,1370,1370,1370,1370,1365,1365,1365,1245,1245,1245,1241,1241,1236,1232,1232,1232,1232,1232,1232,1232,1236,1241,1245,1245,1250,1250,1250,1250,1250,1250,1370,1370,1370,1365,1365,1365,1365,1365,1370,1370,1370,1370,1370,1370,1370,1365,1365,1365,1365,1365,1365,1365,1365,1365,1365,1365,1365,1365,1365,1365,1365,1365,1359,1359,1359,1359,1365,1365,1365,1365,1365,1359,1359,1359,1354,1354,1354,1354,1354,1354,1349,1349,1354,1354,1349,1349,1349,1349,1349,1349,1349,1349,1349,1349,1349,1349,1349,1354,1354,1013,1013,1010,1010,1007,1007,1004,1001,1001,998,998,998,998,998,998,998,1001,1001,1007,1010,1013,1016,1016,1019,1019,1022,1022,1022,1333,1333,1333,1338,1343,1343,1343,1343,1338,1338,1338,1338,1338,1338,1338,1338,1343,1338,1338,1343,1338,1338,1343,1338,1338,1338,1333,1333,1333,1333,1333,1333,1338,1338,1338,1338,1338,1338,1338,1338,1333,1333,1333,1333,1333,1333,1338,1338,1338,1338,1338,1333,1333,1333,1333,1333,1328,1328,1328,1328,1328,1328,1328,1328,1328,1333,1333,1333,1328,1328,1328,1328,1328,1328,1328,1328,1328,1328,1328,1328,1328,1328,1328,1328,1322,1322,1322,1317,1317,1317,1317,1317,1317,1317,1322,1322,1322,1322,1322,1322,1322,1322,1322,1322,1322,1322,1322,1317,1317,1317,1317,1317,1317,1317,1317,1317,1317,1317,1317,1317,1317,1312,1312,1317,1317,1317,1317,1317,1312,1312,1312,1312,1312,1312,1312,1307,1307,1307,1307,1307,1307,1307,1307,1302,1302,1307,1307,1307,1307,1307,1307,1312,1307,1307,1307,1307,1307,1302,1302,1302,1302,1302,1302,1302,1302,1302,1302,1302,1297,1297,1297,1297,1297,1292,1292,1292,1292,1292,1292,1292,1292,1292,1292,1292,1292,1292,1292,1292,1292,1288,1288,1112,1112,1112,1108,1108,1105,1105,1101,1097,1094,1094,1090,1090,1087,1087,1084,1084,1084,1087,1087,1090,1094,1094,1090,1090,1087,1084,1077,1070,1063,1063,1063,1063,1063,1060,1057,1057,1060,896,896,896,896,896,894,894,894,894,894,894,894,894,894,894,894,891,889,889,889,889,889,889,891,891,894,894,894,894,894,896,896,896,896,898,898,898,898,898,896,896,946,943,940,938,935,930,928,925,923,920,918,918,915,913,913,913,913,0,0,0,0,0,0,0,0,0,0,0,0,0,0,0,0,0,0,0,0,0,0,0,0,0,0,0,0,0,0,0,0,0,0,0,0
0,0,901,901,901,901,898,898,901,903,910,910,910,913,913,913,913,913,915,918,918,918,920,920,920,0,0,0,1398,1398,1398,1398,1404,1404,1404,1404,1404,1404,1404,1404,1404,1404,1404,1398,1398,1398,1392,1392,1392,1392,1392,1387,1387,0,0,0,0,0,0,0,0,0,0,0,0,0,0,0,0,719,717,716,716,714,713,711,708,707,707,706,698,696,694,691,690,688,687,686,684,682,682,682,682,628,628,628,628,628,628,628,628,628,628,629,630,631,634,635,636,637,638,640,641,643,644,646,647,648,649,649,650,652,653,654,654,655,657,659,659,661,663,666,674,675,675,676,676,678,679,680,682,683,684,686,686,687,688,693,693,694,697,698,700,701,701,704,704,704,704,707,711,711,714,714,716,0,0,716,0,0,0,1165,1165,1169,1169,1169,1169,1169,1173,1177,1181,1181,1185,1189,1189,1185,1185,1185,1370,1370,1370,1365,1365,1365,1365,1365,1365,1365,1245,1245,1241,1241,1236,1232,1232,1232,1232,1232,1232,1232,1236,1241,1245,1245,1250,1250,1250,1250,1250,1250,1370,1365,1365,1365,1365,1359,1359,1365,1365,1365,1365,1365,1365,1365,1365,1365,1365,1365,1365,1365,1365,1365,1359,1359,1359,1365,1365,1359,1359,1359,1359,1359,1359,1359,1359,1359,1359,1359,1365,1365,1359,1354,1354,1354,1349,1349,1349,1349,1349,1349,1349,1349,1349,1349,1349,1349,1349,1349,1349,1349,1349,1349,1349,1349,1349,1349,1349,1349,1013,1013,1013,1013,1010,1010,1010,1007,1001,1001,1001,998,998,998,998,998,998,1001,1001,1007,1010,1013,1016,1019,1019,1019,1022,1022,1022,1333,1333,1333,1338,1338,1338,1338,1338,1338,1333,1333,1333,1333,1333,1333,1333,1338,1338,1338,1338,1338,1338,1338,1338,1333,1333,1333,1333,1333,1333,1333,1333,1333,1333,1333,1333,1333,1333,1333,1333,1333,1333,1333,1333,1333,1333,1333,1333,1333,1333,1333,1333,1333,1328,1328,1328,1328,1328,1328,1328,1328,1328,1328,1328,1328,1328,1328,1328,1328,1328,1328,1328,1328,1328,1328,1322,1322,1322,1322,1322,1322,1322,1322,1322,1317,1317,1317,1317,1317,1312,1312,1312,1312,1312,1312,1312,1312,1312,1317,1317,1317,1317,1317,1317,1317,1317,1317,1317,1317,1312,1312,1312,1312,1312,1312,1312,1312,1312,1312,1312,1312,1312,1312,1312,1307,1307,1307,1307,1307,1307,1307,1307,1307,1307,1307,1307,1307,1307,1302,1302,1302,1297,1297,1297,1297,1297,1297,1297,1297,1297,1297,1297,1297,1297,1302,1302,1307,1302,1297,1297,1297,1297,1297,1297,1297,1297,1297,1297,1292,1292,1292,1292,1292,1292,1292,1288,1288,1292,1288,1288,1292,1292,1288,1288,1292,1292,1292,1292,1292,1288,1288,1112,1112,1112,1108,1108,1108,1105,1105,1097,1094,1094,1090,1090,1087,1087,1084,1084,1087,1087,1087,1090,1090,1090,1090,1090,1084,1080,1077,1070,1063,1063,1060,1060,1060,1057,1057,1057,896,896,896,896,896,896,894,894,894,894,894,894,894,894,894,894,894,894,894,894,891,891,891,891,891,894,894,894,894,894,896,896,896,898,898,898,898,898,898,898,898,898,946,943,935,935,935,928,925,923,918,913,913,913,913,898,891,889,889,0,0,0,0,0,0,0,0,0,0,0,0,0,0,0,0,0,0,0,0,0,0,0,0,0,0,0,0,0,0,0,0,0,0,0,0
0,0,901,901,901,901,901,901,903,906,910,910,910,913,913,913,913,913,915,918,918,920,918,918,920,920,0,0,1387,1387,1387,1392,1398,1404,1404,1404,1404,1398,1398,1398,1398,1398,1398,1398,1398,1392,1392,1392,1392,1392,1392,1387,1387,1392,1381,1381,1392,1392,1398,0,0,0,0,0,0,0,0,0,0,0,717,717,716,714,713,711,710,708,708,707,700,697,694,693,691,690,687,686,683,682,682,682,680,680,630,630,629,629,628,628,628,627,627,629,630,632,635,637,638,640,640,641,643,644,646,647,648,648,649,650,652,652,653,654,655,657,658,659,659,661,664,666,674,675,675,676,678,679,680,682,682,683,684,686,686,687,688,696,696,697,698,698,700,701,701,704,704,704,704,707,711,711,713,714,0,714,0,0,0,0,0,1165,1165,1165,1169,1169,1169,1108,1108,1177,1181,1365,1365,1365,1365,1365,1365,1365,1365,1370,1370,1365,1365,1365,1365,1365,1365,1365,1245,1245,1245,1241,1236,1232,1232,1232,1232,1232,1232,1232,1236,1241,1245,1245,1250,1250,1250,1250,1245,1245,1365,1365,1365,1365,1359,1359,1359,1359,1359,1359,1359,1359,1359,1359,1359,1359,1359,1359,1359,1359,1359,1359,1359,1359,1359,1359,1359,1354,1354,1354,1354,1354,1354,1354,1354,1354,1354,1354,1359,1354,1354,1349,1349,1354,1349,1349,1343,1343,1343,1343,1343,1343,1343,1343,1343,1343,1343,1343,1343,1343,1343,1343,1343,1343,1343,1343,1343,1343,1013,1013,1013,1013,1013,1010,1010,1007,1004,1001,1001,998,998,998,998,998,998,1001,1001,1007,1010,1013,1016,1019,1019,1022,1022,1022,1333,1333,1333,1333,1333,1333,1333,1333,1333,1333,1333,1333,1333,1333,1333,1333,1333,1333,1333,1333,1333,1333,1333,1333,1333,1333,1328,1328,1328,1328,1328,1328,1328,1328,1333,1328,1328,1328,1328,1328,1328,1322,1322,1328,1328,1328,1328,1328,1328,1328,1328,1328,1322,1322,1322,1322,1328,1322,1322,1322,1322,1322,1322,1322,1322,1322,1322,1322,1322,1322,1322,1322,1322,1322,1322,1322,1322,1322,1317,1317,1322,1322,1317,1317,1317,1317,1317,1312,1312,1312,1312,1312,1312,1312,1312,1312,1312,1312,1312,1312,1312,1317,1312,1312,1312,1312,1312,1312,1312,1312,1312,1312,1307,1307,1312,1307,1307,1307,1307,1307,1307,1307,1307,1307,1307,1307,1307,1307,1302,1302,1302,1302,1302,1302,1307,1302,1302,1302,1302,1302,1297,1297,1297,1292,1292,1292,1292,1292,1292,1292,1297,1297,1297,1292,1292,1292,1292,1292,1292,1292,1292,1292,1292,1292,1292,1292,1292,1292,1292,1292,1288,1288,1288,1288,1288,1288,1288,1288,1288,1288,1288,1288,1288,1288,1288,1292,1292,1292,1292,1288,1288,1288,1115,1115,1115,1112,1108,1108,1105,1105,1101,1097,1094,1090,1090,1090,1087,1087,1087,1087,1087,1090,1090,1090,1087,1087,1087,1084,1077,1077,1070,1060,1057,1057,1057,1057,1054,1054,1057,896,896,896,896,896,896,896,894,894,894,896,896,894,894,894,896,896,894,894,894,894,894,891,891,894,894,896,896,896,896,896,898,898,898,898,901,901,901,901,901,898,898,943,938,933,928,925,923,923,915,908,908,908,908,901,894,889,887,887,0,0,0,0,0,0,0,0,0,0,0,0,0,0,0,0,0,0,0,0,0,0,0,0,0,0,0,0,0,0,0,0,0,0,0,0
0,0,901,901,901,901,901,901,903,906,910,910,910,913,913,913,913,913,915,918,918,920,918,918,920,0,0,0,0,1387,1387,1392,1392,1398,1398,1398,1398,1392,1392,1392,1392,1392,1392,1392,1392,1392,1387,1387,1387,1387,1387,1387,1387,1387,1381,1381,1392,1392,1392,1392,0,0,0,0,0,0,0,0,0,0,717,717,716,714,713,711,710,710,710,708,703,698,694,693,691,690,687,686,683,682,682,682,680,680,680,629,629,629,628,628,628,627,627,630,630,636,638,638,640,640,641,642,643,644,646,647,648,649,649,650,652,652,654,655,655,657,658,659,659,661,664,666,674,675,676,676,678,679,680,682,683,683,684,686,687,688,691,694,696,697,698,700,700,701,701,704,704,704,704,707,708,711,713,714,0,0,0,0,0,0,0,1165,1165,1165,1169,1169,1169,1108,1108,1359,1359,1365,1365,1359,1359,1365,1365,1365,1365,1365,1365,1365,1365,1365,1359,1359,1359,1359,1359,1245,1245,1245,1236,1236,1236,1232,1232,1232,1232,1232,1236,1241,1245,1245,1250,1250,1250,1250,1245,1245,1365,1365,1365,1359,1354,1354,1354,1354,1354,1354,1354,1354,1354,1359,1359,1359,1354,1354,1359,1359,1354,1354,1354,1354,1354,1354,1354,1349,1349,1349,1349,1349,1349,1349,1349,1349,1349,1354,1354,1349,1349,1349,1349,1349,1343,1343,1343,1343,1343,1343,1343,1338,1338,1343,1343,1343,1343,1343,1343,1343,1343,1343,1338,1338,1338,1338,1338,1338,1338,1013,1013,1013,1013,1010,1010,1007,1004,1001,1001,1001,1001,998,998,998,1001,1001,1001,1007,1010,1013,1016,1019,1019,1022,1022,1022,1333,1333,1333,1333,1333,1333,1333,1333,1333,1328,1328,1328,1328,1328,1333,1328,1328,1333,1333,1333,1333,1328,1328,1328,1328,1328,1328,1328,1328,1328,1328,1328,1328,1328,1328,1328,1328,1328,1322,1322,1322,1322,1322,1322,1322,1322,1328,1328,1328,1328,1322,1322,1317,1317,1322,1322,1322,1317,1317,1317,1322,1317,1317,1317,1317,1317,1317,1317,1317,1317,1317,1317,1317,1317,1317,1317,1317,1317,1317,1317,1317,1317,1317,1317,1317,1312,1312,1312,1312,1312,1312,1312,1312,1307,1307,1307,1307,1307,1307,1307,1307,1312,1307,1307,1312,1312,1307,1307,1307,1307,1307,1307,1307,1307,1307,1307,1302,1302,1307,1307,1307,1307,1302,1302,1307,1302,1302,1297,1297,1297,1297,1297,1297,1297,1297,1302,1302,1297,1297,1297,1297,1297,1292,1292,1292,1292,1292,1292,1292,1292,1292,1292,1292,1292,1288,1288,1288,1288,1283,1283,1288,1292,1292,1292,1288,1288,1288,1288,1288,1288,1288,1288,1288,1288,1288,1283,1283,1288,1283,1283,1288,1288,1288,1288,1288,1292,1288,1288,1288,1288,1288,1288,1115,1115,1115,1112,1112,1108,1105,1105,1097,1094,1094,1090,1090,1090,1087,1087,1087,1087,1087,1090,1090,1090,1087,1087,1087,1080,1073,1070,1057,1057,1054,1054,1054,1050,1050,1050,896,896,896,896,896,896,896,896,894,894,894,896,896,894,894,896,896,896,896,894,894,894,894,894,894,894,896,896,896,896,896,898,898,898,901,901,901,903,901,901,901,901,918,920,920,920,920,918,915,910,910,908,906,903,901,898,891,887,885,885,0,0,0,0,0,0,0,0,0,0,0,0,0,0,0,0,0,0,0,0,0,0,0,0,0,0,0,0,0,0,0,0,0,0,0,0
0,0,901,901,903,903,898,898,903,906,913,913,913,913,913,913,913,915,915,918,918,920,920,920,923,925,0,0,0,1392,1387,1387,1387,1392,1392,1392,1392,1392,1392,1392,1392,1392,1387,1387,1387,1387,1387,1387,1387,1387,1387,1381,1381,1387,1387,1381,1381,1381,1387,1392,1392,0,0,0,0,0,0,0,0,0,717,717,716,714,713,711,710,710,708,708,707,706,698,694,691,691,688,686,683,682,682,682,680,680,680,680,629,629,629,693,693,693,641,641,638,638,640,640,640,641,641,642,643,644,646,647,648,649,649,650,652,652,654,655,655,657,659,659,659,661,664,666,671,675,676,678,679,680,680,682,683,683,686,687,687,688,691,694,694,696,698,700,700,701,704,704,704,704,704,707,708,708,714,714,0,0,0,0,0,1161,1161,1161,1161,1359,1359,1359,1359,1359,1354,1354,1354,1359,1359,1359,1359,1359,1359,1359,1359,1359,1359,1354,1354,1359,1354,1354,1354,1354,1354,1245,1245,1241,1241,1236,1236,1236,1232,1232,1236,1236,1236,1241,1245,1250,1250,1250,1250,1250,1250,1250,1359,1359,1354,1354,1354,1354,1349,1349,1349,1349,1349,1349,1349,1349,1349,1354,1349,1349,1349,1349,1349,1349,1349,1349,1349,1349,1349,1349,1343,1343,1343,1343,1343,1343,1343,1349,1349,1349,1349,1349,1343,1343,1343,1343,1338,1338,1338,1338,1338,1338,1338,1333,1333,1338,1338,1338,1338,1338,1338,1338,1338,1338,1333,1333,1333,1333,1333,1333,1333,1013,1013,1013,1013,1013,1010,1010,1004,1004,1001,1001,1001,998,998,998,1001,1001,1001,1007,1013,1016,1019,1022,1022,1025,1025,1025,1328,1328,1328,1328,1328,1328,1328,1328,1328,1328,1322,1322,1328,1328,1328,1328,1328,1328,1328,1328,1328,1328,1328,1322,1322,1322,1322,1322,1322,1322,1322,1322,1322,1322,1322,1322,1322,1322,1317,1317,1317,1317,1317,1317,1317,1317,1317,1317,1317,1322,1317,1317,1312,1312,1317,1317,1317,1317,1317,1317,1317,1317,1317,1317,1317,1317,1317,1317,1317,1317,1317,1317,1312,1312,1312,1312,1312,1312,1312,1312,1312,1312,1312,1312,1312,1312,1312,1312,1312,1307,1307,1307,1307,1307,1302,1302,1307,1307,1307,1307,1307,1307,1307,1307,1307,1307,1307,1307,1307,1307,1302,1302,1302,1302,1302,1302,1302,1302,1302,1302,1302,1302,1297,1297,1297,1297,1297,1297,1297,1292,1292,1297,1297,1297,1297,1297,1297,1297,1297,1292,1292,1292,1292,1288,1288,1288,1288,1288,1288,1288,1292,1292,1288,1288,1288,1288,1288,1288,1283,1283,1288,1288,1288,1288,1288,1288,1288,1288,1288,1288,1288,1288,1283,1283,1278,1278,1283,1283,1283,1283,1283,1288,1292,1288,1288,1292,1288,1288,1288,1288,1288,1288,1288,1115,1115,1112,1112,1108,1105,1101,1097,1094,1090,1090,1090,1090,1090,1090,1087,1087,1090,1090,1090,1087,1087,1084,1084,1077,1073,1067,1057,1054,1054,1050,1050,1047,901,896,896,896,896,896,896,896,896,896,894,894,896,896,896,894,894,896,896,896,896,896,894,894,896,896,896,896,896,896,896,896,896,898,898,901,901,901,903,906,906,906,908,918,918,918,918,918,915,913,910,908,908,903,903,901,898,896,891,887,885,885,0,0,0,0,0,0,0,0,0,0,0,0,0,0,0,0,0,0,0,0,0,0,0,0,0,0,0,0,0,0,0,0,0,0,0,0
0,0,901,901,903,903,898,898,903,906,913,913,913,913,915,915,915,915,915,918,920,920,920,920,923,925,930,0,0,0,1387,1381,1381,1387,1387,1387,1387,1387,1387,1387,1387,1387,1387,1387,1387,1381,1381,1381,1381,1387,1387,1381,1381,1381,1381,1376,1376,1376,1381,1387,1392,0,0,0,0,0,0,0,0,0,0,0,0,714,713,711,710,710,708,708,707,706,703,697,696,694,693,686,683,683,682,682,680,680,680,680,680,655,655,649,649,647,646,641,640,640,640,641,641,641,641,643,643,644,646,647,648,649,649,650,652,653,655,655,657,658,659,659,661,662,664,666,670,675,676,678,679,680,680,682,683,684,686,687,688,690,691,694,694,696,697,700,700,701,704,704,704,704,704,707,707,708,708,0,0,0,0,0,0,1157,1157,1161,1161,1354,1354,1354,1354,1354,1354,1354,1354,1359,1359,1354,1354,1354,1354,1354,1354,1354,1354,1354,1354,1354,1354,1354,1354,1354,1354,1245,1245,1241,1241,1236,1236,1236,1236,1236,1236,1236,1236,1241,1245,1250,1250,1255,1255,1255,1250,1250,1349,1349,1349,1349,1349,1349,1349,1349,1349,1343,1343,1343,1343,1343,1343,1343,1343,1343,1343,1343,1343,1338,1338,1338,1343,1343,1343,1343,1343,1343,1343,1338,1338,1338,1338,1338,1338,1343,1343,1343,1338,1338,1338,1338,1333,1333,1333,1333,1333,1328,1328,1333,1333,1333,1333,1333,1338,1338,1333,1333,1333,1333,1328,1328,1328,1328,1328,1328,1328,1328,1013,1013,1013,1013,1013,1010,1007,1004,1001,1001,1001,998,998,998,1001,1001,1001,1007,1013,1016,1019,1022,1022,1025,1025,1025,1328,1328,1328,1328,1328,1328,1328,1322,1322,1322,1317,1317,1322,1322,1317,1317,1317,1317,1322,1322,1317,1317,1317,1317,1317,1317,1317,1317,1317,1317,1317,1317,1317,1317,1317,1317,1317,1312,1312,1312,1312,1312,1312,1312,1312,1312,1312,1317,1317,1317,1312,1312,1312,1312,1312,1312,1312,1312,1312,1312,1312,1312,1312,1312,1312,1312,1312,1312,1312,1312,1312,1312,1312,1312,1307,1307,1307,1307,1307,1307,1307,1312,1312,1312,1312,1312,1307,1307,1307,1307,1307,1307,1302,1302,1297,1297,1297,1297,1297,1297,1297,1302,1302,1302,1302,1302,1297,1297,1297,1297,1302,1297,1297,1297,1297,1297,1297,1297,1297,1297,1297,1297,1297,1297,1297,1292,1292,1292,1292,1292,1292,1292,1292,1292,1292,1292,1292,1292,1292,1292,1292,1288,1288,1288,1283,1283,1283,1283,1283,1283,1283,1288,1288,1288,1288,1288,1278,1273,1273,1278,1278,1278,1278,1283,1283,1283,1283,1283,1283,1283,1283,1283,1283,1283,1278,1278,1278,1278,1283,1283,1283,1288,1288,1288,1278,1278,1288,1288,1288,1288,1288,1288,0,1119,1115,1112,1112,1108,1105,1101,1097,1094,1090,1090,1090,1090,1090,1090,1090,1090,1094,1090,1090,1087,1084,1084,1080,1077,1070,1067,1054,1050,1050,1050,1050,901,898,896,896,896,896,896,896,896,896,896,894,894,896,896,896,894,894,896,896,896,896,896,896,896,896,896,896,896,896,896,898,898,898,901,901,903,903,906,908,908,910,910,918,920,918,918,915,915,913,910,908,908,903,901,901,898,896,891,891,887,885,885,0,0,0,0,0,0,0,0,0,0,0,0,0,0,0,0,0,0,0,0,0,0,0,0,0,0,0,0,0,0,0,0,0,0,0,0
0,0,0,903,903,903,898,898,906,908,913,913,913,913,915,915,915,918,918,918,920,920,920,920,923,925,928,0,0,0,1365,1365,1365,1365,1370,1381,1381,1381,1381,1381,1387,1387,1381,1381,1381,1381,1381,1381,1381,1381,1381,1381,1381,1381,1381,1376,1376,1376,1376,1376,1365,1365,0,0,0,0,0,0,0,0,0,0,0,716,713,711,710,710,708,708,707,706,703,700,698,697,693,691,684,683,682,682,680,680,680,680,690,655,655,655,649,647,646,643,642,642,642,641,641,642,642,643,644,646,646,647,648,649,650,652,653,654,655,657,657,658,659,659,661,662,664,666,670,675,676,678,679,680,682,683,683,686,687,688,688,691,693,694,694,696,697,698,698,701,704,704,704,704,706,707,707,707,707,708,0,0,0,0,0,1157,1157,1161,1349,1349,1349,1349,1349,1349,1349,1349,1349,1349,1349,1354,1349,1349,1349,1349,1349,1349,1349,1349,1349,1349,1349,1349,1349,1349,1349,1354,1245,1245,1241,1241,1241,1236,1236,1236,1236,1236,1241,1245,1245,1250,1255,1255,1255,1255,1255,1349,1349,1343,1343,1343,1343,1343,1343,1343,1343,1343,1343,1338,1338,1338,1338,1338,1338,1343,1343,1338,1338,1338,1338,1338,1338,1338,1338,1338,1338,1343,1338,1338,1333,1333,1333,1333,1333,1333,1338,1338,1338,1333,1333,1333,1333,1328,1328,1328,1328,1328,1328,1328,1328,1328,1328,1328,1328,1333,1328,1328,1328,1328,1322,1322,1322,1322,1322,1322,1322,1328,1016,1016,1016,1013,1013,1010,1010,1007,1004,1001,1001,998,998,998,1001,1001,1001,1007,1013,1016,1019,1022,1022,1025,1025,1025,1328,1328,1322,1322,1322,1322,1322,1317,1317,1317,1317,1317,1317,1317,1317,1317,1317,1317,1317,1317,1317,1312,1312,1312,1312,1312,1312,1317,1317,1317,1317,1317,1317,1317,1312,1312,1312,1312,1312,1312,1312,1312,1312,1312,1312,1312,1312,1312,1312,1312,1312,1312,1312,1312,1307,1307,1312,1312,1312,1312,1312,1312,1312,1312,1312,1312,1312,1312,1312,1312,1312,1307,1307,1307,1307,1307,1307,1307,1307,1307,1307,1307,1307,1307,1307,1307,1307,1307,1307,1302,1302,1302,1302,1297,1292,1292,1297,1292,1292,1292,1292,1297,1297,1297,1297,1297,1297,1297,1297,1297,1292,1292,1292,1297,1297,1297,1297,1297,1297,1292,1292,1292,1292,1292,1292,1292,1292,1288,1288,1288,1288,1288,1288,1288,1288,1292,1292,1292,1292,1292,1292,1288,1288,1288,1283,1283,1283,1278,1278,1278,1278,1278,1278,1278,1278,1273,1273,1273,1273,1273,1273,1278,1278,1278,1278,1278,1278,1278,1278,1278,1273,1273,1278,1278,1273,1273,1273,1278,1278,1278,1283,1288,1288,1181,1181,1278,1278,1278,0,1173,1119,0,0,1119,1119,1115,1112,1105,1101,1097,1094,1094,1090,1090,1090,1090,1090,1090,1094,1094,1094,1090,1087,1084,1080,1080,1077,1073,1067,1063,1054,1050,1050,1050,1050,898,898,896,896,896,896,896,896,896,896,896,896,896,896,896,896,896,896,896,896,896,896,896,896,896,896,896,896,896,898,898,898,898,898,901,903,906,906,908,908,910,913,918,920,918,918,915,915,913,910,908,908,903,901,901,898,898,894,891,889,887,885,885,0,0,0,0,0,0,0,0,0,0,0,0,0,0,0,0,0,0,0,0,0,0,0,0,0,0,0,0,0,0,0,0,0,0,0,0
0,0,0,0,903,903,903,903,903,906,913,913,913,913,915,915,915,918,918,920,920,920,920,923,923,925,925,925,0,0,1365,1365,1365,1365,1365,1370,1370,1370,1370,1376,1381,1381,1376,1376,1376,1376,1376,1376,1370,1370,1376,1370,1370,1376,1376,1370,1370,1370,1370,1365,1359,1354,1354,0,0,0,0,0,0,0,0,0,0,0,0,711,710,710,708,708,707,706,704,703,701,700,694,693,686,684,683,682,682,680,680,686,690,701,655,654,649,647,646,644,643,643,643,643,643,643,644,644,644,646,646,648,648,649,650,652,653,654,657,657,658,658,659,661,661,663,666,667,668,674,678,679,679,680,682,683,684,686,687,690,690,691,693,694,696,696,697,698,698,701,704,704,704,704,707,707,707,707,707,707,0,0,0,0,0,1149,1338,1338,1343,1343,1343,1343,1343,1349,1349,1349,1349,1343,1343,1343,1343,1343,1349,1349,1349,1349,1349,1349,1349,1349,1349,1343,1343,1349,1349,1349,1250,1245,1245,1245,1241,1241,1241,1241,1241,1241,1245,1245,1250,1250,1250,1255,1259,1259,1259,1259,1343,1343,1338,1338,1338,1338,1338,1338,1343,1338,1338,1338,1338,1338,1338,1333,1333,1333,1333,1333,1333,1333,1333,1333,1333,1333,1333,1333,1333,1333,1333,1333,1333,1333,1333,1328,1328,1328,1333,1333,1333,1333,1328,1328,1328,1328,1328,1322,1322,1322,1322,1322,1322,1322,1322,1322,1328,1328,1328,1322,1322,1322,1322,1322,1322,1322,1322,1322,1322,1322,1016,1016,1016,1013,1013,1013,1010,1007,1007,1004,1001,1001,1001,1001,1001,1001,1001,1007,1013,1016,1019,1022,1025,1025,1025,1025,1322,1322,1322,1322,1317,1317,1317,1317,1312,1312,1312,1312,1312,1312,1312,1312,1312,1312,1312,1312,1312,1312,1312,1312,1312,1312,1312,1312,1312,1312,1312,1312,1312,1312,1312,1312,1312,1312,1307,1307,1307,1307,1307,1307,1307,1307,1307,1307,1312,1312,1307,1307,1307,1307,1307,1307,1302,1302,1302,1307,1307,1307,1307,1307,1307,1307,1307,1307,1307,1307,1307,1302,1302,1302,1302,1302,1302,1302,1302,1302,1302,1302,1302,1302,1302,1307,1302,1302,1302,1297,1297,1297,1292,1292,1292,1292,1292,1292,1292,1292,1292,1292,1292,1292,1292,1292,1292,1292,1292,1292,1292,1292,1292,1292,1292,1292,1292,1292,1292,1292,1292,1292,1292,1288,1288,1288,1288,1288,1288,1283,1283,1283,1283,1283,1288,1288,1288,1283,1283,1283,1283,1283,1283,1278,1278,1278,1278,1278,1278,1278,1278,1278,1273,1273,1273,1273,1273,1273,1273,1273,1273,1273,1273,1273,1278,1273,1273,1273,1273,1273,1273,1273,1273,1273,1273,1273,1273,1273,1278,1278,1283,1283,1181,1181,1181,1181,1181,0,0,0,0,0,0,1123,1119,1115,1112,1101,1097,1094,1094,1094,1090,1090,1090,1090,1090,1090,1094,1094,1090,1087,1084,1080,1077,1077,1073,1067,1060,1054,1054,1050,1047,1047,1047,898,898,896,896,896,896,896,896,896,896,896,896,896,896,896,896,896,896,896,896,896,896,896,896,896,896,896,896,896,898,898,898,898,898,901,903,906,908,915,915,915,918,920,918,918,915,915,913,913,910,908,906,903,901,898,898,896,894,891,889,887,885,885,0,0,0,0,0,0,0,0,0,0,0,0,0,0,0,0,0,0,0,0,0,0,0,0,0,0,0,0,0,0,0,0,0,0,0,0
0,0,0,0,903,903,903,901,901,906,910,913,913,913,913,915,915,918,918,920,920,923,923,923,925,925,925,925,0,0,1359,1359,1359,1359,1365,1365,1365,1370,1370,1370,1370,1370,1370,1370,1370,1370,1370,1370,1365,1365,1370,1370,1370,1365,1365,1370,1370,1370,1365,1365,1359,1354,1354,1354,0,0,0,0,0,0,0,0,0,0,0,0,710,710,708,708,707,706,704,703,703,701,696,694,690,686,683,683,682,682,683,684,687,701,659,654,649,647,647,646,644,643,643,643,643,643,644,644,646,646,647,648,649,649,650,652,653,654,657,658,658,659,659,661,662,664,666,667,667,674,678,679,679,680,682,683,684,686,687,690,690,691,693,693,696,696,697,698,698,701,704,704,704,704,707,707,707,707,707,707,0,1149,1149,1149,1149,1149,1338,1338,1338,1338,1338,1338,1343,1343,1343,1343,1343,1343,1338,1338,1338,1338,1338,1338,1343,1343,1343,1343,1343,1343,1343,1343,1343,1343,1343,1343,1250,1245,1245,1245,1245,1241,1241,1241,1241,1241,1245,1245,1250,1250,1250,1255,1259,1259,1259,1259,1333,1333,1333,1333,1333,1333,1333,1333,1338,1333,1333,1333,1333,1333,1333,1333,1333,1333,1333,1333,1333,1328,1328,1333,1333,1328,1328,1328,1328,1333,1333,1328,1328,1328,1328,1328,1328,1328,1328,1328,1328,1328,1328,1328,1328,1322,1322,1322,1322,1322,1322,1322,1322,1322,1322,1322,1322,1328,1322,1322,1322,1322,1317,1317,1317,1317,1317,1322,1322,1322,0,1016,1016,1013,1013,1013,1010,1007,1007,1004,1004,1001,1001,1001,1004,1004,1004,1010,1013,1016,1019,1022,1025,1025,1028,1028,1028,1317,1317,1317,1312,1312,1312,1312,1312,1312,1312,1312,1312,1312,1312,1312,1307,1307,1307,1312,1312,1307,1307,1307,1307,1307,1307,1312,1312,1312,1312,1312,1312,1312,1307,1307,1307,1307,1307,1307,1307,1307,1307,1307,1307,1307,1307,1307,1307,1307,1307,1307,1307,1307,1302,1302,1297,1297,1302,1297,1297,1302,1307,1307,1307,1307,1307,1307,1307,1302,1302,1297,1297,1297,1297,1297,1297,1297,1297,1297,1297,1297,1302,1302,1302,1302,1302,1302,1302,1297,1297,1292,1292,1292,1292,1292,1292,1292,1292,1292,1288,1288,1292,1292,1292,1292,1292,1292,1292,1292,1288,1288,1288,1288,1288,1288,1288,1288,1292,1288,1288,1288,1288,1288,1283,1283,1283,1283,1283,1278,1278,1278,1278,1278,1278,1283,1283,1278,1278,1278,1278,1278,1278,1273,1273,1273,1278,1273,1273,1273,1273,1273,1273,1273,1273,1273,1273,1273,1273,1273,1273,1273,1273,1273,1273,1273,1268,1268,1268,1268,1268,1268,1268,1273,1273,1273,1273,1273,1273,1278,1278,1181,1181,1177,1177,1173,1173,1173,0,0,0,0,1123,1123,1123,1119,1105,1101,1097,1094,1094,1094,1090,1090,1090,1090,1090,1094,1094,1090,1090,1087,1084,1080,1077,1073,1070,1063,1057,1050,1050,1047,1047,1047,1044,901,898,896,896,896,896,896,896,896,896,896,896,896,896,896,896,896,896,896,896,896,896,896,896,896,896,896,896,898,898,898,898,898,901,903,906,908,910,915,918,918,920,920,918,915,913,913,910,910,908,908,903,903,901,898,896,896,891,889,887,887,885,885,0,0,0,0,0,0,0,0,0,0,0,0,0,0,0,0,0,0,0,0,0,0,0,0,0,0,0,0,0,0,0,0,0,0,0,0
0,0,0,0,0,901,898,898,901,906,910,913,913,913,913,915,918,920,920,923,923,923,923,925,925,925,925,0,0,0,1359,1359,1359,1359,1365,1365,1365,1359,1359,1359,1359,1359,1359,1359,1365,1365,1365,1365,1365,1365,1365,1365,1365,1365,1365,1365,1365,1365,1365,1359,1359,1354,1354,1354,0,0,0,0,0,0,0,0,0,0,0,0,0,0,0,708,707,706,706,704,703,701,697,697,691,686,683,683,683,683,683,684,686,661,659,658,655,653,648,646,646,644,644,644,644,644,644,644,646,646,647,648,648,649,650,653,654,655,657,658,658,659,661,661,662,664,666,667,667,674,678,679,679,680,682,683,684,687,688,690,690,691,691,693,696,696,697,698,698,703,706,704,704,704,707,707,707,707,707,1322,1322,1149,1149,1149,1149,1328,1328,1333,1333,1333,1338,1338,1338,1338,1338,1343,1338,1338,1338,1338,1338,1338,1338,1338,1338,1338,1338,1338,1338,1343,1343,1338,1338,1338,1338,1338,1338,1250,1245,1245,1245,1241,1241,1241,1245,1245,1245,1245,1250,1250,1250,1255,1259,1259,1259,1259,1328,1328,1328,1328,1328,1328,1328,1328,1328,1328,1328,1328,1328,1328,1328,1328,1328,1328,1328,1328,1328,1328,1328,1328,1328,1328,1328,1328,1328,1328,1328,1328,1328,1328,1322,1322,1322,1322,1322,1328,1328,1328,1328,1328,1322,1322,1322,1322,1322,1317,1317,1317,1317,1317,1317,1317,1317,1322,1322,1322,1317,1317,1317,1317,1312,1312,1312,1317,1317,1317,0,1022,1022,1019,1016,1013,1013,1010,1010,1007,1007,1004,1004,1004,1007,1004,1004,1010,1016,1019,1022,1022,1025,1028,1028,1028,1028,1317,1317,1307,1307,1307,1312,1312,1312,1312,1307,1307,1307,1307,1307,1307,1302,1302,1307,1307,1307,1307,1307,1307,1307,1307,1307,1307,1307,1307,1307,1307,1307,1307,1307,1307,1307,1307,1302,1302,1302,1297,1297,1297,1297,1302,1302,1302,1302,1302,1302,1302,1302,1297,1297,1297,1297,1297,1297,1292,1292,1292,1297,1297,1297,1302,1302,1302,1302,1302,1297,1297,1292,1292,1292,1292,1292,1292,1292,1292,1292,1292,1292,1292,1292,1292,1297,1292,1292,1292,1292,1292,1288,1288,1288,1288,1288,1288,1288,1288,1288,1288,1288,1288,1288,1288,1288,1288,1288,1288,1288,1283,1283,1288,1283,1283,1283,1283,1283,1283,1283,1283,1283,1283,1283,1278,1278,1278,1278,1278,1278,1278,1273,1273,1273,1273,1273,1273,1273,1273,1273,1273,1273,1273,1273,1273,1273,1273,1273,1273,1273,1273,1273,1273,1273,1273,1268,1268,1268,1268,1268,1268,1268,1268,1268,1268,1268,1268,1264,1264,1264,1264,1264,1264,1264,1264,1268,1268,1268,1273,1273,1181,1177,1177,1169,1169,1169,1173,0,1165,1165,0,1119,1119,1119,1108,1105,1097,1097,1094,1094,1090,1090,1090,1090,1090,1094,1094,1090,1090,1087,1084,1080,1077,1073,1070,1063,1060,1054,1050,1047,1044,1041,1041,903,901,898,898,896,896,896,896,896,896,896,896,896,896,896,896,896,896,896,896,896,896,896,896,898,898,898,898,898,898,898,898,901,901,903,903,906,908,913,918,918,918,918,918,918,915,913,913,910,910,908,906,903,901,898,898,894,894,891,889,887,885,882,882,0,0,0,0,0,0,0,0,0,0,0,0,0,0,0,0,0,0,0,0,0,0,0,0,0,0,0,0,0,0,0,0,0,0,0,0
0,0,0,0,0,901,898,898,901,906,913,913,913,913,915,915,918,920,920,923,923,923,923,925,925,928,928,928,0,1359,1359,1359,1359,1359,1359,1359,1354,1354,1354,1354,1359,1359,1359,1359,1359,1359,1365,1359,1354,1354,1354,1359,1359,1359,1359,1359,1365,1365,1354,1354,1359,1354,1354,1349,1349,0,0,0,0,0,0,0,0,0,0,0,0,0,0,0,0,0,704,703,701,701,698,697,696,691,690,686,684,683,683,684,686,661,659,658,657,654,652,649,648,646,644,644,644,644,644,644,646,646,647,648,648,649,650,653,654,655,658,659,659,659,661,662,662,664,666,667,667,674,678,679,679,680,682,683,684,687,688,690,690,690,691,693,696,696,697,698,698,0,0,0,0,0,1322,1322,1317,1317,1317,1322,1322,1333,1333,1328,1328,1328,1328,1333,1333,1333,1333,1333,1333,1333,1333,1333,1333,1333,1333,1333,1333,1333,1333,1333,1333,1333,1338,1338,1338,1338,1338,1333,1333,1338,1333,1333,1338,1250,1250,1250,1245,1245,1245,1245,1245,1245,1245,1245,1250,1250,1255,1255,1259,1259,1259,1264,1328,1328,1328,1328,1328,1328,1328,1328,1328,1328,1328,1328,1328,1328,1328,1322,1322,1322,1322,1322,1322,1322,1322,1322,1328,1322,1322,1322,1322,1328,1322,1322,1322,1322,1322,1322,1322,1322,1322,1317,1317,1322,1322,1322,1322,1322,1322,1317,1317,1317,1317,1312,1312,1312,1312,1312,1312,1312,1317,1317,1317,1317,1312,1312,1312,1312,1312,1317,1317,1317,0,1022,1022,1019,1016,1016,1013,1013,1010,1010,1007,1007,1007,1007,1007,1007,1007,1010,1016,1022,1022,1025,1025,1028,1028,1028,1028,1297,1297,1297,1297,1302,1302,1302,1302,1307,1307,1307,1307,1307,1307,1307,1297,1297,1302,1302,1302,1302,1302,1302,1307,1307,1307,1307,1307,1307,1307,1307,1307,1302,1302,1302,1302,1302,1297,1297,1292,1292,1292,1292,1292,1292,1297,1297,1297,1297,1297,1297,1297,1297,1297,1292,1292,1292,1292,1292,1292,1292,1292,1292,1292,1292,1292,1292,1297,1297,1292,1292,1292,1292,1292,1292,1292,1292,1288,1288,1288,1288,1288,1288,1288,1288,1288,1288,1288,1288,1288,1288,1288,1288,1288,1288,1288,1288,1288,1288,1283,1283,1283,1283,1283,1283,1283,1283,1283,1283,1283,1283,1283,1283,1283,1283,1283,1283,1278,1278,1278,1278,1278,1278,1278,1278,1273,1273,1273,1273,1273,1273,1273,1273,1273,1273,1273,1268,1268,1268,1273,1273,1273,1268,1268,1273,1268,1268,1268,1268,1268,1268,1268,1268,1268,1268,1268,1268,1268,1268,1268,1268,1264,1264,1264,1268,1264,1264,1259,1259,1264,1264,1259,1255,1255,1255,1255,1259,1259,1264,1268,1173,1173,1169,1169,1169,1169,1165,1165,1165,0,1161,0,1119,1119,1101,1097,1094,1094,1094,1090,1090,1090,1090,1090,1090,1090,1094,1090,1087,1084,1080,1077,1073,1070,1063,1060,1054,1050,1047,1047,1041,1038,1038,901,901,898,898,896,896,894,894,894,894,894,896,896,896,896,896,896,896,896,896,896,896,898,898,898,898,898,898,898,898,901,901,901,903,903,903,906,910,915,918,918,920,918,918,915,915,913,913,910,908,908,903,903,898,896,896,894,891,889,887,885,882,880,880,0,0,0,0,0,0,0,0,0,0,0,0,0,0,0,0,0,0,0,0,0,0,0,0,0,0,0,0,0,0,0,0,0,0,0,0
0,0,0,0,0,903,903,903,903,906,913,913,913,913,915,915,918,923,923,923,923,923,923,925,928,930,0,930,0,1359,1359,1359,1354,1354,1359,1354,1354,1349,1349,1349,1354,1349,1349,1354,1354,1354,1359,1354,1354,1354,1354,1354,1354,1354,1354,1359,1359,1359,1354,1354,1354,1354,1349,1349,1349,1349,1349,0,0,0,0,0,0,0,0,0,0,0,0,0,0,0,704,703,701,701,698,697,696,693,691,690,686,686,686,686,687,662,661,659,658,655,653,650,649,647,646,646,646,646,646,646,647,647,648,648,648,649,650,653,654,657,658,659,659,659,661,662,664,664,666,667,667,674,679,679,679,680,682,683,684,687,690,690,690,690,691,693,696,696,698,701,0,0,0,0,0,0,1328,1322,1322,1317,1317,1322,1322,1333,1333,1333,1333,1333,1333,1333,1328,1328,1333,1333,1333,1328,1328,1333,1333,1333,1328,1328,1328,1328,1328,1328,1328,1328,1333,1333,1333,1333,1333,1328,1328,1328,1328,1328,1328,1333,1250,1250,1250,1245,1245,1245,1245,1245,1245,1245,1250,1250,1255,1255,1259,1259,1259,1264,1322,1322,1322,1322,1322,1322,1322,1322,1322,1322,1322,1322,1322,1328,1322,1322,1322,1322,1322,1322,1317,1317,1322,1322,1322,1322,1322,1317,1317,1322,1322,1322,1322,1322,1322,1317,1317,1317,1317,1312,1312,1317,1317,1317,1317,1317,1317,1317,1317,1312,1312,1312,1312,1312,1312,1307,1307,1307,1312,1312,1312,1312,1307,1307,1307,1307,1307,1312,1312,1312,0,1022,1022,1022,1019,1019,1016,1013,1013,1010,1010,1010,1010,1010,1010,1007,1007,1013,1019,1022,1022,1025,1025,1028,1028,1028,1028,1292,1292,1292,1292,1297,1297,1297,1297,1297,1297,1297,1302,1302,1302,1302,1297,1297,1297,1297,1297,1297,1297,1297,1302,1302,1302,1302,1302,1302,1302,1302,1302,1302,1302,1297,1297,1292,1292,1292,1292,1288,1288,1288,1288,1292,1292,1292,1292,1292,1292,1292,1292,1292,1292,1292,1292,1292,1292,1288,1288,1288,1288,1288,1288,1292,1288,1288,1288,1288,1288,1292,1292,1292,1288,1288,1288,1288,1288,1288,1288,1283,1283,1288,1288,1288,1288,1283,1283,1283,1283,1283,1283,1283,1283,1283,1283,1283,1283,1283,1283,1283,1278,1278,1278,1278,1278,1278,1278,1278,1278,1278,1278,1278,1278,1278,1278,1278,1278,1273,1273,1273,1273,1273,1273,1268,1268,1273,1273,1273,1273,1273,1273,1273,1268,1268,1268,1268,1268,1268,1268,1268,1268,1268,1268,1268,1268,1268,1268,1268,1264,1264,1264,1264,1264,1264,1259,1259,1259,1259,1259,1259,1259,1259,1259,1264,1259,1259,1259,1259,1259,1259,1255,1255,1255,1255,1255,1255,1255,1250,1250,1259,1169,1169,1169,1169,1169,1165,1165,1161,1161,1161,1094,1094,1097,1097,1097,1094,1094,1090,1090,1090,1090,1090,1090,1090,1090,1090,1090,1087,1084,1080,1077,1070,1067,1063,1060,1054,1050,1047,1047,1041,1038,898,898,901,898,896,896,896,894,894,894,894,894,894,896,896,896,896,896,896,896,896,896,896,898,898,898,898,898,898,898,901,901,901,903,903,903,906,906,910,915,918,920,920,918,918,915,913,913,913,910,908,908,903,898,896,896,894,891,889,887,885,882,882,880,880,0,0,0,0,0,0,0,0,0,0,0,0,0,0,0,0,0,0,0,0,0,0,0,0,0,0,0,0,0,0,0,0,0,0,0,0
0,0,0,0,0,0,910,906,906,913,913,913,913,913,915,915,918,923,925,923,923,923,923,925,928,930,930,930,0,1359,1359,1359,1354,1354,1354,1354,1349,1349,1349,1349,1349,1349,1349,1349,1349,1349,1354,1354,1349,1349,1349,1354,1349,1349,1349,1349,1354,1349,1349,1349,1354,1349,1349,1349,1349,1349,1349,1343,1343,0,0,0,0,0,0,0,0,0,0,0,0,0,0,0,0,701,698,697,694,693,691,690,688,687,687,687,686,686,661,659,658,658,654,650,649,647,647,647,646,646,646,647,647,647,648,648,648,649,650,654,655,658,658,659,659,661,661,662,664,664,666,667,668,674,678,679,679,680,680,683,683,687,688,690,688,688,691,693,697,697,0,0,0,0,0,0,1322,1322,1328,1328,1322,1322,1322,1322,1322,1328,1328,1328,1333,1333,1333,1328,1328,1328,1328,1328,1328,1328,1328,1328,1328,1328,1328,1328,1328,1328,1328,1328,1328,1328,1328,1328,1328,1328,1328,1328,1328,1322,1322,1322,1322,1322,1255,1250,1250,1245,1245,1245,1245,1245,1245,1250,1250,1250,1250,1255,1255,1259,1264,1264,1322,1322,1322,1322,1322,1322,1317,1317,1317,1322,1322,1322,1322,1322,1322,1317,1317,1317,1317,1317,1312,1312,1317,1317,1317,1317,1312,1312,1312,1312,1312,1312,1312,1312,1312,1312,1312,1312,1312,1307,1307,1312,1312,1312,1312,1312,1312,1312,1312,1312,1312,1312,1307,1307,1307,1307,1307,1307,1307,1307,1307,1307,1307,1307,1302,1302,1302,1307,1307,1307,0,1025,1025,1022,1022,1019,1019,1016,1013,1013,1013,1010,1010,1010,1010,1010,1010,1016,1019,1022,1022,1025,1028,1028,1028,1028,1031,1292,1292,1292,1292,1292,1292,1292,1292,1292,1292,1292,1292,1292,1292,1297,1292,1292,1297,1297,1297,1297,1297,1297,1297,1297,1297,1297,1297,1297,1297,1297,1297,1297,1292,1292,1292,1292,1292,1288,1288,1288,1288,1288,1288,1288,1288,1288,1292,1292,1292,1292,1288,1288,1288,1288,1288,1288,1283,1283,1283,1283,1283,1283,1283,1283,1283,1283,1283,1283,1283,1283,1288,1288,1288,1283,1283,1283,1283,1283,1283,1278,1278,1278,1278,1283,1283,1278,1278,1283,1283,1283,1283,1283,1283,1283,1283,1283,1283,1278,1278,1278,1278,1278,1273,1273,1273,1273,1273,1273,1273,1278,1278,1278,1278,1273,1273,1273,1273,1273,1268,1268,1268,1268,1268,1268,1268,1268,1268,1273,1273,1273,1268,1268,1268,1268,1264,1264,1264,1264,1264,1264,1264,1264,1268,1264,1264,1264,1264,1264,1259,1259,1259,1259,1259,1259,1255,1255,1255,1255,1255,1255,1255,1255,1255,1259,1255,1255,1255,1255,1255,1255,1255,1250,1250,1250,1250,1250,1250,1245,1245,1259,1169,1169,1169,1169,1169,1165,1161,1161,1161,1161,1094,1094,1094,1094,1094,1094,1090,1090,1090,1090,1090,1090,1090,1090,1090,1090,1087,1087,1080,1080,1073,1070,1067,1063,1060,1054,1047,1047,896,896,898,898,898,898,898,896,894,894,894,894,894,894,894,894,896,896,896,896,896,896,896,896,896,896,898,898,898,898,898,898,901,901,903,903,903,906,906,906,908,910,915,918,918,918,915,915,913,913,913,913,908,908,906,898,898,896,894,891,887,887,885,882,882,880,880,880,0,0,0,0,0,0,0,0,0,0,0,0,0,0,0,0,0,0,0,0,0,0,0,0,0,0,0,0,0,0,0,0,0,0,0,0
0,0,0,0,0,915,913,910,910,913,913,913,913,913,915,915,918,920,925,923,923,923,923,925,928,928,928,928,930,1354,1354,1354,1354,1354,1354,1354,1349,1349,1349,1349,1349,1349,1349,1349,1349,1349,1349,1349,1349,1349,1349,1349,1349,1349,1349,1349,1349,1349,1349,1349,1349,1349,1349,1349,1349,1349,1349,1343,1338,1338,0,0,0,0,0,0,0,0,0,0,0,0,0,0,0,0,0,697,694,691,691,690,687,687,686,686,686,686,661,659,658,658,654,652,650,648,648,648,647,647,647,647,648,648,649,649,649,650,652,654,655,657,658,659,659,661,662,663,664,664,666,667,670,674,678,679,679,680,680,682,683,687,688,690,688,688,690,693,0,0,0,0,0,0,0,0,0,1322,1322,1322,1317,1317,1317,1322,1322,1328,1328,1328,1328,1333,1328,1328,1328,1328,1328,1328,1328,1322,1322,1322,1322,1322,1322,1322,1322,1322,1322,1328,1322,1322,1328,1328,1328,1328,1322,1322,1322,1322,1322,1317,1317,1317,1255,1255,1250,1250,1245,1245,1245,1245,1245,1250,1250,1250,1250,1255,1255,1259,1264,1264,1322,1322,1322,1322,1317,1317,1317,1317,1317,1317,1317,1317,1317,1317,1317,1312,1312,1312,1312,1312,1312,1312,1312,1312,1312,1312,1307,1307,1307,1307,1307,1307,1307,1307,1307,1307,1307,1307,1307,1307,1307,1307,1307,1307,1307,1307,1307,1307,1307,1307,1302,1302,1302,1302,1302,1302,1302,1302,1302,1302,1302,1302,1302,1297,1297,1297,1292,1292,1292,1292,1288,1025,1025,1025,1022,1022,1019,1016,1016,1013,1013,1010,1010,1010,1010,1010,1010,1016,1019,1022,1025,1025,1028,1028,1028,1028,1031,1292,1292,1292,1292,1292,1292,1292,1292,1292,1292,1292,1292,1288,1288,1288,1288,1288,1292,1292,1292,1292,1292,1292,1292,1292,1292,1292,1292,1292,1292,1292,1292,1292,1292,1292,1292,1288,1288,1288,1283,1283,1283,1283,1283,1288,1288,1288,1288,1288,1288,1288,1288,1288,1288,1283,1283,1283,1278,1278,1278,1278,1278,1278,1278,1278,1278,1278,1278,1278,1278,1278,1283,1283,1283,1283,1283,1283,1278,1278,1278,1273,1273,1278,1278,1278,1278,1278,1278,1278,1278,1278,1278,1278,1278,1278,1278,1278,1278,1273,1273,1273,1273,1273,1273,1273,1273,1273,1273,1273,1273,1273,1273,1273,1273,1273,1273,1268,1268,1268,1268,1268,1268,1268,1268,1268,1268,1268,1268,1264,1264,1264,1268,1268,1264,1264,1264,1264,1264,1264,1264,1264,1264,1264,1264,1264,1259,1259,1259,1259,1259,1255,1255,1255,1255,1255,1255,1255,1255,1255,1255,1255,1255,1255,1255,1255,1255,1255,1250,1250,1250,1250,1250,1250,1250,1245,1245,1245,1241,1241,1245,1169,1169,1169,1169,1169,1165,1165,1161,1161,1161,1094,1094,1094,1094,1094,1094,1090,1090,1090,1090,1090,1090,1090,1090,1090,1090,1090,1087,1087,1080,1077,1070,1067,1063,1060,1057,1054,1047,896,896,896,898,898,898,898,898,896,894,894,894,894,894,894,894,894,894,896,896,896,896,896,896,898,898,898,898,898,898,898,898,898,901,901,903,903,906,906,906,908,908,913,915,918,915,915,915,913,913,908,908,908,908,903,901,896,894,891,889,889,885,882,880,880,880,878,878,878,0,0,0,0,0,0,0,0,0,0,0,0,0,0,0,0,0,0,0,0,0,0,0,0,0,0,0,0,0,0,0,0,0,0,0,0
0,0,0,0,0,913,913,910,910,910,913,913,913,915,915,915,918,918,923,923,923,923,923,925,928,928,928,930,930,0,1354,1354,1349,1349,1354,1349,1349,1349,1349,1349,1349,1343,1343,1343,1343,1343,1349,1349,1349,1349,1349,1349,1343,1343,1343,1343,1343,1343,1343,1343,1343,1349,1349,1343,1343,1343,1343,1343,1338,1338,1333,1333,0,0,0,0,0,0,0,0,0,0,0,0,0,0,0,0,0,691,691,690,687,687,686,686,684,684,684,659,658,658,655,653,650,649,648,648,647,647,647,647,648,648,649,649,649,650,652,654,655,657,658,658,659,661,662,664,664,664,666,667,674,674,676,679,679,680,680,682,683,687,688,688,688,688,688,0,0,0,0,0,0,0,0,0,0,1317,1317,1317,1317,1317,1317,1317,1317,1322,1322,1322,1322,1328,1328,1328,1322,1322,1322,1322,1322,1317,1317,1317,1317,1317,1317,1317,1317,1317,1317,1322,1322,1322,1328,1328,1328,1328,1322,1322,1322,1317,1317,1317,1312,1312,1264,1255,1255,1250,1250,1250,1250,1250,1250,1250,1250,1255,1255,1255,1255,1259,1264,1264,1273,1317,1317,1317,1317,1317,1312,1312,1312,1312,1312,1312,1312,1317,1312,1312,1307,1307,1312,1307,1307,1307,1307,1307,1312,1307,1307,1307,1302,1302,1302,1302,1302,1302,1302,1307,1302,1302,1302,1302,1302,1302,1302,1302,1302,1302,1302,1302,1302,1302,1297,1297,1297,1297,1292,1292,1297,1297,1297,1297,1297,1297,1297,1297,1292,1292,1288,1288,1288,1288,1288,1028,1025,1025,1022,1022,1022,1019,1016,1016,1013,1013,1013,1010,1010,1010,1013,1016,1019,1022,1025,1025,1028,1028,1028,1028,1028,1288,1288,1288,1288,1288,1292,1292,1288,1288,1288,1292,1292,1288,1288,1288,1288,1288,1288,1288,1288,1292,1292,1292,1292,1292,1292,1292,1292,1292,1292,1292,1288,1288,1288,1288,1288,1288,1288,1283,1283,1283,1283,1283,1283,1283,1283,1283,1288,1288,1288,1288,1288,1283,1283,1278,1278,1278,1278,1278,1278,1273,1273,1273,1273,1273,1278,1273,1273,1273,1273,1273,1273,1273,1278,1273,1273,1273,1273,1273,1273,1273,1273,1273,1273,1273,1278,1273,1273,1278,1278,1278,1273,1273,1273,1273,1273,1273,1273,1268,1268,1268,1268,1273,1268,1268,1268,1268,1268,1268,1268,1268,1268,1268,1268,1268,1268,1268,1268,1264,1264,1264,1264,1264,1264,1264,1264,1264,1264,1259,1259,1259,1259,1259,1259,1259,1259,1259,1259,1259,1259,1264,1264,1264,1264,1259,1259,1259,1255,1255,1255,1255,1255,1255,1255,1250,1250,1250,1250,1250,1250,1250,1250,1250,1250,1250,1250,1250,1250,1250,1250,1250,1250,1245,1245,1245,1245,1245,1236,1236,1236,1169,1169,1169,1169,1169,1165,1165,1161,1161,1161,1094,1094,1094,1094,1094,1094,1090,1090,1090,1090,1090,1090,1090,1090,1090,1090,1087,1084,1080,1077,1077,1067,1063,1063,1057,1054,1047,898,896,896,896,898,898,898,898,896,896,894,894,894,894,894,894,894,894,894,896,896,896,896,896,896,898,898,898,898,898,898,898,898,898,901,903,906,906,906,906,908,908,910,915,915,918,915,915,913,913,908,906,906,906,903,898,894,891,891,889,887,885,882,880,878,878,875,875,875,875,0,0,0,0,0,0,0,0,0,0,0,0,0,0,0,0,0,0,0,0,0,0,0,0,0,0,0,0,0,0,0,0,0,0,0,0
