0,0,0,0,0,0,0,0,0,0,0,0,0,0,0,1863,1863,1863,1863,1863,1853,1853,1843,1843,1843,1843,1843,1833,1833,1833,1833,1833,1833,1833,1833,1833,1833,1823,1823,1823,1833,1823,1823,1813,1813,1804,1804,1794,1794,1794,1794,1794,1794,1794,1794,1794,1794,1794,1785,1785,1776,1776,1776,1776,1776,1776,1776,1776,1766,1766,1766,1766,1766,1766,1766,1766,1766,1766,1766,1757,1748,1748,1757,1748,1748,1748,1748,1748,1748,1748,1748,1748,1748,1739,1739,1739,1731,1731,1731,1731,1731,1731,1731,1731,1731,1722,1722,1722,1722,1722,1722,1713,1713,1713,1713,1705,1705,1705,1696,1696,1696,1696,1696,1696,1696,1696,1696,1696,1688,1688,1688,1688,1688,1688,1680,1680,1680,1680,1680,1680,1680,1671,1671,1680,1680,1680,1688,1688,1688,1688,1688,1696,1696,1705,1705,2381,2381,2365,2365,2381,2381,2381,2398,2398,2398,2415,2415,2415,1663,1663,1663,1663,1663,1663,1663,1663,1663,1663,1663,1663,1663,1663,1663,1663,1671,1671,1671,1680,1680,1680,1680,1688,1688,1688,1688,1688,1696,1696,1696,1696,1696,1696,1705,1705,1705,1705,1713,1722,1722,1722,1722,1731,1731,1731,1731,1739,1739,1731,1731,1739,1739,1739,1108,1108,1105,1101,1101,1101,1101,1097,1094,1094,1090,1090,1087,1087,1090,1090,1090,1094,1094,1097,1097,1097,1101,1101,1101,1101,1101,0,0,0,0,1823,1823,1823,1823,1823,1833,1833,1833,1833,1833,1833,1833,1833,1833,1833,1833,1833,1804,1804,1804,1804,1804,1804,1794,1794,1794,1785,1776,1766,1766,1757,1757,1757,1757,1748,1739,1739,1731,1731,1722,1722,1722,1713,1713,1705,1696,1696,1696,1688,1688,1680,1680,1688,0,0,0,0,0,0,0,878,878,878,878,878,875,875,875,873,871,871,869,869,862,862,860,860,860,860,860,860,862,862,862,864,867,867,869,871,871,871,873,873,0,0,0,0,0,0,1516,1516,1516,1509,1509,1496,1496,1496,1496,1489,1489,1483,1483,1477,1470,1470,1470,1464,1464,1464,1458,1458,1452,1452,1452,1445,1445,1439,1439,1439,1433,1421,1421,1421,1415,1415,1415,1410,1410,1404,1404,1398,1398,1398,1392,1392,1387,1381,1376,1376,1376,1376,1370,1370,1365,1354,1354,1354,1354,1349,1349,1343,1343,1338,1338,1338,1333,1333,1328,1328,1322,1322,1317,1312,1312,1312,1307,1307,1307,1302,1297,1292,1292,1288,1288,1288,1283,1283,1278,1273,1273,1273,1268,1268,1268,1264,1264,1259,1255,1255,1250,1250,1250,1245,1241,1241,1236,1236,1232,1227,1227,1223,1223,1219,1219,1219,1219,1214,1214,1214,1210,1210,1210,1206,1202,1197,1189,1189,1189,1185,1185,1185,1181,1181,1181,1181,1177,1177,1173,1173,1169,1165,1165,1165,1165,1161,1161,1157,1153,1153,1149,1145,1145,1141,1141,1138,1138,1134,1134,1134,1134,1130,1130,1126,1123,1119,1119,1119,1115,1115,1112,1108,1108,1105,1105,1105,1101,1101,1097,1094,1094,1094,1090,1090,1087,1087,1084,1080,1080,1080,1080,1077,1077,1077,1073,1070,1067,1067,1063,1063,1060,1060,1060,1057,1054,1050,1050,1050,1050,1047,1047,1044,1041,1041,1041,1038,1038,1038,1038,1034,1031,1031,1028,1028,1028,1025,1025,1025,1022,1022,1019,1016,1016,1016,1013,1013,1013,1010,1007,1004,1004,1001,1001,1001,998,995,995,992,992,992,992,989,987,987,984,981,981,981,0,0,0,0,0,0,0,0,0,0,0,0,0,0,0,0,0,0,0,0,0,0,0,0,0,0,0,0,0,0
0,0,0,0,0,0,0,0,0,0,0,0,0,0,0,1873,1873,1863,1863,1863,1853,1853,1853,1843,1843,1843,1843,1833,1833,1833,1833,1833,1833,1833,1833,1833,1833,1833,1833,1833,1833,1833,1833,1823,1804,1804,1804,1804,1794,1794,1794,1794,1794,1794,1794,1794,1794,1794,1794,1794,1776,1776,1785,1785,1776,1776,1776,1776,1776,1766,1766,1766,1766,1766,1766,1766,1766,1766,1766,1757,1757,1757,1757,1757,1748,1748,1748,1757,1757,1757,1757,1757,1748,1748,1748,1739,1731,1731,1731,1731,1731,1731,1731,1731,1731,1722,1722,1722,1722,1722,1722,1713,1713,1722,1713,1705,1705,1705,1696,1696,1696,1696,1696,1696,1696,1696,1696,1696,1696,1688,1688,1688,1688,1688,1680,1680,1680,1680,1680,1680,1680,1680,1680,1680,1680,1680,1688,1688,1688,1688,1688,1696,1696,1696,1705,1705,2365,2365,2365,2381,2381,2381,2398,2398,2398,2398,2415,2415,1663,1663,1663,1663,1671,1663,1663,1663,1663,1663,1663,1663,1663,1663,1663,1663,1671,1671,1671,1680,1680,1680,1680,1688,1688,1688,1688,1696,1696,1696,1696,1696,1696,1705,1705,1705,1713,1713,1713,1722,1722,1722,1722,1731,1731,1731,1731,1739,1739,1739,1739,1739,1739,1739,1108,1108,1108,1105,1105,1101,1101,1101,1097,1094,1090,1090,1090,1090,1090,1090,1090,1094,1094,1097,1097,1101,1101,1101,1101,1101,1101,0,0,0,0,1823,1823,1823,1823,1833,1833,1833,1833,1833,1833,1843,1843,1843,1833,1833,1833,1833,1813,1804,1804,1804,1804,1804,1794,1794,1794,1785,1776,1766,1766,1757,1757,1757,1757,1748,1739,1739,1731,1731,1722,1722,1722,1713,1713,1705,1705,1705,1696,1688,1688,1688,1688,1688,0,0,0,0,0,0,0,878,878,880,878,878,875,875,875,873,873,871,869,869,864,862,862,860,860,860,860,860,862,862,864,864,867,869,869,871,871,873,873,873,0,0,0,0,0,0,1523,1516,1516,1516,1509,1503,1503,1496,1496,1489,1489,1489,1483,1483,1477,1470,1470,1470,1464,1464,1464,1458,1458,1452,1452,1452,1445,1439,1439,1439,1433,1427,1421,1421,1421,1415,1415,1415,1410,1404,1404,1398,1398,1398,1392,1387,1387,1381,1376,1376,1376,1376,1370,1370,1365,1359,1354,1354,1354,1349,1349,1349,1343,1343,1343,1338,1333,1333,1333,1328,1328,1322,1317,1312,1312,1312,1312,1307,1307,1302,1297,1292,1292,1288,1288,1288,1283,1283,1278,1278,1273,1273,1273,1268,1268,1264,1264,1259,1259,1255,1255,1250,1250,1245,1241,1241,1236,1236,1232,1227,1227,1227,1223,1223,1219,1219,1219,1214,1214,1214,1214,1210,1210,1202,1202,1197,1193,1189,1189,1185,1185,1185,1185,1185,1181,1181,1177,1177,1173,1173,1169,1165,1165,1165,1165,1161,1161,1157,1153,1153,1149,1145,1145,1145,1141,1141,1138,1138,1134,1134,1134,1130,1130,1126,1123,1123,1119,1119,1119,1115,1115,1112,1108,1105,1105,1105,1101,1101,1097,1094,1094,1094,1094,1094,1090,1087,1084,1080,1080,1080,1080,1077,1077,1077,1073,1070,1067,1067,1067,1063,1063,1060,1060,1057,1054,1054,1050,1050,1047,1047,1047,1044,1041,1038,1038,1038,1038,1038,1038,1034,1034,1031,1028,1028,1028,1025,1025,1025,1025,1022,1019,1019,1016,1016,1013,1013,1013,1010,1007,1007,1004,1004,1001,1001,998,998,995,995,992,992,992,989,987,987,984,981,981,981,0,0,0,0,0,0,0,0,0,0,0,0,0,0,0,0,0,0,0,0,0,0,0,0,0,0,0,0,0,0
0,0,0,0,0,0,0,0,0,0,0,0,0,0,0,1863,1863,1863,1863,1863,1843,1843,1843,1843,1843,1843,1843,1833,1833,1833,1843,1843,1833,1833,1833,1833,1833,1833,1833,1833,1833,1833,1833,1823,1804,1804,1804,1804,1794,1794,1794,1794,1794,1794,1794,1794,1794,1794,1794,1794,1776,1776,1794,1794,1776,1776,1776,1776,1776,1776,1766,1766,1766,1766,1766,1766,1766,1766,1766,1757,1757,1757,1757,1757,1748,1748,1748,1757,1757,1757,1757,1757,1757,1757,1748,1748,1739,1739,1739,1739,1739,1731,1731,1731,1731,1731,1731,1722,1722,1722,1722,1722,1722,1722,1713,1713,1705,1705,1696,1696,1696,1696,1696,1696,1696,1696,1696,1696,1696,1688,1688,1688,1688,1688,1680,1680,1680,1680,1680,1680,1680,1680,1680,1680,1680,1680,1688,1688,1688,1688,1696,1696,1696,1696,1705,1705,2365,2365,2365,2381,2381,2381,2398,2398,2398,2398,2415,2415,2415,0,1663,1663,1671,1663,1663,1663,1663,1663,1663,1663,1663,1663,1663,1671,1671,1680,1680,1680,1680,1688,1688,1688,1688,1688,1688,1688,1696,1696,1696,1696,1705,1705,1705,1705,1713,1713,1722,1722,1722,1722,1731,1731,1731,1731,1739,1739,1739,1739,1739,1739,1739,1739,1108,1108,1108,1105,1105,1101,1101,1101,1097,1094,1090,1090,1090,1090,1090,1090,1090,1094,1097,1097,1097,1101,1101,1101,1101,1101,1101,0,0,0,0,1833,1833,1833,1833,1833,1833,1833,1833,1833,1833,1843,1843,1843,1833,1833,1833,1833,1833,1813,1804,1804,1804,1804,1804,1794,1794,1785,1776,1766,1766,1766,1757,1757,1757,1748,1739,1739,1731,1731,1731,1722,1722,1713,1713,1705,1705,1705,1696,1696,1696,1696,1688,1688,0,0,0,0,0,0,0,878,878,880,878,878,878,878,875,873,871,871,869,869,864,862,862,860,860,860,860,860,862,862,864,867,869,869,871,871,871,873,873,873,0,0,0,0,0,0,1529,1516,1516,1516,1509,1503,1503,1496,1496,1489,1489,1489,1483,1483,1477,1477,1470,1470,1464,1464,1464,1458,1458,1452,1452,1452,1445,1439,1439,1439,1427,1427,1421,1421,1421,1415,1415,1415,1410,1410,1404,1398,1398,1398,1392,1387,1387,1381,1376,1376,1376,1376,1370,1370,1365,1365,1354,1354,1354,1349,1349,1349,1343,1343,1343,1338,1338,1333,1333,1328,1328,1322,1317,1317,1312,1312,1312,1307,1307,1307,1302,1292,1292,1292,1288,1288,1283,1283,1283,1278,1278,1273,1273,1273,1268,1264,1264,1259,1259,1255,1255,1250,1250,1245,1241,1241,1236,1236,1232,1232,1227,1227,1223,1223,1219,1219,1219,1219,1214,1214,1214,1210,1206,1202,1202,1197,1197,1193,1189,1185,1185,1185,1185,1185,1181,1181,1177,1177,1173,1173,1169,1165,1165,1165,1165,1161,1161,1157,1157,1153,1149,1145,1145,1145,1145,1141,1138,1138,1134,1134,1134,1134,1130,1130,1123,1123,1119,1119,1119,1115,1115,1112,1108,1108,1105,1105,1105,1101,1097,1097,1094,1094,1094,1094,1090,1090,1087,1084,1084,1080,1080,1080,1077,1077,1073,1070,1067,1067,1067,1063,1063,1063,1063,1060,1057,1054,1054,1050,1047,1047,1047,1044,1041,1038,1038,1038,1038,1038,1038,1038,1034,1034,1028,1028,1028,1025,1025,1025,1025,1025,1022,1019,1016,1016,1016,1013,1013,1010,1010,1007,1004,1004,1001,1001,1001,998,998,995,992,992,992,989,989,987,984,981,981,981,0,0,0,0,0,0,0,0,0,0,0,0,0,0,0,0,0,0,0,0,0,0,0,0,0,0,0,0,0,0
0,0,0,0,0,0,0,0,0,0,0,0,0,0,0,1863,1863,1863,1853,1853,1843,1843,1843,1843,1843,1843,1843,1833,1833,1843,1843,1843,1843,1843,1843,1843,1843,1843,1833,1833,1833,1833,1833,1823,1804,1804,1804,1804,1804,1804,1794,1794,1794,1794,1794,1794,1794,1794,1794,1794,1794,1794,1794,1794,1794,1794,1794,1794,1794,1776,1766,1766,1766,1766,1766,1766,1766,1766,1766,1757,1757,1757,1757,1757,1757,1757,1757,1757,1757,1757,1757,1757,1757,1757,1748,1748,1739,1739,1739,1731,1731,1739,1731,1731,1731,1731,1731,1731,1722,1722,1722,1722,1722,1722,1713,1713,1705,1705,1705,1705,1696,1696,1696,1705,1705,1696,1696,1696,1696,1696,1688,1688,1688,1688,1688,1688,1688,1688,1680,1680,1680,1680,1680,1680,1680,1680,1688,1688,1688,1696,1696,1696,1696,1696,1696,1696,1696,2381,2381,2381,2381,2381,2398,2398,2398,2398,2398,2398,1663,0,1663,1663,1663,1663,1663,1663,1663,1663,1663,1663,1663,1663,1663,1671,1671,1680,1680,1680,1688,1688,1688,1688,1688,1688,1688,1688,1696,1696,1696,1696,1705,1705,1705,1713,1713,1713,1722,1722,1722,1722,1731,1731,1731,1731,1739,1739,1739,1739,1739,1739,1739,1739,0,1108,1108,1105,1105,1105,1101,1101,1097,1094,1090,1090,1090,1090,1090,1090,1090,1094,1097,1101,1101,1101,1101,1101,1101,1101,1101,0,0,0,0,1843,1833,1833,1833,1833,1833,1833,1833,1843,1843,1843,1843,1843,1843,1833,1833,1833,1833,1833,1804,1804,1804,1804,1804,1804,1794,1794,1785,1776,1766,1766,1757,1757,1757,1748,1748,1739,1731,1731,1731,1722,1722,1713,1713,1713,1705,1705,1696,1696,1696,1696,1688,1688,0,0,0,0,0,0,0,0,880,880,878,878,878,878,875,873,871,871,869,869,864,862,862,862,862,862,862,862,862,864,864,867,869,871,871,871,873,873,873,873,0,0,0,0,0,0,1529,1523,1523,1516,1509,1503,1503,1496,1496,1489,1489,1489,1489,1483,1483,1477,1470,1470,1464,1464,1464,1458,1458,1452,1452,1452,1445,1445,1439,1439,1427,1427,1421,1421,1421,1415,1415,1415,1410,1410,1404,1404,1398,1398,1392,1392,1387,1381,1376,1376,1376,1376,1370,1370,1370,1365,1359,1354,1354,1354,1349,1349,1349,1343,1343,1343,1338,1333,1333,1328,1328,1322,1322,1317,1312,1312,1312,1312,1307,1307,1302,1297,1292,1292,1288,1288,1288,1283,1283,1278,1278,1273,1273,1273,1268,1264,1264,1259,1259,1255,1255,1250,1250,1245,1245,1241,1241,1236,1232,1232,1232,1227,1227,1223,1219,1219,1219,1219,1214,1214,1214,1210,1206,1202,1202,1197,1197,1193,1189,1189,1189,1185,1185,1185,1185,1181,1181,1177,1177,1173,1169,1169,1169,1165,1165,1165,1165,1161,1157,1153,1149,1149,1145,1145,1145,1145,1141,1141,1138,1138,1134,1134,1130,1130,1123,1123,1119,1119,1119,1115,1115,1112,1112,1108,1108,1105,1105,1101,1101,1097,1097,1097,1094,1094,1090,1090,1087,1084,1084,1080,1080,1080,1077,1077,1073,1070,1067,1067,1067,1063,1063,1063,1063,1060,1057,1054,1054,1054,1047,1047,1047,1047,1041,1041,1041,1038,1038,1038,1038,1038,1034,1034,1028,1028,1028,1025,1025,1025,1025,1025,1022,1019,1019,1016,1016,1013,1013,1010,1010,1004,1004,1004,1001,1001,1001,998,998,995,995,992,992,989,989,987,987,984,981,981,0,0,0,0,0,0,0,0,0,0,0,0,0,0,0,0,0,0,0,0,0,0,0,0,0,0,0,0,0,0
0,0,0,0,0,0,0,0,0,0,0,0,0,0,0,1863,1863,1863,1853,1853,1853,1843,1843,1843,1843,1843,1843,1843,1843,1843,1843,1843,1843,1843,1843,1843,1843,1833,1833,1833,1833,1833,1833,1823,1823,1823,1813,1804,1804,1804,1804,1804,1794,1794,1794,1794,1794,1794,1794,1794,1785,1785,1794,1794,1794,1794,1794,1794,1776,1776,1776,1766,1766,1766,1766,1766,1766,1766,1766,1757,1757,1757,1757,1757,1757,1757,1757,1757,1757,1757,1757,1757,1757,1757,1748,1748,1739,1739,1739,1731,1731,1731,1731,1731,1731,1731,1731,1731,1722,1722,1722,1722,1722,1722,1713,1713,1705,1705,1705,1705,1696,1696,1705,1705,1705,1705,1705,1696,1696,1696,1688,1688,1688,1688,1688,1688,1688,1688,1680,1680,1680,1680,1680,1680,1680,1688,1688,1696,1696,1696,1696,1696,1696,1696,1696,1696,1705,1705,2398,2381,2381,2381,2398,2415,2415,0,2415,0,0,0,1663,1663,1663,1663,1663,1663,1663,1663,1663,1663,1663,1663,1663,1671,1671,1680,1680,1688,1688,1688,1688,1688,1688,1688,1696,1696,1696,1696,1696,1696,1705,1705,1713,1713,1722,1722,1722,1722,1722,1722,1731,1731,1731,1731,1731,1739,1739,1739,1739,1739,1739,1739,0,1112,1112,1108,1105,1105,1105,1101,1097,1094,1094,1090,1090,1090,1090,1094,1094,1097,1101,1101,1101,1101,1101,1101,1101,1101,1101,0,0,0,0,1843,1833,1833,1833,1833,1833,1833,1843,1843,1843,1843,1843,1843,1843,1843,1833,1833,1833,1823,1813,1804,1804,1804,1804,1804,1794,1794,1785,1776,1776,1766,1766,1757,1757,1757,1748,1748,1739,1731,1731,1731,1722,1713,1713,1713,1705,1705,1696,1696,1696,1688,1688,1688,0,0,0,0,0,0,0,0,880,880,880,878,878,878,875,873,871,871,869,869,864,862,862,862,862,862,862,862,864,864,867,867,869,871,871,873,873,873,873,873,0,0,0,0,0,0,0,1523,1523,1516,1516,1509,1509,1503,1496,1496,1496,1489,1489,1489,1483,1477,1477,1470,1464,1464,1464,1458,1452,1452,1452,1452,1445,1445,1439,1439,1427,1427,1427,1421,1421,1415,1415,1415,1410,1410,1404,1404,1398,1398,1392,1392,1387,1381,1381,1376,1376,1376,1376,1370,1370,1365,1365,1359,1359,1354,1354,1349,1349,1349,1343,1343,1338,1333,1333,1333,1328,1322,1322,1317,1312,1312,1312,1312,1307,1307,1302,1302,1292,1292,1292,1288,1288,1283,1283,1278,1278,1273,1273,1273,1268,1264,1264,1259,1259,1255,1255,1250,1250,1250,1245,1245,1241,1236,1232,1232,1232,1227,1227,1223,1223,1219,1219,1219,1214,1214,1214,1210,1206,1202,1202,1197,1197,1193,1193,1189,1189,1189,1185,1185,1185,1181,1181,1177,1173,1173,1169,1169,1169,1165,1165,1165,1165,1161,1157,1153,1149,1149,1149,1149,1145,1145,1141,1141,1138,1138,1134,1134,1130,1130,1123,1123,1123,1119,1119,1119,1115,1115,1112,1108,1108,1105,1105,1101,1101,1097,1097,1097,1094,1094,1094,1090,1087,1084,1084,1080,1080,1080,1077,1077,1073,1070,1067,1067,1067,1063,1063,1063,1063,1060,1057,1054,1054,1054,1047,1047,1047,1047,1044,1041,1041,1038,1038,1038,1038,1038,1034,1034,1028,1028,1028,1025,1025,1025,1025,1022,1022,1019,1016,1016,1016,1013,1013,1010,1010,1004,1004,1004,1001,1001,1001,1001,998,995,995,992,992,989,989,987,987,984,981,981,0,0,0,0,0,0,0,0,0,0,0,0,0,0,0,0,0,0,0,0,0,0,0,0,0,0,0,0,0,0
0,0,0,0,0,0,0,0,0,0,0,0,0,0,0,1863,1863,1863,1863,1863,1853,1843,1843,1843,1843,1843,1843,1843,1843,1843,1843,1843,1843,1833,1833,1843,1843,1833,1833,1833,1833,1833,1833,1823,1823,1823,1813,1813,1804,1804,1804,1804,1804,1794,1794,1794,1794,1794,1794,1794,1785,1785,1794,1794,1785,1785,1794,1794,1776,1776,1776,1776,1766,1766,1766,1766,1766,1766,1766,1766,1766,1766,1766,1766,1766,1757,1757,1757,1757,1757,1757,1757,1757,1757,1748,1748,1739,1739,1739,1731,1731,1731,1731,1731,1731,1731,1731,1731,1731,1722,1722,1722,1722,1722,1713,1713,1713,1705,1705,1705,1705,1705,1705,1705,1705,1705,1705,1696,1696,1696,1696,1688,1688,1688,1688,1688,1688,1688,1688,1680,1680,1680,1680,1688,1688,1688,1688,1696,1696,1696,1696,1696,1696,1696,1696,1696,1705,1705,2398,2398,2398,2398,2398,2415,2415,0,0,0,0,0,1663,1663,1663,1663,1663,1663,1663,1663,1663,1663,1663,1663,1663,1671,1680,1680,1680,1688,1688,1688,1688,1688,1696,1696,1696,1696,1696,1696,1696,1696,1705,1705,1713,1713,1722,1722,1722,1722,1722,1722,1731,1731,1731,1731,1731,1739,1739,1739,1739,1739,1739,1739,0,1112,1112,1108,1108,1105,1105,1101,1101,1097,1094,1094,1094,1094,1094,1094,1097,1097,1101,1101,1101,1101,1105,1101,1101,1105,1105,0,0,0,0,1843,1843,1833,1833,1833,1833,1833,1843,1843,1843,1843,1843,1843,1843,1843,1843,1833,1833,1823,1813,1804,1804,1804,1804,1804,1794,1794,1785,1776,1776,1766,1766,1766,1757,1757,1757,1748,1739,1739,1731,1731,1722,1713,1713,1713,1713,1705,1696,1696,1696,1688,1688,0,0,0,0,0,0,0,0,0,0,880,880,878,878,878,875,875,873,871,869,869,864,864,862,862,862,862,862,864,864,867,867,869,869,871,871,873,873,875,873,873,880,0,0,0,0,0,0,1516,1516,1516,1516,1509,1509,1503,1503,1496,1496,1496,1489,1489,1483,1483,1470,1470,1464,1464,1464,1458,1452,1452,1452,1452,1445,1445,1439,1439,1433,1427,1427,1421,1421,1415,1415,1415,1410,1410,1404,1404,1398,1398,1392,1392,1387,1387,1381,1381,1376,1376,1376,1370,1370,1370,1365,1359,1359,1354,1354,1354,1349,1349,1349,1343,1338,1338,1333,1333,1328,1322,1317,1317,1317,1312,1312,1312,1307,1307,1302,1302,1292,1292,1292,1288,1288,1283,1283,1278,1278,1273,1273,1268,1268,1268,1264,1259,1259,1255,1255,1255,1250,1250,1245,1245,1241,1236,1236,1232,1232,1232,1227,1223,1223,1219,1219,1219,1214,1214,1214,1210,1206,1202,1202,1197,1197,1193,1193,1193,1189,1189,1185,1185,1185,1181,1181,1177,1173,1173,1173,1169,1169,1165,1165,1165,1165,1161,1157,1153,1153,1149,1149,1149,1149,1145,1141,1141,1138,1138,1134,1134,1130,1130,1126,1123,1123,1123,1119,1119,1119,1119,1115,1108,1108,1105,1105,1101,1101,1101,1097,1097,1094,1094,1094,1090,1090,1087,1084,1080,1080,1080,1077,1077,1073,1070,1070,1067,1067,1063,1063,1063,1063,1060,1060,1057,1054,1054,1047,1047,1047,1047,1044,1044,1041,1041,1041,1041,1038,1038,1034,1034,1028,1028,1028,1025,1025,1025,1025,1022,1022,1019,1016,1016,1016,1013,1013,1010,1010,1004,1004,1004,1001,1001,1001,1001,1001,995,995,995,992,989,989,989,987,984,984,984,0,0,0,0,0,0,0,0,0,0,0,0,0,0,0,0,0,0,0,0,0,0,0,0,0,0,0,0,0,0
0,0,0,0,0,0,0,0,0,0,0,0,0,0,0,1863,1863,1873,1863,1863,1863,1853,1843,1843,1843,1843,1843,1843,1843,1833,1833,1833,1833,1833,1833,1843,1843,1833,1833,1833,1833,1833,1823,1823,1823,1823,1813,1813,1813,1804,1804,1804,1804,1804,1804,1804,1804,1804,1794,1794,1794,1794,1794,1794,1785,1785,1785,1785,1785,1785,1785,1776,1776,1776,1776,1766,1766,1766,1766,1766,1766,1766,1766,1766,1766,1766,1766,1766,1757,1757,1757,1757,1757,1757,1748,1748,1739,1739,1739,1739,1731,1731,1731,1731,1731,1731,1731,1731,1731,1722,1722,1722,1722,1722,1722,1713,1713,1713,1705,1705,1705,1705,1705,1705,1705,1705,1696,1696,1696,1696,1696,1688,1688,1688,1688,1688,1688,1688,1688,1688,1688,1688,1688,1688,1688,1688,1688,1696,1696,1696,1696,1696,1696,1696,1696,1696,1705,2415,2415,2398,2398,2398,2415,2415,2415,0,0,0,0,0,0,1671,1671,1671,1671,1663,1663,1663,1663,1663,1663,1663,1671,1680,1680,1688,1688,1688,1688,1696,1696,1696,1696,1696,1696,1696,1696,1696,1696,1705,1705,1705,1713,1722,1722,1722,1722,1722,1722,1722,1731,1731,1731,1731,1739,1739,1739,1739,1739,1739,1739,1739,0,0,1108,1108,1108,1105,1105,1101,1101,1097,1094,1094,1094,1094,1094,1094,1097,1101,1101,1101,1101,1101,1105,1101,1101,1105,1105,0,0,0,0,1843,1843,1843,1843,1843,1843,1843,1843,1843,1843,1853,1853,1853,1843,1843,1843,1833,1833,1823,1813,1804,1804,1804,1804,1804,1794,1794,1785,1776,1776,1766,1766,1766,1757,1757,1757,1757,1739,1739,1739,1731,1722,1722,1713,1713,1713,1705,1705,1696,1696,1696,1688,1688,0,0,0,0,0,0,0,880,880,880,880,878,878,878,878,875,873,871,871,867,864,864,862,862,862,862,862,864,867,867,867,869,869,871,871,873,873,875,875,875,880,0,0,0,0,0,0,1516,1516,1516,1516,1509,1509,1509,1503,1496,1496,1496,1489,1489,1489,1483,1470,1470,1464,1464,1464,1458,1458,1452,1452,1452,1445,1445,1445,1439,1433,1427,1427,1421,1421,1415,1415,1415,1410,1410,1410,1404,1398,1398,1392,1392,1392,1387,1387,1381,1381,1376,1376,1370,1370,1370,1365,1359,1359,1354,1354,1354,1349,1349,1349,1343,1343,1338,1333,1333,1328,1322,1317,1317,1317,1312,1312,1312,1307,1307,1307,1302,1302,1297,1292,1288,1288,1283,1283,1283,1283,1278,1273,1268,1268,1268,1264,1264,1259,1255,1255,1255,1250,1250,1245,1245,1241,1236,1236,1232,1232,1232,1227,1227,1223,1223,1219,1219,1214,1214,1214,1210,1210,1202,1202,1202,1197,1197,1193,1193,1193,1189,1189,1185,1185,1181,1181,1177,1173,1173,1173,1169,1169,1169,1165,1165,1165,1161,1157,1153,1153,1149,1149,1149,1149,1145,1141,1141,1138,1138,1134,1134,1130,1130,1126,1123,1123,1123,1119,1119,1119,1119,1115,1112,1108,1108,1105,1101,1101,1101,1097,1097,1094,1094,1094,1090,1090,1087,1084,1080,1080,1080,1077,1077,1073,1070,1070,1067,1067,1067,1063,1063,1063,1060,1060,1057,1054,1054,1047,1047,1047,1047,1044,1044,1041,1041,1041,1041,1038,1038,1038,1034,1028,1028,1028,1025,1025,1025,1025,1022,1022,1022,1019,1016,1016,1013,1013,1013,1010,1007,1004,1004,1004,1001,1001,1001,1001,998,998,995,992,992,989,989,989,987,984,984,0,0,0,0,0,0,0,0,0,0,0,0,0,0,0,0,0,0,0,0,0,0,0,0,0,0,0,0,0,0
0,0,0,0,0,0,0,0,0,0,0,0,0,0,0,1863,1863,1873,1873,1873,1863,1853,1853,1853,1853,1853,1843,1843,1843,1833,1833,1833,1833,1833,1833,1843,1843,1833,1833,1833,1833,1833,1823,1823,1823,1823,1813,1813,1813,1813,1804,1804,1804,1804,1804,1804,1804,1804,1804,1804,1804,1794,1794,1794,1794,1794,1785,1785,1785,1785,1785,1776,1776,1776,1776,1766,1766,1766,1766,1766,1766,1766,1766,1766,1766,1766,1757,1757,1757,1757,1757,1757,1757,1757,1748,1748,1748,1739,1739,1739,1739,1739,1731,1731,1731,1731,1731,1731,1731,1731,1731,1731,1722,1722,1722,1722,1713,1713,1713,1713,1705,1705,1705,1705,1705,1705,1696,1696,1696,1696,1696,1688,1688,1688,1688,1688,1688,1688,1688,1688,1688,1688,1688,1688,1688,1688,1696,1696,1696,1696,1696,1696,1696,1696,1696,1696,1705,2415,2415,2415,2415,2415,2415,2415,2432,0,0,0,0,0,0,1671,1671,1671,1671,1671,1663,1663,1663,1663,1663,1671,1680,1680,1680,1688,1688,1688,1688,1696,1696,1696,1696,1696,1696,1696,1696,1696,1705,1705,1705,1713,1713,1722,1722,1722,1722,1722,1722,1731,1731,1731,1731,1731,1739,1739,1739,1739,1739,1731,1731,1731,1739,0,1105,1105,1105,1105,1105,1105,1101,1097,1094,1094,1094,1094,1094,1097,1097,1101,1101,1101,1101,1101,1105,1105,1105,1105,1105,0,0,0,0,1843,1843,1843,1843,1843,1843,1843,1843,1843,1843,1853,1853,1853,1853,1843,1843,1843,1833,1833,1823,1813,1813,1804,1804,1804,1794,1794,1785,1776,1776,1766,1766,1766,1757,1757,1757,1757,1748,1748,1739,1731,1731,1722,1722,1713,1713,1713,1705,1705,1696,1696,1688,1688,0,0,0,0,0,0,0,880,880,880,880,880,878,878,878,878,873,871,871,867,864,864,862,862,862,862,864,864,867,867,869,869,871,873,873,875,875,875,875,875,0,0,0,0,0,0,0,1516,1516,1516,1516,1509,1509,1509,1503,1503,1496,1496,1489,1489,1489,1489,1477,1477,1470,1470,1464,1464,1458,1452,1452,1452,1445,1445,1445,1439,1433,1433,1427,1427,1421,1421,1415,1415,1410,1410,1410,1404,1398,1398,1392,1392,1392,1392,1387,1387,1381,1381,1376,1376,1370,1370,1365,1359,1359,1354,1354,1354,1349,1349,1349,1343,1343,1338,1333,1333,1328,1322,1322,1317,1317,1312,1312,1312,1312,1307,1307,1307,1302,1297,1292,1292,1288,1283,1283,1283,1283,1278,1273,1273,1268,1268,1264,1264,1259,1259,1255,1255,1250,1250,1245,1245,1241,1236,1236,1236,1232,1232,1232,1227,1227,1223,1219,1219,1219,1214,1214,1210,1210,1206,1206,1202,1197,1197,1197,1193,1193,1189,1189,1185,1185,1181,1181,1177,1177,1173,1173,1169,1169,1169,1165,1165,1165,1161,1157,1153,1153,1149,1149,1149,1149,1149,1145,1145,1138,1138,1134,1134,1130,1130,1126,1123,1123,1123,1123,1119,1119,1119,1115,1112,1108,1108,1105,1105,1101,1101,1097,1097,1094,1094,1094,1090,1090,1087,1087,1084,1080,1080,1077,1077,1077,1073,1070,1070,1070,1067,1067,1063,1063,1060,1060,1060,1057,1057,1054,1050,1047,1047,1044,1044,1041,1041,1041,1041,1038,1038,1038,1034,1031,1028,1028,1028,1025,1025,1025,1022,1022,1022,1019,1016,1016,1016,1013,1013,1010,1007,1004,1004,1004,1001,1001,1001,1001,1001,998,995,992,992,992,989,989,989,987,987,0,0,0,0,0,0,0,0,0,0,0,0,0,0,0,0,0,0,0,0,0,0,0,0,0,0,0,0,0,0
0,0,0,0,0,0,0,0,0,0,0,0,0,0,0,1873,1873,1873,1873,1873,1863,1853,1853,1853,1853,1853,1843,1843,1843,1843,1843,1833,1833,1833,1843,1843,1843,1843,1833,1833,1833,1833,1823,1823,1823,1813,1813,1813,1813,1813,1804,1804,1804,1804,1804,1804,1804,1804,1804,1804,1804,1804,1794,1794,1794,1794,1785,1785,1785,1785,1785,1776,1776,1776,1776,1766,1766,1766,1766,1766,1766,1766,1766,1766,1766,1766,1757,1757,1757,1757,1757,1757,1757,1757,1748,1748,1748,1748,1739,1739,1731,1731,1731,1731,1731,1731,1731,1731,1731,1731,1731,1731,1722,1722,1722,1722,1722,1722,1713,1713,1713,1713,1705,1705,1705,1705,1696,1696,1696,1696,1696,1696,1696,1688,1688,1688,1688,1688,1688,1688,1688,1688,1688,1688,1688,1688,1696,1696,1696,1696,1696,1696,1696,1696,1696,1696,1705,1705,2450,2450,2415,2415,2432,2432,2432,0,0,0,0,0,1688,1671,1671,1671,1671,1671,1671,1671,1671,1671,1671,1671,1680,1680,1688,1688,1688,1688,1688,1696,1696,1696,1696,1696,1696,1696,1696,1696,1705,1705,1713,1713,1722,1722,1722,1722,1722,1722,1731,1731,1731,1731,1739,1739,1739,1739,1739,1739,1739,1731,1731,1739,1739,0,1105,1105,1105,1105,1105,1105,1105,1101,1097,1097,1094,1094,1097,1097,1097,1101,1101,1101,1101,1105,1105,1105,1105,1105,1105,0,0,0,0,1843,1843,1843,1843,1843,1843,1843,1843,1843,1843,1853,1853,1853,1853,1853,1843,1843,1843,1833,1833,1823,1813,1813,1804,1804,1794,1794,1785,1785,1776,1766,1766,1766,1757,1757,1757,1757,1748,1748,1739,1739,1731,1722,1722,1722,1713,1713,1705,1705,1696,1696,1696,1696,0,0,0,0,0,0,0,880,880,880,880,880,878,878,878,878,873,871,871,867,864,864,864,862,862,862,864,864,867,869,869,869,871,873,873,875,875,875,875,875,0,0,0,0,0,0,0,1523,1523,1516,1516,1509,1509,1509,1503,1503,1496,1496,1489,1489,1489,1483,1483,1477,1470,1470,1464,1464,1464,1458,1452,1452,1445,1445,1445,1439,1433,1433,1427,1427,1421,1421,1415,1415,1415,1410,1410,1404,1398,1398,1392,1392,1392,1392,1392,1387,1381,1381,1376,1376,1370,1370,1365,1359,1359,1354,1354,1354,1349,1349,1349,1349,1343,1338,1333,1333,1328,1328,1322,1317,1317,1312,1312,1312,1312,1307,1307,1307,1307,1297,1297,1292,1288,1288,1283,1283,1283,1278,1278,1273,1273,1268,1268,1264,1264,1259,1255,1255,1250,1250,1245,1245,1241,1236,1236,1236,1232,1232,1232,1232,1227,1223,1219,1219,1219,1214,1214,1210,1210,1206,1206,1202,1197,1197,1197,1193,1193,1189,1189,1185,1185,1181,1181,1177,1177,1173,1173,1169,1169,1169,1169,1165,1165,1161,1157,1157,1153,1153,1149,1149,1149,1149,1145,1145,1141,1138,1138,1134,1130,1130,1126,1123,1123,1123,1123,1119,1119,1119,1115,1115,1112,1108,1105,1105,1105,1101,1097,1097,1097,1094,1094,1090,1090,1087,1087,1084,1084,1080,1077,1077,1077,1073,1073,1070,1070,1067,1067,1063,1063,1060,1060,1060,1057,1054,1054,1050,1050,1047,1047,1044,1041,1041,1041,1041,1038,1038,1038,1034,1031,1031,1028,1028,1025,1025,1025,1022,1022,1022,1019,1016,1016,1016,1013,1013,1010,1007,1004,1004,1004,1001,1001,1001,1001,1001,998,995,992,992,992,989,989,989,987,987,0,0,0,0,0,0,0,0,0,0,0,0,0,0,0,0,0,0,0,0,0,0,0,0,0,0,0,0,0,0
0,0,0,0,0,0,0,0,0,0,0,0,0,0,0,1873,1873,1873,1873,1873,1863,1853,1853,1853,1853,1853,1853,1853,1853,1843,1843,1843,1843,1843,1843,1843,1843,1843,1843,1833,1833,1833,1823,1823,1823,1813,1813,1813,1813,1813,1804,1804,1804,1804,1804,1804,1804,1804,1804,1804,1804,1804,1794,1794,1794,1794,1794,1785,1785,1785,1785,1776,1776,1776,1776,1766,1766,1766,1766,1766,1766,1766,1766,1766,1766,1766,1757,1757,1757,1757,1757,1757,1757,1748,1748,1748,1748,1739,1739,1739,1731,1731,1731,1731,1731,1731,1731,1731,1731,1731,1731,1731,1731,1722,1722,1722,1722,1722,1722,1722,1713,1713,1713,1705,1705,1705,1696,1696,1696,1696,1696,1696,1696,1688,1688,1688,1688,1688,1688,1688,1688,1688,1688,1688,1688,1688,1696,1696,1696,1696,1696,1696,1696,1696,1696,1705,1705,1705,2450,2450,2415,2415,2432,2432,0,0,0,0,0,0,1680,1680,1671,1671,1671,1671,1671,1671,1671,1671,1680,1680,1688,1688,1688,1688,1688,1688,1688,1696,1696,1696,1696,1696,1696,1696,1696,1705,1705,1705,1713,1713,1722,1722,1722,1722,1731,1731,1731,1731,1731,1731,1739,1739,1739,1739,1739,1739,1739,1731,1731,1739,1739,0,1105,1105,1105,1105,1105,1105,1105,1101,1101,1097,1097,1097,1097,1097,1101,1101,1101,1101,1101,1105,1105,1105,1105,1105,1105,1105,0,0,1843,1843,1843,1843,1843,1843,1843,1843,1843,1843,1843,1853,1853,1853,1853,1853,1843,1843,1843,1833,1833,1823,1813,1813,1813,1804,1794,1794,1785,1785,1776,1776,1766,1766,1766,1757,1757,1757,1748,1748,1739,1739,1731,1731,1722,1722,1722,1722,1713,1705,1696,1696,1696,1696,0,0,0,0,0,0,0,882,882,882,880,880,880,878,878,875,873,873,871,869,867,867,864,864,864,864,864,864,867,869,869,871,871,873,873,875,875,875,875,878,0,0,0,0,0,0,1529,1523,1523,1516,1516,1516,1509,1509,1503,1503,1496,1496,1489,1489,1489,1483,1483,1477,1470,1470,1464,1464,1464,1458,1458,1452,1445,1445,1445,1439,1433,1433,1427,1427,1421,1421,1415,1415,1415,1410,1410,1404,1398,1398,1392,1392,1392,1392,1392,1387,1381,1381,1376,1376,1370,1365,1365,1359,1359,1354,1354,1354,1354,1349,1349,1349,1343,1343,1333,1333,1328,1328,1322,1322,1317,1317,1317,1312,1312,1312,1307,1307,1307,1297,1297,1292,1292,1288,1288,1283,1283,1278,1278,1273,1273,1268,1268,1264,1264,1259,1259,1255,1255,1250,1245,1245,1241,1236,1236,1236,1232,1232,1232,1232,1227,1223,1219,1219,1219,1219,1214,1210,1210,1206,1206,1202,1202,1202,1197,1197,1193,1193,1189,1189,1185,1185,1181,1181,1177,1177,1173,1169,1169,1169,1169,1165,1165,1161,1161,1157,1153,1153,1153,1149,1149,1145,1145,1145,1141,1138,1138,1134,1130,1130,1126,1123,1123,1123,1123,1123,1119,1119,1115,1115,1112,1108,1105,1105,1105,1101,1101,1097,1097,1094,1094,1090,1090,1090,1087,1087,1084,1080,1077,1077,1077,1073,1073,1070,1070,1067,1067,1063,1063,1060,1060,1060,1057,1054,1050,1050,1050,1047,1047,1047,1044,1041,1041,1041,1038,1038,1038,1034,1031,1031,1028,1028,1025,1025,1025,1022,1022,1022,1019,1019,1016,1016,1013,1013,1010,1007,1004,1004,1004,1001,1001,1001,1001,1001,998,998,995,992,992,989,989,987,987,989,0,0,0,0,0,0,0,0,0,0,0,0,0,0,0,0,0,0,0,0,0,0,0,0,0,0,0,0,0,0
0,0,0,0,0,0,0,0,0,0,0,0,0,0,0,1873,1873,1873,1873,1873,1873,1863,1863,1863,1863,1853,1853,1853,1853,1843,1843,1843,1843,1843,1843,1843,1843,1843,1843,1833,1833,1833,1833,1833,1823,1823,1823,1813,1813,1813,1804,1804,1804,1804,1804,1804,1804,1804,1804,1804,1804,1804,1804,1794,1794,1794,1794,1785,1785,1785,1785,1776,1776,1776,1776,1776,1766,1766,1766,1766,1766,1766,1766,1766,1766,1766,1766,1766,1757,1757,1757,1757,1757,1748,1748,1748,1748,1739,1739,1739,1731,1731,1731,1739,1739,1731,1731,1739,1739,1731,1731,1731,1731,1731,1722,1722,1722,1722,1722,1722,1722,1722,1713,1713,1713,1713,1705,1705,1705,1696,1696,1696,1696,1696,1696,1688,1688,1688,1688,1688,1688,1688,1688,1688,1688,1688,1696,1696,1696,1696,1696,1696,1696,1696,1696,1705,1705,1705,2467,2467,2432,2432,2432,2432,0,0,0,2090,0,0,1680,1680,1680,1671,1671,1680,1671,1671,1671,1680,1680,1688,1688,1688,1688,1688,1688,1688,1688,1696,1696,1696,1696,1696,1705,1705,1705,1705,1705,1705,1713,1713,1713,1722,1722,1722,1722,1722,1731,1731,1731,1731,1739,1739,1739,1739,1739,1739,1739,1731,1731,1731,0,0,1108,1108,1108,1108,1105,1105,1105,1101,1101,1097,1097,1097,1097,1101,1101,1101,1101,1105,1105,1105,1105,1105,1105,1105,1105,1105,0,0,1833,1833,1833,1833,1843,1843,1843,1843,1843,1843,1843,1853,1853,1853,1853,1853,1853,1843,1843,1843,1833,1833,1823,1823,1813,1813,1804,1794,1794,1785,1776,1776,1766,1766,1766,1766,1757,1757,1748,1748,1739,1739,1731,1731,1722,1722,1722,1722,1713,1705,1705,1696,1696,1696,0,0,0,0,0,0,0,882,882,882,880,880,880,878,878,875,873,873,871,869,867,867,867,864,864,864,867,867,869,869,869,871,871,873,873,875,875,875,875,0,0,0,0,0,0,0,1529,1523,1523,1516,1516,1516,1509,1509,1503,1503,1496,1496,1496,1496,1489,1483,1483,1477,1470,1470,1470,1464,1464,1464,1458,1452,1445,1445,1445,1439,1433,1427,1427,1427,1421,1421,1415,1415,1415,1415,1410,1404,1398,1398,1398,1392,1392,1392,1392,1387,1387,1381,1381,1376,1376,1365,1365,1365,1359,1354,1354,1354,1354,1349,1349,1349,1343,1343,1338,1333,1333,1328,1328,1322,1317,1317,1317,1312,1312,1312,1307,1307,1307,1302,1297,1292,1292,1288,1288,1283,1283,1283,1278,1273,1273,1268,1268,1268,1264,1264,1259,1255,1255,1255,1250,1250,1245,1241,1236,1236,1232,1232,1232,1232,1227,1223,1219,1219,1219,1219,1214,1210,1210,1206,1206,1206,1202,1202,1197,1197,1197,1193,1193,1189,1189,1185,1181,1181,1177,1177,1177,1173,1173,1169,1169,1169,1165,1161,1161,1157,1153,1153,1153,1149,1149,1145,1145,1141,1141,1138,1138,1134,1134,1130,1126,1123,1123,1123,1123,1123,1119,1119,1115,1115,1112,1108,1105,1105,1105,1101,1101,1097,1097,1094,1094,1090,1090,1090,1087,1087,1084,1080,1077,1077,1077,1077,1073,1073,1070,1067,1067,1063,1063,1060,1060,1060,1057,1057,1050,1050,1050,1050,1050,1047,1044,1044,1041,1041,1038,1038,1038,1034,1031,1031,1028,1028,1025,1025,1025,1022,1022,1022,1019,1019,1016,1016,1016,1013,1010,1007,1007,1004,1004,1004,1001,1001,1001,1001,998,998,995,992,992,989,989,987,987,0,0,0,0,0,0,0,0,0,0,0,0,0,0,0,0,0,0,0,0,0,0,0,0,0,0,0,0,0,0,0
0,0,0,0,0,0,0,0,0,0,0,0,0,0,0,1873,1873,1873,1873,1873,1873,1863,1863,1863,1863,1853,1853,1853,1853,1853,1843,1843,1843,1843,1843,1843,1833,1833,1843,1833,1833,1843,1833,1833,1823,1823,1823,1813,1813,1813,1813,1813,1804,1804,1804,1804,1804,1804,1804,1804,1804,1804,1804,1804,1794,1794,1794,1794,1785,1785,1785,1785,1776,1776,1776,1776,1766,1766,1766,1766,1766,1766,1766,1766,1766,1766,1766,1766,1757,1757,1757,1757,1757,1757,1757,1748,1748,1739,1739,1739,1731,1731,1739,1739,1739,1739,1739,1739,1739,1739,1731,1731,1731,1731,1722,1722,1722,1722,1722,1722,1722,1722,1722,1722,1722,1713,1713,1705,1705,1705,1696,1696,1696,1696,1696,1688,1688,1688,1688,1688,1688,1688,1688,1688,1688,1688,1696,1696,1696,1696,1696,1696,1705,1705,1705,1705,1705,1705,2485,2485,2103,2090,2090,2090,2090,2090,2090,2090,0,0,1688,1688,1680,1680,1680,1680,1680,1680,1680,1680,1680,1688,1688,1688,1688,1688,1688,1688,1688,1696,1696,1696,1696,1705,1705,1705,1705,1705,1713,1713,1713,1713,1713,1722,1722,1722,1722,1722,1731,1731,1731,1739,1739,1739,1739,1739,1739,1739,1739,1739,1739,1739,0,0,1108,1108,1108,1108,1105,1105,1105,1101,1101,1097,1097,1097,1097,1101,1101,1101,1101,1105,1105,1105,1105,1105,1105,1105,1105,1105,0,0,1833,1833,1833,1833,1843,1843,1843,1843,1843,1843,1843,1853,1853,1853,1853,1853,1853,1843,1843,1843,1843,1833,1833,1823,1823,1813,1804,1794,1794,1785,1776,1776,1766,1766,1766,1766,1757,1757,1748,1748,1739,1739,1731,1731,1731,1722,1722,1722,1713,1713,1713,1696,1696,1696,1705,0,0,0,0,0,0,878,878,880,880,880,880,878,878,878,875,873,871,869,867,867,867,864,864,864,867,867,869,869,871,871,871,873,873,875,875,875,875,878,0,0,0,0,0,0,1543,1523,1523,1523,1516,1516,1516,1509,1509,1503,1496,1496,1496,1496,1489,1483,1483,1477,1470,1470,1470,1464,1464,1464,1458,1452,1452,1445,1445,1439,1433,1427,1427,1427,1421,1421,1421,1415,1415,1415,1410,1410,1404,1398,1398,1398,1392,1392,1392,1392,1387,1387,1381,1376,1376,1370,1365,1365,1359,1354,1354,1354,1354,1349,1349,1349,1343,1343,1338,1333,1333,1328,1328,1322,1317,1317,1317,1312,1312,1312,1307,1307,1307,1302,1302,1297,1292,1292,1288,1288,1288,1283,1278,1278,1273,1268,1268,1268,1264,1264,1259,1255,1255,1255,1250,1250,1250,1250,1241,1236,1236,1236,1232,1232,1227,1227,1223,1219,1219,1219,1214,1214,1210,1210,1206,1206,1202,1202,1197,1197,1197,1197,1193,1189,1189,1185,1181,1181,1177,1177,1177,1173,1173,1169,1169,1169,1165,1165,1161,1157,1157,1153,1153,1149,1149,1145,1145,1141,1141,1138,1138,1134,1134,1130,1130,1126,1123,1123,1123,1123,1119,1119,1115,1115,1112,1108,1105,1105,1105,1101,1101,1097,1097,1094,1094,1090,1090,1090,1087,1087,1084,1080,1080,1077,1077,1077,1073,1073,1070,1070,1067,1063,1063,1060,1060,1060,1057,1057,1054,1054,1050,1050,1050,1047,1044,1044,1041,1041,1038,1038,1038,1034,1034,1031,1028,1028,1028,1025,1025,1025,1025,1022,1022,1019,1016,1016,1016,1016,1013,1010,1007,1007,1004,1004,1004,1001,1001,1001,1001,998,995,995,992,992,989,989,989,0,0,0,0,0,0,0,0,0,0,0,0,0,0,0,0,0,0,0,0,0,0,0,0,0,0,0,0,0,0,0
0,0,0,0,0,0,0,0,0,0,0,0,0,0,0,1873,1873,1873,1873,1873,1873,1863,1863,1863,1863,1863,1853,1853,1853,1853,1853,1843,1843,1843,1843,1843,1833,1833,1833,1833,1833,1833,1833,1833,1833,1823,1823,1823,1823,1813,1813,1813,1813,1813,1813,1813,1813,1813,1804,1804,1804,1804,1804,1804,1794,1794,1794,1794,1785,1785,1785,1785,1776,1776,1776,1776,1766,1766,1766,1766,1776,1766,1766,1766,1776,1766,1766,1766,1766,1757,1757,1757,1757,1757,1757,1748,1748,1739,1739,1739,1739,1739,1739,1739,1739,1739,1739,1748,1748,1739,1739,1731,1731,1731,1731,1731,1731,1731,1722,1722,1722,1722,1722,1722,1722,1713,1713,1705,1705,1705,1705,1696,1696,1696,1696,1696,1696,1696,1688,1688,1688,1688,1688,1688,1688,1688,1696,1696,1696,1696,1696,1696,1705,1705,1705,1705,1705,2116,2103,2103,2103,2090,2078,2078,2065,2065,2065,2053,2053,2053,1688,1688,1688,1688,1688,1688,1688,1680,1680,1680,1680,1688,1688,1688,1688,1688,1688,1688,1696,1696,1696,1696,1696,1705,1705,1705,1705,1705,1713,1713,1713,1713,1713,1722,1722,1722,1722,1722,1731,1731,1731,1739,1739,1739,1748,1748,1748,1748,1748,1739,1739,1739,0,1108,1108,1108,1108,1108,1105,1105,1105,1101,1101,1097,1097,1097,1097,1101,1101,1101,1101,1105,1105,1105,1108,1108,1108,1108,1108,1108,1060,1060,1054,1054,1054,1833,1833,1843,1843,1843,1843,1843,1853,1853,1853,1853,1853,1853,1853,1843,1843,1843,1843,1833,1833,1823,1823,1813,1813,1794,1794,1785,1785,1776,1766,1766,1766,1766,1757,1757,1748,1748,1739,1739,1739,1731,1731,1731,1722,1722,1713,1713,1713,1696,1696,1696,1696,0,0,0,0,0,0,878,878,880,880,880,880,878,878,878,875,873,871,869,867,867,867,864,864,864,867,867,869,869,871,871,873,875,875,878,878,878,878,878,0,0,0,0,0,0,1536,1523,1523,1523,1523,1516,1516,1509,1509,1503,1503,1496,1496,1496,1489,1483,1483,1477,1470,1470,1470,1470,1464,1464,1464,1452,1452,1445,1445,1439,1433,1427,1427,1427,1421,1421,1421,1421,1421,1415,1415,1410,1404,1398,1398,1398,1392,1392,1392,1392,1387,1387,1381,1376,1370,1370,1365,1365,1359,1354,1354,1354,1354,1349,1349,1349,1349,1343,1338,1333,1333,1328,1328,1322,1322,1317,1317,1312,1312,1312,1312,1312,1307,1302,1302,1297,1292,1292,1288,1288,1288,1283,1278,1278,1273,1268,1268,1268,1264,1264,1259,1255,1255,1255,1250,1250,1250,1250,1241,1236,1236,1236,1232,1232,1227,1227,1227,1223,1219,1219,1214,1214,1210,1210,1206,1206,1202,1202,1202,1197,1197,1197,1197,1193,1185,1185,1181,1181,1181,1181,1181,1177,1177,1173,1173,1169,1169,1165,1165,1157,1157,1153,1153,1153,1149,1145,1145,1145,1141,1138,1138,1134,1134,1134,1130,1126,1123,1123,1123,1123,1119,1119,1119,1115,1115,1112,1108,1105,1105,1101,1101,1097,1097,1094,1094,1090,1090,1090,1087,1087,1084,1080,1080,1080,1077,1077,1073,1073,1070,1070,1067,1063,1063,1060,1060,1060,1057,1054,1054,1054,1050,1050,1050,1047,1047,1044,1041,1041,1041,1038,1038,1038,1034,1034,1031,1028,1028,1028,1025,1025,1025,1022,1022,1022,1019,1016,1016,1016,1013,1010,1010,1007,1007,1004,1004,1004,1001,1001,1001,998,998,995,992,992,989,989,989,0,0,0,0,0,0,0,0,0,0,0,0,0,0,0,0,0,0,0,0,0,0,0,0,0,0,0,0,0,0,0
0,0,0,0,0,0,0,0,0,0,0,0,0,0,0,1873,1873,1873,1873,1873,1873,1863,1863,1863,1863,1863,1853,1853,1853,1863,1863,1843,1843,1843,1843,1843,1833,1833,1833,1833,1833,1833,1833,1833,1833,1823,1823,1823,1823,1813,1813,1813,1813,1813,1813,1813,1813,1813,1813,1804,1804,1804,1804,1804,1794,1794,1794,1794,1785,1785,1785,1785,1785,1785,1785,1785,1776,1776,1766,1766,1776,1776,1776,1776,1776,1766,1766,1766,1766,1757,1757,1757,1757,1757,1757,1757,1757,1748,1748,1748,1748,1748,1748,1748,1748,1748,1748,1748,1748,1739,1739,1731,1731,1731,1731,1731,1731,1731,1731,1722,1722,1722,1722,1722,1722,1713,1713,1705,1705,1705,1705,1696,1696,1696,1696,1696,1696,1696,1696,1696,1696,1688,1688,1688,1688,1696,1696,1696,1696,1696,1696,1705,1705,1705,1713,1713,2103,2103,2103,2078,2078,2078,2065,2065,2065,2053,2053,2053,2053,2053,1696,1696,1696,1688,1688,1688,1688,1680,1680,1680,1680,1688,1688,1688,1688,1688,1688,1688,1696,1696,1696,1696,1696,1705,1705,1705,1705,1713,1713,1713,1713,1713,1713,1722,1722,1722,1731,1731,1731,1731,1731,1739,1739,1739,1748,1748,1748,1748,1739,1739,1739,1739,0,1108,1108,1108,1108,1105,1105,1105,1105,1101,1101,1097,1097,1097,1097,1101,1101,1101,1101,1105,1108,1108,1108,1112,1112,1112,1112,1060,1060,1060,1054,1054,1054,1047,1047,1047,1047,1843,1038,1028,1028,1853,1853,1853,1853,1853,1843,1843,1843,1843,1843,1833,1833,1833,1823,1813,1813,1804,1794,1785,1785,1776,1776,1766,1766,1766,1757,1757,1748,1748,1739,1739,1731,1731,1731,1731,1722,1722,1722,1713,1713,1696,1696,1696,1696,0,0,0,0,0,0,0,880,880,880,880,880,878,878,875,873,871,871,869,867,867,867,864,864,864,867,867,869,869,871,871,873,875,878,878,878,878,878,0,0,0,0,0,0,0,1536,1529,1529,1523,1523,1516,1516,1516,1509,1509,1503,1496,1496,1496,1489,1483,1483,1477,1470,1470,1470,1470,1464,1464,1464,1458,1452,1445,1445,1439,1439,1433,1433,1427,1421,1421,1421,1421,1421,1415,1415,1415,1404,1404,1398,1398,1392,1392,1392,1392,1387,1387,1381,1376,1370,1370,1365,1365,1359,1354,1354,1354,1354,1349,1349,1349,1349,1349,1338,1333,1333,1333,1328,1322,1322,1322,1317,1317,1312,1312,1312,1307,1307,1307,1302,1302,1297,1292,1288,1288,1288,1283,1278,1278,1273,1268,1268,1268,1268,1264,1259,1259,1255,1255,1255,1250,1250,1250,1245,1241,1236,1236,1232,1232,1227,1227,1227,1227,1223,1223,1214,1214,1214,1210,1210,1206,1202,1202,1202,1202,1197,1197,1197,1193,1185,1185,1185,1181,1181,1181,1181,1177,1177,1173,1173,1169,1169,1165,1165,1161,1157,1157,1153,1153,1149,1149,1145,1145,1141,1141,1138,1138,1134,1134,1130,1126,1126,1123,1123,1123,1123,1119,1119,1119,1115,1112,1108,1108,1108,1105,1101,1101,1097,1097,1094,1090,1090,1090,1087,1087,1084,1080,1080,1080,1077,1077,1077,1073,1070,1070,1067,1063,1063,1063,1063,1060,1057,1054,1054,1054,1054,1050,1050,1050,1047,1044,1044,1041,1041,1038,1038,1038,1034,1034,1031,1031,1028,1028,1028,1025,1025,1025,1022,1022,1019,1016,1016,1016,1013,1010,1010,1007,1007,1004,1004,1004,1001,1001,1001,998,998,995,992,992,989,989,989,0,0,0,0,0,0,0,0,0,0,0,0,0,0,0,0,0,0,0,0,0,0,0,0,0,0,0,0,0,0,0
0,0,0,0,0,0,0,0,0,0,0,0,0,0,0,1883,1883,1873,1873,1873,1873,1863,1863,1863,1863,1863,1853,1853,1853,1863,1863,1853,1843,1843,1843,1843,1843,1843,1833,1833,1833,1833,1833,1833,1833,1833,1833,1823,1813,1813,1813,1813,1813,1813,1813,1813,1813,1813,1813,1804,1804,1804,1804,1804,1794,1794,1794,1794,1794,1794,1794,1785,1785,1785,1785,1785,1776,1776,1766,1766,1776,1776,1776,1776,1776,1776,1766,1766,1766,1757,1757,1757,1757,1757,1757,1757,1757,1757,1757,1748,1748,1748,1748,1748,1748,1748,1748,1748,1748,1739,1739,1731,1731,1731,1731,1731,1731,1731,1731,1722,1722,1722,1722,1722,1722,1713,1713,1713,1705,1705,1705,1696,1696,1696,1696,1696,1696,1696,1696,1696,1696,1688,1688,1688,1688,1696,1696,1696,1696,1696,1696,1705,1705,1713,1713,1713,1713,2103,2065,2065,2065,2065,2065,2065,2053,2053,2053,2040,2040,2040,1696,1696,1696,1696,1688,1688,1688,1688,1688,1688,1688,1688,1688,1688,1688,1688,1688,1688,1696,1696,1696,1696,1696,1705,1705,1705,1713,1713,1713,1713,1713,1713,1713,1722,1722,1722,1731,1731,1731,1731,1731,1739,1739,1739,1748,1748,1748,1748,1722,1722,1722,0,0,0,0,1108,1108,1105,1105,1105,1101,1101,1101,1097,1097,1097,1101,1101,1101,1101,1101,1105,1105,1108,1108,1112,1112,1112,1112,1063,1060,1057,1054,1054,1054,1047,1047,1047,1047,1044,1038,1028,1028,1031,1028,1025,1022,1019,1016,1016,1016,1843,1843,1843,1833,1833,1823,1813,1804,1804,1794,1785,1785,1776,1776,1766,1766,1766,1766,1757,1757,1748,1739,1739,1731,1731,1731,1731,1722,1722,946,946,946,946,946,946,946,946,0,0,0,0,0,0,0,880,880,880,880,878,878,875,873,871,869,869,867,867,867,867,867,867,867,869,869,871,871,873,873,875,878,878,878,875,875,0,0,0,0,0,0,0,1536,1529,1523,1523,1523,1516,1516,1516,1516,1509,1503,1496,1496,1496,1489,1483,1483,1477,1470,1470,1470,1470,1464,1464,1464,1458,1452,1445,1445,1445,1439,1433,1433,1427,1421,1421,1421,1421,1421,1415,1415,1415,1410,1410,1404,1398,1398,1392,1392,1392,1387,1387,1381,1376,1370,1370,1370,1365,1365,1359,1359,1354,1354,1354,1349,1349,1349,1343,1338,1333,1333,1333,1333,1328,1328,1322,1317,1317,1312,1312,1312,1307,1307,1307,1302,1302,1297,1292,1292,1288,1288,1283,1283,1278,1273,1273,1268,1268,1268,1264,1259,1259,1255,1255,1255,1250,1250,1250,1245,1241,1241,1236,1232,1232,1232,1227,1227,1227,1223,1223,1219,1214,1214,1214,1210,1206,1202,1202,1202,1202,1197,1197,1197,1193,1189,1185,1185,1181,1181,1181,1181,1181,1177,1173,1173,1169,1169,1165,1165,1161,1161,1157,1153,1153,1149,1149,1149,1145,1145,1141,1138,1138,1134,1134,1130,1130,1126,1126,1123,1123,1123,1119,1119,1119,1115,1112,1108,1108,1108,1105,1105,1101,1101,1097,1094,1094,1090,1090,1090,1087,1084,1080,1080,1080,1077,1077,1077,1073,1070,1070,1067,1067,1063,1063,1063,1063,1057,1057,1057,1054,1054,1054,1050,1050,1047,1047,1044,1041,1041,1041,1041,1038,1038,1038,1034,1031,1028,1028,1028,1025,1025,1025,1025,1022,1019,1019,1016,1016,1013,1013,1010,1010,1007,1007,1004,1004,1001,1001,1001,998,998,995,995,992,992,989,989,0,0,0,0,0,0,0,0,0,0,0,0,0,0,0,0,0,0,0,0,0,0,0,0,0,0,0,0,0,0,0
0,0,0,0,0,0,0,0,0,0,0,0,0,0,0,1883,1883,1873,1873,1873,1873,1863,1863,1863,1863,1863,1863,1863,1863,1863,1863,1853,1853,1853,1853,1843,1843,1843,1833,1833,1833,1833,1833,1833,1833,1833,1833,1823,1813,1813,1813,1813,1813,1813,1813,1813,1813,1813,1813,1813,1804,1804,1804,1804,1804,1794,1794,1794,1794,1794,1794,1794,1794,1794,1785,1785,1776,1776,1776,1776,1776,1776,1776,1776,1776,1776,1766,1766,1766,1757,1757,1766,1766,1757,1757,1757,1757,1757,1757,1748,1748,1748,1748,1757,1757,1757,1748,1748,1748,1739,1739,1731,1731,1731,1731,1731,1731,1731,1731,1722,1722,1722,1722,1722,1722,1722,1713,1713,1705,1705,1705,1696,1696,1696,1696,1696,1696,1696,1696,1696,1696,1696,1696,1696,1696,1696,1696,1696,1696,1705,1705,1705,1713,1713,1713,1713,1713,2078,2065,2065,2065,2065,2065,2065,2053,2053,2040,2040,2028,2016,2016,1705,1705,1696,1696,1696,1688,1688,1688,1688,1688,1688,1688,1688,1688,1688,1688,1688,1696,1696,1696,1696,1696,1696,1705,1705,1713,1713,1713,1713,1713,1722,1722,1722,1722,1722,1731,1731,1731,1731,1731,1739,1739,1748,1748,1748,1748,1748,1722,1722,0,0,0,0,0,1108,1108,1105,1105,1105,1101,1101,1101,1097,1097,1097,1097,1101,1101,1101,1101,1105,1105,1108,1108,1112,1112,1073,1073,1063,1060,1057,1054,1054,1054,1050,1047,1047,1047,1044,1038,1031,1031,1031,1025,1022,1022,1019,1016,1016,1016,1016,1016,1013,1013,1010,1010,1813,1804,998,998,1785,987,984,981,978,978,1757,1757,1757,1757,1748,1748,1739,1731,1731,1731,943,940,940,943,943,946,946,943,943,946,946,946,0,0,0,0,0,0,880,880,880,880,878,878,878,873,871,869,869,867,867,867,867,867,867,869,869,869,871,871,873,873,875,878,878,878,875,875,0,0,0,0,0,0,1536,1536,1529,1523,1523,1523,1516,1516,1516,1516,1509,1503,1503,1496,1496,1489,1483,1483,1477,1470,1470,1470,1470,1464,1464,1464,1458,1452,1445,1445,1445,1439,1439,1439,1427,1427,1421,1421,1421,1421,1415,1415,1415,1410,1410,1404,1398,1398,1392,1392,1392,1387,1387,1381,1381,1376,1370,1370,1370,1365,1359,1359,1354,1354,1354,1349,1349,1349,1343,1343,1338,1333,1333,1333,1328,1328,1322,1322,1317,1312,1312,1312,1307,1307,1307,1302,1302,1297,1292,1292,1288,1288,1288,1283,1278,1278,1273,1273,1268,1268,1264,1264,1259,1255,1255,1255,1255,1250,1250,1250,1245,1241,1236,1236,1236,1232,1232,1227,1227,1223,1223,1219,1214,1214,1214,1210,1210,1206,1206,1202,1202,1202,1197,1197,1197,1189,1185,1185,1185,1181,1181,1181,1181,1177,1173,1173,1169,1169,1169,1165,1161,1161,1157,1153,1153,1149,1149,1149,1145,1145,1145,1141,1138,1138,1134,1134,1130,1130,1126,1126,1126,1123,1123,1119,1119,1115,1115,1112,1112,1108,1105,1105,1101,1101,1097,1097,1094,1094,1094,1090,1090,1084,1080,1080,1080,1077,1077,1077,1073,1073,1070,1067,1067,1067,1063,1063,1063,1057,1057,1057,1054,1054,1054,1054,1050,1050,1047,1044,1044,1041,1041,1041,1038,1038,1038,1034,1034,1031,1031,1028,1028,1025,1025,1025,1022,1022,1019,1016,1016,1016,1013,1010,1010,1007,1007,1004,1004,1001,1001,1001,998,998,995,992,992,992,989,989,0,0,0,0,0,0,0,0,0,0,0,0,0,0,0,0,0,0,0,0,0,0,0,0,0,0,0,0,0,0,0
0,0,0,0,0,0,0,0,0,0,0,0,0,0,0,1883,1883,1873,1873,1873,1873,1873,1873,1873,1873,1873,1873,1873,1863,1863,1863,1863,1853,1853,1853,1843,1843,1843,1833,1833,1833,1833,1833,1833,1833,1833,1833,1823,1823,1823,1823,1813,1813,1813,1804,1804,1804,1813,1823,1813,1813,1813,1804,1804,1804,1794,1794,1794,1794,1794,1794,1794,1794,1794,1794,1785,1785,1785,1776,1776,1776,1776,1776,1776,1785,1785,1776,1766,1766,1766,1766,1766,1766,1766,1766,1766,1766,1757,1757,1757,1757,1757,1757,1757,1757,1757,1748,1748,1748,1739,1739,1739,1739,1731,1731,1731,1731,1731,1731,1722,1722,1722,1722,1722,1722,1722,1713,1713,1705,1705,1705,1705,1705,1705,1705,1705,1696,1696,1696,1696,1696,1696,1696,1696,1696,1696,1696,1696,1696,1705,1705,1705,1713,1713,1713,1722,1722,2065,2065,2053,2053,2065,2065,2053,2053,2053,2040,2040,2028,2016,2016,2016,1713,1705,1696,1696,1688,1688,1688,1688,1688,1688,1688,1688,1688,1688,1688,1688,1696,1696,1696,1696,1696,1696,1705,1705,1713,1713,1713,1713,1713,1722,1722,1722,1722,1731,1731,1731,1731,1731,1739,1739,1748,1748,1748,1748,1748,1748,1731,1731,0,0,0,0,1115,1108,1108,1105,1105,1105,1101,1101,1101,1097,1097,1097,1097,1101,1101,1101,1101,1105,1105,1108,1108,1112,1112,1073,1073,1063,1060,1060,1057,1054,1054,1050,1050,1047,1047,1044,1038,1034,1031,1031,1025,1022,1022,1019,1019,1016,1016,1016,1013,1013,1010,1007,1001,1001,1001,998,992,989,987,984,978,975,973,970,967,964,962,962,1739,1739,954,954,946,943,940,940,943,943,943,943,943,943,946,946,946,0,0,0,0,0,0,880,880,880,880,878,878,878,875,871,869,869,867,867,867,867,867,867,869,869,869,871,871,873,873,875,878,878,878,878,0,0,0,0,0,0,0,1536,1536,1529,1529,1523,1523,1523,1516,1516,1516,1509,1509,1503,1503,1496,1489,1483,1483,1477,1470,1470,1470,1470,1464,1464,1464,1458,1445,1445,1445,1445,1439,1439,1439,1427,1427,1421,1421,1421,1421,1421,1415,1415,1415,1410,1404,1398,1398,1398,1392,1392,1392,1387,1387,1381,1376,1370,1370,1370,1365,1359,1359,1359,1354,1354,1354,1349,1349,1343,1343,1338,1333,1333,1333,1328,1328,1328,1322,1317,1317,1312,1312,1312,1307,1307,1302,1302,1297,1297,1292,1288,1288,1288,1283,1278,1278,1273,1273,1268,1268,1268,1264,1259,1255,1255,1255,1255,1250,1250,1250,1245,1245,1241,1236,1236,1232,1232,1232,1227,1223,1223,1219,1214,1214,1214,1210,1210,1206,1206,1202,1202,1202,1202,1197,1197,1189,1189,1185,1185,1185,1181,1181,1181,1177,1177,1173,1169,1169,1169,1165,1161,1161,1157,1153,1153,1149,1149,1149,1149,1145,1145,1141,1141,1138,1134,1134,1134,1130,1130,1126,1126,1123,1123,1119,1119,1115,1115,1112,1112,1108,1105,1105,1105,1101,1101,1097,1094,1094,1094,1090,1090,1090,1084,1080,1080,1080,1077,1077,1077,1073,1073,1070,1067,1067,1067,1063,1063,1060,1060,1057,1054,1054,1054,1054,1050,1050,1047,1047,1044,1041,1041,1041,1038,1038,1038,1034,1034,1031,1031,1028,1028,1025,1025,1025,1022,1022,1019,1019,1016,1016,1013,1013,1013,1010,1007,1004,1004,1004,1001,1001,1001,998,998,992,992,992,989,989,0,0,0,0,0,0,0,0,0,0,0,0,0,0,0,0,0,0,0,0,0,0,0,0,0,0,0,0,0,0,0
0,0,0,0,0,0,0,0,0,0,0,0,0,0,0,1883,1883,1883,1883,1873,1873,1873,1873,1873,1873,1873,1873,1873,1873,1873,1873,1863,1863,1863,1853,1843,1843,1843,1833,1833,1833,1833,1833,1833,1833,1833,1833,1833,1833,1823,1823,1823,1823,1813,1804,1804,1804,1813,1823,1813,1813,1813,1804,1804,1794,1794,1794,1794,1794,1794,1794,1794,1794,1794,1794,1785,1785,1785,1785,1785,1785,1785,1785,1785,1785,1785,1785,1776,1776,1776,1776,1766,1766,1766,1766,1766,1766,1757,1757,1757,1757,1757,1757,1757,1757,1757,1757,1748,1748,1748,1739,1739,1739,1731,1731,1731,1731,1731,1731,1731,1722,1722,1722,1722,1722,1722,1713,1713,1705,1705,1705,1705,1705,1705,1705,1705,1696,1696,1696,1696,1696,1696,1696,1696,1696,1696,1696,1696,1696,1705,1705,1705,1713,1713,1713,1722,1722,1722,2065,2053,2053,2065,2053,2053,2053,2053,2040,2040,2028,2028,2016,2016,1722,1705,1705,1696,1696,1688,1688,1688,1688,1688,1688,1688,1688,1688,1688,1688,1696,1696,1696,1696,1696,1696,1705,1705,1713,1713,1713,1713,1713,1722,1722,1722,1722,1731,1731,1731,1731,1731,1739,1739,1748,1748,1748,1748,1748,1748,1731,1731,0,0,0,0,1115,1112,1108,1105,1105,1105,1101,1101,1101,1097,1097,1097,1101,1101,1101,1101,1101,1101,1105,1105,1105,1105,1077,1077,1073,1067,1063,1060,1057,1057,1057,1050,1050,1050,1047,1047,1041,1038,1038,1034,1034,1025,1022,1022,1019,1019,1019,1019,1013,1013,1010,1004,1001,1001,1001,998,992,989,987,984,978,975,973,970,967,964,962,959,956,956,954,946,943,943,940,940,943,940,940,943,943,943,943,946,946,0,0,0,0,0,0,880,880,880,880,878,878,878,875,871,869,869,867,867,867,867,867,869,869,869,871,871,871,873,873,875,878,878,878,878,0,0,0,0,0,0,0,1543,1536,1529,1529,1523,1523,1523,1516,1516,1516,1509,1509,1503,1503,1496,1489,1483,1483,1477,1477,1470,1470,1470,1464,1464,1464,1458,1445,1445,1445,1445,1439,1439,1439,1433,1427,1427,1421,1421,1421,1415,1415,1415,1415,1410,1410,1404,1398,1398,1392,1392,1392,1387,1387,1381,1376,1376,1376,1370,1370,1365,1365,1359,1359,1354,1354,1354,1349,1343,1343,1338,1333,1333,1333,1328,1328,1328,1322,1317,1317,1312,1312,1312,1307,1307,1302,1302,1297,1297,1292,1292,1288,1288,1283,1283,1278,1273,1273,1268,1268,1268,1264,1264,1259,1255,1255,1255,1250,1250,1250,1245,1245,1241,1236,1236,1236,1232,1232,1232,1227,1223,1219,1214,1214,1214,1214,1210,1206,1206,1202,1202,1202,1202,1197,1197,1197,1189,1185,1185,1185,1181,1181,1181,1177,1177,1173,1173,1169,1169,1165,1165,1165,1161,1157,1153,1153,1149,1149,1149,1145,1145,1141,1141,1138,1134,1134,1134,1130,1130,1126,1126,1126,1123,1123,1119,1119,1115,1115,1112,1108,1105,1105,1105,1101,1101,1097,1094,1094,1094,1090,1090,1090,1084,1084,1080,1080,1077,1077,1077,1073,1073,1070,1067,1067,1067,1063,1063,1060,1060,1057,1054,1054,1054,1054,1050,1050,1047,1047,1044,1041,1041,1041,1041,1038,1038,1038,1038,1034,1031,1028,1028,1025,1025,1025,1022,1022,1019,1019,1016,1016,1013,1013,1013,1010,1007,1004,1004,1004,1001,1001,1001,998,998,995,992,992,989,989,0,0,0,0,0,0,0,0,0,0,0,0,0,0,0,0,0,0,0,0,0,0,0,0,0,0,0,0,0,0,0
0,0,0,0,0,0,0,0,0,0,0,0,0,0,0,1883,1883,1883,1883,1883,1883,1873,1873,1873,1873,1873,1873,1873,1863,1863,1863,1863,1863,1863,1863,1853,1853,1843,1833,1833,1833,1833,1833,1833,1833,1833,1833,1833,1833,1823,1823,1823,1823,1823,1823,1823,1813,1813,1823,1823,1813,1813,1804,1804,1794,1794,1794,1794,1794,1794,1794,1794,1794,1794,1794,1785,1785,1785,1785,1785,1785,1785,1785,1785,1785,1794,1785,1785,1785,1776,1776,1776,1776,1766,1766,1766,1766,1757,1757,1757,1757,1757,1757,1757,1757,1757,1757,1748,1748,1748,1739,1739,1739,1731,1731,1731,1731,1731,1731,1731,1731,1731,1731,1731,1722,1722,1722,1713,1705,1705,1705,1705,1705,1705,1705,1705,1705,1705,1696,1696,1696,1696,1696,1696,1696,1696,1696,1696,1705,1705,1705,1713,1713,1713,1722,1722,1722,1722,2065,2065,2065,2065,2053,2053,2053,2040,2040,2040,2028,2028,2016,2016,1705,1705,1696,1696,1696,1688,1688,1688,1688,1688,1688,1688,1688,1688,1688,1688,1696,1696,1696,1696,1696,1696,1705,1705,1713,1713,1713,1722,1722,1722,1731,1731,1731,1731,1731,1731,1731,1739,1739,1748,1748,1748,1748,1748,1748,1739,1739,1739,0,0,0,1112,1112,1108,1108,1105,1105,1101,1101,1101,1101,1101,1097,1097,1097,1097,1097,1097,1097,1101,1101,1097,1080,1077,1073,1073,1073,1067,1063,1060,1057,1057,1057,1054,1050,1050,1047,1047,1041,1038,1038,1038,1034,1028,1025,1022,1022,1019,1019,1016,1013,1010,1007,1004,1001,1001,998,998,992,989,987,987,981,978,975,970,967,964,962,959,956,956,954,946,943,943,940,940,943,940,940,940,940,938,938,940,940,0,0,0,0,0,0,882,882,882,880,880,878,878,875,871,869,869,867,867,867,867,869,869,869,871,871,871,873,873,875,878,878,878,878,878,880,0,0,0,0,0,0,1543,1543,1529,1529,1523,1523,1523,1516,1516,1516,1509,1509,1503,1503,1496,1489,1489,1483,1483,1477,1477,1470,1470,1464,1464,1464,1458,1452,1445,1445,1445,1445,1439,1439,1433,1427,1427,1421,1421,1421,1415,1415,1415,1415,1410,1410,1404,1398,1398,1398,1392,1392,1387,1387,1381,1376,1376,1376,1370,1370,1365,1365,1359,1359,1354,1354,1354,1349,1349,1343,1338,1338,1333,1333,1333,1328,1328,1322,1317,1317,1312,1312,1312,1307,1307,1302,1302,1297,1297,1292,1292,1288,1288,1283,1283,1278,1273,1273,1273,1268,1268,1268,1264,1264,1259,1255,1255,1250,1250,1250,1245,1245,1241,1236,1236,1236,1232,1232,1232,1227,1223,1219,1214,1214,1214,1214,1210,1210,1206,1206,1202,1202,1202,1197,1197,1197,1189,1189,1185,1185,1185,1181,1181,1181,1177,1173,1173,1169,1169,1165,1165,1165,1161,1157,1153,1153,1149,1149,1149,1145,1145,1145,1141,1138,1138,1134,1134,1134,1130,1130,1126,1126,1123,1123,1119,1119,1119,1115,1112,1108,1108,1105,1105,1101,1101,1097,1097,1094,1094,1094,1090,1090,1090,1084,1084,1080,1080,1080,1077,1077,1073,1070,1070,1067,1067,1067,1063,1063,1063,1060,1057,1054,1054,1054,1050,1050,1050,1047,1047,1044,1041,1041,1041,1038,1038,1038,1038,1034,1031,1028,1028,1025,1025,1025,1025,1022,1019,1019,1016,1016,1013,1013,1013,1010,1007,1004,1004,1004,1001,1001,1001,998,998,995,992,992,989,989,0,0,0,0,0,0,0,0,0,0,0,0,0,0,0,0,0,0,0,0,0,0,0,0,0,0,0,0,0,0,0
0,0,0,0,0,0,0,0,0,0,0,0,0,0,0,1883,1883,1883,1883,1883,1883,1873,1873,1873,1873,1873,1873,1873,1863,1863,1863,1863,1863,1863,1863,1853,1853,1843,1843,1843,1843,1833,1833,1833,1833,1833,1833,1833,1833,1833,1833,1833,1833,1823,1823,1823,1813,1813,1823,1823,1813,1813,1804,1804,1804,1794,1794,1794,1794,1794,1794,1794,1794,1794,1794,1794,1785,1785,1785,1785,1785,1785,1785,1785,1785,1794,1785,1785,1785,1785,1776,1776,1776,1766,1766,1766,1766,1766,1766,1757,1757,1757,1757,1757,1757,1757,1757,1748,1748,1748,1748,1739,1739,1739,1739,1739,1739,1731,1731,1731,1731,1731,1731,1731,1731,1722,1722,1722,1713,1713,1713,1713,1713,1713,1705,1705,1705,1705,1696,1696,1696,1696,1696,1696,1696,1696,1696,1696,1705,1705,1705,1713,1713,1713,1722,1722,1722,1722,2065,2065,2065,2065,2065,2053,2053,2040,2040,2040,2028,2028,2016,2016,1705,1705,1696,1696,1696,1688,1688,1688,1688,1688,1688,1688,1688,1688,1688,1688,1688,1696,1696,1696,1696,1696,1705,1705,1713,1713,1713,1722,1722,1722,1731,1731,1731,1731,1731,1739,1739,1739,1739,1748,1748,1748,1748,1748,1748,1739,1731,1731,0,0,0,1112,1112,1108,1108,1105,1105,1101,1101,1101,1101,1101,1097,1097,1097,1097,1097,1094,1094,1094,1090,1080,1080,1077,1073,1073,1073,1067,1063,1063,1060,1057,1057,1054,1050,1050,1047,1047,1044,1041,1038,1038,1034,1028,1025,1022,1022,1019,1019,1016,1013,1010,1007,1004,1001,1001,998,998,995,989,987,987,981,978,975,970,967,964,964,962,959,956,956,946,946,943,943,943,940,938,938,938,938,935,935,935,935,0,0,920,920,0,0,887,882,882,880,880,880,878,875,873,871,869,869,869,869,869,869,869,869,871,871,873,873,875,875,878,878,878,878,878,880,0,0,0,0,0,0,1543,1543,1536,1529,1529,1523,1523,1516,1516,1516,1516,1509,1503,1503,1496,1496,1489,1489,1483,1483,1477,1477,1477,1470,1470,1464,1458,1452,1445,1445,1445,1445,1445,1439,1439,1433,1433,1427,1427,1421,1415,1415,1415,1415,1410,1410,1404,1398,1398,1398,1392,1392,1387,1387,1381,1376,1376,1376,1370,1370,1370,1365,1365,1365,1359,1354,1354,1349,1349,1343,1338,1338,1333,1333,1333,1328,1328,1322,1317,1317,1312,1312,1312,1307,1307,1302,1302,1302,1297,1297,1292,1288,1288,1283,1283,1278,1273,1273,1273,1268,1268,1268,1264,1264,1259,1255,1255,1250,1250,1250,1250,1245,1241,1236,1236,1236,1236,1232,1232,1227,1227,1223,1219,1214,1214,1214,1214,1210,1210,1206,1206,1202,1202,1197,1197,1197,1193,1189,1185,1185,1185,1181,1181,1181,1181,1177,1177,1173,1169,1165,1165,1165,1161,1157,1153,1153,1149,1149,1149,1149,1145,1145,1141,1138,1138,1138,1134,1134,1134,1130,1130,1126,1126,1123,1123,1119,1119,1115,1112,1108,1108,1105,1105,1105,1101,1101,1097,1097,1094,1094,1094,1090,1090,1084,1084,1080,1080,1080,1077,1077,1073,1073,1070,1067,1067,1067,1063,1063,1063,1060,1057,1054,1054,1054,1050,1050,1050,1047,1047,1044,1041,1041,1041,1038,1038,1038,1038,1034,1031,1028,1028,1025,1025,1025,1025,1022,1022,1019,1016,1016,1013,1013,1013,1010,1010,1007,1004,1004,1004,1001,998,998,998,995,992,992,992,992,0,0,0,0,0,0,0,0,0,0,0,0,0,0,0,0,0,0,0,0,0,0,0,0,0,0,0,0,0,0,0
0,0,0,0,0,0,0,0,0,0,0,0,0,0,0,1883,1883,1883,1883,1883,1883,1873,1873,1873,1883,1883,1873,1873,1873,1873,1863,1863,1863,1863,1863,1853,1853,1843,1843,1843,1843,1843,1843,1833,1833,1833,1833,1833,1833,1833,1833,1833,1833,1833,1823,1823,1823,1823,1823,1823,1823,1813,1804,1804,1804,1804,1804,1794,1794,1804,1804,1794,1794,1794,1794,1794,1794,1785,1785,1785,1785,1785,1785,1785,1785,1794,1785,1785,1785,1785,1785,1776,1776,1766,1766,1766,1766,1766,1766,1766,1766,1757,1757,1757,1757,1757,1757,1748,1748,1748,1748,1748,1739,1739,1739,1739,1739,1731,1731,1731,1731,1731,1731,1731,1731,1722,1722,1722,1713,1713,1713,1713,1713,1713,1713,1705,1705,1705,1696,1696,1696,1696,1696,1696,1696,1696,1696,1696,1696,1705,1705,1713,1713,1713,1722,1722,1722,1722,1722,2065,2065,2065,2065,2053,2053,2053,2040,2040,2040,2016,2016,2005,2005,1705,1705,1696,1696,1688,1688,1688,1688,1688,1688,1688,1688,1688,1688,1688,1688,1696,1696,1696,1696,1696,1705,1705,1713,1713,1722,1722,1722,1722,1722,1722,1731,1731,1731,1739,1739,1748,1748,1748,1748,1748,1757,1748,1748,1739,1731,1731,1731,0,0,1112,1112,1108,1108,1105,1105,1105,1105,1101,1101,1101,1097,1097,1097,1097,1097,1094,1094,1090,1084,1077,1077,1077,1073,1073,1073,1070,1063,1063,1060,1060,1057,1054,1050,1050,1047,1047,1044,1041,1038,1038,1034,1028,1025,1025,1022,1022,1019,1016,1013,1010,1007,1004,1001,1001,998,998,995,989,987,987,984,978,975,970,970,967,964,964,959,959,956,954,946,943,943,940,940,938,935,935,935,933,930,925,925,923,920,920,920,0,0,887,885,885,882,880,880,878,875,873,871,871,869,869,869,869,869,869,869,871,871,873,875,875,878,878,878,878,878,878,880,0,0,0,0,0,1536,1536,1543,1536,1536,1529,1523,1523,1523,1516,1516,1516,1509,1509,1503,1503,1496,1489,1489,1489,1483,1483,1477,1477,1470,1470,1470,1464,1452,1452,1445,1445,1445,1445,1445,1439,1433,1433,1427,1427,1421,1415,1415,1415,1415,1410,1410,1404,1398,1398,1398,1392,1392,1392,1387,1381,1381,1376,1376,1370,1370,1370,1365,1365,1365,1359,1354,1354,1349,1349,1349,1343,1338,1338,1333,1333,1333,1328,1322,1317,1317,1312,1312,1312,1307,1307,1302,1302,1302,1297,1297,1292,1288,1288,1288,1283,1278,1278,1273,1273,1273,1268,1268,1268,1264,1259,1259,1255,1255,1250,1250,1245,1245,1241,1236,1236,1236,1236,1232,1232,1227,1227,1223,1219,1214,1214,1214,1214,1210,1210,1206,1206,1202,1202,1197,1197,1197,1193,1189,1189,1185,1185,1181,1181,1181,1181,1177,1177,1169,1169,1169,1165,1165,1161,1157,1153,1153,1149,1149,1149,1149,1145,1145,1145,1138,1138,1138,1138,1134,1134,1134,1130,1126,1126,1123,1123,1119,1119,1119,1112,1108,1108,1108,1105,1105,1105,1101,1097,1097,1094,1094,1094,1090,1090,1087,1084,1084,1080,1080,1080,1077,1077,1073,1073,1070,1070,1067,1063,1063,1063,1060,1057,1054,1054,1054,1050,1050,1050,1050,1047,1047,1044,1041,1041,1041,1038,1038,1038,1034,1031,1028,1028,1025,1025,1025,1025,1022,1022,1019,1019,1016,1013,1013,1013,1013,1010,1010,1007,1004,1004,1001,998,998,998,995,992,992,992,992,0,0,0,0,0,0,0,0,0,0,0,0,0,0,0,0,0,0,0,0,0,0,0,0,0,0,0,0,0,0,0
0,0,0,0,0,0,0,0,0,0,0,0,0,0,0,1883,1883,1883,1883,1883,1883,1883,1873,1873,1883,1873,1873,1873,1873,1873,1863,1863,1863,1863,1863,1853,1853,1853,1843,1843,1843,1843,1843,1833,1833,1833,1833,1833,1833,1833,1833,1833,1833,1833,1833,1823,1823,1823,1823,1823,1823,1813,1804,1804,1804,1804,1804,1794,1794,1804,1804,1804,1804,1804,1794,1794,1794,1794,1794,1785,1785,1785,1785,1785,1785,1794,1794,1785,1785,1785,1785,1776,1776,1766,1766,1766,1766,1766,1766,1766,1766,1766,1757,1757,1757,1757,1757,1757,1748,1748,1748,1748,1748,1739,1739,1739,1739,1739,1739,1731,1731,1731,1731,1731,1731,1722,1722,1722,1722,1713,1713,1713,1713,1713,1713,1705,1705,1705,1705,1696,1696,1696,1696,1696,1696,1696,1696,1696,1696,1705,1705,1713,1713,1713,1722,1722,1722,1722,1722,2065,2065,2065,2065,2053,2053,2053,2040,2040,2040,2016,2016,2005,2005,1705,1705,1696,1696,1688,1688,1688,1688,1688,1688,1688,1688,1688,1688,1688,1696,1696,1696,1696,1696,1696,1705,1713,1713,1722,1722,1722,1722,1722,1722,1722,1731,1731,1731,1739,1739,1748,1748,1748,1748,1748,1757,1757,1748,1748,1739,1739,1739,0,1101,1108,1108,1108,1108,1108,1108,1105,1105,1105,1101,1101,1101,1097,1097,1094,1094,1094,1090,1090,1080,1077,1077,1077,1073,1073,1073,1070,1067,1063,1060,1060,1057,1054,1054,1050,1047,1044,1044,1041,1038,1038,1034,1028,1025,1025,1022,1022,1019,1016,1013,1010,1007,1004,1001,1001,998,998,992,989,987,984,978,975,975,973,970,967,967,964,962,959,956,956,946,943,943,940,938,935,935,933,933,925,925,923,923,920,920,920,918,918,887,887,885,885,882,880,880,878,875,873,871,871,869,869,869,869,869,869,869,871,873,873,875,878,878,880,880,878,878,880,0,0,0,0,0,0,1536,1536,1543,1543,1543,1529,1529,1523,1523,1516,1516,1516,1509,1509,1509,1503,1496,1489,1489,1489,1483,1483,1483,1477,1477,1470,1470,1464,1464,1452,1452,1445,1445,1445,1445,1439,1433,1433,1427,1427,1421,1415,1415,1415,1415,1410,1410,1404,1404,1398,1398,1392,1392,1392,1387,1387,1381,1376,1376,1370,1370,1370,1365,1365,1365,1359,1354,1354,1349,1349,1349,1343,1343,1338,1338,1333,1333,1328,1328,1322,1317,1312,1312,1312,1307,1307,1302,1302,1302,1297,1297,1292,1292,1288,1288,1283,1283,1278,1273,1273,1273,1268,1268,1268,1264,1259,1259,1255,1255,1250,1250,1245,1245,1241,1236,1236,1236,1236,1232,1232,1227,1227,1223,1219,1219,1214,1214,1214,1214,1210,1210,1206,1202,1202,1202,1197,1197,1197,1193,1189,1189,1185,1185,1181,1181,1181,1177,1177,1169,1169,1169,1165,1165,1161,1161,1161,1157,1153,1149,1149,1149,1149,1145,1141,1138,1138,1138,1138,1134,1134,1134,1130,1126,1126,1123,1123,1119,1119,1119,1112,1108,1108,1108,1105,1105,1105,1101,1101,1097,1097,1094,1094,1094,1090,1090,1084,1084,1080,1080,1080,1077,1077,1073,1073,1070,1070,1067,1067,1063,1063,1060,1057,1054,1054,1054,1050,1050,1050,1050,1050,1047,1044,1044,1041,1041,1038,1038,1038,1034,1031,1028,1028,1025,1025,1025,1025,1025,1022,1019,1019,1016,1013,1013,1013,1013,1010,1010,1007,1007,1004,1001,1001,998,998,995,992,992,992,992,0,0,0,0,0,0,0,0,0,0,0,0,0,0,0,0,0,0,0,0,0,0,0,0,0,0,0,0,0,0,0
0,0,0,0,0,0,0,0,0,0,0,0,0,0,0,1883,1883,1883,1883,1883,1883,1883,1873,1873,1883,1873,1873,1863,1863,1863,1863,1863,1863,1863,1863,1863,1853,1853,1853,1843,1843,1843,1843,1843,1843,1843,1843,1843,1843,1833,1833,1833,1833,1833,1833,1823,1823,1823,1823,1823,1823,1823,1813,1813,1804,1804,1804,1804,1804,1804,1804,1804,1804,1804,1794,1794,1794,1794,1794,1785,1785,1785,1785,1785,1785,1785,1794,1785,1785,1785,1785,1785,1776,1776,1776,1766,1766,1766,1766,1766,1766,1766,1766,1766,1757,1757,1757,1757,1757,1748,1748,1748,1748,1739,1739,1739,1739,1739,1739,1731,1731,1731,1731,1731,1731,1731,1722,1722,1722,1713,1713,1713,1713,1713,1713,1705,1705,1705,1705,1696,1696,1696,1696,1696,1696,1696,1696,1696,1696,1705,1705,1713,1713,1713,1722,1722,1722,1722,1722,1722,2065,2065,2065,2053,2053,2053,2053,2040,2040,2016,2016,2005,2005,1705,1696,1696,1696,1688,1688,1688,1688,1688,1688,1688,1688,1688,1696,1696,1696,1696,1696,1696,1696,1696,1705,1713,1713,1722,1722,1722,1722,1722,1722,1722,1731,1731,1731,1739,1739,1748,1748,1748,1748,1748,1757,1757,1748,1748,1748,1748,1748,0,1101,1101,1101,1108,1108,1108,1108,1105,1105,1105,1101,1101,1101,1097,1097,1094,1094,1090,1090,1084,1080,1077,1077,1077,1073,1073,1073,1070,1067,1063,1063,1060,1060,1057,1054,1050,1047,1044,1041,1041,1038,1038,1034,1028,1025,1025,1022,1022,1019,1016,1013,1010,1010,1004,1004,1001,998,998,992,989,987,984,978,975,975,973,970,967,964,964,962,959,956,956,946,943,943,940,938,935,935,933,925,925,923,923,923,920,920,918,918,918,887,887,885,885,882,882,880,878,875,873,871,871,869,869,869,869,869,869,869,871,873,873,875,878,878,880,880,880,880,880,880,0,0,0,0,0,1536,1536,1543,1543,1543,1536,1536,1523,1523,1516,1516,1516,1516,1509,1509,1503,1496,1496,1489,1489,1489,1483,1483,1477,1477,1470,1470,1464,1464,1458,1452,1452,1445,1445,1445,1439,1439,1433,1433,1427,1421,1415,1415,1415,1415,1410,1410,1404,1404,1404,1398,1398,1392,1392,1387,1387,1381,1381,1376,1370,1370,1370,1365,1365,1365,1359,1359,1354,1349,1349,1349,1349,1343,1338,1338,1333,1333,1333,1328,1328,1322,1317,1312,1312,1307,1307,1307,1302,1302,1297,1297,1292,1292,1288,1288,1288,1283,1278,1278,1273,1273,1268,1268,1268,1264,1264,1259,1259,1255,1250,1250,1250,1245,1241,1241,1236,1236,1236,1232,1232,1232,1227,1227,1219,1219,1219,1214,1214,1214,1214,1210,1206,1206,1202,1202,1197,1197,1197,1193,1189,1189,1185,1185,1181,1181,1181,1177,1177,1177,1173,1169,1169,1165,1165,1165,1161,1157,1153,1153,1149,1149,1149,1145,1141,1141,1138,1138,1138,1134,1134,1134,1130,1126,1126,1123,1123,1119,1119,1115,1112,1108,1108,1108,1105,1105,1105,1101,1101,1097,1097,1094,1094,1094,1090,1090,1087,1084,1080,1080,1080,1077,1077,1077,1073,1070,1070,1070,1067,1063,1063,1060,1057,1057,1054,1054,1054,1050,1050,1050,1050,1047,1047,1044,1041,1041,1038,1038,1038,1034,1031,1028,1028,1028,1028,1025,1025,1025,1022,1022,1019,1016,1013,1013,1013,1013,1013,1010,1007,1007,1004,1004,1001,1001,998,995,992,992,992,992,0,0,0,0,0,0,0,0,0,0,0,0,0,0,0,0,0,0,0,0,0,0,0,0,0,0,0,0,0,0,0
0,0,0,0,0,0,0,0,0,0,0,0,0,0,0,1883,1883,1883,1883,1883,1883,1873,1873,1873,1873,1873,1873,1863,1863,1863,1863,1863,1863,1863,1863,1863,1853,1853,1853,1843,1843,1843,1843,1843,1843,1843,1843,1843,1843,1833,1833,1833,1833,1833,1833,1833,1823,1823,1833,1833,1823,1823,1813,1813,1813,1804,1804,1804,1804,1804,1804,1804,1804,1804,1794,1794,1794,1794,1794,1785,1785,1785,1785,1785,1785,1785,1794,1794,1794,1785,1785,1785,1776,1776,1776,1766,1766,1766,1766,1766,1766,1766,1766,1766,1766,1757,1757,1757,1757,1757,1757,1757,1748,1748,1739,1739,1739,1739,1739,1739,1739,1731,1731,1731,1731,1731,1731,1722,1722,1722,1722,1722,1722,1713,1713,1713,1705,1705,1705,1705,1696,1696,1696,1696,1696,1696,1696,1696,1705,1705,1705,1713,1713,1713,1722,1722,1722,1722,1722,1722,2065,2065,2065,2065,2053,2053,2053,2040,2040,2016,2016,2005,2005,2005,1696,1696,1696,1696,1688,1688,1688,1688,1688,1688,1688,1688,1696,1696,1696,1696,1696,1696,1705,1705,1713,1713,1722,1722,1722,1722,1722,1722,1722,1722,1731,1731,1731,1739,1739,1748,1748,1748,1748,1757,1757,1757,1748,1748,1748,1748,1748,1757,1101,1101,1101,1108,1108,1108,1108,1105,1105,1105,1101,1101,1101,1097,1097,1094,1094,1090,1090,1084,1080,1077,1077,1077,1073,1073,1073,1070,1067,1063,1063,1060,1057,1057,1057,1050,1047,1044,1041,1038,1038,1038,1034,1034,1025,1025,1022,1019,1019,1016,1013,1013,1010,1004,1004,1001,998,998,995,989,987,984,978,978,975,973,970,967,964,964,962,959,956,956,948,946,943,940,938,935,933,933,925,925,923,920,920,920,918,918,918,915,891,887,885,885,882,880,880,878,875,873,871,871,869,869,869,869,869,871,871,871,873,875,875,878,878,880,880,880,880,880,880,0,0,0,0,0,0,1543,1543,1543,1543,1536,1536,1529,1523,1523,1523,1516,1516,1509,1509,1503,1503,1496,1496,1489,1489,1483,1483,1477,1477,1470,1470,1464,1464,1464,1452,1452,1445,1445,1445,1439,1439,1433,1433,1427,1421,1415,1415,1415,1415,1415,1410,1410,1404,1404,1398,1398,1392,1392,1392,1387,1381,1381,1376,1376,1370,1370,1370,1365,1365,1365,1359,1354,1354,1349,1349,1349,1343,1343,1338,1338,1333,1333,1328,1328,1322,1317,1317,1312,1312,1307,1307,1307,1302,1302,1297,1292,1292,1288,1288,1288,1283,1278,1278,1273,1273,1273,1268,1268,1264,1264,1259,1259,1255,1250,1250,1250,1245,1245,1241,1236,1236,1236,1232,1232,1232,1232,1227,1223,1219,1219,1214,1214,1214,1214,1210,1206,1206,1202,1202,1197,1197,1197,1193,1193,1189,1185,1185,1181,1181,1181,1181,1177,1177,1173,1169,1169,1169,1165,1165,1161,1157,1153,1153,1153,1149,1149,1145,1145,1141,1138,1138,1138,1134,1134,1134,1130,1126,1126,1123,1123,1119,1119,1115,1112,1108,1108,1108,1105,1105,1105,1101,1101,1097,1097,1094,1094,1094,1090,1090,1087,1084,1080,1080,1080,1077,1077,1077,1073,1070,1070,1070,1070,1063,1063,1060,1060,1057,1054,1054,1054,1050,1050,1050,1050,1050,1047,1044,1041,1041,1041,1038,1038,1034,1034,1031,1028,1028,1028,1025,1025,1025,1022,1022,1019,1016,1013,1013,1013,1013,1013,1013,1010,1007,1007,1004,1001,1001,1001,998,998,992,992,992,0,0,0,0,0,0,0,0,0,0,0,0,0,0,0,0,0,0,0,0,0,0,0,0,0,0,0,0,0,0,0
0,0,0,0,0,0,0,0,0,0,0,0,0,0,0,1883,1883,1883,1883,1883,1873,1873,1873,1873,1873,1873,1873,1873,1873,1863,1863,1863,1863,1863,1863,1863,1853,1853,1853,1843,1843,1843,1843,1843,1843,1843,1843,1843,1843,1833,1833,1833,1833,1833,1833,1823,1823,1823,1833,1833,1823,1823,1823,1823,1813,1813,1804,1804,1804,1804,1804,1804,1804,1804,1804,1804,1794,1794,1794,1785,1785,1785,1785,1785,1785,1785,1794,1785,1785,1785,1785,1785,1776,1776,1776,1766,1766,1766,1766,1766,1766,1766,1766,1766,1766,1757,1757,1757,1757,1757,1757,1757,1748,1748,1739,1739,1739,1739,1748,1739,1739,1739,1739,1739,1731,1731,1731,1731,1722,1722,1722,1722,1722,1722,1713,1713,1705,1705,1705,1705,1705,1705,1696,1696,1696,1705,1705,1705,1705,1705,1705,1713,1713,1713,1722,1722,1722,1722,1722,1722,2065,2065,2078,2065,2065,2053,2053,2040,2028,2016,2016,2005,2005,2005,2005,1696,1696,1696,1688,1688,1688,1688,1688,1688,1688,1688,1696,1696,1696,1696,1696,1696,1705,1705,1713,1713,1722,1722,1722,1722,1722,1722,1722,1731,1731,1731,1731,1739,1739,1748,1748,1748,1748,1757,1757,1748,1748,1748,1748,1748,1757,1757,1115,1115,1115,1115,1115,1108,1108,1105,1105,1105,1101,1101,1101,1101,1097,1094,1094,1090,1090,1084,1080,1077,1077,1077,1073,1073,1073,1070,1067,1063,1063,1060,1057,1057,1054,1050,1047,1044,1041,1038,1038,1038,1034,1034,1025,1025,1022,1019,1019,1016,1013,1013,1010,1007,1004,1001,998,998,995,992,987,984,978,978,975,973,970,967,964,964,962,959,956,951,948,946,943,940,938,935,933,930,925,925,923,920,920,920,918,915,915,903,891,889,887,885,882,880,880,878,875,873,873,871,871,871,869,869,869,871,871,871,873,875,875,878,878,880,880,880,880,880,880,0,0,0,0,0,0,1543,1543,1543,1543,1543,1536,1536,1529,1523,1523,1516,1516,1509,1509,1503,1503,1496,1496,1489,1489,1489,1483,1483,1477,1470,1470,1470,1464,1464,1452,1452,1445,1445,1445,1439,1439,1433,1433,1427,1421,1421,1415,1415,1415,1415,1410,1410,1404,1404,1398,1398,1392,1392,1392,1387,1387,1381,1376,1376,1370,1370,1370,1370,1365,1365,1359,1354,1354,1349,1349,1349,1343,1343,1338,1338,1333,1333,1328,1328,1322,1322,1317,1312,1312,1312,1307,1307,1307,1302,1297,1292,1292,1288,1288,1288,1283,1283,1278,1273,1273,1268,1268,1268,1268,1264,1264,1259,1255,1250,1250,1250,1245,1245,1241,1236,1236,1236,1232,1232,1232,1232,1227,1223,1219,1219,1214,1214,1214,1214,1210,1206,1206,1202,1202,1202,1197,1197,1197,1193,1189,1185,1185,1181,1181,1181,1181,1177,1177,1173,1169,1169,1169,1165,1165,1161,1161,1157,1153,1153,1153,1149,1145,1145,1145,1141,1138,1138,1138,1134,1134,1130,1126,1126,1123,1123,1119,1119,1115,1112,1108,1108,1108,1108,1105,1105,1105,1101,1097,1097,1094,1094,1094,1094,1090,1087,1084,1080,1080,1080,1077,1077,1077,1077,1073,1073,1070,1070,1063,1063,1060,1060,1057,1057,1054,1054,1054,1050,1050,1050,1050,1047,1047,1044,1041,1041,1041,1038,1038,1034,1031,1031,1028,1028,1025,1025,1025,1022,1022,1019,1016,1016,1013,1013,1013,1013,1013,1010,1010,1007,1004,1001,1001,1001,998,998,995,995,995,0,0,0,0,0,0,0,0,0,0,0,0,0,0,0,0,0,0,0,0,0,0,0,0,0,0,0,0,0,0,0
0,0,0,0,0,0,0,0,0,0,0,0,0,0,0,1883,1883,1883,1883,1873,1873,1873,1873,1873,1873,1873,1873,1873,1873,1873,1863,1863,1863,1863,1863,1863,1853,1853,1853,1843,1843,1843,1843,1843,1843,1843,1843,1843,1843,1843,1833,1833,1833,1833,1833,1823,1823,1833,1833,1833,1833,1823,1823,1823,1823,1823,1813,1813,1813,1813,1813,1813,1813,1804,1804,1804,1804,1794,1794,1785,1785,1785,1785,1785,1794,1794,1794,1785,1785,1785,1785,1785,1776,1776,1776,1766,1766,1766,1766,1766,1766,1766,1766,1766,1766,1766,1766,1757,1757,1757,1757,1757,1748,1748,1748,1748,1748,1748,1748,1748,1739,1739,1739,1739,1739,1731,1731,1731,1731,1722,1722,1722,1722,1722,1713,1713,1705,1705,1705,1705,1705,1705,1705,1705,1705,1705,1705,1705,1705,1705,1705,1713,1713,1713,1722,1722,1722,1722,1722,1722,2065,2065,2078,2065,2065,2065,2053,2040,2028,2016,2016,2016,2016,2016,2005,1696,1696,1696,1688,1688,1688,1688,1688,1688,1688,1688,1696,1696,1696,1696,1696,1696,1705,1705,1713,1713,1722,1722,1722,1722,1722,1722,1731,1731,1731,1731,1739,1739,1739,1748,1748,1748,1757,1757,1757,1748,1748,1748,1748,1757,1757,1757,1115,1115,1115,1115,1115,1112,1112,1112,1105,1105,1101,1101,1101,1097,1097,1094,1094,1090,1090,1084,1080,1077,1077,1077,1073,1073,1070,1070,1067,1063,1063,1060,1057,1054,1054,1050,1047,1044,1044,1041,1038,1038,1034,1028,1025,1025,1022,1019,1019,1016,1013,1013,1007,1007,1001,1001,998,995,992,989,989,987,978,978,975,973,970,967,967,964,964,962,956,951,948,946,943,940,938,935,933,930,925,925,923,920,920,918,915,915,915,903,894,891,887,887,882,882,880,878,875,873,873,871,871,871,869,869,871,871,871,871,873,875,878,878,878,880,880,880,880,880,0,0,0,0,0,0,0,1543,1543,1543,1543,1543,1543,1536,1529,1529,1523,1523,1516,1516,1509,1509,1503,1496,1496,1489,1489,1489,1483,1483,1477,1470,1470,1470,1470,1464,1458,1452,1452,1445,1445,1439,1439,1433,1433,1427,1427,1421,1421,1415,1415,1415,1410,1410,1410,1404,1404,1398,1398,1392,1392,1387,1381,1381,1376,1376,1370,1370,1370,1370,1365,1365,1359,1354,1354,1349,1349,1349,1349,1343,1338,1338,1333,1333,1333,1328,1322,1322,1317,1312,1312,1312,1307,1307,1307,1302,1302,1297,1292,1288,1288,1288,1283,1283,1278,1273,1273,1268,1268,1268,1268,1264,1264,1259,1255,1255,1250,1250,1245,1245,1245,1241,1236,1236,1236,1232,1232,1232,1227,1223,1219,1219,1219,1214,1214,1214,1210,1210,1210,1206,1202,1202,1202,1197,1197,1193,1193,1189,1185,1181,1181,1181,1181,1177,1177,1173,1169,1169,1169,1165,1165,1165,1161,1157,1157,1153,1153,1153,1149,1145,1145,1141,1141,1138,1138,1134,1134,1130,1126,1123,1123,1123,1119,1119,1115,1112,1112,1112,1108,1108,1108,1105,1105,1105,1101,1097,1097,1097,1094,1090,1090,1087,1084,1080,1080,1080,1077,1077,1077,1077,1073,1073,1070,1070,1067,1063,1063,1060,1060,1057,1057,1057,1054,1054,1054,1050,1050,1047,1044,1044,1041,1041,1041,1038,1038,1034,1034,1031,1031,1028,1028,1025,1025,1025,1022,1019,1016,1016,1013,1013,1013,1013,1013,1010,1010,1007,1004,1004,1001,1001,998,998,995,995,995,0,0,0,0,0,0,0,0,0,0,0,0,0,0,0,0,0,0,0,0,0,0,0,0,0,0,0,0,0,0,0
0,0,0,0,0,0,0,0,0,0,0,0,0,0,0,1883,1883,1883,1883,1873,1873,1873,1873,1873,1873,1873,1873,1873,1873,1873,1863,1863,1863,1863,1863,1863,1863,1863,1863,1853,1853,1853,1853,1853,1853,1843,1843,1843,1843,1843,1833,1833,1833,1833,1833,1833,1833,1833,1833,1833,1833,1833,1833,1833,1823,1823,1813,1813,1813,1813,1813,1813,1813,1804,1804,1804,1804,1794,1794,1785,1785,1794,1785,1785,1785,1794,1794,1794,1794,1785,1785,1785,1776,1776,1776,1776,1776,1766,1766,1766,1766,1766,1766,1766,1766,1766,1766,1757,1757,1757,1757,1757,1748,1748,1748,1748,1748,1748,1748,1748,1739,1739,1739,1739,1739,1731,1731,1731,1731,1722,1722,1722,1722,1722,1722,1713,1713,1713,1713,1713,1713,1705,1705,1705,1705,1705,1705,1705,1705,1705,1713,1713,1713,1713,1722,1722,1722,1722,1722,1722,2065,2065,2078,2065,2065,2065,2053,2040,2028,2016,2016,2016,2016,2016,2016,1696,1696,1696,1696,1688,1688,1688,1688,1688,1688,1688,1696,1696,1696,1696,1696,1705,1705,1705,1713,1713,1722,1722,1722,1722,1722,1722,1731,1731,1731,1731,1739,1739,1739,1748,1748,1748,1757,1757,1757,1757,1748,1748,1757,1757,1757,1757,1115,1115,1115,1115,1115,1112,1112,1112,1105,1105,1105,1101,1101,1097,1097,1094,1094,1090,1090,1087,1084,1080,1077,1077,1073,1073,1070,1070,1067,1063,1063,1060,1057,1054,1054,1050,1047,1044,1044,1038,1038,1038,1034,1028,1025,1025,1022,1019,1019,1016,1013,1013,1007,1007,1001,1001,998,995,992,989,987,987,978,978,975,973,973,970,967,964,964,962,956,951,948,946,943,940,938,935,933,930,928,925,923,920,920,918,915,915,915,903,896,891,887,887,882,882,880,878,875,875,871,871,871,871,869,869,869,871,871,871,873,875,878,878,878,880,880,880,880,880,0,0,0,0,0,0,0,1543,1543,1543,1543,1543,1543,1536,1529,1529,1523,1523,1516,1516,1509,1509,1503,1496,1496,1496,1489,1489,1483,1477,1477,1470,1470,1470,1470,1464,1458,1452,1452,1445,1445,1445,1439,1439,1433,1433,1427,1427,1421,1421,1415,1415,1415,1415,1410,1410,1404,1398,1398,1392,1392,1387,1381,1381,1376,1376,1376,1370,1370,1370,1370,1365,1359,1354,1354,1349,1349,1349,1349,1343,1343,1338,1338,1333,1333,1328,1322,1322,1317,1317,1312,1312,1312,1312,1307,1302,1302,1297,1292,1292,1292,1288,1288,1283,1278,1278,1273,1268,1268,1268,1268,1264,1264,1259,1255,1255,1250,1250,1245,1245,1245,1241,1241,1236,1236,1232,1232,1232,1227,1227,1223,1219,1219,1219,1214,1214,1214,1210,1210,1206,1202,1202,1202,1197,1197,1193,1193,1189,1185,1181,1181,1181,1181,1177,1177,1173,1173,1169,1169,1165,1165,1165,1161,1157,1157,1153,1153,1153,1149,1149,1145,1145,1141,1138,1138,1134,1134,1130,1126,1123,1123,1123,1119,1119,1115,1112,1112,1112,1108,1108,1108,1105,1105,1105,1101,1097,1097,1097,1094,1090,1090,1087,1084,1084,1080,1080,1080,1077,1077,1077,1073,1073,1070,1070,1067,1063,1063,1063,1060,1060,1057,1057,1054,1054,1054,1050,1050,1047,1044,1044,1041,1041,1041,1038,1038,1038,1034,1034,1031,1028,1028,1028,1025,1025,1022,1019,1019,1016,1016,1013,1013,1013,1013,1010,1010,1007,1004,1004,1004,1001,1001,1001,998,998,998,0,0,0,0,0,0,0,0,0,0,0,0,0,0,0,0,0,0,0,0,0,0,0,0,0,0,0,0,0,0,0
0,0,0,0,0,0,0,0,0,0,0,0,0,0,0,1883,1883,1883,1883,1883,1883,1873,1873,1883,1883,1873,1873,1873,1873,1873,1873,1873,1873,1873,1863,1863,1863,1863,1863,1853,1853,1853,1853,1853,1853,1843,1843,1843,1843,1843,1833,1833,1833,1833,1833,1833,1833,1833,1833,1833,1833,1833,1833,1833,1823,1823,1813,1813,1813,1813,1813,1813,1813,1804,1804,1804,1804,1794,1794,1785,1785,1794,1785,1785,1785,1794,1794,1794,1794,1785,1785,1785,1785,1785,1776,1776,1776,1766,1766,1766,1766,1766,1766,1766,1766,1766,1757,1757,1757,1757,1757,1757,1757,1757,1748,1748,1748,1748,1748,1748,1739,1739,1739,1739,1739,1731,1731,1731,1731,1722,1722,1722,1722,1722,1722,1713,1713,1713,1713,1713,1713,1705,1705,1705,1705,1705,1705,1705,1705,1705,1705,1705,1713,1713,1722,1722,1722,1722,1722,1722,2065,2065,2078,2078,2078,2065,2053,2053,2028,2028,2016,2016,2016,2016,2016,1705,1696,1696,1696,1696,1688,1688,1688,1688,1688,1688,1696,1696,1696,1696,1696,1705,1705,1713,1713,1713,1722,1722,1722,1722,1722,1722,1731,1731,1731,1731,1731,1739,1739,1748,1748,1748,1757,1757,1757,1757,1757,1757,1757,1757,1757,1757,0,1115,1115,1115,1115,1115,1112,1112,1105,1105,1105,1101,1101,1101,1101,1094,1094,1090,1090,1090,1084,1080,1077,1077,1073,1073,1073,1070,1067,1067,1063,1060,1057,1054,1054,1050,1047,1044,1044,1038,1038,1038,1034,1028,1025,1025,1022,1019,1019,1016,1013,1013,1010,1007,1001,1001,998,995,992,989,987,987,978,978,975,973,973,970,967,964,964,959,956,951,948,946,943,943,938,935,933,930,928,925,923,918,918,918,915,915,913,903,898,894,889,887,882,882,880,878,875,875,871,871,871,869,869,869,869,871,871,871,875,875,878,878,880,880,882,882,882,882,885,0,0,0,0,0,0,1543,1543,1543,1543,1543,1543,1536,1529,1529,1523,1523,1516,1516,1509,1509,1496,1496,1496,1496,1489,1489,1483,1477,1477,1470,1470,1470,1470,1464,1464,1458,1452,1445,1445,1445,1439,1439,1433,1433,1427,1427,1421,1421,1415,1415,1415,1415,1410,1410,1404,1398,1398,1392,1392,1392,1381,1381,1376,1376,1376,1370,1370,1370,1370,1365,1365,1354,1354,1349,1349,1349,1349,1343,1343,1338,1338,1333,1333,1333,1328,1322,1317,1317,1312,1312,1312,1312,1307,1307,1302,1297,1297,1292,1292,1288,1288,1288,1283,1278,1278,1273,1268,1268,1268,1268,1264,1259,1259,1255,1250,1250,1250,1250,1245,1245,1241,1236,1236,1232,1232,1232,1227,1227,1223,1219,1219,1219,1214,1214,1214,1210,1210,1206,1206,1202,1202,1197,1197,1193,1193,1189,1185,1185,1181,1181,1181,1177,1173,1173,1169,1169,1169,1169,1165,1165,1161,1161,1157,1157,1153,1153,1153,1149,1145,1145,1141,1138,1138,1134,1134,1130,1126,1126,1123,1123,1119,1119,1119,1115,1112,1112,1108,1108,1108,1105,1105,1105,1101,1101,1097,1097,1094,1090,1090,1087,1084,1084,1080,1080,1080,1077,1077,1077,1073,1073,1073,1070,1067,1063,1063,1063,1063,1060,1060,1057,1057,1054,1054,1050,1050,1047,1044,1044,1041,1041,1041,1041,1038,1038,1034,1034,1031,1031,1028,1028,1025,1025,1022,1022,1019,1016,1016,1016,1013,1013,1013,1013,1010,1010,1004,1004,1004,1004,1001,1001,998,998,998,0,0,0,0,0,0,0,0,0,0,0,0,0,0,0,0,0,0,0,0,0,0,0,0,0,0,0,0,0,0,0
0,0,0,0,0,0,0,0,0,0,0,0,0,0,0,1883,1883,1883,1883,1883,1883,1883,1883,1883,1883,1873,1873,1873,1873,1873,1873,1873,1873,1873,1873,1863,1863,1863,1863,1853,1853,1863,1863,1853,1853,1853,1853,1853,1843,1843,1833,1833,1833,1833,1833,1833,1833,1833,1833,1843,1833,1833,1833,1833,1833,1833,1823,1813,1813,1813,1813,1813,1813,1804,1804,1804,1804,1794,1794,1794,1794,1794,1785,1785,1794,1794,1794,1794,1794,1794,1785,1785,1785,1776,1776,1776,1776,1776,1776,1776,1776,1776,1766,1766,1766,1766,1757,1757,1757,1757,1757,1757,1757,1757,1757,1757,1748,1748,1757,1748,1748,1748,1748,1748,1739,1731,1731,1731,1731,1731,1731,1722,1722,1722,1722,1722,1722,1713,1713,1713,1713,1713,1713,1713,1713,1705,1705,1705,1705,1705,1705,1705,1713,1713,1722,1722,1722,1722,1722,1722,2090,2090,2090,2078,2078,2078,2065,2053,2040,2028,2016,2016,2016,2016,1713,1705,1696,1696,1696,1696,1696,1696,1696,1696,1696,1696,1696,1696,1696,1705,1705,1705,1713,1713,1713,1713,1722,1722,1722,1722,1731,1731,1731,1731,1731,1731,1731,1739,1739,1748,1748,1748,1757,1757,1757,1757,1757,1757,1757,1757,1757,1757,1119,1119,1119,1119,1119,1115,1115,1112,1105,1105,1105,1101,1101,1101,1101,1097,1097,1094,1090,1090,1087,1084,1080,1077,1077,1073,1073,1070,1067,1067,1060,1060,1057,1054,1054,1050,1047,1047,1044,1041,1038,1038,1034,1028,1025,1025,1022,1019,1019,1016,1013,1013,1010,1007,1001,1001,998,995,992,989,987,987,984,978,975,973,973,967,967,964,964,959,954,951,948,946,943,940,938,935,933,930,928,925,923,918,918,918,915,913,913,903,898,894,889,887,885,882,880,878,875,875,871,871,871,869,869,871,871,871,871,873,875,875,878,878,880,880,882,882,882,885,885,0,0,0,0,0,0,0,1550,1550,1543,1543,1543,1536,1529,1529,1523,1523,1516,1516,1516,1509,1496,1496,1496,1496,1489,1489,1483,1483,1477,1470,1470,1470,1470,1464,1464,1464,1458,1452,1445,1445,1439,1439,1439,1433,1433,1427,1427,1421,1421,1415,1415,1415,1410,1410,1404,1404,1398,1398,1392,1392,1387,1387,1381,1376,1376,1376,1376,1370,1370,1370,1365,1354,1354,1349,1349,1349,1349,1343,1343,1338,1338,1333,1333,1333,1328,1322,1322,1317,1312,1312,1312,1312,1307,1307,1302,1302,1292,1292,1292,1288,1288,1288,1288,1283,1278,1273,1273,1268,1268,1268,1264,1259,1259,1255,1255,1250,1250,1250,1245,1245,1241,1241,1236,1232,1232,1232,1232,1227,1227,1223,1219,1219,1214,1214,1214,1214,1210,1210,1206,1206,1202,1197,1197,1193,1193,1189,1185,1185,1181,1181,1177,1177,1173,1173,1169,1169,1169,1169,1165,1165,1161,1161,1157,1157,1153,1153,1153,1149,1149,1145,1141,1141,1138,1134,1134,1130,1126,1126,1123,1123,1119,1119,1119,1115,1112,1112,1108,1108,1108,1108,1105,1105,1101,1101,1097,1097,1094,1090,1090,1087,1084,1084,1080,1080,1080,1077,1077,1077,1077,1073,1073,1070,1067,1063,1063,1063,1063,1060,1060,1057,1057,1054,1054,1050,1050,1047,1044,1044,1041,1041,1041,1041,1038,1038,1038,1034,1034,1031,1031,1028,1028,1025,1025,1022,1022,1019,1016,1016,1016,1016,1013,1013,1010,1010,1004,1004,1004,1004,1001,1001,998,998,998,0,0,0,0,0,0,0,0,0,0,0,0,0,0,0,0,0,0,0,0,0,0,0,0,0,0,0,0,0,0,0
0,0,0,0,0,0,0,0,0,0,0,0,0,0,0,1915,1915,1883,1883,1883,1883,1883,1883,1883,1883,1883,1873,1873,1873,1873,1873,1873,1873,1873,1873,1863,1863,1863,1863,1863,1863,1863,1863,1853,1853,1853,1853,1853,1843,1843,1843,1843,1843,1843,1843,1833,1833,1833,1843,1843,1833,1833,1833,1833,1833,1833,1823,1823,1823,1823,1823,1813,1813,1813,1804,1804,1804,1794,1794,1794,1794,1794,1794,1794,1794,1794,1794,1794,1794,1794,1785,1785,1785,1776,1776,1776,1776,1776,1776,1776,1776,1776,1766,1766,1766,1766,1757,1757,1757,1757,1757,1757,1757,1757,1757,1757,1757,1757,1757,1748,1748,1748,1748,1748,1739,1739,1731,1731,1731,1731,1731,1731,1731,1722,1722,1722,1722,1722,1722,1713,1713,1713,1713,1713,1713,1705,1705,1705,1705,1705,1705,1705,1713,1713,1722,1722,1722,1722,1722,1722,2103,2090,2090,2090,2090,2078,2065,2053,2040,2028,2028,2016,2016,2016,1713,1705,1705,1696,1696,1696,1696,1696,1696,1696,1696,1696,1696,1696,1705,1705,1705,1713,1713,1713,1713,1713,1722,1722,1722,1722,1731,1731,1731,1731,1731,1731,1739,1739,1739,1748,1748,1748,1757,1757,1757,1757,1757,1757,1757,1757,1757,1757,1123,1123,1119,1119,1119,1115,1115,1112,1105,1105,1105,1101,1101,1101,1097,1097,1097,1094,1094,1090,1090,1084,1080,1077,1077,1077,1073,1070,1067,1067,1060,1060,1057,1057,1054,1050,1047,1047,1044,1041,1038,1038,1034,1028,1025,1025,1022,1022,1019,1016,1016,1010,1010,1007,1004,1001,998,998,995,992,989,987,984,978,975,975,973,967,967,964,964,962,954,951,948,946,943,940,938,935,933,930,925,925,920,918,918,918,915,913,913,906,898,894,889,887,885,882,880,878,878,875,873,871,871,871,871,871,871,871,871,873,875,875,878,878,880,882,885,885,885,885,885,0,0,0,0,0,0,0,1550,1550,1543,1543,1543,1536,1536,1529,1523,1523,1523,1516,1516,1516,1503,1496,1496,1496,1489,1489,1483,1483,1477,1470,1470,1470,1470,1464,1464,1464,1458,1452,1445,1445,1445,1439,1439,1439,1433,1433,1427,1421,1421,1415,1415,1415,1415,1410,1404,1404,1398,1398,1392,1392,1387,1387,1381,1381,1376,1376,1376,1376,1370,1370,1365,1354,1354,1349,1349,1349,1349,1343,1343,1338,1338,1333,1333,1333,1328,1322,1322,1317,1317,1312,1312,1312,1307,1307,1302,1302,1292,1292,1292,1288,1288,1288,1288,1283,1283,1273,1273,1268,1268,1268,1264,1259,1259,1255,1255,1255,1250,1250,1250,1245,1245,1241,1236,1232,1232,1232,1232,1227,1227,1223,1219,1219,1219,1219,1214,1214,1214,1210,1210,1202,1202,1197,1197,1193,1193,1189,1185,1185,1181,1181,1177,1177,1173,1173,1169,1169,1169,1169,1165,1165,1165,1161,1157,1157,1153,1153,1153,1149,1149,1145,1145,1141,1138,1138,1134,1130,1126,1126,1123,1123,1123,1123,1119,1115,1115,1112,1112,1108,1108,1108,1105,1105,1101,1101,1097,1094,1094,1090,1090,1087,1084,1084,1080,1080,1080,1077,1077,1077,1077,1073,1073,1070,1067,1063,1063,1063,1063,1060,1060,1060,1057,1054,1054,1054,1050,1047,1047,1044,1041,1041,1041,1041,1038,1038,1038,1034,1034,1031,1031,1028,1028,1025,1025,1025,1022,1022,1019,1016,1016,1016,1013,1013,1010,1010,1007,1004,1004,1004,1001,1001,998,998,998,0,0,0,0,0,0,0,0,0,0,0,0,0,0,0,0,0,0,0,0,0,0,0,0,0,0,0,0,0,0,0
0,0,0,0,0,0,0,0,0,0,0,0,0,0,0,1915,1915,1894,1894,1883,1883,1883,1883,1883,1883,1883,1883,1883,1883,1873,1873,1873,1873,1873,1873,1873,1873,1863,1863,1863,1863,1863,1863,1853,1853,1853,1853,1853,1843,1843,1843,1843,1843,1843,1843,1833,1833,1843,1843,1833,1833,1833,1833,1833,1833,1833,1823,1823,1823,1823,1823,1823,1823,1813,1813,1813,1813,1804,1804,1794,1794,1794,1794,1794,1794,1794,1794,1794,1794,1794,1785,1785,1785,1776,1776,1776,1776,1776,1776,1776,1776,1776,1766,1766,1766,1766,1766,1757,1757,1757,1757,1757,1757,1757,1757,1757,1757,1757,1757,1748,1748,1748,1748,1748,1748,1739,1731,1731,1731,1731,1731,1731,1731,1731,1722,1722,1722,1722,1722,1722,1713,1713,1713,1713,1713,1713,1713,1705,1705,1713,1713,1713,1713,1713,1722,1722,1722,1722,1722,1722,2103,2103,2103,2090,2090,2078,2065,2065,2040,2040,2028,2028,2028,1722,1713,1705,1705,1696,1696,1696,1696,1696,1696,1696,1696,1696,1696,1696,1705,1713,1713,1713,1713,1713,1713,1713,1722,1722,1722,1722,1731,1731,1731,1731,1731,1731,1739,1739,1748,1748,1748,1757,1757,1757,1757,1757,1757,1757,1757,1757,1766,1766,1123,1123,1119,1119,1115,1115,1115,1112,1105,1105,1105,1105,1101,1101,1097,1097,1097,1094,1094,1090,1090,1087,1084,1080,1077,1077,1073,1070,1067,1067,1060,1060,1057,1057,1054,1050,1047,1047,1044,1041,1038,1038,1034,1028,1028,1025,1022,1022,1019,1016,1016,1010,1010,1007,1004,1001,998,998,995,992,989,987,984,978,975,975,973,967,967,964,964,962,954,954,948,946,943,940,938,935,933,930,925,925,920,918,918,918,915,913,913,906,898,891,889,887,885,882,880,878,878,875,873,871,871,871,871,871,871,871,873,873,875,878,880,880,880,882,885,885,885,885,885,0,0,0,0,0,0,0,1550,1550,1543,1543,1543,1536,1536,1529,1529,1523,1523,1523,1516,1516,1503,1503,1496,1496,1489,1489,1489,1489,1483,1477,1470,1470,1470,1464,1464,1464,1458,1452,1445,1445,1445,1445,1439,1439,1433,1433,1427,1421,1421,1421,1421,1415,1415,1410,1410,1404,1398,1398,1398,1392,1387,1387,1381,1381,1376,1376,1376,1376,1370,1370,1365,1359,1354,1349,1349,1349,1349,1349,1343,1343,1338,1338,1333,1333,1328,1322,1322,1317,1317,1312,1312,1312,1312,1307,1307,1302,1297,1292,1292,1288,1288,1288,1288,1283,1283,1278,1273,1273,1268,1268,1264,1264,1259,1259,1255,1255,1250,1250,1250,1245,1245,1241,1236,1232,1232,1232,1232,1232,1227,1223,1223,1219,1219,1219,1214,1214,1214,1210,1206,1202,1202,1197,1197,1193,1193,1189,1185,1185,1181,1181,1177,1177,1173,1173,1169,1169,1169,1169,1165,1165,1165,1161,1161,1157,1153,1153,1153,1149,1149,1145,1145,1141,1138,1138,1134,1134,1130,1126,1126,1123,1123,1123,1119,1119,1115,1112,1112,1112,1108,1108,1105,1105,1101,1101,1097,1094,1094,1094,1090,1090,1087,1084,1084,1080,1080,1080,1080,1077,1077,1073,1073,1070,1067,1063,1063,1063,1063,1060,1060,1060,1057,1057,1054,1054,1050,1050,1047,1047,1044,1041,1041,1041,1038,1038,1038,1038,1034,1031,1031,1028,1028,1025,1025,1025,1022,1022,1022,1019,1016,1016,1016,1013,1013,1013,1010,1007,1004,1004,1001,1001,998,998,998,0,0,0,0,0,0,0,0,0,0,0,0,0,0,0,0,0,0,0,0,0,0,0,0,0,0,0,0,0,0,0
0,0,0,0,0,0,0,0,0,0,0,0,0,0,0,1915,1915,1894,1894,1883,1883,1883,1883,1883,1883,1883,1883,1883,1883,1873,1873,1873,1873,1873,1873,1873,1873,1873,1873,1863,1863,1863,1863,1853,1853,1853,1853,1853,1853,1853,1843,1843,1843,1843,1843,1843,1843,1843,1843,1833,1833,1833,1833,1833,1833,1833,1823,1823,1813,1813,1823,1823,1823,1813,1813,1813,1813,1804,1804,1794,1794,1804,1794,1794,1794,1794,1794,1794,1794,1794,1785,1785,1785,1776,1776,1776,1776,1776,1776,1776,1776,1776,1766,1766,1766,1766,1766,1757,1757,1757,1757,1757,1757,1757,1757,1757,1757,1757,1757,1757,1748,1748,1748,1748,1739,1739,1731,1731,1731,1731,1731,1731,1731,1731,1722,1722,1722,1722,1722,1722,1713,1713,1713,1713,1713,1713,1713,1705,1705,1713,1713,1713,1713,1722,1722,1731,1731,1731,1731,1731,2103,2103,2103,2090,2090,2078,2078,2065,2053,2053,2040,2040,2028,1722,1713,1713,1705,1705,1705,1696,1696,1696,1696,1696,1696,1696,1696,1705,1705,1713,1713,1713,1713,1713,1713,1713,1722,1722,1722,1722,1731,1731,1731,1731,1731,1739,1739,1739,1748,1748,1757,1757,1757,1757,1757,1757,1757,1757,1757,1757,1757,1119,1119,1119,1119,1119,1115,1115,1115,1112,1105,1105,1105,1105,1101,1101,1097,1097,1097,1094,1094,1090,1090,1087,1084,1080,1077,1077,1073,1070,1067,1067,1060,1060,1057,1057,1054,1050,1050,1047,1044,1041,1038,1038,1031,1031,1028,1025,1025,1022,1019,1019,1016,1013,1010,1007,1004,1001,998,998,995,992,989,987,984,978,975,973,973,967,967,964,964,959,956,954,951,946,943,943,938,935,933,930,925,925,920,918,918,918,915,913,913,910,903,891,889,887,885,882,882,880,878,878,875,873,871,871,871,871,871,871,873,873,875,878,880,880,882,885,885,885,885,885,885,0,0,0,0,0,0,0,1550,1550,1543,1543,1543,1536,1536,1529,1529,1523,1523,1523,1516,1516,1509,1509,1496,1496,1496,1489,1489,1489,1483,1477,1477,1470,1470,1464,1464,1464,1458,1452,1445,1445,1445,1445,1439,1439,1439,1433,1427,1427,1421,1421,1421,1415,1415,1410,1410,1404,1398,1398,1398,1392,1392,1387,1387,1381,1381,1376,1376,1376,1370,1370,1365,1365,1354,1354,1349,1349,1349,1349,1343,1343,1338,1338,1333,1333,1328,1328,1322,1322,1317,1317,1312,1312,1312,1307,1307,1302,1297,1292,1292,1292,1288,1288,1288,1288,1283,1278,1278,1273,1273,1268,1268,1264,1264,1259,1259,1255,1255,1250,1250,1250,1245,1241,1236,1236,1232,1232,1232,1232,1227,1227,1223,1219,1219,1219,1219,1214,1214,1210,1206,1202,1202,1197,1197,1197,1193,1193,1189,1185,1185,1181,1181,1181,1177,1177,1173,1169,1169,1169,1169,1165,1165,1161,1161,1157,1153,1153,1153,1149,1149,1145,1145,1141,1138,1138,1134,1134,1130,1126,1126,1123,1123,1123,1119,1119,1119,1115,1115,1112,1112,1108,1105,1105,1101,1101,1101,1094,1094,1094,1090,1090,1087,1087,1087,1084,1080,1080,1080,1077,1077,1077,1073,1070,1067,1063,1063,1063,1063,1060,1060,1060,1060,1057,1054,1054,1050,1050,1050,1047,1044,1041,1041,1041,1038,1038,1038,1038,1034,1034,1031,1028,1028,1025,1025,1025,1025,1022,1022,1019,1019,1016,1016,1013,1013,1013,1010,1007,1004,1001,1001,1001,998,998,998,0,0,0,0,0,0,0,0,0,0,0,0,0,0,0,0,0,0,0,0,0,0,0,0,0,0,0,0,0,0,0
