0,0,0,0,1001,1001,1001,1001,1001,998,998,998,998,998,995,995,998,998,995,995,992,992,992,989,989,989,989,992,992,992,992,992,992,992,992,992,992,992,992,992,992,989,989,989,987,987,987,987,987,987,987,987,987,987,987,987,987,987,987,987,987,987,987,989,989,989,989,989,989,989,987,987,987,987,987,984,984,984,984,984,984,984,984,984,981,981,981,981,981,984,984,984,984,984,984,981,981,984,981,981,981,981,981,981,981,978,978,978,978,978,978,978,978,978,978,978,978,978,978,978,975,975,975,975,975,975,975,975,975,975,978,978,978,978,978,975,975,975,975,973,973,973,973,973,973,973,973,975,975,973,973,970,970,970,970,970,970,970,973,973,970,970,970,970,970,970,970,967,967,970,970,970,970,967,967,967,967,967,967,964,964,964,964,964,964,964,964,964,964,964,964,964,964,962,962,962,962,962,962,962,964,964,962,962,962,962,962,962,962,962,962,962,962,962,962,962,962,959,959,959,959,959,956,956,956,956,956,956,956,956,956,954,954,954,954,954,956,956,954,954,954,954,954,954,954,954,833,833,833,833,833,829,827,827,825,823,821,819,819,819,819,819,821,825,827,829,831,833,833,835,837,843,843,843,843,851,954,951,948,948,946,946,946,946,946,946,946,946,946,943,943,943,943,943,943,943,940,940,943,943,943,943,943,943,943,943,940,940,943,943,943,940,940,940,940,938,938,938,938,940,940,940,940,940,940,940,940,940,940,940,938,938,938,938,938,938,938,938,938,938,935,935,935,935,935,935,935,935,935,935,935,935,935,935,935,935,935,935,935,935,933,933,930,930,930,930,930,930,930,930,930,930,930,930,930,930,928,928,928,930,928,928,928,928,928,930,930,930,930,930,928,928,930,930,930,930,930,930,928,928,928,928,928,928,928,925,925,928,925,925,925,925,925,925,925,925,925,925,925,925,925,925,925,925,923,923,923,923,923,923,920,920,920,920,920,923,923,923,923,923,923,920,920,920,920,920,920,920,920,920,920,920,918,918,918,918,918,918,915,915,915,915,915,915,915,915,915,915,915,915,915,915,915,915,915,913,913,913,913,913,913,910,910,910,910,908,908,908,908,910,910,910,910,910,910,913,910,910,908,908,908,908,908,908,908,908,908,908,908,908,906,906,906,906,906,906,906,906,906,906,906,906,906,906,906,906,906,906,906,906,906,906,906,906,906,906,906,903,903,901,901,901,901,901,901,901,901,903,901,901,901,901,901,901,903,901,901,901,901,901,898,898,898,898,898,898,898,898,898,898,898,898,898,898,898,898,898,896,896,896,896,896,896,896,896,896,896,896,898,896,896,896,896,896,894,894,894,894,894,894,894,894,894,894,0,0,0,0,0,0,0,0,0,0,0,0,0,0,0,0,0,0,0,0,0,0,0,0,0,0,0,0,0,0,0,0,0,0,0,0
0,0,0,0,1001,1001,1001,998,998,998,998,998,995,995,992,992,995,995,992,992,989,989,989,989,989,989,989,989,989,989,989,989,989,989,989,989,989,989,989,989,989,989,989,987,987,987,987,987,984,984,984,984,984,987,987,987,987,984,984,987,987,987,987,987,989,989,989,989,989,987,984,984,984,984,984,981,981,984,984,984,984,981,981,981,981,981,981,981,981,981,984,984,984,984,984,981,981,981,981,981,978,978,978,978,978,978,978,978,978,975,975,975,975,975,975,975,975,975,975,975,975,975,975,975,975,975,975,975,975,973,973,973,973,975,975,975,975,973,973,973,970,970,970,970,970,973,973,973,973,970,970,970,970,967,967,967,967,967,967,967,967,967,967,964,964,964,967,964,964,967,967,967,967,964,964,964,964,964,964,964,962,962,962,962,962,962,962,962,962,962,962,962,959,959,959,959,962,962,959,959,959,959,959,959,959,959,959,959,959,962,959,959,959,959,959,959,959,956,956,956,956,956,954,954,954,954,954,954,954,954,954,954,954,954,954,954,954,954,954,954,954,954,954,954,954,954,835,835,835,835,833,831,829,827,827,825,825,823,821,819,819,821,823,825,827,829,831,833,833,835,841,843,843,843,845,851,948,948,946,946,946,946,946,943,943,943,943,943,943,943,943,940,940,940,940,940,938,938,940,940,940,940,940,940,940,940,940,940,940,940,940,940,938,938,938,938,938,938,938,938,938,938,938,938,938,938,938,938,938,938,938,938,938,935,935,935,935,935,935,935,933,933,933,933,933,933,933,933,935,935,935,935,935,935,933,933,933,933,933,930,930,930,928,928,928,928,928,928,928,928,928,928,928,928,928,928,928,928,928,928,925,925,925,925,925,925,925,925,928,928,928,928,928,928,928,928,928,928,928,925,925,928,925,925,925,925,925,925,925,925,925,925,925,925,925,923,923,923,923,923,923,923,923,923,923,923,923,923,923,920,920,920,920,920,920,920,920,920,920,920,918,918,918,918,918,918,920,920,920,918,918,918,918,918,918,918,915,915,915,915,915,915,915,915,915,915,915,915,915,915,913,913,913,913,913,913,910,910,910,910,910,910,910,908,908,908,908,908,908,908,908,908,908,908,908,908,908,908,908,906,906,906,906,906,906,906,906,906,906,906,906,903,903,903,903,903,903,906,906,906,906,906,906,906,906,906,903,903,903,903,903,903,903,903,903,903,903,903,901,898,898,898,898,898,898,898,898,901,901,898,898,898,898,898,901,898,898,898,898,898,898,898,898,898,898,898,898,898,898,898,898,898,898,896,896,896,896,896,896,896,896,896,894,894,894,894,894,894,896,896,896,894,894,894,891,891,891,891,891,891,894,894,894,894,0,0,0,0,0,0,0,0,0,0,0,0,0,0,0,0,0,0,0,0,0,0,0,0,0,0,0,0,0,0,0,0,0,0,0,0
0,0,0,0,998,998,998,998,995,995,995,992,992,992,992,992,992,992,989,989,989,987,987,987,987,987,989,989,989,989,989,987,987,987,989,989,989,989,989,989,989,989,987,987,987,984,984,984,981,981,981,981,984,984,984,984,984,984,984,984,981,981,981,984,987,987,987,987,987,987,984,984,981,981,981,981,981,981,981,981,981,978,978,978,978,978,978,978,978,978,981,981,981,981,981,981,981,978,978,978,978,978,978,978,975,975,975,975,975,975,975,975,975,975,975,975,975,975,973,973,973,973,973,973,973,973,973,973,973,970,970,970,970,970,970,967,967,967,970,970,970,970,970,970,970,970,970,973,973,970,970,967,967,967,967,967,967,967,967,964,964,964,964,962,962,962,964,962,962,962,964,964,964,962,962,964,964,964,964,962,962,962,962,959,959,959,959,959,959,959,959,959,959,959,959,959,956,956,956,956,959,956,956,956,956,956,959,959,959,959,959,959,956,956,956,956,956,956,956,956,954,954,954,954,954,954,951,951,954,954,954,954,954,954,951,951,951,951,951,948,948,948,951,951,951,951,839,837,837,837,835,833,831,829,827,827,825,825,823,823,823,823,825,825,827,831,831,833,833,837,841,843,843,843,847,851,854,946,946,943,943,943,940,940,940,940,940,940,940,940,940,940,940,938,938,938,938,938,938,938,940,940,940,940,940,938,938,938,938,938,938,938,938,938,938,935,935,935,935,938,938,938,938,938,938,935,935,935,935,935,935,933,933,935,935,935,933,933,933,933,930,930,930,930,930,933,933,933,933,933,933,933,933,933,930,930,930,930,930,930,928,928,928,928,928,928,928,928,928,928,928,928,928,928,928,925,925,925,925,925,925,925,925,925,925,925,925,923,923,925,925,925,925,925,925,925,925,925,925,925,925,925,923,923,925,923,923,923,923,925,923,923,923,923,923,920,920,920,920,920,920,920,920,920,920,920,920,920,920,918,918,918,918,918,918,918,918,918,918,918,918,918,915,915,915,915,918,918,918,918,915,915,915,915,915,915,915,915,913,913,913,913,913,913,913,913,913,913,913,913,913,910,910,910,910,910,910,910,910,908,908,908,908,906,906,906,906,906,906,906,906,908,908,908,908,908,908,906,906,903,903,906,906,906,906,906,906,906,906,906,903,903,901,901,901,903,903,903,903,903,903,903,903,903,903,903,901,901,901,901,901,901,901,901,901,901,901,901,898,896,896,896,896,896,898,898,898,898,898,898,898,898,898,898,898,896,896,898,898,898,898,898,896,896,896,896,896,896,896,896,896,896,896,896,896,896,896,894,894,894,894,891,891,891,891,891,891,894,894,894,891,889,889,889,889,889,889,889,889,891,889,889,894,894,0,0,0,0,0,0,0,0,0,0,0,0,0,0,0,0,0,0,0,0,0,0,0,0,0,0,0,0,0,0,0,0,0,0,0,0
0,0,0,0,998,998,998,995,992,992,992,992,992,989,989,989,989,989,989,989,987,987,987,987,987,987,987,987,987,987,987,987,984,984,984,987,987,987,987,987,987,987,987,981,981,981,981,981,981,981,981,981,981,981,981,981,984,981,981,981,978,978,978,978,978,981,981,984,984,984,981,981,981,981,981,981,978,978,978,978,978,978,978,978,978,978,978,978,978,978,978,978,978,981,981,981,981,978,978,978,978,975,975,975,975,973,973,973,973,970,970,970,973,973,973,973,973,973,973,973,973,973,973,970,970,970,970,970,970,970,967,967,967,967,967,967,964,964,964,967,967,967,967,967,967,967,970,967,967,967,967,967,964,964,964,964,964,964,964,964,964,962,962,962,959,959,962,962,959,959,959,959,959,959,959,962,962,962,962,959,959,959,956,956,956,956,956,956,956,956,956,956,956,956,956,956,956,956,954,954,956,956,956,956,954,954,956,956,956,956,956,956,956,956,954,954,954,954,954,954,954,954,954,951,951,951,951,951,951,951,951,951,951,951,948,946,946,948,946,946,946,946,946,946,946,943,839,839,839,837,835,833,831,829,829,827,825,825,825,823,823,823,825,825,827,833,833,835,835,839,843,843,843,845,849,854,854,946,943,943,943,938,938,938,938,938,938,940,940,940,940,938,938,938,938,935,935,935,935,935,938,938,938,938,938,935,935,935,938,935,935,935,935,935,935,935,935,935,935,935,935,935,935,935,935,935,933,933,933,933,933,930,930,930,930,930,933,933,933,933,930,930,930,930,930,930,930,930,930,930,930,930,930,930,928,928,928,928,928,928,928,928,928,925,925,925,925,925,925,925,925,925,925,925,925,925,925,923,923,923,923,923,923,923,923,923,923,923,923,923,923,923,920,920,923,923,923,920,920,920,923,923,920,920,923,920,920,923,923,923,923,923,923,923,920,920,918,918,918,918,918,918,918,918,918,918,918,918,918,915,915,915,915,915,915,915,915,915,915,915,915,915,913,913,913,913,913,913,913,915,915,913,913,913,913,913,910,910,910,910,910,910,910,910,910,910,910,910,910,910,910,910,908,908,910,908,908,908,908,906,906,906,903,903,903,906,906,906,906,906,906,906,906,906,906,906,903,903,901,901,901,901,901,903,903,903,903,903,903,903,901,901,901,901,901,901,901,903,901,901,901,901,898,898,898,898,898,898,898,898,898,898,901,901,901,901,898,898,896,896,896,896,896,896,896,896,896,896,896,896,896,894,894,894,894,896,894,894,896,896,896,896,896,894,894,894,894,894,894,894,894,896,896,894,894,894,894,894,891,889,889,889,889,889,889,889,889,891,889,889,889,887,887,887,887,887,887,887,887,889,887,887,889,889,0,0,0,0,0,0,0,0,0,0,0,0,0,0,0,0,0,0,0,0,0,0,0,0,0,0,0,0,0,0,0,0,0,0,0,0
0,0,0,0,995,995,998,995,992,989,989,989,989,989,989,989,987,987,987,987,987,984,984,984,984,987,987,987,987,984,984,984,981,981,981,981,984,984,984,978,978,978,978,978,978,978,978,978,978,978,978,978,978,978,978,978,978,978,978,978,978,975,975,975,975,978,978,978,978,978,978,981,978,978,978,978,978,978,978,978,978,975,975,975,975,975,975,975,975,975,975,975,975,975,975,978,978,978,975,975,975,975,973,973,970,970,970,970,970,970,970,970,970,970,970,970,970,970,970,970,970,970,970,970,967,967,967,967,967,967,964,964,964,964,964,962,962,962,962,964,964,964,964,964,964,967,967,967,964,964,964,964,964,964,964,964,964,962,962,962,962,959,959,959,959,959,959,959,959,959,959,956,956,956,956,956,959,959,959,959,956,956,956,956,956,954,954,954,954,956,956,954,954,954,954,954,954,954,951,951,954,954,954,954,954,954,954,954,954,954,951,951,951,951,954,954,951,951,954,951,951,951,951,948,948,948,948,948,948,948,948,948,948,946,946,946,946,946,946,946,943,943,943,943,943,943,839,839,839,839,837,835,833,833,831,829,827,827,825,825,825,825,825,825,827,833,833,837,837,841,843,843,845,845,849,854,854,940,940,940,938,938,938,935,935,935,935,938,938,938,938,935,935,935,935,935,935,935,935,935,935,933,933,933,933,933,933,933,935,935,935,935,935,935,935,935,935,935,935,935,933,933,933,933,933,933,930,930,930,930,930,930,930,930,930,928,928,928,928,930,930,930,928,928,928,928,928,928,930,930,928,928,928,928,928,928,928,928,928,928,925,925,925,925,925,925,925,925,925,925,925,925,925,925,925,925,923,923,923,923,920,920,920,920,920,920,920,920,920,920,920,920,918,918,918,920,920,920,920,920,920,920,918,918,918,920,920,920,920,920,920,920,920,920,918,918,918,918,918,918,918,915,915,915,915,915,915,915,915,915,915,915,913,913,913,913,913,913,913,913,913,913,910,910,910,910,910,910,910,910,908,908,910,908,908,910,908,908,908,908,908,908,908,908,908,908,908,908,908,908,908,908,908,908,908,908,908,908,906,906,906,906,903,903,903,903,903,903,903,903,903,903,906,903,903,903,903,903,898,898,898,898,898,898,898,901,901,901,901,901,898,898,898,898,898,898,898,901,901,901,898,898,898,898,896,896,896,896,896,896,896,896,898,898,898,898,896,896,896,896,894,894,894,894,894,894,894,894,894,894,891,889,889,889,889,891,891,891,891,891,894,894,891,891,891,891,891,891,891,891,891,894,894,894,894,891,891,891,891,889,887,887,887,889,889,887,887,889,887,887,885,885,885,885,885,885,887,887,887,887,887,887,889,889,0,0,0,0,0,0,0,0,0,0,0,0,0,0,0,0,0,0,0,0,0,0,0,0,0,0,0,0,0,0,0,0,0,0,0,0
0,0,0,0,995,995,992,992,989,989,989,987,987,987,987,987,987,987,987,984,984,984,984,984,984,984,984,984,984,984,984,984,981,981,981,981,981,981,981,978,978,975,975,975,975,975,978,978,978,978,978,978,978,978,978,978,978,978,978,978,975,973,973,973,973,973,973,975,975,978,978,978,975,975,975,975,975,975,975,975,975,975,975,975,975,975,973,973,973,973,973,973,973,973,973,973,973,973,970,970,970,970,970,970,967,967,970,967,967,967,967,967,967,967,967,967,967,967,967,967,967,967,967,967,967,967,967,967,967,964,964,962,962,962,962,962,959,959,962,962,962,962,962,962,962,962,962,959,959,962,962,962,962,962,962,962,962,962,959,959,956,956,956,956,956,956,956,956,956,956,956,956,956,956,956,956,956,956,956,956,956,956,954,954,954,954,954,954,954,954,954,954,954,954,954,954,951,951,948,948,951,951,951,951,951,951,951,951,951,948,948,948,948,948,948,948,946,946,951,951,951,948,948,946,946,946,946,946,946,946,946,946,946,946,943,943,943,943,943,943,940,940,940,940,940,940,841,841,841,839,839,837,835,835,833,831,829,827,827,827,827,827,827,827,827,833,833,837,839,843,843,845,845,847,851,854,854,935,935,935,935,935,935,935,935,935,935,935,935,935,935,935,935,935,935,933,933,933,933,933,933,930,930,930,930,928,928,928,933,933,933,933,933,933,935,933,933,933,933,933,933,933,930,930,930,930,930,928,928,928,928,928,928,928,928,928,928,928,928,928,928,928,928,928,928,928,928,928,928,928,928,928,928,928,925,925,925,925,925,925,925,925,925,925,923,923,923,923,923,923,923,923,923,923,923,923,923,920,920,920,920,920,918,918,918,918,918,918,918,918,918,918,918,918,918,918,918,918,918,918,918,918,918,918,918,918,918,918,918,918,918,918,918,918,918,918,915,915,915,915,915,915,915,915,915,913,913,913,913,913,913,913,910,910,908,908,910,910,910,910,910,910,910,910,910,910,908,908,908,908,908,906,906,906,906,906,906,906,908,908,908,908,908,908,908,908,906,906,906,906,906,906,906,906,906,906,906,906,906,903,903,903,903,901,901,901,901,901,901,901,901,901,903,901,901,901,901,901,898,898,898,898,898,898,898,898,898,898,901,901,898,898,898,898,898,898,898,898,898,898,898,896,896,896,896,896,896,894,894,894,894,894,896,896,896,894,894,894,894,891,891,891,891,894,891,891,894,891,891,891,891,889,889,889,889,889,889,889,889,889,891,891,889,889,889,889,889,889,889,889,889,891,891,891,891,889,889,889,889,887,885,885,887,887,887,885,885,885,882,882,882,882,882,882,882,885,885,887,887,887,885,885,885,885,0,0,0,0,0,0,0,0,0,0,0,0,0,0,0,0,0,0,0,0,0,0,0,0,0,0,0,0,0,0,0,0,0,0,0,0
0,0,0,0,992,992,992,989,989,987,987,987,987,984,984,984,984,984,984,984,981,978,978,981,981,981,981,981,981,978,978,981,981,981,978,978,978,978,978,978,975,975,975,975,975,975,975,975,975,975,975,975,975,978,975,975,975,975,975,975,973,970,970,970,970,970,970,970,973,973,975,975,973,973,973,970,970,970,970,973,973,973,973,973,973,973,970,970,970,967,967,967,967,967,967,967,967,970,967,967,967,967,967,967,967,967,967,967,967,967,964,964,967,967,964,964,964,967,967,967,967,967,967,964,964,964,964,964,964,964,964,959,959,959,959,959,959,959,959,959,959,959,959,959,959,959,959,959,956,956,956,956,959,959,959,959,959,959,956,956,956,956,956,956,956,956,956,956,954,954,954,954,954,954,954,954,954,954,954,954,954,954,954,951,951,951,951,951,951,951,951,951,951,951,951,951,951,951,948,948,951,948,948,948,946,946,946,946,946,946,946,946,946,946,946,946,946,946,946,946,946,946,946,946,946,946,946,946,946,946,946,946,943,943,943,943,943,943,943,940,940,938,938,938,938,935,935,843,843,841,839,837,837,835,833,833,831,829,827,827,827,827,827,827,829,833,833,839,839,843,843,845,845,849,851,854,854,935,933,933,933,933,933,933,933,933,933,933,933,935,933,933,933,933,933,933,933,930,930,930,930,928,928,928,928,928,925,925,930,930,930,930,930,930,933,930,930,930,930,930,930,930,930,928,928,928,928,928,925,925,925,925,925,925,925,925,925,925,925,925,925,925,925,925,925,925,925,925,925,925,925,925,923,923,923,923,925,925,925,925,925,923,923,923,923,923,920,920,920,920,920,920,920,920,920,920,920,918,918,918,918,918,918,918,918,918,918,918,918,918,918,918,918,915,915,915,915,915,915,915,915,915,915,915,915,915,915,915,915,915,915,915,915,915,915,915,915,915,915,915,915,913,913,913,913,910,910,910,910,910,910,910,908,908,908,908,908,908,908,908,908,908,908,908,908,908,908,906,906,906,906,906,906,903,903,903,903,903,906,906,906,906,906,906,906,906,906,903,903,903,903,903,903,903,903,903,903,903,903,903,903,901,901,901,901,901,901,901,901,901,901,901,901,901,898,898,898,898,896,896,896,896,896,896,896,896,896,896,896,896,896,896,896,898,898,896,896,896,896,896,894,894,894,894,894,894,894,894,894,891,891,891,894,894,894,891,891,891,891,889,889,889,889,891,889,889,891,891,891,891,889,889,889,887,887,889,889,887,887,887,887,889,889,889,889,889,889,889,889,889,889,889,889,889,889,889,887,887,887,885,885,885,885,885,885,882,882,882,880,880,880,880,880,882,882,882,885,885,885,885,882,882,882,882,0,0,0,0,0,0,0,0,0,0,0,0,0,0,0,0,0,0,0,0,0,0,0,0,0,0,0,0,0,0,0,0,0,0,0,0
0,0,0,0,989,989,987,987,984,984,984,984,984,981,981,981,981,981,981,978,978,978,978,978,978,978,978,978,978,978,978,978,978,978,978,978,978,978,975,975,975,975,975,975,973,973,973,973,973,973,973,975,975,975,975,975,975,975,973,973,970,970,970,967,967,967,967,967,967,970,970,973,970,970,970,967,967,967,964,964,964,967,967,967,967,970,967,967,967,967,967,967,967,967,967,967,967,967,967,967,967,967,967,964,964,964,964,964,964,964,964,964,964,964,964,964,964,964,964,964,964,964,964,964,964,964,964,962,962,962,959,959,956,956,956,956,956,956,959,959,959,959,959,959,956,956,956,956,956,956,956,956,956,956,956,956,956,956,956,956,954,954,954,954,954,954,954,954,954,954,954,951,951,951,951,954,954,951,951,951,954,951,951,948,948,948,948,948,948,948,951,948,948,948,951,951,948,948,948,948,948,948,946,946,946,946,946,946,943,943,943,943,943,943,943,943,943,943,943,943,943,943,943,943,943,943,943,943,943,943,943,943,943,940,940,940,940,940,940,938,938,938,938,935,935,935,935,845,843,841,841,839,837,835,835,833,831,831,829,827,827,827,827,827,829,831,835,839,841,843,843,845,847,849,851,854,854,854,933,933,933,930,930,930,930,930,930,933,933,933,933,933,930,930,933,930,930,930,928,928,925,925,925,925,928,925,925,925,930,930,930,928,928,928,930,930,930,928,928,928,928,928,928,925,925,925,925,925,925,925,925,925,925,925,925,925,925,925,923,923,923,923,923,923,923,923,920,920,925,923,923,923,920,920,920,923,923,923,923,923,923,923,920,920,920,920,920,920,918,918,918,918,918,918,918,918,918,918,918,918,918,918,915,915,915,915,915,915,915,915,915,915,915,915,915,915,913,913,915,913,913,913,913,913,913,913,913,913,913,913,913,913,913,913,913,913,913,913,913,913,913,913,913,910,910,910,908,908,908,908,908,908,908,908,908,908,908,908,906,906,906,906,906,906,906,906,906,906,903,903,903,903,903,901,901,901,901,903,903,903,906,906,906,903,903,903,903,903,903,901,901,901,901,901,901,901,903,903,903,901,901,898,898,898,898,898,898,898,898,898,898,898,898,898,898,898,898,896,896,896,896,896,896,896,896,896,896,896,896,894,891,891,894,896,896,894,894,894,891,891,891,891,894,891,891,891,891,891,889,889,887,887,889,889,889,889,889,889,889,889,889,889,889,889,889,889,889,887,887,889,889,887,887,887,887,887,887,887,887,885,885,887,887,887,887,887,887,887,887,887,887,887,887,887,889,887,887,885,885,885,882,882,882,882,882,882,882,882,880,880,880,880,880,882,882,882,882,882,882,882,880,880,880,880,0,0,0,0,0,0,0,0,0,0,0,0,0,0,0,0,0,0,0,0,0,0,0,0,0,0,0,0,0,0,0,0,0,0,0,0
0,0,0,0,987,987,987,984,981,981,981,981,981,981,978,978,981,981,978,978,978,978,978,978,978,978,978,978,975,975,975,975,975,975,975,975,975,975,973,973,973,973,973,973,970,970,970,973,973,973,973,973,973,975,973,973,973,973,973,970,970,967,967,967,967,967,967,967,967,967,967,970,967,967,967,967,964,964,964,964,964,964,964,964,964,967,967,967,967,964,964,964,964,964,964,964,964,964,964,964,964,964,964,964,964,964,964,964,962,962,964,964,964,962,962,962,962,964,964,964,964,964,964,964,962,962,962,962,962,962,959,956,956,956,956,956,956,956,956,956,956,956,956,956,956,954,954,954,954,954,954,954,954,954,956,954,954,954,951,951,954,954,954,954,954,951,951,951,951,951,951,951,951,951,951,951,951,951,948,948,951,948,948,946,946,946,946,946,946,948,948,946,946,946,948,948,946,946,946,946,946,946,946,943,943,943,943,943,943,943,943,943,943,940,940,943,940,940,943,943,943,940,940,943,943,943,943,943,943,943,943,940,940,940,938,938,938,938,938,938,935,935,935,935,935,935,935,843,843,843,841,841,837,837,835,835,833,831,829,829,829,829,829,829,831,831,837,839,843,843,843,845,847,851,851,854,854,854,933,930,930,928,928,928,928,928,928,928,928,928,928,930,928,928,930,930,928,928,928,925,925,925,925,925,925,925,923,923,928,928,928,928,928,928,928,928,928,925,925,925,925,925,925,925,925,925,925,925,923,923,923,923,923,923,923,923,923,923,920,920,920,920,920,918,918,918,918,918,918,918,918,920,920,920,920,920,920,923,923,923,923,920,920,920,918,918,918,918,918,918,915,915,915,915,915,915,915,915,915,915,915,915,913,913,913,913,913,913,913,915,913,913,913,913,913,913,910,910,913,910,910,910,910,910,910,910,910,910,910,910,910,910,910,910,910,910,910,910,910,910,910,910,910,910,908,908,908,908,906,906,906,906,906,906,906,906,906,906,906,906,906,906,906,906,906,903,903,903,903,901,901,901,901,901,901,901,901,901,903,901,901,901,903,901,901,901,901,901,901,901,898,898,898,898,898,898,901,898,898,898,898,898,898,898,896,896,896,896,896,898,898,898,898,898,896,896,896,894,894,894,894,894,894,896,896,896,894,894,894,891,889,889,891,889,889,891,891,891,891,891,891,891,891,891,889,889,889,889,889,887,887,887,887,887,887,887,887,889,889,887,887,887,887,887,887,887,887,885,885,885,887,887,887,885,885,887,887,887,885,885,885,885,885,885,885,885,887,887,887,887,885,885,885,887,887,887,885,885,885,882,882,882,882,880,880,880,880,880,880,880,880,880,880,880,880,880,880,880,880,880,880,878,878,880,0,0,0,0,0,0,0,0,0,0,0,0,0,0,0,0,0,0,0,0,0,0,0,0,0,0,0,0,0,0,0,0,0,0,0,0
0,0,0,0,987,981,978,978,978,978,978,978,978,978,978,978,978,978,978,978,978,978,978,978,978,978,975,975,975,973,973,973,973,975,973,973,973,973,973,973,970,970,970,970,970,970,970,970,970,970,970,973,973,973,973,970,970,970,970,967,967,967,967,967,967,967,967,967,967,967,967,967,964,964,964,964,964,962,962,962,962,962,964,964,964,964,964,964,964,964,964,964,964,964,964,964,964,964,964,962,962,962,962,962,962,962,959,959,962,962,962,962,962,962,962,959,959,962,962,962,962,962,962,962,962,962,962,959,959,959,956,956,956,956,956,956,956,956,954,954,954,954,954,954,954,954,954,954,951,951,954,954,954,954,954,951,951,951,948,948,948,948,948,951,951,951,951,951,948,948,948,948,948,948,948,948,948,948,948,948,948,946,946,946,946,946,946,946,946,946,946,946,946,946,946,946,946,943,943,943,943,943,943,943,943,943,943,943,940,940,940,940,940,938,938,940,938,938,940,940,940,940,940,940,940,940,940,940,940,940,940,940,940,938,935,935,935,935,935,935,935,935,935,933,933,933,935,843,843,843,841,841,839,837,837,835,833,833,831,829,829,829,829,831,831,835,839,841,843,843,843,845,847,851,854,854,854,933,930,928,928,928,928,925,925,925,925,925,925,925,925,925,925,925,928,928,925,925,925,925,923,923,923,923,923,923,923,923,925,925,925,925,925,925,925,925,925,925,925,925,925,925,923,923,923,923,923,923,920,920,920,923,923,923,920,920,920,920,920,918,918,918,918,918,918,918,918,918,918,918,918,918,918,918,918,918,920,920,923,920,920,918,918,918,918,918,915,915,915,915,915,915,915,913,913,913,913,913,913,913,913,913,913,913,913,913,913,913,913,913,913,913,913,913,910,910,908,908,910,908,908,908,908,910,908,908,908,908,908,908,908,908,908,908,908,908,908,908,908,908,908,908,908,908,908,906,906,906,906,906,906,906,906,906,906,903,903,903,903,903,903,903,903,903,903,901,901,901,901,898,898,898,898,898,898,898,898,898,901,901,898,898,898,898,898,898,898,898,898,898,898,898,898,898,898,898,898,898,898,898,896,896,896,896,896,896,896,896,896,896,896,896,896,896,896,894,891,891,891,891,891,891,891,894,894,894,894,894,891,889,889,889,889,889,887,887,887,889,889,889,889,889,891,889,889,889,889,889,887,887,885,885,887,887,887,887,887,887,887,887,887,887,887,887,887,887,887,885,885,885,885,885,885,882,882,882,885,885,885,882,882,882,882,885,885,882,882,882,885,885,882,882,882,882,885,882,882,882,882,882,882,880,880,880,880,880,880,880,880,880,880,880,880,880,880,880,880,878,878,878,878,875,875,0,0,0,0,0,0,0,0,0,0,0,0,0,0,0,0,0,0,0,0,0,0,0,0,0,0,0,0,0,0,0,0,0,0,0,0,0
0,0,0,978,978,978,978,978,975,975,975,975,975,975,978,978,978,978,978,978,978,978,978,978,978,975,975,973,973,973,973,973,973,973,973,973,973,973,970,970,970,970,970,967,967,967,967,970,970,967,967,970,970,970,970,967,967,967,967,967,967,967,964,964,967,964,964,964,964,964,964,964,962,962,962,962,962,962,962,962,962,962,962,962,962,964,964,962,962,962,962,962,962,962,962,962,962,962,962,962,962,959,959,959,959,959,959,959,959,959,959,959,959,959,959,956,956,959,959,959,959,959,959,959,959,956,956,956,956,956,956,956,956,956,954,954,954,954,954,954,954,951,951,951,951,951,948,948,948,948,951,951,951,951,951,948,948,948,948,946,946,946,946,946,946,946,948,946,946,946,946,946,946,946,946,946,948,946,946,946,946,946,943,943,943,943,943,943,943,943,943,943,943,943,943,943,943,943,943,943,943,943,940,940,940,940,940,940,938,938,938,938,938,938,938,938,935,935,938,938,938,938,935,935,935,935,935,935,938,938,938,935,935,935,935,935,935,933,933,933,933,933,933,933,933,933,933,935,845,845,845,843,841,839,837,835,835,833,833,831,831,831,831,831,833,835,839,841,843,843,843,845,851,854,854,854,854,928,928,925,925,925,925,925,925,925,925,925,925,925,925,925,925,923,923,923,923,923,923,923,923,923,923,923,923,923,923,923,925,925,923,923,923,923,923,923,923,923,923,923,920,920,920,920,920,920,918,918,918,918,918,920,920,920,918,918,918,918,918,918,918,915,915,915,915,915,915,915,915,915,915,915,915,915,915,915,915,918,918,918,918,918,918,918,915,915,915,915,915,913,913,913,913,913,913,913,913,913,913,913,910,910,910,910,910,910,910,910,910,910,910,910,910,910,908,908,908,908,908,908,908,908,908,908,908,908,908,906,906,906,906,903,903,906,906,906,908,906,906,908,908,906,906,906,906,906,903,903,903,903,903,903,903,903,903,903,903,903,903,903,901,901,901,901,901,898,898,901,898,898,898,898,898,898,898,898,898,898,898,898,896,896,896,896,896,896,896,896,896,898,896,896,896,896,896,896,896,896,896,896,896,894,894,894,894,891,891,891,891,894,894,894,894,894,894,891,891,891,891,891,891,891,891,891,891,891,891,891,889,889,887,887,887,887,887,887,887,887,887,887,887,887,887,887,887,887,887,887,887,885,885,885,882,882,882,882,882,885,885,885,885,885,885,885,885,885,885,882,882,882,885,882,882,880,880,882,882,882,882,882,882,882,882,882,880,880,880,880,880,880,880,880,880,880,882,882,882,880,880,880,880,880,880,878,878,878,878,878,878,878,878,878,878,880,878,878,878,878,878,878,875,875,875,0,0,0,0,0,0,0,0,0,0,0,0,0,0,0,0,0,0,0,0,0,0,0,0,0,0,0,0,0,0,0,0,0,0,0,0,0
0,0,0,978,978,978,975,975,975,975,975,975,975,975,975,975,975,975,975,978,978,978,978,975,975,975,973,973,973,970,970,967,967,970,970,970,970,970,967,967,967,967,967,967,967,967,967,967,967,967,967,967,967,967,967,967,967,964,964,967,967,964,964,964,964,964,964,964,964,964,964,962,962,962,962,962,959,959,959,962,962,962,962,962,962,962,962,959,959,959,959,956,956,956,956,959,959,959,959,959,959,959,956,956,956,956,956,956,956,956,956,956,956,956,956,956,956,956,956,956,956,956,954,954,954,954,954,954,954,954,954,954,954,954,954,954,954,954,951,951,951,948,948,948,948,948,948,946,946,948,948,948,948,948,948,946,946,946,946,946,946,946,946,943,943,943,943,943,943,943,943,943,943,946,946,946,946,946,943,943,943,943,943,943,943,943,943,943,943,943,943,943,943,940,940,940,940,940,940,940,940,940,940,940,938,938,938,938,938,935,935,935,935,935,935,935,935,935,935,935,935,933,933,933,930,930,933,933,933,933,933,933,933,933,933,933,933,933,933,933,930,930,933,933,933,933,933,935,847,847,847,845,843,841,839,837,837,835,833,833,833,833,833,833,835,837,839,841,843,843,845,847,854,854,854,856,856,925,925,923,923,923,925,925,925,925,925,923,923,923,923,923,923,923,923,923,923,918,918,918,920,920,920,920,920,920,920,920,920,920,923,920,920,920,920,920,920,920,920,920,918,918,918,918,918,918,915,915,915,915,915,918,918,918,918,918,918,915,915,915,915,915,915,915,915,915,915,915,915,915,915,915,913,913,913,913,913,913,913,913,918,915,915,915,915,915,915,913,913,913,910,910,910,910,910,910,910,910,910,908,908,908,908,908,908,908,908,908,908,908,908,908,908,908,908,908,906,906,906,906,906,906,906,906,906,906,906,906,906,906,903,903,903,903,903,903,903,906,906,906,906,903,903,903,903,903,901,901,903,901,901,901,901,901,901,901,901,901,901,901,898,898,898,898,898,898,898,898,898,898,898,898,898,896,896,896,896,896,898,896,896,896,894,894,894,894,894,894,894,894,894,896,896,896,896,896,894,894,894,894,894,894,891,891,891,891,891,889,889,891,891,891,891,891,891,891,889,889,889,889,889,889,889,889,889,889,887,887,887,887,887,887,885,885,885,885,885,885,885,885,885,885,885,887,887,887,885,885,885,882,882,882,882,882,880,880,882,882,882,882,882,882,882,882,882,882,882,882,880,880,882,880,880,880,880,880,880,880,880,880,880,880,880,880,880,878,878,878,878,878,878,878,878,878,880,880,880,880,878,878,878,875,875,878,878,878,878,878,878,878,878,878,878,878,878,878,878,878,878,875,871,871,875,0,0,0,0,0,0,0,0,0,0,0,0,0,0,0,0,0,0,0,0,0,0,0,0,0,0,0,0,0,0,0,0,0,0,0,0,0
0,0,0,978,978,978,975,975,973,973,975,975,973,973,973,973,973,973,973,975,975,975,975,975,975,973,973,970,970,967,967,967,964,964,964,964,967,967,964,964,964,964,967,967,964,964,964,964,964,967,964,964,964,964,964,962,962,962,962,962,964,964,962,962,962,962,962,962,962,962,962,959,959,959,959,959,959,959,959,959,959,959,959,959,959,959,959,956,956,956,956,956,956,956,956,956,956,956,956,956,956,956,956,956,956,956,956,954,954,954,954,956,956,954,954,954,954,954,954,954,954,954,951,951,951,951,951,951,951,948,948,951,954,951,951,951,951,951,951,948,948,948,948,946,946,946,946,946,946,946,946,948,948,948,946,946,946,943,943,943,943,943,943,943,943,943,940,940,940,940,940,940,940,940,943,943,943,943,943,943,940,940,940,940,940,940,940,940,940,940,940,940,940,940,940,938,938,935,935,935,935,938,938,935,935,935,935,935,935,935,935,935,935,935,935,935,933,933,933,933,933,930,930,930,928,928,930,930,930,928,928,930,930,930,930,930,930,930,930,928,928,930,930,930,930,930,930,933,847,847,847,847,843,843,841,841,839,837,835,835,835,833,833,835,835,837,839,841,843,843,845,849,854,854,856,856,925,923,923,923,923,923,923,923,923,923,923,923,923,920,920,923,923,920,920,920,918,918,915,915,915,915,915,918,918,918,918,918,920,920,920,920,920,920,920,920,918,918,918,918,918,918,918,915,915,915,915,915,915,913,913,915,915,915,915,915,915,915,915,915,915,915,915,915,915,915,913,913,913,913,913,913,913,913,913,913,910,910,910,913,913,913,913,913,913,913,913,910,910,910,910,908,908,908,908,908,908,908,908,908,908,908,908,908,908,908,908,906,906,908,908,906,906,906,906,906,906,906,906,906,906,906,906,906,906,906,906,903,903,903,901,901,901,901,903,901,901,901,901,903,901,901,901,901,901,898,898,898,898,898,898,898,901,901,901,901,898,898,898,898,898,898,896,896,896,896,896,896,896,896,896,896,896,896,896,896,896,896,896,894,894,891,891,891,891,891,891,891,891,891,891,889,889,894,894,894,891,891,894,894,891,891,891,891,889,889,889,889,889,889,889,889,889,889,889,889,889,889,889,887,887,887,887,887,887,887,885,885,885,885,885,885,885,885,885,885,882,882,882,882,882,882,882,882,882,885,882,882,880,880,880,880,880,880,880,880,882,882,882,882,882,882,882,882,882,882,882,880,878,878,880,878,878,878,878,880,880,880,880,878,878,878,878,878,878,878,878,878,878,878,878,878,878,875,875,875,878,878,875,875,875,875,875,875,875,875,875,875,875,875,875,875,875,875,875,875,875,875,875,871,869,869,871,0,0,0,0,0,0,0,0,0,0,0,0,0,0,0,0,0,0,0,0,0,0,0,0,0,0,0,0,0,0,0,0,0,0,0,0,0
0,0,0,975,975,975,975,973,973,973,973,973,970,970,970,970,973,973,973,973,975,973,973,973,970,970,970,967,967,964,964,964,964,962,962,962,962,962,962,962,962,962,964,964,962,962,962,962,962,964,962,962,962,962,962,959,959,959,959,959,959,962,962,962,962,962,962,959,959,959,959,956,956,956,956,956,956,956,956,956,956,956,956,956,956,956,956,956,956,956,956,956,956,956,956,956,954,954,954,954,954,954,954,951,951,954,954,954,954,954,954,954,954,954,954,951,951,951,951,948,948,948,948,948,948,948,948,948,946,946,948,948,948,948,946,946,946,946,946,946,946,946,946,946,946,946,946,946,946,946,946,946,946,946,946,943,943,943,943,943,943,943,943,943,943,940,940,940,940,940,940,938,938,940,938,938,938,938,940,940,940,940,940,940,938,938,938,938,938,938,938,938,938,938,938,935,935,935,935,935,935,935,935,935,935,935,933,933,933,933,933,933,933,933,933,933,933,933,933,933,930,928,928,928,928,928,928,928,928,928,928,928,928,928,928,928,928,928,928,925,925,925,925,925,928,928,930,933,849,849,849,849,845,843,843,841,839,837,835,835,835,835,835,835,837,837,839,843,843,843,845,849,856,856,856,858,925,920,920,920,920,920,920,920,920,920,920,920,920,918,918,918,918,918,918,918,915,915,915,915,915,915,915,915,915,915,915,915,918,918,918,918,918,918,918,918,918,918,915,915,915,915,915,913,913,913,913,913,913,913,913,913,913,913,913,913,913,913,913,915,915,915,915,913,913,913,913,913,913,913,913,910,910,910,910,910,908,908,910,910,910,910,910,908,908,908,910,908,908,908,908,908,908,908,908,908,908,908,906,906,906,906,906,906,906,906,906,906,906,906,906,903,903,906,906,906,903,903,903,903,903,903,903,903,903,903,903,901,901,901,898,898,898,898,898,898,898,898,898,898,898,898,898,898,898,898,896,896,898,898,898,898,898,898,898,898,898,898,898,896,896,896,896,896,896,896,896,896,896,896,894,894,894,894,894,894,894,894,894,891,891,891,889,889,891,891,891,891,891,891,889,889,889,889,889,889,889,889,891,891,891,889,889,889,889,887,887,887,887,887,887,887,887,889,889,887,887,887,887,887,887,887,887,885,885,885,882,882,882,882,882,882,882,882,882,882,882,882,882,882,882,882,882,882,882,880,880,880,880,880,880,880,880,880,880,880,880,880,880,880,880,880,880,880,880,880,880,878,875,875,878,875,875,878,878,878,878,878,878,878,878,878,878,878,878,878,878,878,875,875,875,875,873,873,873,873,873,875,873,873,873,873,873,873,873,873,873,875,873,873,873,873,873,873,873,873,873,873,871,871,869,869,871,0,0,0,0,0,0,0,0,0,0,0,0,0,0,0,0,0,0,0,0,0,0,0,0,0,0,0,0,0,0,0,0,0,0,0,0,0
0,0,0,970,970,973,970,970,970,967,967,967,967,967,967,967,967,967,967,967,967,970,967,967,967,967,964,964,962,959,959,962,962,959,959,959,959,959,959,959,959,959,959,959,959,959,959,959,959,962,959,959,959,959,959,956,956,956,956,956,956,959,959,959,959,959,959,959,956,956,956,956,956,956,956,956,954,954,954,954,954,954,954,954,954,954,954,954,954,954,954,954,954,954,954,954,951,951,951,951,951,951,951,948,948,948,951,951,948,948,951,954,954,954,954,948,948,948,948,948,946,946,946,946,946,946,946,946,946,946,946,946,946,946,943,943,943,943,943,943,943,943,943,943,943,943,943,943,943,943,943,943,943,943,943,940,940,940,940,943,940,940,940,940,940,940,938,938,938,938,938,935,935,938,938,938,935,935,935,935,935,935,938,938,935,935,935,935,938,938,935,935,935,935,935,935,933,933,933,933,933,933,933,933,933,933,933,930,930,930,930,930,930,930,930,930,930,930,930,930,928,928,928,925,925,925,925,925,925,925,925,925,925,925,925,925,925,925,925,925,925,925,925,925,923,923,923,930,854,854,851,851,849,847,843,843,841,839,837,837,835,835,835,835,837,839,839,843,843,845,845,851,856,856,858,858,918,918,918,918,918,918,920,920,918,918,918,918,918,915,915,915,915,915,915,915,915,915,913,913,913,913,913,913,913,913,913,913,915,915,918,918,918,915,915,915,915,915,915,915,913,913,913,910,910,910,910,910,910,910,910,910,910,910,910,910,910,913,913,913,913,913,913,913,913,913,910,910,910,910,910,910,908,908,908,908,908,908,908,908,908,908,908,908,908,906,906,906,906,906,906,906,906,906,908,908,906,906,906,906,906,906,906,906,906,906,903,903,901,901,901,901,901,901,903,903,901,901,901,901,901,901,901,901,901,901,901,898,898,898,898,898,898,898,898,898,898,898,898,898,896,896,896,896,896,896,896,896,896,896,896,896,896,898,898,898,898,898,898,896,896,896,896,896,896,894,894,894,894,894,891,891,891,891,891,891,891,891,891,889,889,889,889,889,889,889,889,889,889,889,889,887,887,887,887,887,887,887,889,889,889,889,889,887,887,887,887,887,887,887,885,885,887,887,887,887,887,887,887,885,885,885,885,885,882,882,882,880,880,880,880,882,882,882,882,880,880,880,880,880,880,880,880,880,880,880,880,878,878,878,878,878,878,878,878,878,878,880,880,880,878,878,878,880,880,878,878,875,875,875,875,875,875,875,875,875,878,878,878,878,878,875,875,875,875,875,875,875,873,873,873,873,873,871,871,871,871,871,871,871,871,871,871,871,871,871,871,871,871,871,871,871,871,871,871,871,871,871,871,869,869,869,869,0,0,0,0,0,0,0,0,0,0,0,0,0,0,0,0,0,0,0,0,0,0,0,0,0,0,0,0,0,0,0,0,0,0,0,0,0
0,0,0,967,967,967,967,967,964,964,964,964,967,962,962,962,962,962,962,964,964,964,964,964,964,964,964,964,962,959,959,959,956,956,959,959,959,959,956,956,956,956,956,956,956,956,956,956,956,956,956,956,956,956,956,956,956,956,956,956,956,956,956,956,959,959,959,956,956,956,956,956,954,954,954,954,954,954,954,951,951,951,951,951,951,951,951,951,951,954,954,951,951,951,951,951,948,948,948,948,948,948,948,948,948,948,948,948,946,946,948,951,951,951,951,948,948,946,946,946,946,946,946,946,946,943,943,943,943,943,943,940,940,940,940,940,940,940,940,940,943,940,940,943,943,943,943,940,940,940,940,940,940,940,940,938,938,938,938,940,938,938,940,938,938,938,935,935,935,935,935,935,935,935,935,933,933,935,935,933,933,933,933,933,935,935,935,935,935,935,935,935,935,935,933,933,933,933,933,933,933,930,930,930,930,930,930,928,928,928,928,928,928,928,928,928,928,928,928,928,928,925,925,925,925,923,923,923,923,923,923,923,923,923,923,923,923,920,920,923,923,923,923,923,923,923,920,858,854,854,854,854,851,849,847,845,843,841,837,837,835,835,835,835,837,839,841,843,843,845,845,851,854,856,858,860,918,918,918,918,918,918,918,918,918,915,915,915,915,915,915,913,913,913,913,913,913,913,913,913,913,913,913,913,913,913,913,913,915,915,915,915,915,915,915,915,915,915,913,913,913,913,913,910,910,910,910,910,908,908,908,908,908,908,908,908,908,908,908,910,910,910,910,910,910,910,908,908,908,908,908,908,908,908,908,908,906,906,908,908,908,906,906,906,906,903,903,901,901,901,903,903,906,906,906,906,906,906,903,903,903,903,903,903,903,901,901,901,901,898,898,898,898,898,898,901,901,898,898,901,901,898,898,898,898,898,898,898,898,898,898,898,896,896,896,896,896,896,896,896,896,896,896,894,894,894,894,894,896,896,896,896,896,896,896,896,896,896,896,896,896,896,894,894,894,891,891,891,891,889,889,889,889,889,889,889,889,889,889,889,889,889,887,887,887,887,887,887,887,887,887,887,887,887,887,887,887,887,887,887,887,887,887,887,887,885,885,885,885,885,882,882,885,885,885,885,885,885,885,882,882,882,880,880,880,880,880,880,880,880,880,880,880,880,880,880,880,880,880,880,880,880,880,880,880,878,878,878,878,878,875,875,878,878,875,875,875,878,878,878,878,875,875,878,875,875,875,873,873,873,873,875,873,873,873,873,875,875,875,875,875,875,875,875,875,875,875,873,873,873,873,871,871,871,871,871,871,871,871,869,869,869,871,871,871,871,871,871,869,869,869,869,869,869,869,869,869,869,867,867,869,869,869,0,0,0,0,0,0,0,0,0,0,0,0,0,0,0,0,0,0,0,0,0,0,0,0,0,0,0,0,0,0,0,0,0,0,0,0,0
0,0,0,964,964,967,964,964,964,964,964,962,962,962,962,959,959,962,962,962,962,962,962,964,964,964,962,959,959,956,956,956,954,954,956,954,954,956,956,956,956,956,956,956,956,954,954,954,954,954,954,954,954,956,956,956,956,956,956,954,954,956,956,956,956,956,956,956,954,954,954,954,954,951,951,951,951,951,951,951,951,948,948,948,951,951,948,948,951,951,951,951,951,951,948,948,948,946,946,946,946,946,946,946,946,946,946,946,946,946,948,948,946,946,946,946,946,946,943,943,943,943,943,943,943,943,943,943,943,943,940,940,940,940,940,940,938,938,938,940,940,940,940,940,940,940,940,940,940,940,938,938,938,938,938,938,938,938,938,938,938,938,938,938,938,935,935,935,935,935,935,935,935,935,935,933,933,933,933,933,933,933,933,933,930,930,930,930,933,933,933,933,933,933,933,933,930,930,930,930,930,930,930,928,928,928,928,928,928,928,925,925,925,925,925,925,925,925,925,925,925,925,925,925,923,923,923,923,923,923,923,923,923,923,923,923,920,920,920,920,920,920,920,920,920,920,918,858,856,856,856,856,851,851,849,847,843,841,839,837,837,837,837,837,837,839,841,843,843,845,847,854,854,858,858,860,918,918,918,915,915,915,915,915,915,915,915,913,913,913,913,913,913,913,913,910,910,910,913,913,910,910,910,910,910,910,910,910,913,913,913,913,913,910,910,910,913,913,913,910,910,910,910,908,908,908,908,908,908,908,906,906,906,906,906,906,906,906,908,908,908,908,908,908,908,908,908,908,906,906,906,906,906,906,906,906,906,906,906,906,906,906,903,903,903,903,901,901,901,901,901,901,901,901,901,903,903,903,901,901,901,901,901,901,901,898,898,898,898,898,898,898,898,898,898,898,898,898,898,898,898,898,898,896,896,898,898,896,896,896,898,898,896,896,896,894,894,894,894,894,894,894,894,894,894,891,891,891,891,891,891,894,894,894,894,894,894,894,894,894,894,894,894,894,891,889,889,889,889,889,887,887,887,889,889,887,887,887,887,887,887,887,887,887,887,885,885,885,885,887,887,887,887,885,885,885,885,885,885,885,882,882,882,882,885,882,882,882,882,882,880,880,882,882,882,882,882,882,882,882,882,880,880,880,880,878,878,878,878,878,878,878,880,878,878,878,878,878,878,878,878,880,878,878,878,878,878,875,875,875,875,875,875,875,875,875,875,875,875,875,873,873,873,873,873,873,873,871,871,871,873,873,873,873,873,873,873,873,873,871,871,871,871,873,873,873,873,873,871,871,871,871,871,871,871,871,869,869,869,869,869,869,869,869,869,871,871,871,869,869,869,869,869,869,869,869,869,867,864,864,864,862,862,0,0,0,0,0,0,0,0,0,0,0,0,0,0,0,0,0,0,0,0,0,0,0,0,0,0,0,0,0,0,0,0,0,0,0,0,0
0,0,0,964,964,964,962,962,962,962,962,962,962,962,962,956,956,962,962,959,959,959,959,959,959,959,956,956,956,954,954,954,954,954,954,954,954,954,954,954,956,956,956,956,954,954,954,951,951,954,951,951,954,954,954,954,954,954,954,954,954,954,954,954,954,954,954,954,954,951,951,951,951,948,948,948,948,948,948,948,948,948,948,948,948,948,948,948,948,948,948,948,948,948,948,946,946,946,946,946,946,946,946,943,943,943,943,943,943,943,943,943,943,943,940,940,943,940,940,940,943,943,943,943,943,943,940,940,940,940,940,938,938,938,938,938,938,938,938,938,938,938,938,938,938,938,938,938,938,938,938,935,935,935,935,935,935,935,935,935,935,938,938,935,935,935,935,935,933,933,933,933,933,933,933,933,933,933,933,930,930,930,930,930,930,928,928,928,928,930,928,928,930,930,930,930,930,930,930,930,928,928,928,925,925,925,925,925,925,925,925,925,925,925,925,925,925,925,925,925,925,925,923,923,923,923,923,923,923,923,923,923,923,920,920,920,920,918,918,918,918,918,918,918,918,918,915,858,858,856,856,856,854,851,849,849,845,843,841,839,837,837,837,837,839,839,841,845,845,845,849,854,856,858,860,860,918,915,915,915,915,915,913,913,913,913,913,913,913,913,913,910,910,910,910,908,908,910,910,910,910,910,910,910,908,908,908,908,910,910,908,908,908,908,908,908,908,908,908,908,908,908,908,908,908,908,908,908,908,906,906,906,906,906,906,906,903,903,906,906,906,906,908,906,906,906,906,906,906,903,903,903,903,903,906,903,903,903,906,903,903,901,901,901,901,901,898,898,898,898,901,898,898,898,898,898,898,898,898,898,898,898,898,898,898,898,898,898,898,898,898,898,896,896,896,896,896,896,896,896,896,896,896,896,896,896,896,896,896,896,896,896,896,894,894,891,891,891,891,891,891,891,891,891,891,891,891,889,889,889,889,889,889,889,889,889,889,889,891,891,891,891,891,889,889,889,887,887,887,887,887,887,887,887,887,887,887,887,887,887,885,885,885,885,885,882,882,885,885,885,885,885,885,885,885,882,882,882,882,882,880,880,880,880,880,880,882,882,882,882,880,880,880,882,880,880,880,880,880,880,880,878,878,878,878,878,878,878,878,878,878,878,878,878,878,878,878,878,878,878,878,878,878,875,875,875,878,873,873,873,873,873,873,873,873,871,871,873,873,873,871,871,871,871,871,869,869,871,871,871,871,871,871,871,871,871,871,871,871,871,871,871,871,871,871,871,871,871,871,871,871,871,871,871,869,869,869,869,869,867,867,869,869,867,867,867,867,869,869,867,867,869,867,867,867,867,864,864,864,864,862,862,862,0,0,0,0,0,0,0,0,0,0,0,0,0,0,0,0,0,0,0,0,0,0,0,0,0,0,0,0,0,0,0,0,0,0,0,0,0
0,0,0,962,962,959,959,959,959,959,959,959,959,959,956,956,956,959,959,959,959,959,959,959,956,956,956,956,956,954,954,954,954,954,954,954,954,954,954,954,954,954,954,954,951,951,951,951,951,951,951,951,951,951,951,951,951,954,954,951,951,951,951,951,951,951,951,951,951,951,951,948,948,946,946,946,946,946,946,946,946,946,946,946,948,946,946,946,948,948,946,946,946,946,946,946,943,943,943,943,943,943,943,940,940,940,940,940,940,940,940,940,940,938,938,938,938,938,938,938,938,938,938,940,940,940,940,938,938,938,938,938,938,938,938,938,935,935,935,935,935,935,935,935,935,935,935,935,935,935,935,935,935,935,933,933,933,933,933,935,935,935,935,933,933,933,933,933,933,933,933,933,930,930,930,930,930,930,928,928,928,928,928,928,928,928,925,925,928,928,928,925,925,925,928,928,928,928,928,928,928,925,925,925,925,925,925,923,923,925,923,923,923,923,923,923,923,923,923,923,923,923,923,923,923,923,923,923,923,923,920,920,920,920,918,918,918,918,915,915,918,918,918,918,918,915,915,915,913,858,858,858,856,856,851,849,847,843,841,841,839,839,839,839,839,839,841,843,845,847,854,854,856,858,860,862,915,915,913,913,913,913,913,913,913,913,913,913,913,910,910,908,908,908,908,908,908,908,908,908,908,908,908,908,908,908,908,908,908,908,908,908,908,908,908,906,906,906,906,906,906,906,906,906,906,906,906,906,906,906,906,906,906,903,903,903,903,903,906,906,906,906,906,906,903,903,903,903,901,901,901,898,898,901,901,901,901,901,901,901,901,898,898,898,898,898,898,898,898,898,898,898,898,898,898,898,898,898,896,896,898,898,898,898,898,898,896,896,896,896,896,896,896,896,896,894,894,894,894,894,894,894,894,894,894,894,894,894,894,894,894,894,891,891,891,891,889,889,889,889,891,891,891,891,891,889,889,889,889,889,889,887,887,887,887,887,887,887,887,889,887,887,887,887,887,887,887,887,887,887,887,885,885,887,887,887,887,887,885,885,882,882,882,882,882,880,880,882,882,885,885,885,885,882,882,882,880,880,880,880,880,880,880,880,878,878,878,878,880,880,880,880,880,880,880,880,880,880,878,878,878,878,878,878,878,875,875,875,875,875,875,875,875,875,875,875,875,875,875,875,875,875,875,875,875,875,875,873,871,871,871,871,871,871,871,869,869,869,869,869,869,869,869,869,869,869,869,869,869,869,869,869,871,869,869,871,871,871,871,869,869,869,869,869,869,869,869,869,869,869,869,869,869,869,869,869,867,867,867,867,867,867,867,867,864,864,864,867,867,867,867,869,864,864,864,864,862,862,862,862,860,860,860,0,0,0,0,0,0,0,0,0,0,0,0,0,0,0,0,0,0,0,0,0,0,0,0,0,0,0,0,0,0,0,0,0,0,0,0,0
0,0,0,959,959,956,956,956,956,956,959,956,956,956,956,954,954,956,956,956,956,956,956,956,956,956,954,954,954,954,954,954,954,954,954,954,954,951,951,951,954,954,951,951,948,948,948,948,948,948,948,948,951,951,951,951,951,951,951,951,951,951,948,948,951,948,948,948,948,948,946,946,946,946,943,943,946,946,946,946,946,946,946,946,946,946,946,946,946,946,946,943,943,943,943,943,943,943,943,940,940,940,940,940,940,940,940,940,940,940,940,938,938,935,935,935,935,935,935,935,938,935,935,935,935,935,935,938,938,938,938,938,938,935,935,935,935,935,935,935,935,935,935,935,935,935,935,935,935,935,935,933,933,933,933,933,933,933,933,933,933,933,933,930,930,930,930,930,930,930,930,928,928,928,928,928,928,928,928,925,925,925,925,925,925,925,925,925,925,925,925,925,925,925,925,925,925,925,925,925,925,925,923,923,923,923,923,923,923,923,923,920,920,920,920,920,920,920,920,920,920,920,920,920,920,920,920,920,920,920,920,920,920,918,915,915,915,915,915,915,915,915,915,915,915,915,913,913,913,913,858,858,858,858,856,851,849,845,843,841,841,841,839,839,839,841,843,843,845,847,854,854,856,860,860,862,864,913,913,913,910,910,910,910,913,913,913,910,910,910,910,906,906,906,906,906,906,906,906,906,908,906,906,906,906,906,906,906,906,906,906,906,908,906,906,906,906,906,906,903,903,903,901,901,903,903,903,903,906,903,903,903,903,903,901,901,901,901,903,903,903,903,903,903,903,901,901,901,898,898,898,898,898,898,898,898,898,898,898,898,898,898,896,896,896,896,896,896,896,896,896,896,896,896,896,894,894,896,894,894,894,894,896,896,896,896,896,896,896,896,896,896,894,894,894,894,891,891,891,891,891,891,891,891,891,891,891,891,891,891,891,891,891,889,889,889,889,889,889,889,889,889,889,889,889,889,889,887,887,887,887,887,887,885,885,882,882,882,885,885,885,885,885,885,887,885,885,885,885,885,885,885,885,885,885,885,885,885,885,885,882,882,882,880,880,880,878,878,880,880,880,880,880,880,880,880,880,880,880,880,878,878,878,878,878,878,878,875,875,875,875,878,878,878,878,878,878,878,878,878,878,875,875,875,875,873,873,873,873,873,873,873,873,873,873,873,873,873,873,873,873,873,873,873,873,871,871,871,871,869,869,869,869,869,869,869,869,869,869,869,869,869,869,869,869,869,869,869,869,869,869,869,869,869,869,869,869,869,869,869,869,869,869,869,869,869,869,869,869,869,869,867,867,867,867,867,867,867,864,864,864,864,864,864,864,862,862,864,862,862,862,864,862,862,862,862,862,862,860,860,860,860,860,0,0,0,0,0,0,0,0,0,0,0,0,0,0,0,0,0,0,0,0,0,0,0,0,0,0,0,0,0,0,0,0,0,0,0,0,0
0,0,0,959,959,956,956,956,956,956,956,956,956,956,956,954,954,956,956,956,956,956,956,956,954,954,954,954,954,951,951,951,951,951,951,951,951,948,948,948,948,948,946,946,946,946,946,946,946,946,946,946,946,946,948,948,946,946,948,948,948,946,946,946,946,946,946,946,943,943,943,943,943,943,943,943,943,943,943,943,943,943,943,943,943,943,943,943,943,943,943,940,940,940,940,940,940,940,940,940,938,938,938,938,938,938,938,938,938,938,938,938,935,935,935,935,935,935,935,935,935,935,935,935,935,935,935,933,933,935,935,935,935,935,935,935,935,935,935,935,935,935,935,935,935,935,935,935,933,933,933,933,933,933,933,933,930,930,930,930,930,930,930,930,930,928,928,928,928,928,928,928,928,928,928,925,925,925,925,925,925,925,925,925,925,925,925,925,925,923,923,923,923,923,923,923,923,923,923,923,923,923,923,923,923,923,923,923,920,920,920,920,918,918,920,918,918,918,918,918,918,918,918,918,915,915,918,918,918,918,918,918,918,918,915,915,915,915,915,915,915,915,915,915,915,913,913,913,910,910,858,858,858,858,856,854,851,849,845,843,841,841,841,841,841,843,843,843,845,847,854,854,856,860,862,864,864,910,908,908,908,908,908,908,910,910,910,908,908,908,908,906,906,906,906,906,906,906,906,906,906,906,906,906,903,903,903,906,906,906,906,903,903,903,903,903,903,901,901,901,901,901,901,901,901,901,901,901,903,903,901,901,901,901,901,901,901,901,901,901,898,898,901,901,898,898,898,898,898,898,898,896,896,896,898,898,896,896,896,896,896,896,896,896,896,896,896,896,894,894,894,894,894,894,891,891,894,894,894,891,891,894,894,894,894,894,894,894,896,894,894,891,891,891,891,891,889,889,889,889,889,889,889,889,889,889,889,889,889,889,889,889,889,889,889,889,887,887,887,887,887,887,887,887,887,887,887,887,887,885,885,885,885,885,882,882,880,880,880,880,880,882,882,882,882,882,882,882,882,882,882,882,882,882,882,882,885,885,882,882,880,880,880,878,878,875,875,875,875,875,875,878,878,878,880,878,878,878,878,878,878,878,878,878,875,875,875,873,873,873,873,875,875,878,878,878,878,878,878,878,875,875,875,873,873,873,871,871,873,873,871,871,871,871,871,871,871,871,871,871,871,871,871,871,871,869,869,869,869,869,869,869,869,869,869,867,867,869,867,867,867,867,867,867,867,867,867,867,867,867,864,864,864,864,864,864,864,867,867,867,867,867,864,864,867,867,867,867,867,867,867,867,867,867,864,864,862,862,862,862,862,862,862,862,862,862,862,862,862,862,860,860,860,862,860,860,860,860,860,858,858,858,858,0,0,0,0,0,0,0,0,0,0,0,0,0,0,0,0,0,0,0,0,0,0,0,0,0,0,0,0,0,0,0,0,0,0,0,0,0
0,0,0,959,959,956,956,956,956,956,956,956,956,956,956,956,956,954,954,954,954,954,954,954,954,954,951,951,954,951,951,951,948,948,948,948,948,946,946,946,946,946,943,943,943,943,943,946,946,946,946,946,943,943,943,940,940,940,943,946,943,943,943,943,943,943,940,940,940,940,940,940,940,940,940,940,940,940,940,940,940,940,940,940,940,940,940,940,940,940,940,940,940,940,940,940,940,940,940,938,938,938,935,935,935,935,935,935,935,935,935,935,935,935,933,933,933,933,933,933,933,933,933,933,933,933,933,933,933,933,933,933,933,933,933,935,935,935,933,933,933,933,933,933,933,933,933,933,933,933,933,933,930,930,930,930,930,930,930,930,930,928,928,928,928,925,925,925,925,925,925,925,925,925,925,925,925,925,923,923,923,923,923,923,923,923,923,923,923,923,923,923,923,923,920,920,920,920,920,920,920,920,918,918,920,920,920,920,920,920,920,918,918,918,918,918,918,915,915,915,915,915,915,915,915,915,915,915,915,915,915,915,915,915,913,913,913,913,913,915,915,915,913,913,913,913,910,910,908,908,908,858,858,858,856,856,854,851,849,847,843,843,841,841,841,843,843,843,845,847,854,856,858,862,864,864,864,867,906,906,906,906,906,906,906,906,908,906,906,906,906,903,903,903,903,903,903,903,906,906,906,906,903,903,903,903,903,903,903,903,903,901,901,903,901,901,901,901,901,901,898,898,898,898,898,898,898,901,901,901,901,901,901,898,898,898,898,898,898,898,898,898,898,898,896,896,896,896,896,896,896,896,896,896,896,896,896,896,896,896,896,896,896,894,894,894,894,894,894,894,891,891,891,891,891,891,891,891,891,891,891,891,891,891,891,891,891,891,891,894,891,889,889,889,889,889,889,889,889,889,887,887,887,887,887,887,887,887,889,889,889,889,889,887,887,887,887,887,887,887,887,887,887,887,885,885,885,885,885,885,885,885,885,885,882,880,880,880,880,880,880,880,880,880,882,882,880,880,880,880,880,880,880,880,880,880,882,882,882,880,880,880,880,878,875,875,873,873,873,873,873,873,875,875,878,878,878,878,878,878,878,878,878,875,875,873,873,873,873,871,871,873,873,873,873,873,878,878,878,875,875,875,873,873,871,871,871,871,871,871,869,869,869,869,871,871,871,871,871,869,869,869,869,869,869,869,869,869,867,867,867,867,867,867,867,867,867,867,867,867,867,867,864,864,864,864,867,864,864,864,862,862,862,862,862,862,862,864,864,864,864,864,864,864,864,864,864,864,864,867,867,867,867,864,864,862,862,862,862,860,860,860,860,860,860,860,860,860,860,860,858,856,856,858,858,860,858,858,858,858,856,856,856,0,0,0,0,0,0,0,0,0,0,0,0,0,0,0,0,0,0,0,0,0,0,0,0,0,0,0,0,0,0,0,0,0,0,0,0,0
0,0,0,959,956,956,956,954,954,956,956,954,954,956,956,954,954,954,954,954,954,951,951,951,951,951,951,948,946,946,946,946,946,946,946,946,946,946,943,943,943,943,940,940,940,940,943,943,943,943,943,943,943,943,943,940,940,940,940,940,940,940,940,940,943,940,940,940,938,938,940,940,938,938,938,938,938,935,935,935,935,935,935,938,938,938,938,938,938,940,940,938,938,938,938,938,938,938,938,935,935,935,935,935,935,935,935,935,935,933,933,933,933,933,933,933,933,933,933,933,930,930,928,928,930,930,930,930,930,930,930,933,933,933,930,930,930,930,933,933,930,930,930,930,930,933,933,933,933,930,930,930,930,928,928,925,925,925,925,925,925,925,925,925,925,925,925,925,925,925,925,925,925,925,923,923,923,923,923,920,920,923,923,923,923,923,923,923,923,920,920,920,920,920,920,918,918,918,918,918,918,918,918,915,915,918,918,918,918,918,918,918,915,915,915,915,915,915,915,915,913,913,913,913,913,913,913,913,913,913,913,913,913,913,913,913,913,913,913,913,913,913,910,910,910,910,910,908,908,906,906,858,858,858,856,856,854,851,849,847,845,845,845,843,843,845,845,845,847,854,854,858,860,862,864,867,867,867,903,903,903,903,903,903,903,903,903,903,903,903,903,901,901,901,901,901,903,903,903,903,903,903,903,903,901,901,901,901,901,901,901,898,898,898,898,898,898,898,898,898,898,898,898,898,898,898,898,898,898,898,898,898,898,898,898,898,898,898,896,896,896,896,896,896,896,896,896,896,896,896,896,896,896,896,896,894,894,894,894,894,894,894,894,894,891,891,891,891,891,891,889,889,891,891,891,891,891,891,891,889,889,889,889,889,889,889,889,889,889,889,889,889,889,887,887,887,887,887,887,887,887,887,885,885,885,885,885,885,887,887,887,887,887,887,887,887,887,887,887,887,885,885,885,885,882,882,882,882,882,882,882,882,882,882,880,880,880,880,880,880,880,880,880,880,880,880,880,880,880,880,880,880,880,880,880,880,880,880,880,880,878,878,878,875,875,873,873,873,873,871,871,873,873,873,873,875,875,875,875,875,875,875,875,873,873,871,871,871,871,871,871,871,871,871,871,871,871,871,873,875,873,873,871,871,871,871,869,869,869,869,869,869,869,869,869,869,869,869,869,867,867,867,867,867,869,867,867,867,867,864,864,864,864,864,864,864,864,867,864,864,864,864,862,862,862,862,862,862,862,862,862,862,862,862,862,862,862,862,862,862,862,862,862,862,862,862,862,864,864,864,862,862,864,862,862,862,860,860,860,860,860,860,860,858,858,858,858,856,856,856,856,856,856,856,856,856,856,858,858,858,856,856,856,0,0,0,0,0,0,0,0,0,0,0,0,0,0,0,0,0,0,0,0,0,0,0,0,0,0,0,0,0,0,0,0,0,0,0,0,0
0,0,0,956,956,954,954,954,954,954,954,954,954,954,954,954,954,951,951,951,946,943,943,948,946,946,946,946,946,946,946,943,943,946,946,946,946,943,943,943,943,940,940,940,940,940,940,940,940,940,940,940,940,940,940,940,940,938,938,940,938,938,938,938,938,938,938,938,938,938,938,938,938,935,935,935,935,935,935,935,935,935,935,935,935,935,935,935,935,935,935,935,935,935,935,935,935,935,935,933,933,933,933,933,933,933,935,935,933,933,933,933,933,933,933,930,930,930,930,930,928,928,928,928,928,928,928,928,928,928,928,928,928,928,928,928,928,928,928,928,925,925,928,928,928,930,930,930,930,930,930,928,925,925,925,925,925,925,925,925,925,923,923,925,925,925,925,923,923,923,923,923,923,923,920,920,920,920,920,920,920,920,920,920,920,920,920,920,920,918,918,918,918,918,915,915,915,915,915,915,915,915,915,915,915,915,915,915,915,915,915,915,915,915,915,915,915,913,913,913,913,910,910,910,910,910,910,910,910,910,908,908,908,908,910,910,910,910,910,910,910,910,908,908,908,908,908,906,906,906,906,908,858,858,858,856,856,854,851,849,847,847,845,845,845,847,847,847,849,854,854,858,860,862,867,867,869,869,903,903,903,903,901,901,901,901,901,901,901,901,901,898,898,898,898,898,901,901,901,901,903,903,901,901,901,898,898,901,898,898,898,898,898,898,898,898,898,898,896,896,898,896,896,896,896,898,898,898,898,898,898,898,898,896,896,894,894,896,896,894,894,894,894,894,894,894,894,894,894,894,894,894,894,894,894,891,891,891,891,891,891,891,891,891,891,889,889,889,889,889,889,889,889,889,889,889,889,889,889,889,889,889,887,887,887,887,887,887,887,887,887,887,885,885,887,887,887,887,887,887,885,885,882,882,882,882,882,882,885,885,885,887,887,885,885,885,885,885,885,885,882,882,882,882,882,882,882,880,880,880,880,880,880,880,878,878,878,878,878,878,878,878,878,878,878,878,878,878,878,878,878,878,878,878,878,878,878,878,878,878,878,878,875,873,873,873,871,871,871,871,871,871,871,871,871,871,873,873,873,873,873,873,873,871,871,871,871,869,869,869,869,869,869,869,869,869,869,869,869,869,869,871,871,869,869,869,869,867,867,867,867,867,867,867,867,867,867,864,864,864,864,864,864,867,867,867,867,867,864,864,864,862,862,862,862,864,864,864,864,864,864,864,862,862,862,860,860,860,858,858,860,860,860,860,860,862,862,862,862,862,862,862,862,862,862,862,862,862,860,860,858,858,860,860,860,860,858,858,858,858,858,858,858,858,858,858,856,856,854,854,854,854,854,854,854,854,854,854,856,856,854,854,854,0,0,0,0,0,0,0,0,0,0,0,0,0,0,0,0,0,0,0,0,0,0,0,0,0,0,0,0,0,0,0,0,0,0,0,0,0
0,0,0,956,956,954,954,954,954,954,954,954,954,954,954,951,951,948,948,948,946,943,943,946,946,946,946,946,946,946,946,943,943,943,943,943,943,943,943,943,940,940,940,940,938,938,938,938,938,938,938,938,938,938,938,938,938,938,938,938,938,935,935,935,935,935,935,935,935,935,938,938,935,935,935,935,935,933,933,933,933,933,933,933,933,935,933,933,933,933,933,933,933,933,933,933,933,933,933,933,933,933,933,933,933,933,933,933,933,933,930,930,930,930,930,930,930,930,928,928,928,928,928,928,928,928,928,928,928,928,928,928,928,928,925,925,925,925,925,925,925,925,925,925,925,925,928,925,925,925,925,925,923,923,923,920,920,920,920,923,923,920,920,923,923,923,923,923,923,923,923,923,920,920,920,920,920,918,918,918,918,918,918,918,915,915,918,918,915,915,915,915,915,915,915,915,915,915,915,915,915,913,913,913,913,915,915,915,913,913,913,913,913,913,913,913,913,910,910,910,910,910,910,908,908,908,908,908,908,908,908,908,908,908,908,908,908,908,908,908,908,906,906,906,906,906,906,906,906,906,906,906,858,858,860,858,858,856,851,849,849,849,847,847,847,847,849,849,849,854,854,860,862,864,867,869,869,869,878,903,901,901,901,901,901,901,901,901,901,901,901,898,896,896,896,896,898,898,898,898,901,901,898,898,896,896,896,898,898,898,896,896,896,896,896,896,896,896,896,896,896,896,896,896,896,896,896,896,896,896,896,896,896,896,896,894,894,894,891,891,894,894,894,891,891,891,891,891,891,891,891,891,891,891,889,889,889,889,889,889,889,889,889,889,889,889,889,889,887,887,887,887,887,887,887,887,887,887,887,887,887,887,887,885,885,885,885,885,885,882,882,885,882,882,882,882,882,885,885,885,885,882,882,882,882,880,880,880,880,880,882,882,882,882,882,882,882,882,880,880,880,880,880,880,880,880,880,880,880,880,878,878,878,878,878,878,878,878,878,878,878,878,875,875,875,875,875,875,875,875,875,875,875,875,878,878,878,878,878,878,875,875,873,871,871,871,871,871,871,869,869,871,869,869,869,871,871,871,871,871,871,871,871,871,871,869,869,869,869,869,869,867,867,867,867,867,867,867,867,867,867,867,867,867,867,867,867,867,867,867,867,867,864,864,864,864,864,862,862,862,862,862,862,862,864,864,864,864,862,862,862,862,862,862,862,862,862,862,862,862,862,862,860,860,860,860,858,858,858,858,858,858,860,860,860,860,860,860,860,860,860,860,860,860,860,860,860,860,858,858,856,856,856,856,858,858,856,856,856,858,858,858,856,856,856,858,856,856,854,854,854,854,854,854,854,854,851,851,851,851,851,851,851,0,0,0,0,0,0,0,0,0,0,0,0,0,0,0,0,0,0,0,0,0,0,0,0,0,0,0,0,0,0,0,0,0,0,0,0,0
0,0,0,956,954,954,954,954,954,954,954,951,951,951,951,946,946,946,946,943,940,940,943,943,943,943,946,946,943,943,943,943,943,943,943,943,943,943,940,940,940,940,938,938,935,935,935,935,935,935,935,935,935,935,935,935,935,935,935,935,935,935,935,935,933,933,933,933,933,935,935,935,935,935,935,935,935,933,933,933,933,933,933,933,933,933,933,930,930,930,930,930,930,930,930,933,933,930,930,930,930,930,930,930,930,930,930,930,930,928,928,928,928,928,928,928,928,928,928,928,925,925,925,925,925,925,925,925,925,925,925,925,925,925,923,923,923,923,923,923,923,923,923,923,923,923,923,923,923,923,923,925,923,923,920,918,918,918,918,918,920,918,918,920,920,920,920,920,920,920,920,920,918,918,918,918,918,918,915,915,915,915,915,915,913,913,915,915,915,915,915,915,915,913,913,915,915,913,913,913,913,913,913,913,913,913,913,913,910,910,910,910,910,910,910,908,908,908,908,908,908,908,908,908,908,906,906,906,906,906,906,906,906,906,906,906,906,906,906,906,906,903,903,903,903,903,906,903,903,903,903,906,906,860,860,860,858,858,854,851,849,849,849,849,849,849,849,849,851,854,854,860,862,867,869,871,871,871,878,880,880,901,901,901,898,898,898,898,898,898,896,896,896,896,896,896,896,896,896,896,898,898,896,896,894,894,896,896,896,896,896,896,896,896,894,894,894,894,894,894,894,894,896,896,896,896,896,896,896,896,896,896,896,894,891,891,891,891,889,889,889,889,891,891,891,889,889,889,889,889,889,889,889,889,889,889,889,889,887,887,889,889,889,889,889,887,887,887,887,887,887,887,887,887,887,887,887,887,887,887,887,887,885,885,882,882,882,882,882,880,880,882,882,882,880,880,882,882,882,882,882,880,880,880,880,880,880,880,880,880,880,880,880,880,880,880,880,880,880,880,878,878,878,878,878,878,878,878,878,878,878,875,875,875,875,875,875,875,875,875,875,873,873,873,873,873,873,871,871,871,871,871,871,871,873,873,873,873,873,873,873,873,871,871,871,869,869,869,869,869,869,869,869,869,869,869,869,869,869,869,869,871,869,869,869,869,869,867,867,867,867,867,867,864,864,864,862,862,864,864,864,864,864,864,864,867,867,864,864,864,864,864,864,864,864,864,862,862,862,862,862,862,862,862,862,862,862,862,862,862,862,862,862,860,860,862,862,860,860,860,860,860,858,856,856,858,856,856,856,856,856,858,858,858,858,858,860,860,860,858,858,860,860,860,860,858,858,856,856,856,854,854,854,854,856,856,856,856,856,856,856,856,854,854,856,856,854,854,854,851,851,851,851,851,851,851,851,851,849,849,849,849,849,0,0,0,0,0,0,0,0,0,0,0,0,0,0,0,0,0,0,0,0,0,0,0,0,0,0,0,0,0,0,0,0,0,0,0,0,0
0,0,0,956,954,954,951,951,951,951,951,948,948,948,948,946,946,946,946,943,940,940,943,943,940,940,940,940,940,940,940,940,940,940,940,940,943,940,940,940,940,938,938,935,935,935,933,933,933,933,933,933,933,935,935,935,935,933,933,933,933,933,933,930,930,930,930,933,933,933,933,933,933,933,933,930,930,930,930,930,930,930,930,930,930,933,930,930,930,930,930,930,930,930,930,930,930,930,930,928,928,928,928,928,928,928,928,928,928,925,925,925,925,925,925,925,925,925,925,925,925,925,925,925,923,923,923,923,923,923,923,923,923,923,923,923,923,923,923,923,923,923,923,923,923,923,920,920,918,918,918,918,918,920,918,918,918,915,915,915,918,915,915,918,918,918,920,920,918,918,918,918,918,918,915,915,915,915,915,915,913,913,913,913,910,910,913,913,913,913,913,913,913,913,913,913,913,913,913,913,910,910,910,910,908,908,908,908,908,908,908,908,908,908,908,906,906,906,906,906,906,906,906,906,906,906,906,903,903,906,903,903,903,906,906,903,903,903,903,903,903,901,901,903,903,903,903,903,901,901,901,906,906,862,862,860,860,858,856,854,851,849,849,849,849,849,851,851,854,854,856,860,864,867,871,873,873,875,878,880,880,889,894,894,894,894,896,896,896,896,894,894,894,894,894,894,894,894,894,894,896,896,894,894,894,891,891,896,894,894,894,894,894,894,894,894,894,891,891,891,894,894,894,894,894,894,894,894,894,891,891,891,894,891,889,889,889,889,889,889,889,889,889,887,887,887,889,889,889,889,889,889,887,887,887,887,887,887,887,887,887,887,887,887,887,887,887,887,885,885,885,885,885,885,887,887,887,885,885,885,885,885,882,882,882,882,880,880,880,880,880,880,880,880,880,880,880,880,880,880,880,880,880,880,878,878,878,878,878,878,878,878,878,878,878,878,878,878,878,878,878,878,878,878,878,878,878,878,878,878,875,875,873,873,875,875,873,873,873,873,873,871,871,871,871,871,871,871,871,871,871,871,871,871,871,871,873,873,873,873,873,871,871,869,869,869,869,869,869,869,869,869,869,869,867,867,867,867,867,867,867,867,867,867,867,867,867,864,864,864,864,864,864,864,862,862,862,862,862,862,862,862,862,862,862,862,862,862,862,862,862,862,862,862,862,862,862,860,860,860,860,860,860,860,860,860,860,860,860,860,860,860,860,858,858,860,860,858,858,858,858,858,856,856,856,856,856,856,856,856,856,856,858,858,858,858,858,858,858,858,858,858,858,858,858,856,856,854,854,854,851,851,854,854,854,854,854,854,854,854,854,854,854,854,854,854,851,851,851,851,851,849,849,849,849,849,849,849,847,847,847,847,847,0,0,0,0,0,0,0,0,0,0,0,0,0,0,0,0,0,0,0,0,0,0,0,0,0,0,0,0,0,0,0,0,0,0,0,0,0
0,0,0,954,951,951,951,948,948,948,948,946,946,946,946,943,943,946,943,943,943,940,940,938,938,938,938,938,938,938,938,938,935,935,938,938,940,940,938,938,938,938,935,935,935,935,933,933,933,933,933,930,930,933,933,933,933,930,930,930,930,930,930,930,928,928,928,928,928,930,930,930,930,930,930,930,928,928,928,928,928,930,930,928,928,930,930,928,928,928,928,928,928,928,928,928,928,928,928,928,925,925,925,925,925,925,925,925,925,925,925,923,923,923,923,923,923,923,923,923,923,923,923,923,923,923,923,923,923,923,920,920,920,920,918,918,918,920,920,920,920,923,923,923,920,920,918,918,915,915,915,915,915,915,915,915,915,915,915,915,915,915,915,915,915,915,918,918,918,918,915,915,915,915,915,915,915,915,913,913,913,913,910,910,910,910,910,913,910,910,910,910,913,910,910,910,910,910,910,910,908,908,908,908,908,908,908,908,908,908,906,906,908,908,906,906,906,906,906,906,903,903,903,903,903,903,903,903,903,903,903,903,903,903,903,903,903,901,901,901,901,901,901,901,901,901,901,901,898,896,896,896,864,864,864,862,860,860,858,856,854,851,851,849,849,851,851,851,854,856,858,860,867,867,871,873,875,875,878,882,882,887,891,891,891,891,891,891,894,894,894,891,891,891,891,889,889,891,891,891,894,894,894,891,891,891,891,894,894,894,894,894,894,891,891,891,891,889,889,889,891,889,889,889,889,889,891,891,889,889,889,889,889,889,889,889,889,889,887,887,887,887,887,887,887,887,887,887,887,887,887,887,887,887,887,885,885,885,887,887,887,887,887,887,887,885,885,885,882,882,882,882,882,882,885,885,885,882,882,882,882,882,880,880,880,880,880,880,880,878,878,878,878,878,878,878,878,880,880,878,878,878,878,878,878,878,878,878,878,878,878,875,875,875,875,873,873,875,875,875,875,875,875,875,875,875,875,875,875,873,873,873,871,871,873,871,871,871,871,871,871,869,869,869,869,869,869,869,869,869,869,871,871,871,871,869,869,869,869,871,871,869,869,869,869,869,867,867,867,867,867,867,867,867,867,867,864,864,864,864,864,864,864,864,864,862,862,862,862,862,862,862,862,862,862,862,860,860,862,862,860,860,860,862,860,860,862,862,860,860,860,860,860,860,860,860,860,860,860,860,860,858,858,858,858,860,860,858,858,858,858,856,856,856,856,856,858,856,856,856,856,856,854,854,854,854,854,854,854,854,854,854,856,856,856,856,856,856,856,856,856,856,856,856,856,854,854,854,851,851,851,851,851,851,851,851,854,851,851,851,851,851,851,851,851,851,851,851,851,849,849,849,849,849,847,847,847,847,845,845,845,845,845,0,0,0,0,0,0,0,0,0,0,0,0,0,0,0,0,0,0,0,0,0,0,0,0,0,0,0,0,0,0,0,0,0,0,0,0,0
0,0,0,946,946,946,946,946,946,946,946,946,946,946,943,940,940,943,935,935,935,935,935,935,935,935,935,935,935,935,935,935,935,935,935,935,940,940,938,938,938,935,935,933,933,933,930,930,930,930,930,930,930,930,930,930,930,928,928,928,928,928,928,925,925,925,925,925,925,928,928,928,928,928,928,928,928,925,925,925,925,925,925,923,923,928,928,925,925,925,925,925,925,925,925,925,925,925,925,925,923,923,923,923,923,923,923,923,923,923,923,920,920,920,920,920,920,920,920,923,920,920,923,923,920,920,920,920,920,918,918,918,918,918,915,915,918,918,918,920,920,920,923,920,920,920,918,915,915,915,915,915,915,915,915,915,915,915,915,915,915,915,915,915,915,915,915,915,915,915,915,915,915,913,913,913,913,913,913,913,910,910,910,908,908,908,908,910,910,910,910,910,910,910,908,908,908,908,908,908,906,906,906,906,906,906,906,906,906,906,906,906,906,906,906,906,906,906,903,903,903,903,903,901,901,901,901,901,903,903,903,903,903,903,903,901,901,901,898,898,898,898,898,898,898,898,898,898,896,896,896,896,864,864,864,864,862,860,860,856,854,851,851,851,851,851,851,851,854,856,858,860,867,867,871,873,875,878,878,880,880,887,889,889,889,889,889,889,889,889,889,889,889,889,889,889,889,889,889,891,891,891,891,891,889,889,889,891,891,891,891,891,891,891,889,889,889,889,889,889,889,889,889,889,887,887,887,887,887,887,887,887,887,887,887,887,887,887,887,887,887,887,887,887,885,885,885,885,885,885,885,885,885,885,885,885,885,885,885,885,885,885,885,885,885,882,882,882,880,880,880,880,880,880,882,882,880,880,880,880,880,880,878,878,878,878,878,878,878,878,878,878,878,878,878,878,878,878,878,878,878,875,875,875,875,875,875,875,875,875,875,875,873,873,873,873,873,873,873,873,873,873,873,873,873,873,873,873,873,873,871,871,871,871,871,871,869,869,869,869,869,867,867,867,867,867,867,867,867,867,867,867,869,867,867,867,867,867,867,867,867,867,867,867,867,867,864,864,864,864,864,864,864,864,864,864,862,862,862,862,862,862,862,862,862,862,862,862,862,862,862,862,862,862,862,860,860,860,860,860,860,860,860,860,860,860,860,860,860,860,860,858,858,860,860,860,860,860,860,858,858,856,856,856,856,856,856,856,856,856,856,854,854,854,854,854,856,854,854,854,854,854,854,854,854,854,854,854,854,854,854,854,854,854,854,854,854,854,854,854,851,851,854,854,854,854,851,851,851,851,849,849,849,849,849,849,851,851,851,851,851,851,849,849,849,851,851,849,849,849,849,849,847,847,847,847,845,845,845,845,843,843,843,0,0,0,0,0,0,0,0,0,0,0,0,0,0,0,0,0,0,0,0,0,0,0,0,0,0,0,0,0,0,0,0,0,0,0,0,0
0,0,943,943,943,943,946,946,946,946,946,946,943,943,938,935,935,933,933,933,933,933,935,935,935,935,935,933,933,933,933,933,933,933,933,933,935,935,935,935,935,935,933,933,933,933,930,930,930,930,928,928,928,928,928,928,925,925,928,928,925,925,925,925,925,923,923,923,923,923,925,925,925,925,925,925,925,925,925,925,925,923,923,923,923,923,923,923,923,923,923,923,923,923,923,923,923,923,923,923,923,923,923,923,923,923,920,920,923,923,918,918,918,918,918,918,918,918,920,920,920,920,920,920,920,920,918,918,918,918,915,915,915,915,915,915,915,915,915,918,918,918,920,920,918,915,915,915,915,915,913,913,913,913,913,913,913,913,913,913,913,913,913,913,913,913,913,913,913,913,913,913,913,913,913,913,913,913,910,910,910,910,908,908,908,908,908,908,908,908,908,910,910,908,906,906,906,906,906,906,906,906,903,903,903,903,903,903,903,903,903,903,906,903,903,903,903,903,903,903,903,903,901,901,901,898,898,901,901,901,901,901,903,903,901,901,898,898,898,898,898,898,898,898,898,898,898,896,896,894,891,887,871,869,867,864,862,862,860,858,856,854,851,851,851,851,851,854,856,858,858,860,867,867,871,873,875,878,878,880,880,887,887,887,887,887,887,887,887,887,887,887,887,887,887,887,887,889,889,889,889,889,889,889,887,887,887,889,889,889,889,889,889,889,889,887,887,887,887,887,887,887,887,887,887,887,887,887,887,887,887,887,887,885,885,885,885,887,885,885,882,882,885,885,885,882,882,882,885,882,882,882,882,882,882,882,882,882,882,882,882,882,882,882,882,880,880,880,880,880,880,880,880,880,880,880,878,878,878,878,878,878,878,878,878,878,878,878,878,875,875,873,873,873,875,875,875,875,875,875,875,875,873,873,873,873,873,873,873,873,873,873,873,873,873,873,873,873,871,871,873,873,873,871,871,871,871,871,871,871,871,871,871,869,869,869,869,867,864,864,864,864,864,864,864,864,864,864,864,864,864,864,867,867,867,867,867,867,864,864,864,864,864,864,864,862,862,862,862,862,862,862,862,862,862,862,862,862,862,862,862,862,860,860,860,860,860,860,860,860,860,860,860,860,860,858,858,858,858,858,858,858,858,860,860,860,860,858,858,860,858,858,856,856,858,858,858,858,858,856,856,856,856,854,854,854,854,854,854,854,854,854,854,851,851,851,851,851,851,851,854,854,854,854,854,854,854,854,854,851,851,851,851,851,851,851,849,849,851,851,849,849,849,849,851,851,851,849,849,849,849,849,849,849,849,849,849,849,849,849,847,847,847,847,847,847,847,847,847,847,847,847,847,845,845,845,845,843,843,843,843,841,841,0,0,0,0,0,0,0,0,0,0,0,0,0,0,0,0,0,0,0,0,0,0,0,0,0,0,0,0,0,0,0,0,0,0,0,0,0
0,0,940,940,940,940,940,940,943,943,943,943,940,935,935,933,933,933,933,933,933,933,935,935,935,933,933,933,933,933,933,930,930,930,928,928,933,933,933,933,933,933,933,930,930,930,930,930,930,928,928,928,928,928,928,925,925,925,925,925,925,925,925,923,923,920,920,920,920,920,923,923,923,923,925,923,923,923,923,923,923,923,923,920,920,920,918,918,918,920,920,920,920,923,923,923,920,920,920,920,920,918,918,918,918,918,918,918,918,918,918,918,915,915,915,915,915,915,918,918,918,918,918,918,918,918,915,915,915,915,915,915,915,915,915,915,915,915,915,915,915,915,915,918,915,915,913,913,913,913,913,913,913,910,910,913,913,913,913,913,913,913,910,910,910,908,908,910,910,913,910,910,910,910,910,910,910,910,910,910,908,908,908,906,906,906,906,906,906,906,906,906,906,908,906,906,906,906,906,903,903,903,903,903,903,901,901,901,901,901,901,901,903,903,903,903,903,903,901,901,901,901,898,898,898,896,896,898,898,898,898,898,898,901,898,898,896,896,896,896,896,896,896,896,896,896,896,896,894,891,889,887,871,869,869,867,864,862,860,858,858,856,854,854,854,854,854,854,858,858,858,860,867,867,871,873,875,878,878,880,882,885,887,887,887,887,887,887,887,887,887,885,885,885,885,885,885,885,887,887,887,887,887,887,887,887,887,889,889,887,887,887,887,887,887,887,887,887,887,887,885,885,885,885,885,885,885,885,887,885,885,885,885,882,882,882,882,882,882,880,880,882,882,882,882,882,882,882,882,882,882,880,880,880,880,880,880,880,880,880,880,880,880,880,880,878,878,878,878,878,878,878,878,878,878,878,875,875,878,878,875,875,875,878,878,878,878,878,875,875,873,873,873,873,873,873,873,873,873,873,873,873,871,871,871,871,871,871,871,871,871,871,871,871,871,871,871,871,871,871,871,871,871,871,871,871,871,871,871,871,871,869,869,869,869,867,864,864,864,864,864,864,864,864,864,862,862,862,862,862,862,862,864,864,864,864,864,864,862,862,862,862,862,862,862,862,862,860,860,860,860,862,860,860,860,860,860,860,860,860,860,860,860,860,858,858,860,860,860,860,860,860,860,860,860,858,858,856,856,856,856,856,856,856,858,856,856,856,856,858,856,856,856,856,856,856,856,856,856,856,854,854,854,854,854,854,854,854,854,854,854,851,851,851,851,849,849,849,849,851,851,851,851,851,851,851,851,851,851,851,851,851,851,851,851,851,849,849,849,849,847,847,847,847,847,847,849,847,847,847,847,847,847,847,847,847,849,849,847,847,847,847,845,845,845,845,845,845,845,845,845,845,845,845,845,843,843,843,843,841,841,841,841,0,0,0,0,0,0,0,0,0,0,0,0,0,0,0,0,0,0,0,0,0,0,0,0,0,0,0,0,0,0,0,0,0,0,0,0,0
0,0,938,938,935,935,935,935,935,935,935,940,938,935,933,933,933,933,933,930,930,933,933,933,933,933,933,930,930,928,928,928,928,928,928,928,928,928,930,928,928,930,930,928,928,928,928,928,928,928,925,925,928,925,925,925,925,925,925,923,923,923,923,923,923,920,918,918,920,920,920,920,920,920,920,920,920,920,920,920,920,920,920,920,918,918,918,918,918,918,918,918,918,918,918,918,920,920,920,918,918,918,918,918,918,918,918,918,918,918,915,915,915,915,915,915,915,915,915,915,915,915,915,915,915,915,915,915,915,915,913,913,913,913,913,913,913,913,913,913,913,913,913,913,913,910,908,908,910,910,910,910,910,910,910,910,910,910,910,910,910,910,908,908,908,906,906,906,906,906,908,908,908,908,908,908,908,908,908,908,906,906,906,906,903,903,903,903,903,901,901,901,903,903,903,903,903,903,903,903,903,903,901,901,901,901,901,898,898,898,898,898,898,901,901,901,901,901,898,898,898,898,896,896,896,896,896,896,896,896,896,896,896,896,896,896,896,896,896,896,896,896,896,896,896,896,896,894,891,889,887,885,878,873,869,869,867,864,862,860,858,858,856,854,854,854,854,856,858,858,858,862,869,869,873,875,875,878,880,880,882,885,885,885,885,885,885,885,885,885,885,885,885,885,885,885,885,882,882,882,885,887,887,887,887,887,887,887,887,887,887,887,887,887,887,885,885,885,885,885,885,885,882,882,885,885,882,882,885,885,882,882,882,882,880,880,880,880,880,880,880,880,880,880,880,880,880,880,880,880,880,878,878,878,878,878,878,878,878,878,880,878,878,878,878,878,878,878,878,875,875,875,875,875,873,873,873,873,875,875,873,873,873,875,875,873,873,873,873,873,873,871,871,871,871,871,873,873,873,873,871,871,871,871,871,869,869,871,871,871,871,871,871,871,871,871,871,871,871,871,871,869,869,869,869,869,869,869,869,869,869,869,869,867,867,864,864,862,862,862,862,862,862,862,862,862,862,862,862,862,862,862,862,862,862,862,862,862,862,862,862,862,862,860,860,860,860,858,858,858,858,860,860,860,860,860,860,858,858,858,858,858,858,858,858,858,858,858,858,858,858,858,858,858,856,856,854,854,851,851,854,854,854,854,856,856,856,854,854,856,854,854,854,854,854,854,854,854,854,854,854,854,854,854,854,854,854,854,854,851,851,851,851,849,849,847,847,847,849,849,849,849,849,849,849,849,849,849,849,847,847,847,849,849,849,849,847,847,847,845,845,845,845,845,845,845,845,845,845,845,845,845,845,845,845,845,847,847,845,845,845,845,845,845,845,845,845,845,845,845,843,843,843,843,843,843,841,841,841,841,839,839,839,0,0,0,0,0,0,0,0,0,0,0,0,0,0,0,0,0,0,0,0,0,0,0,0,0,0,0,0,0,0,0,0,0,0,0,0,0
0,0,935,935,935,935,935,935,935,935,935,938,938,935,933,930,930,930,930,928,928,930,930,933,933,930,930,930,930,928,925,925,925,925,928,925,925,925,928,925,925,928,928,928,928,928,925,925,925,925,925,925,925,925,925,925,923,923,923,923,923,923,923,920,920,918,918,918,918,918,920,920,918,918,920,920,918,918,918,920,920,918,918,918,918,918,915,915,915,915,915,915,915,915,915,915,915,915,915,915,915,915,915,915,915,915,915,915,915,915,915,915,915,915,915,913,913,915,915,915,915,915,915,915,915,915,913,913,913,913,913,913,913,913,913,913,913,913,913,913,910,910,910,910,910,910,908,908,908,908,908,908,908,908,908,910,908,908,908,906,906,906,906,906,906,903,903,906,906,903,903,906,903,903,906,906,906,906,906,906,903,903,903,903,903,901,901,901,901,901,898,898,901,901,901,901,901,901,901,901,901,901,898,898,901,901,898,898,898,898,898,898,898,896,896,898,896,896,896,896,896,896,896,894,894,894,894,894,894,894,894,894,896,896,894,894,894,894,894,894,894,894,894,894,894,894,894,891,891,889,887,885,880,875,871,869,867,864,862,860,860,858,858,856,856,856,856,856,858,858,858,862,869,869,873,875,878,880,880,882,885,885,885,885,885,885,885,885,885,882,882,882,882,882,882,882,882,882,882,882,882,882,882,882,885,885,885,887,887,887,885,885,885,885,885,885,882,882,882,882,882,882,882,882,882,882,882,882,882,882,882,882,880,880,878,878,878,878,878,878,878,878,878,880,880,878,878,878,878,878,878,878,878,878,875,875,875,875,875,875,875,875,875,875,875,873,873,873,875,873,873,873,873,873,873,873,873,873,873,873,873,873,873,873,873,873,873,873,873,871,871,871,871,871,871,871,871,871,871,871,871,869,869,869,869,869,867,867,867,867,869,869,869,869,869,869,869,869,869,869,869,867,867,867,867,867,867,867,867,867,867,867,867,864,864,864,862,862,862,862,862,862,862,862,862,862,862,862,860,860,860,860,860,860,860,860,860,860,860,860,860,860,860,860,860,858,858,858,856,856,856,858,858,858,858,858,858,856,856,856,856,856,856,856,856,856,856,856,856,856,856,856,856,856,851,851,851,851,849,849,851,851,851,851,854,854,854,854,854,854,854,854,854,854,854,854,851,851,851,851,851,851,851,851,851,851,851,851,851,851,851,851,849,849,847,847,845,845,847,847,847,849,849,849,849,849,849,847,847,847,847,847,847,847,847,847,845,845,845,845,845,843,843,843,843,843,843,843,843,843,843,845,845,845,845,845,845,845,845,843,843,843,843,843,843,843,843,843,843,843,841,841,841,841,841,841,841,839,839,839,837,837,837,0,0,0,0,0,0,0,0,0,0,0,0,0,0,0,0,0,0,0,0,0,0,0,0,0,0,0,0,0,0,0,0,0,0,0,0,0
0,0,935,935,935,935,935,935,935,935,935,935,935,933,933,930,930,930,930,928,928,930,930,930,930,928,928,928,928,928,925,925,925,925,925,925,925,925,925,925,925,925,925,925,925,925,925,925,923,923,923,923,925,923,923,923,923,923,923,923,923,920,920,920,920,918,915,915,915,915,918,918,918,918,918,918,918,918,918,918,918,915,915,915,915,915,915,915,915,915,915,915,913,913,913,913,913,913,913,913,913,913,913,913,915,915,915,915,915,913,913,913,913,913,913,913,913,913,913,913,913,913,913,913,913,913,913,910,910,910,910,910,910,910,910,910,910,910,910,910,908,908,908,908,908,908,906,906,906,906,906,906,906,906,906,906,906,906,903,903,903,903,903,901,901,901,901,903,903,903,903,903,903,903,903,901,901,903,903,903,901,901,901,901,901,898,898,898,898,898,896,896,898,898,898,898,898,898,898,898,898,898,896,896,896,896,896,896,896,896,896,896,896,894,894,894,894,894,894,894,894,894,894,894,894,894,891,891,891,891,891,891,891,891,891,891,891,891,891,891,889,889,891,891,891,891,891,891,889,887,887,885,882,878,875,871,869,867,862,862,860,860,858,858,858,858,858,858,858,858,860,864,867,871,873,875,878,880,880,882,885,885,885,885,882,882,882,882,882,882,882,882,882,882,882,880,880,880,880,880,880,880,880,880,880,882,882,885,885,885,885,882,882,882,882,882,882,880,880,880,880,880,880,880,880,880,880,880,880,880,880,880,878,878,875,875,875,875,875,875,875,878,878,878,878,875,875,878,875,875,875,875,875,875,873,873,873,873,873,873,873,873,873,873,873,873,873,873,873,871,871,871,871,871,871,871,871,871,871,871,871,871,871,871,871,871,871,871,871,871,871,871,871,871,869,869,869,869,869,869,869,869,869,869,867,867,864,864,864,864,864,864,864,864,867,867,864,864,864,864,864,864,864,864,864,864,864,864,864,864,864,864,864,864,862,862,862,862,862,862,862,860,860,860,860,860,860,860,860,860,860,860,860,860,860,858,858,858,858,858,858,858,858,858,858,858,858,856,856,856,856,856,856,856,856,856,856,856,856,856,856,856,856,856,856,856,856,854,854,854,854,854,851,851,851,851,849,849,849,849,849,851,849,849,851,851,851,851,851,851,851,851,851,851,851,851,851,851,849,849,849,849,849,849,851,851,851,851,851,851,849,849,849,847,847,845,845,845,845,847,847,847,847,847,847,847,847,845,845,845,845,845,845,845,845,845,843,843,843,843,843,843,843,843,843,843,843,843,843,843,843,843,843,843,843,843,841,841,841,841,841,841,841,841,841,841,841,841,841,841,841,839,839,839,839,839,839,837,837,837,837,837,837,0,0,0,0,0,0,0,0,0,0,0,0,0,0,0,0,0,0,0,0,0,0,0,0,0,0,0,0,0,0,0,0,0,0,0,0,0
0,0,935,935,935,935,935,935,935,933,933,933,933,933,925,925,925,925,925,928,928,928,928,925,925,925,925,928,928,925,925,925,925,925,925,923,923,923,923,923,923,923,925,923,923,923,923,923,920,920,920,920,918,918,920,920,920,920,920,920,920,920,918,918,918,918,915,915,915,915,915,915,915,915,915,915,915,915,915,915,915,913,913,915,915,915,915,915,915,913,913,913,913,913,913,913,913,913,913,913,913,913,913,913,913,913,913,913,913,913,913,913,913,910,910,910,910,910,910,913,910,910,910,910,910,910,908,908,908,910,910,910,910,910,908,908,908,908,908,908,906,906,906,906,906,906,903,903,906,906,906,906,903,903,906,906,903,903,903,901,901,901,901,898,898,898,898,901,901,901,901,901,903,903,901,901,898,898,898,898,898,898,898,898,898,896,896,896,898,896,896,896,896,898,896,896,896,896,896,896,896,896,896,894,894,894,894,894,894,894,894,894,894,894,894,891,891,891,891,891,891,891,891,891,891,891,889,889,889,889,889,889,889,889,889,889,889,889,889,889,887,887,889,887,887,887,887,889,889,887,885,882,882,880,875,873,869,867,864,862,862,860,860,860,858,858,858,858,858,858,860,867,867,871,873,878,878,880,880,882,885,885,885,882,882,882,882,882,882,880,880,880,880,880,878,878,878,878,878,878,878,878,878,878,878,880,880,882,880,880,882,882,880,880,880,880,880,880,880,878,878,878,880,880,880,880,880,880,878,878,878,878,875,875,873,873,873,873,873,873,875,875,875,875,875,873,873,875,873,873,873,873,873,873,871,871,871,871,871,871,871,871,871,871,871,871,871,871,871,871,871,871,871,869,869,869,869,869,871,871,871,871,871,871,871,871,871,871,871,871,869,869,869,869,869,869,869,869,867,867,867,867,867,864,864,864,862,862,862,862,864,864,864,864,864,864,864,862,862,862,862,862,862,862,862,862,862,862,862,862,862,862,862,862,862,862,862,860,860,860,860,860,860,860,860,860,860,860,858,858,858,858,858,856,856,856,856,856,856,856,856,856,856,854,854,854,854,854,854,854,854,854,854,854,854,854,856,856,856,854,854,854,854,854,854,854,854,854,854,854,851,851,849,849,849,849,847,847,847,847,849,849,849,849,849,851,851,849,849,849,849,849,849,849,849,849,849,849,847,847,847,847,847,847,847,847,849,849,849,849,849,847,847,847,845,845,845,845,845,845,845,847,845,845,845,845,845,845,843,843,843,843,845,843,843,843,843,843,843,843,843,843,843,843,843,843,841,841,841,841,841,841,841,839,839,841,839,839,839,839,839,841,839,839,839,839,839,839,839,839,839,837,837,837,837,837,837,837,835,835,835,835,835,0,0,0,0,0,0,0,0,0,0,0,0,0,0,0,0,0,0,0,0,0,0,0,0,0,0,0,0,0,0,0,0,0,0,0,0,0
