0,0,0,0,0,1063,1060,1060,1060,1057,1057,1054,1054,1050,1050,1050,1050,1050,1050,1047,1047,1050,1050,1050,1050,1050,1050,1050,1047,1047,1044,1044,1044,1044,1044,1044,1044,1047,1044,1044,1047,1047,1044,1044,1044,1044,1044,1044,1044,1044,1044,1044,1044,1044,1044,1044,1044,1044,1041,1038,1038,1038,1041,1041,1041,1041,1044,1047,1044,1044,1044,1044,1044,1041,1041,1038,1038,1041,1041,1038,1038,1038,1038,1038,1038,1038,1038,1034,1034,1038,1038,1038,1038,1038,1038,1038,1038,1038,1034,1034,1034,1034,1034,1031,1031,1031,1034,1034,1034,1034,1031,1031,1034,1034,1031,1031,1028,1028,1028,1028,1028,1028,1028,1028,1028,1028,1031,1031,1028,1028,1028,1028,1028,1025,1025,0,0,0,0,0,0,0,809,807,807,809,809,809,809,809,809,811,811,811,813,813,815,815,817,819,819,821,823,827,829,829,831,833,833,835,837,839,839,841,841,843,843,843,843,845,1013,1013,1016,1013,1013,1013,1013,1013,1013,1013,1013,1013,1013,1013,1013,1013,1013,1013,1013,1013,1013,1013,1013,1013,1013,1013,1016,1016,1016,1016,1016,1016,1016,1016,1013,1013,1013,1013,1010,1010,1010,1010,1010,1010,1010,1010,1010,1010,1010,1010,1010,1010,1010,1007,1007,1007,1004,1004,1004,1004,1007,1007,1007,1004,1004,1007,1004,1004,1004,1004,1004,1001,1001,1001,1001,1001,1001,1001,1001,1001,1001,1001,1001,998,998,998,998,998,998,998,998,998,998,998,998,998,998,998,1001,998,998,998,998,995,995,998,998,998,998,995,995,995,995,995,995,995,995,995,998,998,998,995,995,992,992,992,995,992,992,992,992,992,995,992,992,992,992,992,992,992,992,992,992,992,992,992,989,989,989,989,989,989,989,989,989,989,989,989,989,989,989,989,989,989,989,989,989,992,989,989,989,989,989,989,987,987,987,987,987,987,987,987,984,984,984,984,984,984,984,984,984,984,984,984,984,984,981,981,981,981,981,981,981,981,981,981,981,981,981,981,981,978,978,981,981,981,981,981,981,981,978,978,978,978,978,978,978,978,978,978,978,978,978,978,975,975,975,975,973,973,973,975,975,975,975,975,975,975,973,973,973,973,973,970,970,970,970,970,970,970,970,970,970,970,970,970,970,970,970,970,970,970,970,970,970,970,970,967,967,967,967,967,967,967,967,967,967,967,967,967,967,967,967,967,964,964,964,962,962,962,959,959,962,959,959,959,959,959,959,959,959,959,956,956,956,959,956,956,956,959,959,956,956,956,959,959,959,959,959,959,959,956,875,875,878,878,878,878,878,878,878,878,880,880,880,880,880,796,796,796,796,796,796,796,796,796,796,794,794,792,792,792,790,790,790,790,790,790,790,790,790,790,792,792,790,790,792,794,794,796,796,796,798,798,798,798,800,802,802,803,803,803,807,811,813,811,811,811,811,809,809,807,807,805,805,803,803,803,798,798,798,796,796,796,794,792,790,789,787,787,785,785,0,0,0,0,0,0,0,0,0,0,0,0,0,0,0,0,0,0,0,0,0,0,0,0,0,0,0,0,0,0,0,0,0,0,0,0,0,0
0,0,0,0,0,1060,1060,1060,1057,1050,1050,1054,1050,1050,1050,1050,1050,1047,1047,1044,1044,1047,1044,1044,1047,1047,1047,1047,1047,1044,1044,1041,1041,1041,1041,1041,1041,1041,1041,1041,1041,1041,1041,1041,1041,1041,1041,1041,1041,1044,1041,1041,1044,1044,1041,1041,1041,1041,1038,1038,1034,1034,1038,1038,1034,1034,1038,1041,1041,1041,1038,1038,1041,1038,1038,1038,1038,1038,1038,1038,1038,1038,1038,1038,1034,1034,1034,1034,1034,1038,1034,1034,1038,1038,1038,1038,1034,1034,1034,1034,1031,1031,1031,1031,1031,1031,1031,1031,1028,1028,1028,1028,1028,1028,1028,1028,1028,1028,1028,1028,1028,1028,1025,1025,1025,1025,1028,1025,1025,1025,1025,1022,1022,1022,1022,1022,0,0,0,0,0,0,0,809,809,809,809,809,809,809,809,811,811,813,815,815,815,817,817,819,819,823,825,827,829,829,831,833,833,835,837,839,839,841,841,843,843,843,1013,1013,1013,1013,1013,1013,1013,1013,1013,1013,1013,1013,1013,1010,1010,1013,1010,1010,1010,1010,1010,1010,1010,1010,1010,1010,1010,1013,1013,1013,1013,1013,1013,1010,1010,1010,1010,1010,1010,1010,1010,1010,1007,1007,1007,1007,1007,1007,1007,1007,1007,1007,1007,1007,1007,1004,1004,1004,1001,1001,1004,1004,1004,1004,1004,1004,1004,1004,1001,1001,1001,1001,1001,1001,1001,998,998,998,1001,1001,998,998,998,998,998,998,995,995,995,995,995,995,995,995,995,995,995,995,995,995,995,995,995,995,995,995,995,995,995,995,995,992,992,992,992,992,992,992,992,992,992,992,992,992,992,989,989,989,992,992,992,992,992,992,992,992,992,992,992,992,992,992,992,992,989,989,989,989,989,989,989,989,989,987,987,987,987,987,984,984,987,987,989,989,989,989,989,989,989,989,989,987,987,987,987,987,984,984,984,987,987,984,984,984,984,984,981,981,981,981,981,981,981,984,981,981,981,981,981,981,981,981,978,978,978,978,978,978,978,978,978,978,978,978,978,978,978,978,978,978,978,978,975,975,978,975,975,978,978,978,978,978,978,975,975,975,975,975,973,973,973,973,973,973,973,973,973,973,973,973,973,970,970,970,970,970,970,970,967,967,967,967,967,967,967,967,967,967,967,967,967,964,964,962,962,967,967,967,967,967,967,967,967,964,964,964,964,964,964,967,967,967,967,967,967,967,964,964,964,962,962,959,959,959,959,959,959,959,959,956,956,956,956,956,954,954,954,956,956,954,954,954,956,954,954,954,954,956,956,956,956,956,956,956,875,875,878,878,878,878,878,878,880,880,880,880,880,882,0,794,794,794,796,796,796,794,794,794,794,794,794,792,792,792,790,790,790,790,790,790,790,790,790,790,790,790,790,792,792,792,794,796,796,796,798,798,798,800,800,800,802,803,803,805,809,813,813,813,813,811,811,811,809,809,809,807,805,805,803,803,800,800,800,798,796,796,794,792,792,790,789,787,785,785,0,0,0,0,0,0,0,0,0,0,0,0,0,0,0,0,0,0,0,0,0,0,0,0,0,0,0,0,0,0,0,0,0,0,0,0,0,0
0,0,0,0,0,1057,1057,1050,1050,1050,1050,1050,1047,1047,1047,1047,1047,1047,1044,1044,1044,1044,1044,1044,1047,1047,1047,1047,1044,1044,1044,1041,1041,1038,1038,1038,1038,1038,1038,1038,1038,1038,1038,1038,1038,1038,1038,1034,1034,1038,1038,1038,1038,1038,1038,1038,1034,1034,1034,1034,1034,1034,1034,1034,1034,1034,1034,1038,1038,1038,1034,1034,1034,1034,1034,1034,1034,1038,1038,1034,1034,1034,1034,1034,1034,1034,1031,1031,1031,1034,1034,1034,1034,1034,1034,1034,1031,1028,1028,1028,1028,1028,1028,1028,1028,1028,1028,1028,1025,1025,1025,1025,1025,1025,1025,1025,1025,1025,1025,1025,1025,1025,1025,1025,1025,1025,1025,1025,1025,1022,1022,1019,1019,1019,1019,1019,0,0,0,0,0,821,819,819,811,811,809,809,809,809,811,811,813,815,815,817,817,817,819,819,821,823,825,827,829,829,831,833,833,835,837,839,839,841,841,843,1013,1013,1013,1010,1010,1013,1013,1013,1010,1010,1010,1010,1010,1010,1010,1007,1007,1010,1010,1010,1007,1007,1007,1007,1007,1007,1007,1007,1007,1007,1007,1007,1007,1007,1007,1007,1004,1004,1004,1004,1004,1004,1004,1007,1007,1004,1004,1004,1004,1004,1004,1004,1004,1004,1004,1004,1004,1001,1001,1001,1001,1001,1001,1001,1001,1001,1001,1001,1001,1001,1001,1001,998,998,998,998,998,998,998,998,998,998,998,995,995,995,995,995,995,992,992,992,992,992,992,992,995,995,992,992,992,992,992,992,989,989,989,992,992,992,992,992,992,989,989,989,989,989,989,989,989,989,989,989,989,987,987,987,987,987,989,989,989,989,989,989,989,989,989,989,989,989,989,989,989,989,987,987,989,989,987,987,987,987,987,987,984,984,984,984,984,984,984,984,984,984,987,987,987,987,987,987,987,984,984,984,984,984,984,984,984,984,984,984,981,981,981,981,981,981,981,981,981,981,981,981,981,981,981,978,978,978,978,978,978,978,978,978,978,978,978,978,978,978,978,975,975,975,975,975,975,973,973,973,973,975,975,975,975,975,975,975,975,975,975,973,973,973,973,973,970,970,970,970,970,970,970,970,970,970,970,970,970,967,967,967,967,967,967,967,967,967,967,967,964,964,964,967,964,964,964,964,964,962,962,962,962,962,962,962,964,962,962,964,962,962,962,964,964,964,964,964,964,964,964,964,964,964,962,962,962,959,959,959,959,959,959,959,959,959,956,956,956,956,954,954,951,951,951,954,954,951,951,951,954,951,951,951,951,954,954,954,954,956,956,875,875,875,878,878,878,878,878,880,880,880,880,880,880,882,0,0,794,794,796,794,794,794,794,794,794,794,794,792,792,792,790,790,790,790,790,790,790,790,790,790,790,790,790,790,792,792,794,796,796,796,798,798,798,800,800,800,802,803,803,807,813,815,815,815,813,813,813,811,811,811,809,809,807,805,803,803,802,802,800,798,796,796,796,794,792,790,789,789,787,787,0,0,0,0,0,0,0,0,0,0,0,0,0,0,0,0,0,0,0,0,0,0,0,0,0,0,0,0,0,0,0,0,0,0,0,0,0,0
0,0,0,0,0,1054,1054,1047,1047,1047,1047,1047,1044,1044,1044,1044,1044,1044,1044,1041,1041,1041,1041,1041,1044,1044,1044,1044,1044,1044,1041,1038,1038,1038,1038,1034,1034,1034,1034,1034,1034,1034,1034,1034,1034,1034,1034,1031,1031,1034,1034,1034,1034,1034,1034,1034,1034,1034,1034,1031,1031,1031,1031,1031,1031,1031,1028,1028,1031,1031,1031,1031,1031,1031,1031,1028,1028,1028,1028,1034,1034,1031,1031,1031,1031,1031,1031,1031,1031,1031,1031,1031,1028,1028,1028,1028,1025,1025,1025,1025,1025,1025,1025,1025,1025,1025,1025,1025,1025,1025,1025,1025,1025,1022,1022,1022,1022,1022,1022,1022,1022,1022,1022,1022,1022,1022,1022,1022,1022,1022,1019,1016,1016,1016,1016,1013,1013,0,0,0,0,821,819,819,811,811,811,811,811,811,811,811,813,817,817,817,817,819,819,819,821,825,825,827,829,829,831,833,833,835,837,837,839,841,841,1007,1007,1007,1010,1010,1010,1010,1010,1010,1010,1010,1010,1010,1010,1010,1007,1007,1007,1007,1007,1007,1007,1007,1007,1007,1007,1004,1004,1004,1004,1004,1004,1004,1001,1001,1004,1004,1001,1001,1001,1001,1001,1001,1001,1001,1004,1004,1004,1001,1001,1001,1001,1001,1001,1001,1001,1001,1001,1001,998,998,998,998,998,998,998,998,998,998,998,998,998,998,998,998,998,998,998,998,998,998,995,995,995,995,995,995,995,992,992,992,992,992,992,989,989,992,992,992,992,992,989,989,989,989,989,989,989,989,989,989,989,989,989,989,989,989,989,989,989,987,987,989,989,989,987,987,987,984,984,984,987,987,987,987,989,989,989,989,989,989,989,989,989,989,989,987,987,987,987,987,984,984,984,984,984,984,981,981,981,981,981,981,981,981,981,981,981,981,981,981,984,984,984,981,981,981,981,981,981,981,981,981,981,981,981,981,981,981,978,978,978,978,978,978,978,978,978,978,978,978,978,975,975,975,975,975,975,975,975,975,975,975,975,975,975,975,973,973,973,973,973,973,973,970,970,970,970,970,973,973,973,973,973,973,973,970,970,970,970,970,970,970,970,970,970,970,970,970,967,967,967,967,967,964,964,964,964,964,964,964,964,964,962,962,962,962,962,962,962,962,962,962,962,959,959,959,959,959,959,959,959,959,959,959,962,959,959,962,962,962,962,962,962,962,962,962,962,959,959,959,959,959,956,956,956,956,956,956,956,956,956,956,954,954,954,951,951,951,951,951,951,951,951,951,951,951,951,951,951,951,951,951,951,951,954,875,875,875,878,878,878,878,880,880,880,880,880,882,882,882,0,0,794,794,794,794,794,794,794,794,794,794,794,792,792,792,790,790,790,790,790,790,790,790,790,790,790,790,790,790,792,792,794,796,796,796,798,798,798,800,800,800,802,803,803,807,815,817,817,815,815,813,813,813,811,811,811,809,807,805,805,803,802,800,798,798,796,796,794,794,792,790,789,787,787,787,0,0,0,0,0,0,0,0,0,0,0,0,0,0,0,0,0,0,0,0,0,0,0,0,0,0,0,0,0,0,0,0,0,0,0,0,0,0
0,0,0,0,0,1047,1044,1044,1041,1041,1041,1044,1041,1041,1041,1041,1041,1044,1041,1041,1041,1041,1038,1038,1041,1041,1041,1041,1041,1041,1038,1038,1038,1034,1034,1034,1034,1031,1031,1031,1031,1031,1031,1031,1031,1031,1031,1028,1028,1028,1028,1028,1031,1028,1028,1031,1031,1031,1031,1031,1031,1028,1028,1028,1028,1028,1025,1025,1025,1028,1028,1025,1025,1028,1028,1025,1025,1025,1025,1025,1025,1025,1025,1028,1028,1028,1028,1025,1025,1025,1025,1028,1025,1025,1025,1025,1025,1025,1025,1025,1025,1025,1025,1025,1025,1025,1025,1025,1022,1022,1022,1022,1022,1022,1022,1022,1022,1022,1022,1019,1019,1019,1019,1019,1019,1019,1019,1019,1019,1016,1016,1013,1013,1013,1013,1013,1013,1013,0,0,0,823,821,819,815,813,811,811,811,811,811,813,813,817,817,817,819,819,819,821,823,825,825,827,829,831,831,831,833,833,835,835,839,841,1004,1004,1004,1004,1007,1007,1007,1007,1010,1010,1007,1007,1007,1007,1007,1007,1007,1004,1004,1007,1007,1007,1004,1004,1004,1004,1004,1001,1001,1001,1001,1001,1001,1001,1001,1001,1001,1001,1001,1001,1001,1001,1001,1001,1001,1001,1001,1001,1001,998,998,998,998,1001,1001,1001,1001,1001,998,998,998,998,998,998,998,998,998,998,998,998,998,995,995,995,995,995,995,995,995,995,995,995,995,995,992,992,992,992,992,989,989,989,989,989,989,989,989,989,989,989,989,989,989,989,989,989,989,989,989,987,987,987,987,987,989,989,987,987,987,987,987,987,987,987,987,987,984,984,984,984,984,984,987,987,987,987,987,987,987,987,987,987,987,987,987,987,984,984,984,984,984,984,981,981,984,981,981,981,981,981,978,978,978,978,978,978,978,978,978,978,978,978,978,978,978,981,981,981,981,981,981,981,981,981,981,978,978,978,978,978,978,975,975,975,975,975,975,975,975,975,975,975,975,973,973,973,973,973,973,973,973,973,973,973,973,973,973,973,970,970,970,970,970,970,970,970,970,970,970,970,967,967,970,970,970,970,970,970,967,967,970,967,967,967,967,967,967,967,967,967,967,964,964,964,964,962,962,962,962,962,962,962,962,962,959,959,959,959,959,959,959,959,959,959,959,959,959,959,959,959,959,959,959,959,956,956,959,959,959,959,959,959,959,959,959,959,959,959,959,959,956,956,956,956,956,954,954,956,956,954,954,956,954,954,954,954,951,951,951,948,948,948,948,948,948,948,948,948,948,948,948,948,951,951,951,951,875,875,875,878,878,878,878,880,880,880,880,880,882,882,882,0,0,0,0,794,794,794,794,792,792,792,792,792,792,792,792,792,790,790,790,790,790,790,790,790,790,790,790,790,790,792,792,792,794,796,796,796,796,798,798,800,800,800,803,803,805,807,821,821,819,817,817,815,813,813,813,811,811,811,809,807,805,803,802,800,798,798,796,796,794,792,792,790,789,785,785,787,0,0,0,0,0,0,0,0,0,0,0,0,0,0,0,0,0,0,0,0,0,0,0,0,0,0,0,0,0,0,0,0,0,0,0,0,0,0
0,0,0,0,1044,1041,1041,1041,1038,1038,1041,1041,1041,1041,1041,1041,1041,1041,1041,1041,1041,1038,1038,1038,1038,1038,1038,1038,1034,1034,1034,1034,1034,1031,1031,1031,1028,1028,1028,1028,1028,1028,1028,1028,1028,1028,1028,1028,1028,1028,1028,1028,1028,1025,1025,1028,1028,1028,1028,1028,1028,1028,1028,1028,1025,1025,1025,1025,1025,1025,1025,1025,1025,1025,1025,1025,1022,1022,1022,1025,1025,1025,1025,1025,1025,1025,1025,1025,1022,1022,1022,1025,1022,1022,1022,1022,1022,1022,1022,1022,1022,1022,1022,1022,1022,1022,1022,1022,1022,1022,1022,1019,1019,1019,1019,1019,1019,1019,1019,1019,1019,1019,1019,1019,1019,1016,1016,1016,1016,1016,1013,1013,1013,1013,1013,1010,1010,1010,1010,0,0,823,823,819,815,813,813,813,813,813,813,813,815,817,817,819,819,819,819,821,823,825,825,827,829,829,831,831,831,833,835,835,1004,1004,1004,1004,1004,1004,1007,1007,1007,1007,1007,1007,1007,1007,1007,1007,1004,1004,1004,1001,1001,1004,1004,1004,1001,1001,1001,1001,1001,1001,1001,1001,1001,1001,1001,1001,998,998,998,998,998,998,998,998,998,998,998,998,998,998,998,998,998,998,998,998,998,998,998,998,998,998,995,995,995,995,995,995,995,995,995,995,995,995,995,992,992,995,995,995,992,992,992,992,992,992,992,989,989,989,989,989,989,989,989,989,989,989,989,989,989,989,989,989,989,987,987,987,987,987,987,987,987,987,987,987,987,987,987,987,987,987,987,987,984,984,984,984,984,984,981,981,981,981,984,984,984,984,984,984,984,984,984,984,984,984,984,984,984,981,981,981,981,981,981,981,981,981,981,978,978,978,978,978,978,978,975,975,975,975,975,975,975,975,975,975,975,975,975,975,978,978,978,981,981,981,978,978,978,978,975,975,975,973,973,973,973,973,973,973,973,970,970,973,973,970,970,970,970,970,970,970,970,970,970,970,970,970,970,970,967,967,967,967,967,967,967,967,967,967,967,967,967,967,967,967,967,967,967,967,967,967,967,967,967,967,967,967,967,964,964,964,964,962,962,962,962,959,959,962,962,959,959,959,959,959,959,959,959,959,959,959,959,959,956,956,956,956,956,956,956,956,956,956,959,956,956,956,956,954,954,954,956,956,956,956,956,956,956,956,956,956,954,954,954,954,954,951,951,951,951,951,951,954,951,951,951,951,951,948,948,948,948,948,948,946,946,946,946,946,946,946,946,946,948,948,948,948,875,875,878,878,878,878,878,880,880,880,880,880,882,882,885,0,0,0,0,0,794,794,792,792,792,792,792,792,792,792,792,792,792,790,790,790,790,790,790,790,790,790,790,790,790,792,792,792,796,796,796,796,796,798,798,798,798,798,800,803,809,819,821,821,821,819,817,815,815,813,813,811,811,811,809,807,805,803,800,800,798,798,796,794,794,792,790,789,789,785,785,0,0,0,0,0,0,0,0,0,0,0,0,0,0,0,0,0,0,0,0,0,0,0,0,0,0,0,0,0,0,0,0,0,0,0,0,0,0,0
0,0,0,0,1041,1041,1038,1038,1038,1038,1038,1038,1038,1038,1038,1038,1038,1041,1041,1038,1038,1038,1034,1034,1034,1034,1034,1031,1031,1031,1031,1031,1031,1031,1031,1028,1028,1028,1025,1025,1028,1028,1028,1028,1028,1028,1028,1025,1025,1025,1025,1025,1028,1025,1025,1025,1025,1025,1025,1025,1025,1025,1025,1025,1025,1025,1025,1025,1025,1025,1022,1022,1022,1022,1022,1022,1022,1022,1022,1022,1022,1022,1022,1022,1022,1022,1022,1019,1019,1019,1019,1022,1022,1022,1022,1022,1022,1022,1022,1019,1019,1019,1019,1019,1019,1019,1019,1019,1019,1019,1019,1019,1019,1019,1019,1019,1019,1019,1019,1016,1016,1016,1016,1016,1016,1013,1013,1013,1016,1013,1013,1013,1013,1013,1010,1010,1010,1010,1010,1010,0,825,825,821,817,815,815,815,813,813,815,815,817,817,819,819,819,819,821,821,823,825,825,827,829,829,831,831,831,833,833,833,1004,1004,1004,1004,1004,1004,1004,1004,1004,1004,1004,1004,1004,1004,1004,1004,1004,1001,1001,1001,1001,1001,1001,1001,1001,1001,1001,1001,1001,998,998,998,998,998,998,998,998,998,998,998,995,995,995,998,998,998,998,998,998,998,995,995,995,995,995,998,998,998,995,995,995,995,992,992,992,992,992,992,992,992,992,992,992,992,992,989,989,992,992,992,989,989,992,992,989,989,989,989,989,989,989,989,989,987,987,987,987,987,987,987,987,987,987,987,987,987,987,987,987,987,987,987,987,987,987,984,984,984,984,981,981,981,981,984,984,981,981,981,981,978,978,978,978,978,981,981,981,981,981,981,981,981,981,981,981,981,981,981,978,978,978,978,978,978,978,978,978,978,978,978,978,978,978,978,975,975,973,973,973,973,973,973,973,973,973,973,973,973,973,975,975,975,975,978,978,978,978,975,975,975,975,973,973,973,973,970,970,970,970,970,970,970,970,970,970,970,970,970,967,967,967,967,967,967,967,970,970,967,967,967,967,967,964,964,964,964,964,964,964,967,967,967,964,964,964,964,962,962,962,962,964,964,964,964,964,964,964,964,964,964,964,962,962,959,959,959,959,959,959,959,959,959,959,959,959,959,956,956,956,956,956,956,956,956,956,956,956,956,956,956,956,956,956,956,956,954,954,954,954,954,951,951,951,951,954,954,954,954,954,954,954,951,951,951,951,951,951,951,951,951,951,951,951,951,948,948,948,948,948,948,946,946,946,946,946,946,946,946,946,946,946,946,943,943,946,946,946,946,946,878,878,878,878,878,878,880,880,880,880,880,882,882,0,0,0,0,0,0,0,794,792,792,792,792,792,792,792,792,792,792,792,790,790,790,790,790,790,790,790,790,790,792,792,792,792,792,796,796,796,796,798,798,798,798,798,798,800,803,819,819,823,821,821,819,817,817,815,813,813,813,813,811,809,807,803,802,800,800,798,798,796,794,792,792,790,789,789,785,785,0,0,0,0,0,0,0,0,0,0,0,0,0,0,0,0,0,0,0,0,0,0,0,0,0,0,0,0,0,0,0,0,0,0,0,0,0,0,0
0,0,0,0,1038,1038,1038,1038,1038,1038,1038,1038,1038,1038,1038,1038,1038,1038,1038,1038,1038,1034,1034,1034,1031,1031,1031,1028,1028,1028,1028,1031,1028,1028,1028,1028,1028,1025,1025,1025,1028,1025,1025,1025,1025,1025,1025,1025,1025,1025,1025,1025,1025,1025,1025,1025,1025,1025,1025,1025,1025,1025,1025,1025,1022,1022,1022,1022,1022,1022,1022,1022,1022,1022,1022,1019,1019,1019,1022,1022,1022,1022,1022,1022,1022,1019,1019,1016,1016,1016,1016,1016,1016,1016,1016,1019,1019,1019,1019,1016,1016,1016,1016,1016,1016,1016,1016,1016,1016,1016,1016,1016,1016,1016,1016,1016,1016,1016,1016,1013,1013,1013,1013,1013,1013,1013,1013,1013,1013,1013,1013,1013,1010,1010,1010,1010,1007,1007,1010,1010,0,827,827,825,823,819,817,817,815,815,815,817,817,819,819,819,821,821,821,823,825,825,827,827,829,829,831,831,831,831,833,1001,1001,1001,1001,1001,1001,1001,1001,998,998,1001,1001,1001,1001,1001,1001,1001,1001,1001,1001,998,998,998,998,1001,998,998,998,998,998,998,998,998,998,998,995,995,995,992,992,992,992,992,995,992,992,995,995,995,995,992,992,992,992,992,992,992,992,992,992,992,992,989,989,989,989,992,989,989,989,989,989,989,989,989,989,989,989,989,989,989,989,989,989,989,989,989,989,989,989,989,987,987,987,987,987,987,987,987,987,987,987,987,987,987,984,984,984,984,984,984,984,984,984,984,984,984,984,984,981,981,981,981,978,978,978,978,978,978,978,978,978,978,978,978,981,981,981,981,981,981,981,981,981,978,978,978,978,978,975,975,975,975,975,975,975,975,975,978,978,978,975,975,975,975,975,973,973,973,970,970,970,970,970,970,970,970,970,970,970,970,973,973,973,973,973,973,975,973,973,973,973,970,970,970,970,970,970,970,970,970,970,967,967,970,970,967,967,967,967,967,967,967,967,967,967,967,967,967,967,967,964,964,962,962,962,962,962,962,962,964,964,962,962,962,962,962,959,959,959,959,959,959,959,962,962,962,962,962,962,962,962,962,959,959,959,959,959,956,956,956,956,959,959,956,956,956,956,956,956,956,956,954,954,954,954,954,954,954,956,956,956,956,956,956,956,954,951,951,951,951,951,951,951,951,951,951,951,951,951,951,951,951,948,948,948,948,948,948,948,948,948,948,948,948,948,948,948,948,946,946,946,946,946,946,943,943,943,943,943,943,943,943,940,940,940,940,943,940,878,878,878,880,878,878,878,880,880,880,880,880,882,882,0,0,0,0,0,0,0,794,794,792,792,792,792,792,792,794,792,792,792,790,790,790,790,790,790,790,790,790,790,792,792,792,792,792,796,796,796,798,798,798,798,798,798,798,800,807,821,823,823,823,819,819,817,817,815,813,813,813,813,811,811,807,803,802,800,800,798,798,796,794,792,790,790,789,789,785,785,0,0,0,0,0,0,0,0,0,0,0,0,0,0,0,0,0,0,0,0,0,0,0,0,0,0,0,0,0,0,0,0,0,0,0,0,0,0,0
0,0,0,0,1034,1034,1034,1034,1034,1034,1034,1034,1034,1034,1034,1034,1034,1034,1034,1034,1034,1034,1034,1031,1031,1031,1028,1028,1025,1025,1025,1025,1025,1025,1025,1025,1025,1025,1025,1025,1025,1025,1025,1025,1025,1025,1025,1025,1022,1022,1022,1022,1022,1022,1022,1022,1022,1022,1022,1022,1022,1022,1022,1022,1022,1022,1022,1022,1022,1019,1019,1019,1019,1019,1019,1019,1019,1019,1019,1019,1019,1019,1019,1019,1019,1019,1016,1016,1016,1013,1013,1013,1013,1013,1013,1013,1013,1013,1016,1016,1016,1016,1013,1013,1013,1013,1013,1013,1013,1013,1013,1013,1013,1013,1013,1013,1013,1013,1013,1013,1010,1010,1013,1013,1010,1010,1010,1010,1010,1010,1010,1010,1010,1007,1007,1007,1004,1004,1004,1004,0,829,829,827,825,821,819,817,817,817,817,817,817,819,819,819,821,821,823,825,825,825,827,827,829,829,831,831,831,831,831,998,998,998,1001,998,998,998,998,998,998,998,998,998,998,998,998,998,998,998,998,998,998,998,998,998,998,995,995,998,998,998,995,995,995,995,992,992,992,992,992,992,992,992,992,992,992,992,992,992,992,989,989,989,989,989,989,989,989,989,989,989,989,989,989,989,989,989,989,989,989,989,989,989,989,989,989,987,987,987,987,987,987,987,987,987,987,987,987,987,987,987,987,984,984,987,987,984,984,984,984,984,984,984,984,984,981,981,981,981,981,981,981,981,981,981,981,981,981,981,978,978,978,978,975,975,975,975,975,973,973,975,975,975,975,975,978,978,978,978,978,978,978,978,978,978,978,975,975,973,973,973,973,973,973,973,973,973,973,975,975,975,975,975,973,973,973,973,970,970,970,970,970,970,970,970,970,970,970,970,970,970,970,970,970,970,970,970,970,970,970,970,970,970,970,970,967,967,967,967,967,967,967,967,967,967,967,967,964,964,964,964,964,964,964,964,964,964,964,964,964,962,962,962,959,959,959,959,959,959,959,962,962,962,962,959,959,959,959,959,959,959,959,959,956,956,956,959,959,959,959,959,959,959,956,956,956,956,956,956,956,956,956,956,956,956,956,956,954,954,954,954,954,954,954,954,954,951,951,954,954,954,954,954,954,954,954,951,951,948,948,948,948,948,948,948,948,948,948,948,946,946,948,948,948,948,948,948,948,948,946,946,946,946,946,946,946,946,946,946,946,943,943,943,943,943,943,943,943,940,940,940,940,940,938,938,938,938,938,938,878,878,878,880,880,880,880,880,880,880,880,880,880,0,0,0,0,0,0,0,0,0,790,790,792,792,790,790,792,792,792,792,792,792,790,790,790,790,790,790,790,790,790,792,792,792,792,794,796,796,796,798,798,798,798,800,798,798,819,819,821,823,823,823,819,819,817,817,815,813,813,811,811,809,809,805,803,802,800,798,798,796,796,792,790,790,789,789,787,783,783,0,0,0,0,0,0,0,0,0,0,0,0,0,0,0,0,0,0,0,0,0,0,0,0,0,0,0,0,0,0,0,0,0,0,0,0,0,0,0
0,0,0,0,1034,1034,1034,1034,1034,1034,1034,1034,1034,1034,1034,1034,1034,1034,1034,1031,1028,1028,1028,1028,1028,1028,1025,1025,1025,1022,1022,1022,1022,1022,1022,1022,1022,1022,1022,1022,1022,1025,1025,1022,1022,1022,1022,1022,1022,1022,1022,1022,1022,1019,1019,1019,1019,1019,1019,1019,1019,1022,1022,1022,1022,1022,1019,1019,1019,1016,1016,1016,1016,1019,1016,1016,1016,1016,1016,1016,1016,1016,1016,1016,1016,1013,1013,1013,1013,1013,1013,1013,1013,1013,1013,1013,1013,1013,1013,1013,1013,1013,1013,1013,1013,1013,1013,1013,1013,1010,1010,1013,1013,1010,1010,1010,1010,1013,1010,1010,1010,1010,1010,1010,1010,1007,1007,1007,1007,1010,1010,1007,1007,1007,1004,1004,1004,1001,1001,1001,0,829,829,827,825,821,819,817,817,817,817,817,817,819,819,819,821,823,825,825,827,827,829,829,829,831,831,831,831,833,833,998,998,998,998,998,998,998,998,995,995,995,998,998,995,995,998,998,998,998,998,995,995,995,995,995,992,992,992,992,992,995,992,992,992,992,989,989,989,989,989,989,989,989,989,989,989,989,989,989,989,987,987,987,987,987,989,989,987,987,987,987,987,987,987,987,987,987,987,987,987,987,987,987,987,987,987,984,984,981,981,984,981,981,981,984,984,984,984,984,984,984,984,984,984,984,984,984,984,984,984,984,981,981,981,981,978,978,978,978,978,978,978,978,978,978,978,978,978,978,978,978,978,978,975,975,973,973,973,970,970,970,970,970,973,975,978,978,978,978,978,978,978,978,975,975,975,975,973,973,973,970,970,970,970,970,970,970,970,970,973,973,973,973,970,970,970,970,970,970,970,970,970,967,967,967,967,967,967,967,970,970,970,970,970,970,967,967,970,967,967,967,967,967,967,967,967,967,967,967,967,967,964,964,964,964,964,964,962,962,962,962,962,962,962,962,962,962,964,962,962,962,962,962,959,959,959,959,959,959,959,959,959,959,959,959,959,959,956,956,956,956,956,956,956,956,956,956,954,954,956,956,956,954,954,954,954,954,954,954,954,954,954,954,954,954,954,951,951,951,951,951,951,951,951,951,951,948,948,951,951,951,951,951,951,951,951,948,948,948,948,948,946,946,946,946,946,946,946,946,946,943,943,943,946,946,946,946,946,946,946,946,946,946,946,943,943,943,943,943,943,940,940,940,940,940,940,940,940,938,938,938,938,938,935,935,933,933,933,933,878,878,880,880,880,880,880,880,880,880,880,880,880,0,0,0,0,0,0,0,0,0,790,790,792,792,790,790,792,792,792,792,792,792,790,790,790,790,790,790,792,790,790,792,792,792,792,794,796,796,796,798,798,798,798,800,800,823,821,821,821,821,821,821,819,819,817,815,813,813,811,811,811,807,807,805,803,802,800,798,798,796,794,790,790,789,789,787,785,781,781,0,0,0,0,0,0,0,0,0,0,0,0,0,0,0,0,0,0,0,0,0,0,0,0,0,0,0,0,0,0,0,0,0,0,0,0,0,0,0
0,0,0,0,1034,1034,1034,1031,1031,1031,1031,1031,1031,1031,1031,1031,1034,1031,1031,1028,1028,1028,1025,1025,1025,1022,1022,1025,1022,1022,1022,1022,1022,1019,1019,1019,1022,1019,1019,1019,1022,1022,1022,1022,1019,1019,1019,1022,1019,1019,1019,1019,1019,1016,1016,1016,1016,1016,1016,1016,1016,1019,1019,1019,1019,1019,1016,1016,1016,1013,1013,1013,1013,1013,1013,1013,1013,1016,1013,1013,1013,1013,1013,1013,1010,1010,1010,1013,1013,1013,1013,1013,1013,1010,1010,1010,1010,1010,1010,1010,1010,1010,1010,1010,1010,1010,1010,1010,1010,1010,1010,1010,1010,1010,1007,1007,1010,1010,1007,1007,1007,1007,1007,1007,1007,1004,1004,1004,1004,1004,1004,1004,1004,1004,1001,1001,1001,1001,998,998,998,0,833,833,827,821,819,819,817,817,817,817,817,819,819,819,823,823,825,825,827,827,829,831,831,831,833,831,831,833,833,998,998,995,992,992,992,992,992,992,995,995,995,995,992,992,995,995,995,995,995,992,992,992,992,992,992,992,992,989,989,992,989,989,989,989,989,989,989,989,989,989,989,989,989,987,987,987,987,987,987,987,987,987,987,987,987,987,984,984,984,984,984,984,984,984,984,987,987,984,984,984,984,984,984,984,984,981,981,981,981,981,981,978,978,981,981,981,981,981,981,981,981,981,981,981,981,981,981,981,981,981,978,978,978,978,975,975,975,975,975,978,975,975,975,975,975,975,975,975,975,975,975,975,973,973,973,970,970,970,970,970,970,970,970,970,973,973,975,978,978,978,975,975,975,973,973,973,970,970,970,970,970,967,967,970,970,970,970,970,970,970,970,970,970,970,970,970,970,967,967,967,967,967,967,967,967,967,967,967,967,967,967,967,967,967,967,967,967,964,964,964,964,964,964,964,964,964,964,964,964,964,964,964,964,962,962,962,962,962,959,959,962,962,959,959,959,959,959,959,959,959,959,959,959,959,956,956,956,956,956,956,956,956,956,956,956,956,956,956,956,956,956,956,954,954,954,954,951,951,951,951,951,951,951,951,951,951,951,951,951,951,951,954,951,951,951,951,951,951,951,951,951,948,948,948,948,948,948,948,948,948,948,948,948,948,948,946,946,946,946,946,946,946,946,946,946,946,946,943,943,943,940,940,940,940,940,943,943,943,943,943,943,943,943,943,943,940,940,940,940,940,940,940,940,940,940,938,938,938,938,938,935,935,935,933,933,933,933,880,880,880,880,880,880,880,880,880,880,880,880,880,880,0,0,0,0,0,0,0,0,0,792,792,792,792,790,790,790,792,792,792,792,792,792,792,792,792,792,792,792,790,790,792,792,792,792,792,794,796,796,798,798,798,798,798,798,823,821,821,821,821,821,821,819,817,815,815,813,813,811,811,809,807,805,803,802,800,800,798,796,794,792,790,789,789,789,787,783,781,781,0,0,0,0,0,0,0,0,0,0,0,0,0,0,0,0,0,0,0,0,0,0,0,0,0,0,0,0,0,0,0,0,0,0,0,0,0,0,0
0,0,0,0,1031,1031,1031,1031,1028,1028,1031,1028,1028,1028,1028,1028,1028,1025,1025,1025,1025,1025,1025,1025,1025,1022,1022,1016,1016,1019,1019,1019,1019,1016,1016,1019,1019,1016,1016,1016,1019,1022,1022,1019,1019,1019,1019,1019,1016,1016,1016,1016,1016,1016,1013,1013,1013,1013,1013,1013,1013,1016,1016,1016,1016,1019,1016,1016,1013,1013,1013,1013,1013,1013,1013,1010,1010,1013,1010,1010,1010,1010,1010,1010,1010,1007,1007,1010,1010,1010,1010,1010,1010,1010,1010,1007,1007,1007,1007,1010,1010,1007,1007,1010,1010,1007,1007,1007,1007,1007,1010,1007,1007,1007,1004,1004,1007,1007,1004,1004,1004,1004,1004,1004,1004,1001,1001,1001,1001,1001,1001,1001,1001,1001,998,998,998,998,998,998,998,0,833,833,831,821,819,819,819,819,819,819,819,819,819,821,823,825,825,827,827,827,829,831,831,833,833,833,833,833,833,833,989,989,989,989,989,989,989,989,989,992,992,992,992,992,992,992,992,992,992,992,992,989,989,989,989,989,989,987,987,989,987,987,987,987,987,987,987,987,987,987,987,987,987,987,987,987,987,987,984,984,984,984,984,984,984,984,981,981,981,981,981,981,981,981,981,984,984,981,981,981,978,978,978,978,978,978,978,978,978,978,978,978,978,978,978,978,978,978,978,978,978,978,978,978,978,978,978,978,978,978,978,975,975,975,975,975,973,973,973,975,973,973,973,970,970,973,970,970,970,973,973,970,970,970,967,967,967,967,967,967,967,967,967,967,970,970,973,973,973,973,973,973,973,970,970,970,970,970,970,967,967,967,967,967,967,967,967,967,967,967,967,967,967,967,967,967,967,967,967,967,967,964,964,964,964,964,964,967,967,967,967,964,964,964,964,964,964,964,964,962,962,962,959,959,959,959,959,962,962,962,962,962,962,959,959,959,959,959,959,959,959,959,959,959,956,956,956,956,956,956,956,956,956,956,956,956,956,956,954,954,954,954,954,954,954,954,954,954,954,954,954,954,954,951,951,951,951,948,948,948,948,948,948,948,948,948,948,948,948,948,948,951,948,948,948,948,948,948,948,948,948,948,948,948,948,946,946,946,946,943,943,943,943,946,946,946,946,946,946,946,946,946,946,946,946,946,943,943,940,940,938,938,938,938,938,940,940,943,943,943,940,940,940,940,940,940,940,940,938,938,938,938,938,938,938,938,938,935,935,935,935,933,933,930,930,930,935,880,880,880,880,880,880,880,880,880,880,880,880,880,882,0,0,0,0,0,0,0,0,0,794,792,792,790,790,790,790,792,792,792,792,792,792,792,792,792,792,792,792,790,790,792,790,790,790,792,794,796,796,798,798,798,798,798,798,823,823,821,821,821,819,819,817,815,813,813,813,811,811,809,809,805,805,802,802,800,800,798,796,792,790,789,789,787,787,785,783,781,781,0,0,0,0,0,0,0,0,0,0,0,0,0,0,0,0,0,0,0,0,0,0,0,0,0,0,0,0,0,0,0,0,0,0,0,0,0,0,0
0,0,0,0,1028,1028,1028,1028,1025,1025,1028,1022,1022,1022,1022,1022,1025,1025,1025,1022,1022,1022,1022,1022,1022,1019,1019,1016,1016,1016,1016,1016,1016,1013,1013,1016,1016,1016,1016,1016,1016,1019,1019,1016,1016,1013,1013,1016,1013,1013,1013,1013,1013,1013,1013,1013,1013,1013,1013,1013,1013,1013,1013,1013,1013,1013,1013,1013,1010,1010,1010,1010,1010,1010,1010,1010,1010,1010,1010,1010,1010,1010,1010,1007,1004,1004,1004,1007,1010,1010,1007,1007,1007,1007,1007,1004,1004,1004,1004,1007,1007,1004,1004,1007,1007,1007,1004,1004,1004,1004,1004,1004,1004,1004,1001,1001,1001,1001,1001,1001,1001,1001,1001,1001,1001,1001,998,998,998,998,995,995,998,998,995,995,995,995,995,995,995,0,835,835,831,821,821,819,819,819,819,819,819,819,821,823,825,825,827,827,829,829,831,831,833,833,833,833,835,835,835,989,989,989,989,989,989,989,989,989,989,989,989,989,989,989,989,992,992,992,992,992,989,989,989,989,989,989,989,987,987,987,987,987,987,984,984,987,987,987,987,984,984,984,984,984,984,984,984,984,981,981,981,984,981,981,981,981,978,978,978,978,978,978,978,978,978,978,978,978,978,978,978,975,975,975,975,975,975,975,975,975,978,975,975,975,975,975,975,975,975,975,975,975,975,975,975,975,975,975,975,975,975,973,973,973,973,973,973,973,973,973,970,970,970,970,970,970,967,967,967,970,970,967,967,967,967,967,964,964,964,967,967,967,967,967,970,970,970,970,970,970,970,970,970,970,970,970,970,967,967,967,967,967,967,967,967,967,964,964,964,964,964,964,964,964,967,967,967,967,967,964,964,964,964,964,964,964,964,964,964,964,964,964,964,964,962,962,964,962,959,959,959,959,959,956,956,956,956,956,956,956,956,959,959,959,956,956,956,959,956,956,956,956,956,956,956,954,954,954,956,956,956,956,956,956,956,956,956,954,954,954,954,954,951,951,951,951,951,951,951,951,951,951,951,948,948,948,948,948,948,948,948,946,946,946,946,946,946,948,948,948,948,948,946,946,948,948,946,946,948,948,946,946,946,943,943,943,943,940,940,940,940,940,940,940,940,940,940,940,943,943,943,943,943,943,943,943,943,940,940,938,938,938,938,938,938,938,935,935,935,935,938,938,938,938,938,938,938,938,938,938,938,938,938,938,935,935,935,935,933,933,933,930,930,930,928,928,928,880,880,880,880,880,880,880,880,880,880,882,882,882,0,0,0,0,0,803,802,802,800,796,794,792,792,790,790,790,790,790,792,792,792,792,792,792,794,794,792,792,792,792,792,792,790,790,790,792,794,796,796,796,798,798,798,798,823,821,821,821,821,819,819,819,817,815,813,813,811,811,811,809,807,805,803,802,800,798,798,796,794,792,790,789,789,787,787,783,781,780,780,0,0,0,0,0,0,0,0,0,0,0,0,0,0,0,0,0,0,0,0,0,0,0,0,0,0,0,0,0,0,0,0,0,0,0,0,0,0,0
0,0,0,0,1025,1025,1028,1025,1025,1022,1022,1022,1022,1022,1022,1022,1022,1022,1022,1022,1022,1022,1022,1022,1019,1013,1013,1013,1013,1013,1013,1013,1013,1013,1013,1013,1013,1013,1013,1013,1013,1013,1013,1013,1013,1010,1010,1013,1010,1010,1013,1013,1013,1013,1010,1010,1010,1010,1010,1010,1010,1010,1013,1013,1013,1013,1013,1010,1010,1010,1010,1007,1007,1007,1007,1007,1007,1007,1007,1007,1007,1007,1007,1004,1004,1004,1004,1004,1007,1007,1007,1007,1007,1004,1004,1001,1001,1001,1004,1004,1004,1001,1001,1001,1004,1004,1001,1001,1001,1001,1001,1001,1001,1001,1001,1001,1001,1001,1001,1001,1001,1001,1001,1001,998,998,998,998,995,995,995,995,995,995,995,992,992,995,995,995,995,0,835,835,835,835,821,819,819,819,819,819,819,819,821,825,825,827,827,827,829,829,831,833,833,833,835,835,835,835,835,987,987,987,987,987,987,987,987,987,987,987,987,987,987,987,987,987,987,989,989,989,989,989,987,987,987,987,987,984,984,984,984,984,987,984,984,987,987,984,984,984,984,981,981,981,981,981,981,981,981,981,981,978,978,978,978,978,978,978,978,978,978,978,978,975,975,975,975,975,975,975,975,975,975,975,975,975,975,975,975,975,975,973,973,975,975,975,975,975,973,973,973,973,973,973,973,970,970,970,970,970,970,973,970,970,970,970,970,970,970,970,967,967,967,967,967,967,967,967,964,964,967,964,964,964,964,964,964,964,964,964,964,964,964,964,967,967,967,967,967,967,967,967,967,967,967,967,967,967,967,967,964,964,964,964,964,964,962,962,964,964,964,964,964,964,964,964,964,964,964,962,962,959,959,959,962,959,959,962,962,962,964,962,962,962,959,959,962,959,959,959,959,959,956,956,956,956,956,956,954,954,954,954,954,954,954,954,954,956,956,956,956,956,956,956,954,954,954,954,954,954,954,954,954,954,954,954,954,954,951,951,951,951,951,948,948,951,951,951,948,948,948,948,948,948,948,948,948,948,948,946,946,946,946,946,943,943,946,943,943,943,946,946,946,946,946,946,946,946,946,946,946,943,943,943,943,940,940,940,938,938,938,938,938,938,938,940,938,938,940,940,940,940,940,940,943,940,940,938,938,938,935,935,935,935,935,935,935,935,935,935,935,935,935,938,935,935,935,935,935,935,935,935,935,935,935,935,933,933,930,930,930,930,930,928,928,928,928,880,880,880,880,880,880,880,880,882,882,882,880,880,0,0,0,0,0,803,802,802,800,796,796,794,792,790,790,790,790,790,790,792,792,792,794,794,794,794,792,792,792,792,792,792,790,790,792,792,794,796,796,796,798,798,798,823,823,821,821,821,819,819,819,819,817,815,813,813,811,809,809,807,807,805,803,800,800,798,798,796,794,792,790,789,787,785,785,783,780,776,776,0,0,0,0,0,0,0,0,0,0,0,0,0,0,0,0,0,0,0,0,0,0,0,0,0,0,0,0,0,0,0,0,0,0,0,0,0,0,0
0,0,0,0,1022,1022,1022,1022,1022,1022,1022,1022,1022,1019,1019,1019,1019,1019,1019,1019,1019,1019,1019,1016,1010,1010,1010,1010,1010,1010,1010,1010,1010,1010,1010,1010,1010,1010,1010,1010,1010,1010,1010,1010,1010,1010,1010,1010,1010,1010,1010,1010,1010,1010,1010,1010,1010,1010,1010,1010,1010,1010,1010,1010,1010,1010,1010,1010,1007,1007,1007,1004,1004,1004,1004,1004,1004,1004,1004,1004,1004,1004,1004,1004,1001,1001,1001,1004,1004,1004,1004,1004,1004,1001,1001,1001,1001,1001,1001,1001,1001,1001,998,998,1001,1001,998,998,998,998,998,998,998,998,998,998,998,998,998,998,998,998,998,998,998,998,995,995,992,992,992,992,992,995,992,992,992,992,992,989,989,0,0,0,0,0,821,819,819,819,819,819,819,821,823,825,827,827,827,827,829,831,831,833,833,835,835,837,837,837,839,987,987,984,984,987,987,987,987,987,987,987,987,987,984,984,984,987,987,984,984,984,984,987,984,984,984,984,984,984,981,981,984,984,984,984,984,984,984,981,981,981,981,978,978,978,978,978,978,978,978,978,978,978,978,978,978,978,978,978,978,978,975,975,975,973,973,973,973,973,973,973,973,973,973,973,973,973,973,973,973,973,970,970,970,970,970,970,970,973,973,973,973,970,970,970,970,970,970,970,970,970,970,970,967,967,967,967,967,967,967,967,967,967,967,967,967,967,964,962,962,964,964,964,964,964,964,964,964,962,962,962,962,962,964,964,964,964,964,964,964,964,962,962,964,962,962,964,964,964,964,964,962,962,962,962,962,962,962,962,962,962,962,962,962,962,964,964,964,962,962,959,959,959,956,956,959,959,959,959,959,959,959,959,959,959,959,959,959,956,956,956,956,956,956,954,954,954,954,954,954,954,951,951,951,951,951,951,951,954,954,954,954,954,954,954,954,951,951,951,951,951,951,951,951,951,951,951,951,951,948,948,948,948,948,948,948,948,948,948,948,948,948,946,946,946,946,946,946,946,946,946,946,946,943,943,943,943,943,943,940,940,940,943,943,940,940,943,943,943,943,943,943,940,940,940,940,940,938,938,938,938,938,938,938,938,938,938,938,938,938,938,938,938,938,938,940,938,938,938,938,935,935,935,933,933,933,933,933,933,933,933,933,933,933,933,935,935,935,935,935,935,935,935,935,933,933,933,930,930,928,928,930,928,928,928,928,928,928,880,880,880,880,880,880,880,880,882,882,882,880,880,882,0,0,0,0,803,802,802,800,800,796,794,792,792,790,790,790,790,790,792,792,792,792,792,794,794,792,792,792,792,792,792,790,790,792,794,794,794,796,796,798,798,798,825,825,823,821,821,819,819,817,817,815,815,813,811,809,807,807,805,805,803,802,800,800,798,798,796,794,790,789,789,787,785,783,781,778,776,776,0,0,0,0,0,0,0,0,0,0,0,0,0,0,0,0,0,0,0,0,0,0,0,0,0,0,0,0,0,0,0,0,0,0,0,0,0,0,0
0,0,0,0,1016,1016,1016,1016,1016,1016,1016,1019,1019,1019,1019,1019,1019,1019,1019,1016,1016,1016,1016,1013,1010,1010,1010,1010,1010,1010,1010,1010,1010,1010,1010,1010,1010,1010,1010,1010,1010,1007,1007,1007,1007,1007,1004,1004,1007,1007,1010,1007,1007,1010,1010,1010,1010,1010,1007,1007,1007,1007,1007,1007,1007,1007,1007,1007,1007,1004,1004,1004,1001,1001,1001,1001,1001,1001,1001,1001,1001,1001,1001,1001,1001,1001,1001,1001,1004,1001,1001,1001,1001,1001,1001,998,998,998,998,998,998,998,998,998,998,998,998,995,995,995,995,995,992,992,995,995,995,995,995,995,995,995,995,995,995,995,995,995,992,992,992,992,992,992,992,992,992,989,989,989,989,989,0,0,0,0,0,819,819,821,821,821,821,821,825,825,827,827,827,829,829,831,833,833,835,835,835,837,837,837,839,839,981,981,981,981,984,984,981,981,984,984,984,984,981,981,981,981,984,981,981,981,981,981,981,981,981,981,981,981,981,981,981,981,981,981,981,981,978,978,978,978,978,975,975,975,975,978,978,978,978,978,978,975,975,978,975,975,975,975,975,975,975,973,973,973,973,973,973,973,973,973,973,973,970,970,970,970,970,970,970,970,970,970,970,967,967,967,967,970,970,970,970,970,970,970,967,967,967,967,967,967,967,967,967,967,967,967,967,967,967,967,967,967,967,964,964,964,962,962,962,962,962,962,962,962,962,962,962,962,962,962,962,962,962,962,962,962,962,962,962,962,962,962,962,959,959,959,959,959,959,959,959,959,959,959,959,959,959,959,959,959,962,962,962,962,962,962,962,959,959,959,956,956,956,956,956,956,956,954,954,954,956,956,956,956,956,956,956,956,954,954,954,954,954,951,951,951,954,951,951,951,948,948,951,951,951,951,951,951,951,954,954,954,954,954,951,951,951,948,948,948,948,948,948,948,948,948,948,948,948,948,946,946,946,946,946,946,946,946,946,943,943,946,943,943,946,946,946,946,946,946,943,943,943,943,940,940,943,940,940,940,938,938,938,938,938,940,940,940,940,940,940,938,938,938,938,938,938,938,938,938,938,935,935,935,938,935,935,935,935,935,935,935,935,935,938,938,935,935,935,935,935,933,933,930,930,930,930,930,930,930,933,930,930,930,930,930,930,933,933,935,933,933,933,933,930,930,928,928,928,928,928,928,928,928,928,928,928,880,880,880,880,880,880,880,880,882,882,882,882,882,882,0,809,0,805,803,803,802,800,800,796,796,794,792,790,790,790,790,790,790,790,790,792,792,794,794,792,792,792,792,792,792,790,790,792,794,794,794,796,796,798,798,798,825,825,821,821,819,819,817,817,815,815,813,813,811,809,807,807,805,803,802,800,798,798,798,796,796,792,790,789,787,785,783,783,780,776,774,774,0,0,0,0,0,0,0,0,0,0,0,0,0,0,0,0,0,0,0,0,0,0,0,0,0,0,0,0,0,0,0,0,0,0,0,0,0,0,0
0,0,0,0,1013,1013,1013,1013,1013,1013,1013,1013,1013,1016,1016,1016,1016,1016,1016,1013,1013,1013,1013,1010,1010,1010,1010,1010,1010,1010,1010,1010,1010,1010,1010,1007,1007,1007,1007,1007,1007,1004,1001,1001,1004,1004,1004,1001,1001,1004,1004,1007,1007,1007,1007,1007,1007,1007,1007,1007,1004,1004,1004,1004,1004,1004,1004,1004,1004,1004,1001,1001,1001,1001,1001,1001,1001,1001,1001,1001,1001,1001,1001,1001,998,998,998,1001,998,998,998,998,995,995,998,995,995,995,995,995,995,995,995,995,995,995,995,992,992,992,992,992,992,992,992,992,992,992,992,992,992,992,992,992,992,989,989,989,992,992,992,992,989,989,989,989,989,989,989,989,989,989,0,0,0,0,0,0,0,823,823,823,823,823,825,827,827,827,829,829,831,833,833,835,835,837,837,839,839,839,839,981,981,978,978,978,981,981,981,981,981,981,981,981,981,978,978,981,981,978,978,978,978,978,978,978,978,978,978,978,978,978,978,978,978,978,978,978,978,978,975,975,975,975,975,975,975,975,975,975,975,975,975,975,975,975,973,973,973,975,975,975,973,973,973,973,970,970,970,970,970,970,970,970,970,967,967,967,967,967,967,967,967,967,967,967,967,967,967,967,967,967,964,964,967,967,967,967,967,967,967,964,964,964,964,964,964,964,964,964,964,964,964,964,964,964,964,964,959,959,959,959,959,959,959,959,959,959,959,959,959,959,959,959,959,959,962,959,959,959,959,959,959,959,959,959,959,959,959,956,956,956,956,956,956,959,959,959,959,959,959,959,959,959,959,959,959,959,959,959,956,956,956,956,954,954,954,954,954,951,951,951,951,954,954,954,954,954,954,954,951,951,951,951,951,948,948,948,948,948,948,948,948,948,948,948,948,948,948,948,948,948,948,948,951,951,951,948,948,948,948,948,946,946,946,946,948,946,946,946,946,946,946,943,943,943,943,943,943,943,943,940,940,943,943,943,943,943,943,943,943,943,943,940,940,940,940,940,940,940,938,938,938,935,935,935,935,935,935,938,938,938,938,938,938,938,938,938,935,935,935,935,935,935,935,935,935,935,935,935,935,935,933,933,933,933,933,933,933,933,933,933,933,930,930,930,930,930,930,930,928,928,930,930,928,928,928,928,928,928,928,930,930,930,930,930,928,928,925,925,925,925,925,925,925,925,925,925,928,880,880,880,880,880,880,880,880,882,882,882,882,882,882,809,809,807,805,803,803,803,802,802,800,796,794,792,790,790,790,790,790,790,790,790,792,792,794,794,792,792,794,792,792,790,790,790,792,792,792,792,794,794,794,794,794,821,0,821,819,817,817,815,815,813,813,811,811,809,807,805,805,805,803,802,798,798,796,796,796,794,792,790,789,787,785,783,781,778,774,773,773,0,0,0,0,0,0,0,0,0,0,0,0,0,0,0,0,0,0,0,0,0,0,0,0,0,0,0,0,0,0,0,0,0,0,0,0,0,0,0
0,0,0,0,1013,1013,1013,1013,1013,1013,1013,1013,1013,1013,1013,1013,1013,1013,1013,1010,1010,1010,1010,1010,1010,1007,1007,1007,1007,1007,1007,1004,1004,1004,1004,1004,1001,1001,1001,1001,1001,1001,998,998,1001,1001,1001,1001,1001,1001,1001,1001,1001,998,998,1004,1004,1004,1001,1001,1001,1001,1001,1001,1001,1001,1001,1001,1001,1001,1001,1001,998,998,998,998,998,998,998,998,998,998,998,998,998,998,998,995,995,995,992,992,992,992,995,995,992,992,992,992,992,992,992,992,992,992,992,992,992,989,989,989,989,989,989,989,992,992,992,992,992,989,989,989,989,987,987,987,987,989,989,989,989,989,989,989,989,989,989,989,989,987,987,0,0,0,0,0,0,823,823,823,825,825,825,827,827,827,829,831,831,833,835,835,837,839,839,839,839,839,839,978,978,978,978,978,978,978,978,978,978,978,978,978,978,978,978,978,978,975,975,975,975,975,975,975,975,975,975,975,975,975,975,975,975,975,975,975,975,975,973,973,973,973,973,973,973,973,973,973,973,973,973,973,973,975,973,973,973,973,973,975,973,970,970,970,970,970,970,970,970,970,970,967,967,967,967,967,967,967,967,964,964,964,964,964,964,964,964,964,964,964,964,964,964,964,964,964,964,964,964,964,964,964,964,964,964,962,962,962,962,962,962,962,962,962,962,959,959,956,956,956,956,956,956,956,956,956,959,959,959,959,956,956,956,956,959,959,959,959,959,959,959,959,956,956,956,956,956,956,956,956,956,956,956,956,956,956,956,956,956,956,956,956,956,956,954,954,954,954,954,954,954,954,951,951,954,951,951,951,948,948,951,951,951,951,951,951,951,951,948,948,948,948,948,948,948,946,946,946,946,946,946,946,946,946,946,946,946,946,946,946,946,948,946,946,948,948,948,948,946,946,946,946,946,946,946,946,946,946,946,943,943,943,943,940,940,943,943,943,940,940,940,940,940,940,940,940,940,940,940,940,938,938,938,938,938,938,938,938,938,938,935,935,935,933,933,933,933,933,933,935,935,935,935,935,935,935,935,935,935,935,935,935,935,935,935,935,933,933,933,933,930,930,928,928,930,930,930,930,930,930,930,928,928,928,928,928,928,928,928,928,928,928,925,925,925,925,928,925,925,928,925,925,928,928,928,928,925,925,925,925,923,923,925,925,925,925,925,878,878,880,880,880,880,880,880,882,882,882,885,885,813,809,809,807,805,803,803,803,802,802,802,800,796,792,792,790,790,790,790,790,790,790,792,792,792,794,792,792,794,794,792,790,790,790,792,792,792,792,792,792,792,792,792,0,817,0,817,817,817,815,815,813,813,811,809,807,805,805,805,803,802,800,798,796,796,794,794,792,790,790,789,787,785,781,780,776,774,771,771,0,0,0,0,0,0,0,0,0,0,0,0,0,0,0,0,0,0,0,0,0,0,0,0,0,0,0,0,0,0,0,0,0,0,0,0,0,0,0
0,0,0,0,1013,1013,1013,1013,1013,1013,1013,1013,1013,1013,1013,1013,1010,1010,1010,1007,1007,1007,1007,1007,1007,1004,1004,1004,1004,1004,1004,1001,1001,1001,1001,1001,998,998,998,998,998,998,998,998,998,998,998,998,998,998,998,998,998,998,998,995,995,998,998,998,998,998,998,998,998,995,995,998,998,998,998,998,998,995,995,995,995,995,992,992,992,992,995,998,995,995,992,992,992,992,992,992,992,992,992,992,992,992,992,992,992,989,989,992,992,992,989,989,989,989,989,989,989,989,989,989,989,989,989,989,989,987,987,987,987,987,987,987,987,987,987,987,987,987,987,987,989,989,987,987,987,984,984,0,0,0,0,0,0,823,823,825,825,825,827,827,827,829,831,833,833,835,835,837,837,839,839,839,841,841,841,978,978,978,978,978,978,978,975,975,975,975,978,978,978,978,975,975,975,975,975,975,975,975,975,975,975,975,975,975,973,973,970,970,973,975,975,973,973,973,973,973,973,973,970,970,970,970,970,970,970,970,970,970,970,973,970,970,970,970,970,973,970,970,970,970,967,967,967,967,967,967,967,967,964,964,964,964,964,964,964,964,964,964,964,964,964,964,964,962,962,962,962,962,962,962,962,962,962,962,962,964,962,962,962,962,962,959,959,959,959,959,959,959,959,959,959,959,956,956,956,956,956,956,956,956,956,956,956,956,956,956,956,956,956,956,956,956,956,956,956,956,956,956,956,956,956,956,956,954,954,954,954,954,954,954,954,954,954,954,954,954,954,954,954,954,951,951,951,951,951,951,951,951,948,948,951,951,948,948,948,948,948,948,948,948,946,946,948,948,948,946,946,946,946,946,946,946,943,943,946,946,946,946,946,946,946,946,946,946,946,946,946,946,946,946,946,943,943,943,946,943,943,943,943,943,943,943,940,940,940,940,940,938,938,940,940,940,940,940,940,938,938,938,938,938,938,938,938,938,938,938,938,935,935,938,938,938,938,938,938,938,935,933,933,933,933,933,933,933,933,933,933,933,935,935,935,933,933,933,933,933,933,933,933,933,933,933,933,933,933,930,928,928,928,928,928,928,928,928,928,928,928,928,925,925,928,928,928,928,928,928,928,928,925,925,925,925,925,923,923,923,923,923,925,925,925,925,925,923,923,923,923,923,923,923,923,923,925,878,878,880,880,880,880,880,880,880,882,882,885,885,813,813,811,807,805,805,805,803,803,803,802,802,800,796,794,792,790,790,790,790,790,790,792,792,792,792,792,792,792,792,792,790,790,790,792,792,792,792,792,792,792,792,0,0,0,0,817,817,817,815,815,813,813,811,809,807,805,803,803,803,802,798,798,796,794,794,792,792,790,789,787,787,783,780,776,774,773,771,771,0,0,0,0,0,0,0,0,0,0,0,0,0,0,0,0,0,0,0,0,0,0,0,0,0,0,0,0,0,0,0,0,0,0,0,0,0,0,0
0,0,0,0,1013,1013,1013,1013,1013,1013,1013,1010,1010,1013,1010,1010,1010,1010,1007,1007,1007,1004,1004,1004,1004,1004,1004,1004,1004,1004,1001,1001,1001,1001,1001,998,998,998,998,998,998,995,995,995,998,998,998,995,995,998,995,995,995,995,995,995,995,995,995,995,992,992,995,995,995,995,995,995,995,995,995,995,995,992,992,992,992,992,989,989,989,992,992,992,992,992,992,992,992,992,989,989,989,989,989,989,989,989,989,989,989,989,989,989,989,989,989,987,987,987,987,987,987,987,987,987,987,987,987,987,987,987,984,984,984,984,984,984,984,984,984,984,984,984,984,984,981,981,981,984,981,981,981,981,981,0,0,0,0,0,825,825,825,827,827,827,827,829,831,833,833,835,835,837,839,839,839,841,841,841,841,978,978,975,975,975,975,975,975,975,975,975,975,975,975,975,973,973,975,973,973,973,973,973,973,973,973,973,973,973,970,970,970,970,970,970,970,970,970,973,970,970,970,970,970,970,970,967,967,967,967,967,967,967,967,967,967,967,967,967,967,967,967,967,967,967,967,967,967,967,964,964,964,964,964,964,962,962,962,962,962,962,962,962,962,962,962,962,962,959,959,959,959,959,959,959,959,959,959,959,959,959,959,959,959,959,959,959,956,956,956,956,956,956,956,956,956,956,956,954,954,954,954,954,954,954,954,954,956,956,956,954,954,954,954,954,956,954,954,954,954,954,954,954,954,954,954,954,954,951,951,951,951,951,954,954,954,954,954,954,951,951,951,948,948,951,948,948,948,948,948,948,948,948,948,948,948,948,948,948,946,946,946,946,946,946,943,943,946,946,946,946,946,946,946,946,943,943,943,943,943,943,943,943,943,943,943,943,943,943,943,940,940,940,940,940,940,940,940,940,940,940,940,940,940,940,940,940,938,938,938,938,938,938,938,938,938,938,938,938,938,938,938,938,938,935,935,935,935,935,935,935,935,935,935,935,935,935,935,935,935,935,935,933,933,930,930,930,930,930,930,933,933,933,930,930,933,933,933,930,930,933,930,930,930,933,933,930,930,930,930,930,928,928,928,928,928,925,925,925,925,925,925,925,925,925,925,925,925,925,925,925,925,925,923,923,923,923,923,920,920,920,920,920,920,920,920,920,920,920,923,920,920,920,923,923,923,923,925,878,878,880,880,880,880,880,880,880,880,882,882,815,815,813,811,809,807,807,807,805,805,803,803,803,803,802,800,794,792,792,792,792,790,790,792,792,792,792,790,790,792,792,790,790,790,790,790,790,790,790,790,792,792,0,0,0,0,0,0,817,817,815,813,813,813,811,807,805,805,803,803,803,800,798,796,794,792,792,790,790,789,787,785,783,776,776,776,774,773,771,771,0,0,0,0,0,0,0,0,0,0,0,0,0,0,0,0,0,0,0,0,0,0,0,0,0,0,0,0,0,0,0,0,0,0,0,0,0,0,0
0,0,0,0,1013,1013,1013,1010,1010,1010,1010,1010,1010,1010,1010,1007,1007,1007,1004,1004,1001,1001,1001,1001,1004,1001,1001,1001,1001,1001,998,998,998,998,998,998,998,995,995,995,995,995,995,995,995,995,995,995,995,995,995,995,995,995,995,995,995,995,992,989,989,989,992,992,989,989,992,995,995,992,992,995,992,992,989,989,989,989,989,989,989,989,989,989,989,989,989,989,989,989,989,989,989,989,989,989,989,989,987,987,989,987,987,989,989,989,987,987,987,987,987,987,987,987,987,987,987,987,984,984,984,984,984,984,984,984,984,981,981,984,984,981,981,981,981,981,978,978,978,978,975,975,975,978,978,0,0,0,0,0,825,825,827,827,827,827,829,831,831,833,833,835,835,837,839,839,841,841,841,841,841,975,975,975,975,973,973,973,973,973,973,973,973,973,973,973,970,970,970,970,970,970,970,970,970,970,970,970,970,970,970,967,967,967,970,970,970,970,967,967,967,967,967,967,967,967,967,967,967,967,964,964,964,964,964,964,964,964,964,964,962,962,964,964,964,964,964,964,964,964,962,962,959,959,962,962,959,959,959,959,959,959,959,959,959,959,959,959,959,956,956,956,956,956,956,956,956,956,956,956,956,956,956,956,956,956,956,956,956,954,954,954,954,954,956,954,954,954,954,954,951,951,951,951,951,954,954,954,954,954,954,954,954,954,954,954,954,954,954,951,951,951,951,951,951,951,951,951,951,948,948,948,948,951,951,951,951,951,951,951,951,951,948,948,948,948,948,948,948,948,948,948,948,946,946,946,946,946,946,946,946,946,946,946,943,943,943,943,946,946,946,943,943,943,943,943,943,940,940,940,940,940,940,940,940,940,943,943,940,940,940,938,938,938,938,938,938,938,938,938,938,938,938,938,938,938,938,938,938,935,935,935,935,935,935,935,935,935,935,938,935,935,935,935,935,935,933,933,933,933,933,933,933,933,933,933,933,933,933,933,933,933,933,930,930,930,928,928,930,930,930,930,930,930,928,928,928,928,928,930,928,928,930,930,930,930,930,928,928,928,928,928,925,925,925,925,925,925,923,923,923,923,920,920,923,923,923,925,925,925,925,925,925,923,923,920,920,920,920,918,918,918,918,918,918,918,918,918,918,918,918,918,918,918,920,920,920,920,923,878,878,880,880,880,880,880,880,880,880,880,815,815,815,813,813,811,809,809,809,807,807,805,805,805,803,803,802,800,798,794,794,792,792,792,792,792,792,792,790,790,792,790,790,790,790,790,790,790,790,790,790,790,906,0,0,0,0,0,0,817,817,813,813,811,811,807,805,805,803,802,802,802,800,796,794,792,792,792,790,789,789,787,783,780,776,774,774,774,773,771,771,0,0,0,0,0,0,0,0,0,0,0,0,0,0,0,0,0,0,0,0,0,0,0,0,0,0,0,0,0,0,0,0,0,0,0,0,0,0,0
0,0,0,0,1010,1010,1010,1010,1010,1010,1010,1010,1010,1010,1010,1007,1004,1004,1004,1001,1001,1001,998,998,998,998,1001,998,998,998,998,998,998,998,998,995,995,995,995,995,992,992,992,992,992,992,992,992,992,992,992,992,992,992,992,992,992,992,992,989,989,989,989,989,989,989,989,989,992,989,989,992,992,989,989,989,987,987,987,987,987,987,989,989,989,987,987,987,987,987,987,987,987,987,987,987,987,987,987,987,987,987,987,987,987,987,987,987,987,984,984,984,984,984,984,984,984,984,984,984,984,984,984,981,981,981,981,981,981,981,981,981,981,978,978,978,978,978,975,975,975,975,975,975,975,975,0,0,0,0,827,827,827,827,827,829,829,831,833,833,835,835,837,837,839,841,841,841,841,843,843,975,975,975,973,973,973,970,970,970,970,970,970,970,970,970,970,967,967,970,970,970,970,970,970,970,967,967,967,967,967,967,967,967,967,967,967,967,964,964,964,964,964,964,962,962,964,964,964,964,964,964,964,964,962,962,962,962,962,962,959,959,959,962,962,962,962,962,959,959,959,959,959,959,959,959,959,959,959,959,959,956,956,956,956,956,956,956,956,956,956,956,956,954,954,954,954,954,954,954,954,954,954,954,954,954,954,954,954,954,954,954,954,954,954,954,954,954,951,951,951,948,948,948,948,951,951,951,954,954,951,951,951,951,951,951,951,951,948,948,948,948,948,948,948,948,948,948,948,948,948,948,948,948,948,948,948,948,948,948,948,948,948,946,946,946,946,946,946,946,946,946,946,946,946,946,946,946,943,943,943,943,943,943,940,940,940,940,943,943,943,940,940,943,943,940,940,940,938,938,938,938,938,938,938,938,938,938,938,938,938,938,938,935,935,935,935,935,935,935,935,935,935,935,935,935,933,933,935,935,935,935,935,935,933,933,933,933,935,935,935,935,933,933,933,930,930,930,930,928,928,930,930,930,930,930,930,930,930,930,930,930,930,928,928,928,928,928,928,928,928,928,928,928,928,925,925,925,925,925,925,925,928,928,928,928,928,928,928,928,925,925,923,923,923,923,923,923,923,923,923,920,920,920,920,920,920,920,920,923,923,923,923,923,920,920,920,918,918,918,915,915,915,915,915,915,918,918,918,918,918,915,915,915,918,918,918,918,918,880,880,880,878,878,878,878,878,880,880,815,815,815,815,813,813,811,811,811,811,809,809,807,807,805,805,803,803,802,802,798,796,794,792,792,792,792,792,792,789,789,790,790,790,790,790,790,790,790,790,790,790,906,906,908,908,0,0,0,0,0,0,813,809,809,809,807,805,803,803,802,802,800,798,796,792,792,790,790,789,789,787,785,781,778,774,774,773,773,771,769,769,0,0,0,0,0,0,0,0,0,0,0,0,0,0,0,0,0,0,0,0,0,0,0,0,0,0,0,0,0,0,0,0,0,0,0,0,0,0,0
0,0,0,0,1010,1010,1010,1010,1010,1010,1007,1007,1007,1007,1007,1007,1004,1004,1004,1001,1001,1001,998,998,998,998,998,998,998,998,998,995,995,995,995,995,992,992,992,992,992,992,992,992,989,989,989,989,989,989,989,989,992,992,992,992,992,992,989,987,987,987,987,987,987,989,989,989,989,989,989,989,987,987,987,987,987,987,987,987,987,987,987,987,987,987,984,984,984,984,984,984,984,984,987,987,984,984,984,984,984,984,984,984,984,984,984,984,984,981,981,981,981,981,981,981,981,981,981,981,981,981,981,981,981,981,981,978,978,978,978,978,978,978,978,975,975,975,975,975,975,975,975,975,975,975,0,975,0,0,829,829,829,829,829,829,831,833,833,835,835,835,837,837,839,841,841,841,843,843,843,975,975,973,973,970,970,970,967,967,967,967,967,967,967,967,967,967,967,967,967,967,967,967,967,967,967,967,964,964,964,964,964,964,964,964,964,964,962,962,964,962,962,962,959,959,959,959,959,962,962,962,962,962,962,959,959,959,959,959,956,956,956,959,956,956,956,956,956,956,956,956,956,956,956,956,956,956,956,956,956,956,956,956,956,956,954,954,954,954,954,954,954,954,954,951,951,951,951,951,951,951,951,951,951,951,951,951,948,948,951,951,951,951,954,951,951,951,948,948,948,946,946,946,946,946,948,948,948,948,948,946,946,946,946,948,948,948,948,948,948,948,946,946,946,948,946,946,946,948,948,948,948,948,948,948,948,948,946,946,946,946,946,946,946,946,943,943,943,943,943,943,943,943,943,943,943,943,943,943,940,940,943,940,940,940,938,938,940,940,940,940,940,940,940,940,938,938,938,938,938,938,938,938,938,938,938,938,938,938,938,935,935,935,935,935,933,933,933,935,935,933,933,933,933,933,933,930,930,933,933,933,933,933,930,930,930,930,933,930,930,930,930,930,930,928,928,928,928,928,928,928,928,928,928,928,928,928,928,928,928,928,928,928,928,928,925,925,928,925,925,925,925,925,925,925,923,923,923,923,923,923,920,920,923,925,923,923,925,925,923,923,920,920,920,920,920,920,920,920,920,918,918,918,918,918,918,918,920,920,920,920,920,920,918,918,918,918,915,915,915,915,915,915,915,915,915,915,915,915,915,915,913,913,913,913,915,915,913,880,880,880,878,878,878,878,878,819,819,819,815,815,815,815,813,813,813,811,811,811,809,809,807,807,807,803,803,802,802,798,798,800,800,898,898,901,901,898,789,789,790,792,790,790,790,790,790,906,906,906,906,906,906,906,906,0,0,0,0,0,0,0,809,809,807,805,803,803,802,802,800,800,796,794,790,790,789,789,789,787,785,783,781,776,774,774,773,771,769,769,769,0,0,0,0,0,0,0,0,0,0,0,0,0,0,0,0,0,0,0,0,0,0,0,0,0,0,0,0,0,0,0,0,0,0,0,0,0,0,0
0,0,0,1010,1010,1010,1010,1010,1007,1007,1004,1004,1004,1004,1004,1004,1001,1001,1001,1001,998,998,995,992,992,995,995,995,995,998,995,992,992,992,992,992,992,992,992,992,989,989,989,989,989,989,987,987,987,987,987,989,989,989,989,989,989,989,987,987,984,984,984,984,984,987,987,987,987,987,987,987,987,984,984,984,984,984,984,984,984,987,987,987,987,987,984,984,984,984,984,984,984,984,984,984,981,981,981,981,981,981,981,981,981,984,981,981,981,978,978,978,978,978,978,978,978,978,978,978,978,978,978,978,978,978,978,978,978,978,978,978,975,975,975,975,975,975,973,973,975,973,973,973,973,973,975,0,0,0,829,829,829,829,829,831,831,833,835,835,835,837,837,837,839,841,841,843,843,843,843,975,975,973,973,970,967,967,967,967,967,967,967,964,964,964,964,964,964,964,964,964,964,964,964,964,964,964,964,964,964,962,962,962,962,962,962,962,962,962,962,962,959,959,956,956,956,956,956,956,956,956,959,959,959,959,956,956,956,956,956,956,956,956,956,954,954,954,954,954,954,954,954,954,956,954,954,954,954,954,954,954,954,954,954,954,954,954,954,954,954,954,951,951,951,951,948,948,948,948,948,948,948,948,948,948,948,948,948,948,948,948,948,948,948,948,948,948,946,946,946,943,943,946,946,946,946,946,946,946,946,946,943,943,943,946,946,946,946,946,946,946,946,946,946,946,946,943,943,946,946,946,946,946,946,946,946,943,943,946,946,943,943,943,943,943,940,940,940,940,940,940,940,938,938,938,938,940,940,938,938,938,938,938,938,938,938,938,938,938,938,938,938,938,938,938,938,938,935,935,935,935,935,935,935,935,935,935,935,935,935,933,933,933,933,933,933,930,930,933,930,930,930,930,930,930,930,930,930,930,930,930,930,930,930,930,928,928,928,928,928,928,928,928,928,925,925,925,925,925,925,925,925,925,928,928,928,928,928,928,925,925,925,925,925,925,925,925,925,925,925,923,923,920,920,920,920,920,923,920,920,920,920,920,920,920,920,920,920,923,920,920,920,920,920,918,918,918,918,918,918,918,918,918,918,918,918,918,918,918,918,918,918,918,918,915,915,915,915,915,913,913,913,913,913,913,915,913,913,913,913,913,910,910,910,910,910,913,910,880,880,878,878,878,878,878,819,819,819,819,817,817,815,815,815,813,813,813,811,811,811,809,809,809,807,805,805,803,802,802,802,802,898,898,898,898,901,898,898,898,898,792,790,790,790,901,901,903,903,906,906,906,906,906,906,0,0,0,0,0,0,0,0,0,807,805,803,803,802,800,800,796,794,792,790,789,789,789,787,785,783,781,776,776,774,774,773,771,769,769,769,0,0,0,0,0,0,0,0,0,0,0,0,0,0,0,0,0,0,0,0,0,0,0,0,0,0,0,0,0,0,0,0,0,0,0,0,0,0,0
0,0,0,1007,1007,1007,1007,1007,1007,1004,1004,1001,1001,1004,1004,1004,1001,1001,1001,998,998,995,992,989,989,992,992,992,992,992,992,992,989,989,989,989,989,989,989,989,989,989,987,987,987,987,987,987,987,987,987,987,987,987,987,987,987,987,984,984,984,984,981,981,981,981,984,984,984,984,984,984,984,981,981,981,981,981,981,981,981,981,981,984,984,984,981,981,981,981,981,981,981,981,981,981,978,978,978,978,981,978,978,978,978,978,978,978,978,975,975,975,975,975,973,973,975,975,975,975,978,978,978,978,975,975,975,975,975,975,975,975,973,973,973,973,973,973,973,973,973,973,973,973,973,973,975,0,0,0,0,833,831,831,831,831,833,833,835,835,835,837,837,839,839,841,843,843,843,845,845,849,849,973,970,967,967,964,964,964,964,964,962,962,962,964,964,962,962,962,962,964,962,962,962,964,962,962,962,962,962,959,959,959,959,959,959,959,959,959,959,959,956,956,956,956,956,956,956,956,954,954,954,954,954,954,956,956,956,956,956,956,956,954,954,954,954,954,954,954,954,954,954,954,954,954,954,954,954,954,954,954,954,954,954,954,951,951,954,951,951,951,951,951,951,948,948,946,946,946,946,946,946,946,948,948,946,946,946,946,946,946,946,946,946,943,943,943,943,943,943,940,940,943,943,943,943,943,943,943,943,943,940,940,943,946,946,946,943,943,946,943,943,943,943,943,940,940,943,943,943,943,943,943,943,943,943,940,940,940,940,940,940,940,940,940,938,938,938,938,938,938,938,938,938,938,938,938,935,935,938,938,938,938,935,935,935,935,938,938,938,938,938,938,935,935,933,933,933,933,933,933,933,933,933,933,933,930,930,933,933,930,930,930,930,930,930,930,930,930,930,930,930,930,930,930,928,928,928,928,928,928,928,928,928,928,928,928,928,928,925,925,925,925,925,925,925,925,925,925,925,925,925,925,925,925,925,925,925,925,923,920,920,920,923,923,923,923,923,923,923,918,918,918,918,918,918,918,920,920,920,918,918,918,918,918,918,918,918,918,918,918,918,918,918,918,918,918,918,918,915,915,915,915,915,915,915,915,915,918,918,915,915,915,915,915,913,913,913,913,913,913,913,910,910,910,913,913,910,910,910,910,910,908,908,910,910,910,910,880,878,878,878,878,878,821,819,819,819,819,819,817,817,815,815,813,813,813,811,811,811,811,811,811,809,807,805,803,803,803,803,803,898,898,898,898,898,898,898,898,901,901,898,898,898,898,901,901,901,901,903,903,903,903,906,0,0,0,0,0,0,0,0,0,0,805,803,803,802,800,796,796,792,792,790,789,787,787,785,785,781,780,776,776,774,774,773,771,769,769,769,0,0,0,0,0,0,0,0,0,0,0,0,0,0,0,0,0,0,0,0,0,0,0,0,0,0,0,0,0,0,0,0,0,0,0,0,0,0,0
0,0,0,1004,1004,1004,1004,1001,1001,1001,1001,998,998,998,998,1001,998,998,998,995,992,992,989,989,989,989,989,989,989,989,989,989,989,987,987,989,989,989,989,989,987,987,984,984,987,987,984,984,984,984,984,984,984,984,984,984,984,984,984,981,981,981,981,978,978,978,978,978,978,978,981,981,978,978,978,978,978,978,978,978,978,978,978,978,978,978,978,978,978,978,978,978,978,978,978,978,978,978,975,975,978,978,978,978,978,978,978,975,975,973,973,973,973,973,970,970,973,973,973,973,975,975,975,975,975,975,975,973,973,973,973,973,970,970,973,973,970,970,970,970,973,973,973,970,970,970,970,970,964,835,835,835,833,833,833,833,833,833,835,835,835,837,837,839,841,841,843,845,845,847,847,849,849,967,967,967,964,964,964,964,962,962,959,959,959,962,962,959,959,959,959,962,959,959,959,962,962,962,962,959,959,959,959,956,956,956,956,956,956,956,956,956,956,956,956,956,954,954,954,954,954,954,954,954,951,951,954,954,954,954,954,954,954,954,954,954,954,951,951,951,951,951,951,951,951,951,951,951,951,951,951,951,951,951,951,951,951,951,951,951,951,951,948,948,948,946,946,946,946,946,946,946,946,946,946,946,946,943,943,943,943,943,943,943,943,940,940,940,940,940,940,938,938,940,940,943,943,940,940,943,943,940,938,938,940,943,943,943,940,940,943,943,940,940,940,940,938,938,940,940,940,940,938,938,940,940,940,938,938,938,938,938,938,938,938,938,938,935,935,935,935,938,938,935,935,935,935,935,935,935,933,933,935,935,935,935,935,935,935,935,935,935,935,935,933,933,930,930,933,930,930,930,930,930,930,930,930,928,928,928,928,928,928,928,928,928,928,928,928,928,928,928,928,928,928,928,928,928,928,928,928,925,925,925,923,923,923,923,925,925,925,925,925,925,923,923,923,923,923,925,925,925,925,925,925,923,923,923,923,923,920,920,918,918,920,918,918,918,918,918,915,915,915,915,915,915,915,915,918,918,918,918,915,915,915,915,915,915,915,915,915,915,915,915,915,915,915,915,915,915,915,915,915,915,913,913,913,913,913,915,915,915,913,913,913,913,910,910,910,910,910,910,910,908,908,910,910,910,908,908,908,908,908,908,908,908,908,908,910,880,878,878,878,878,878,821,821,819,819,819,819,819,817,815,815,813,813,813,813,813,813,813,811,811,811,811,807,805,803,802,802,803,898,898,898,898,898,898,898,898,898,898,898,898,898,898,898,901,901,901,898,898,898,901,0,0,0,0,0,0,0,0,0,0,0,0,803,803,800,796,794,792,792,790,789,789,787,785,785,783,781,780,776,774,774,774,773,771,769,767,767,0,0,0,0,0,0,0,0,0,0,0,0,0,0,0,0,0,0,0,0,0,0,0,0,0,0,0,0,0,0,0,0,0,0,0,0,0,0,0
0,0,0,1001,1001,1001,1001,1001,1001,1001,998,995,992,992,995,995,995,989,987,987,989,989,987,987,987,989,987,987,987,987,989,987,987,984,984,987,987,987,987,987,987,987,984,984,984,984,984,981,981,981,981,981,981,981,978,978,978,981,981,978,978,978,978,978,978,978,978,978,978,978,978,978,978,978,978,978,978,978,978,975,975,975,975,975,975,975,975,975,975,975,975,975,975,975,975,975,975,975,975,975,975,975,975,975,975,975,975,975,973,970,970,970,970,970,970,970,970,970,970,970,973,973,973,973,973,973,973,973,970,970,970,970,970,970,970,970,967,967,967,967,967,970,967,967,967,967,964,964,0,835,835,835,833,833,833,833,833,833,835,835,835,837,839,839,841,843,843,845,845,847,849,849,851,851,967,964,964,962,962,962,962,959,959,959,959,959,959,959,959,959,959,959,959,959,959,959,959,959,959,959,959,956,956,956,956,956,954,954,954,954,956,956,956,956,954,954,954,954,954,954,951,951,951,951,948,948,951,951,951,951,951,951,951,954,951,951,951,951,951,951,951,951,951,951,948,948,948,948,948,948,948,948,948,948,948,948,948,948,948,948,946,946,946,946,946,946,946,946,946,946,943,943,943,943,943,943,943,940,940,940,938,938,938,938,938,938,938,938,938,938,938,935,935,938,938,938,940,940,940,940,940,938,935,935,938,940,940,940,938,938,940,940,938,938,938,938,938,938,938,938,938,938,938,938,938,938,938,938,938,938,938,938,935,935,935,935,935,935,935,935,935,935,935,933,933,933,933,933,935,933,933,933,933,933,933,933,933,933,933,933,933,930,930,930,930,930,928,928,928,928,928,928,928,928,928,928,928,928,928,928,928,928,928,928,928,928,928,925,925,925,925,925,925,925,925,925,925,925,925,925,925,925,923,923,923,923,923,923,920,920,920,923,923,923,923,923,923,923,923,923,923,923,923,923,923,923,923,920,920,920,918,918,918,918,918,918,918,915,915,913,913,913,913,913,913,913,915,915,915,915,915,915,915,915,915,915,915,915,915,915,915,913,913,913,913,913,913,913,913,913,913,913,913,913,913,913,913,913,913,913,913,910,910,910,910,910,910,908,908,908,908,908,908,908,908,908,908,908,908,906,906,908,908,908,908,906,906,908,908,880,878,878,875,875,875,821,821,821,819,819,819,819,817,815,815,815,815,813,813,813,813,813,813,813,811,811,807,805,803,802,802,803,898,898,898,898,898,898,898,898,898,898,898,898,898,898,898,898,898,898,898,898,896,896,896,896,0,0,0,0,0,0,0,0,0,0,0,0,796,794,792,792,790,790,789,787,785,785,783,783,780,776,774,774,773,773,771,769,767,766,766,0,0,0,0,0,0,0,0,0,0,0,0,0,0,0,0,0,0,0,0,0,0,0,0,0,0,0,0,0,0,0,0,0,0,0,0,0,0,0
0,0,0,998,998,998,998,995,995,998,998,995,992,992,992,989,987,987,984,984,987,987,987,987,987,987,987,987,984,984,984,984,984,981,981,981,981,984,984,984,984,984,981,981,981,981,981,978,978,978,978,978,978,978,978,978,978,978,978,978,978,978,975,975,975,975,975,975,975,975,975,975,975,975,975,975,975,975,975,975,975,975,975,973,973,973,973,973,973,973,973,973,975,975,975,975,975,975,975,973,973,973,973,973,973,973,973,973,970,970,970,967,967,967,967,967,967,970,970,970,970,970,970,970,970,970,970,967,967,967,967,967,967,967,967,967,967,967,964,964,967,967,967,964,962,962,962,962,0,835,835,835,833,833,833,833,835,835,835,835,837,837,839,841,841,843,845,847,847,847,849,849,851,851,962,962,962,962,962,962,959,959,956,956,956,956,956,956,956,956,956,956,956,956,956,956,956,956,956,956,956,956,956,954,954,954,954,954,951,951,954,954,954,954,954,954,951,951,951,951,948,948,948,948,946,946,948,951,951,951,951,951,951,948,948,948,948,948,948,948,948,948,948,948,948,946,946,946,946,946,946,946,946,946,946,946,946,946,946,946,943,943,943,946,943,943,943,943,943,943,943,943,943,943,940,940,940,940,940,938,938,938,935,935,938,935,935,935,935,935,935,935,935,935,935,935,935,935,935,938,938,935,935,935,935,938,938,938,938,938,938,938,938,938,935,935,935,935,935,935,935,935,935,935,938,938,938,938,935,935,935,935,933,933,933,933,933,933,933,933,933,933,933,933,933,933,933,933,933,933,930,930,930,933,930,930,930,930,930,930,930,930,930,930,928,928,928,928,928,928,928,928,928,928,928,928,928,928,925,925,925,925,925,925,925,925,925,925,923,923,925,925,925,925,925,925,925,925,923,923,923,923,920,920,920,920,920,920,920,920,920,920,920,920,920,920,920,920,920,923,923,920,920,920,920,920,920,920,918,918,918,918,918,918,918,915,915,915,915,913,913,910,910,910,910,913,913,913,913,913,913,913,913,913,913,913,913,913,913,913,913,913,913,910,910,908,908,910,910,910,910,910,910,910,910,910,910,910,910,910,910,910,910,910,908,908,908,908,908,908,908,908,908,906,906,906,906,906,906,903,903,906,906,906,906,906,906,906,878,878,878,878,875,875,878,821,819,819,819,819,819,819,817,815,815,813,813,813,813,813,813,813,813,813,813,811,807,805,803,802,802,898,898,898,898,898,898,898,898,898,898,898,896,896,896,896,896,896,896,896,896,896,896,894,894,889,889,0,0,0,0,0,0,0,0,0,0,0,796,794,792,790,790,789,787,787,785,783,783,781,780,776,774,773,773,771,769,767,766,764,764,0,0,0,0,0,0,0,0,0,0,0,0,0,0,0,0,0,0,0,0,0,0,0,0,0,0,0,0,0,0,0,0,0,0,0,0,0,0,0
0,0,0,995,995,995,995,995,995,995,995,992,989,989,989,987,987,987,984,984,987,987,984,984,984,984,984,981,978,978,981,981,981,978,978,978,981,981,981,981,981,981,978,978,978,978,978,978,978,978,978,978,978,975,975,975,975,975,975,975,975,975,975,975,973,973,973,973,973,975,975,975,975,975,973,973,973,973,975,973,973,973,973,973,970,970,970,970,970,970,970,970,973,970,970,970,970,973,973,973,973,973,970,970,970,973,970,970,970,967,967,967,967,967,967,967,967,967,967,967,967,967,967,967,967,967,967,967,967,967,967,967,967,967,967,967,964,964,964,964,964,964,962,962,959,959,959,962,962,839,839,835,835,833,833,835,835,835,835,837,837,839,841,841,843,843,845,847,847,849,849,851,851,851,962,962,962,959,959,959,956,956,956,954,954,954,954,951,951,951,951,954,954,954,954,954,954,954,954,954,954,954,954,954,954,951,951,951,951,951,951,951,951,951,951,951,951,948,948,948,946,946,946,946,946,946,946,946,948,948,948,948,948,946,946,946,946,946,946,946,946,946,946,946,946,946,946,943,943,943,943,943,943,943,943,943,943,943,943,943,943,943,943,943,943,943,943,943,943,943,943,943,943,940,940,938,938,938,938,935,935,935,935,935,935,935,935,935,935,935,935,935,935,935,935,935,935,935,935,933,933,935,935,935,935,938,938,938,935,935,935,935,935,935,935,935,935,935,935,935,935,935,935,935,935,935,935,935,935,935,933,933,933,930,930,930,930,930,930,930,930,930,930,930,930,930,930,930,928,928,928,928,928,928,928,928,928,928,928,928,928,928,928,928,928,928,928,928,925,925,925,925,925,925,925,925,925,925,925,925,925,925,925,923,923,923,923,923,923,923,923,923,923,923,923,923,923,923,920,920,920,918,918,918,918,918,918,918,918,918,918,918,918,918,918,918,918,920,920,920,920,920,918,918,918,918,918,918,918,918,918,915,915,915,915,913,913,913,910,910,910,910,910,910,910,910,910,910,910,910,913,913,913,913,913,913,913,913,913,910,910,910,910,910,908,908,908,908,908,908,908,908,908,908,908,908,908,908,908,908,910,910,908,908,908,908,908,908,908,906,906,906,903,903,901,901,901,901,901,903,903,903,903,903,903,903,903,903,878,878,878,878,875,875,821,821,819,819,819,819,819,819,817,815,815,813,813,813,813,813,813,813,813,813,813,813,811,807,803,803,898,898,898,898,898,898,898,898,896,896,896,896,896,896,896,896,896,896,896,894,894,894,891,891,891,889,889,889,0,0,0,0,0,0,0,0,0,0,796,792,790,790,789,789,787,785,783,783,781,781,780,776,774,773,771,771,769,767,766,764,764,0,0,0,0,0,0,0,0,0,0,0,0,0,0,0,0,0,0,0,0,0,0,0,0,0,0,0,0,0,0,0,0,0,0,0,0,0,0,0
0,0,0,995,995,995,995,992,992,995,992,992,989,989,989,987,987,984,984,984,984,984,984,984,978,978,978,978,978,975,975,975,978,978,978,978,978,978,978,978,981,981,978,978,978,978,975,975,975,975,975,975,975,975,975,975,975,975,975,975,975,975,973,973,970,970,970,973,973,973,973,973,973,973,973,970,970,973,973,973,973,973,970,970,970,967,967,967,970,967,967,967,970,967,967,967,967,967,967,967,967,970,970,970,970,970,970,970,967,967,967,967,967,967,967,967,967,967,967,967,967,967,967,967,967,964,964,964,964,964,964,964,964,964,964,964,964,964,962,962,962,959,959,959,959,956,956,959,959,839,839,837,835,835,835,835,835,835,835,837,837,839,841,843,843,843,845,847,847,849,849,851,851,854,959,959,959,959,956,956,956,954,954,954,951,951,951,951,951,951,951,951,951,954,954,951,951,951,951,951,951,951,951,951,951,948,948,948,948,948,948,948,948,948,948,948,948,946,946,946,946,946,946,946,943,943,946,946,946,946,946,946,946,946,946,943,943,943,943,943,943,943,946,946,943,943,943,943,943,943,943,943,943,943,940,940,940,940,940,940,940,940,940,940,940,940,940,943,943,940,940,940,940,940,938,938,935,935,935,935,935,935,935,935,935,935,935,935,933,933,933,933,933,933,933,933,933,933,933,933,933,933,930,930,933,935,935,935,935,935,935,933,933,935,935,935,935,935,935,935,933,933,933,933,933,933,933,933,933,930,930,930,930,930,928,928,928,928,928,928,928,928,928,928,928,928,928,928,928,928,925,925,925,928,925,925,925,925,925,925,925,925,925,925,925,925,925,925,925,925,925,925,925,925,925,925,925,925,925,923,923,923,923,923,923,923,923,923,920,920,923,920,920,920,920,923,923,918,918,918,918,918,918,915,915,915,915,915,915,915,915,915,918,918,918,918,915,915,918,918,918,918,918,918,918,915,915,915,915,915,915,915,915,915,915,913,910,910,910,910,910,908,908,908,908,908,908,908,908,910,910,910,910,910,910,910,910,910,910,908,908,908,908,908,908,908,908,906,906,906,906,906,908,908,908,908,906,906,906,908,908,908,908,908,906,906,906,906,906,906,906,903,901,901,901,901,898,898,898,901,901,901,901,901,901,901,898,880,878,878,878,878,875,875,821,821,821,819,819,819,819,819,817,815,815,813,813,813,813,813,813,813,813,813,813,813,813,813,809,809,894,896,896,896,896,896,896,896,896,896,896,896,894,894,894,894,894,894,894,891,891,891,891,889,889,887,887,887,887,0,0,0,0,0,0,0,0,0,0,792,790,789,789,789,787,785,783,783,781,781,776,774,773,771,769,769,769,766,764,762,762,0,0,0,0,0,0,0,0,0,0,0,0,0,0,0,0,0,0,0,0,0,0,0,0,0,0,0,0,0,0,0,0,0,0,0,0,0,0,0
0,0,0,992,992,995,992,992,992,992,989,989,987,987,987,987,984,984,984,984,984,981,981,981,978,978,978,978,978,975,975,975,978,978,978,978,978,978,978,978,978,978,975,975,975,975,975,975,973,973,973,973,973,973,973,973,973,973,973,973,973,973,973,973,970,970,967,967,970,970,970,970,973,973,970,970,970,970,970,970,970,970,970,970,970,967,967,967,967,967,967,967,967,967,964,964,964,964,964,964,964,964,964,964,967,967,967,967,967,967,967,964,964,964,964,964,964,964,964,964,964,964,964,964,962,962,962,962,962,962,964,964,962,962,962,962,962,962,962,959,956,956,956,956,956,956,956,956,956,837,837,837,837,835,835,835,835,837,837,839,839,841,843,843,843,845,845,847,849,849,851,851,854,854,856,959,956,956,956,954,954,954,954,951,948,948,948,948,948,948,948,948,948,948,948,948,948,948,948,948,948,948,948,948,948,946,946,946,946,946,946,946,946,946,946,946,946,943,943,943,943,943,943,943,943,943,943,943,943,943,943,943,943,943,940,940,943,940,940,940,940,940,940,940,940,943,943,940,940,940,940,938,938,938,938,938,938,938,938,938,938,938,938,938,938,938,938,940,940,938,938,938,938,935,935,935,935,935,935,935,935,933,933,933,933,933,933,933,933,933,933,933,933,933,933,930,930,933,933,933,933,930,930,930,930,933,930,930,933,933,933,930,930,933,933,933,933,933,933,933,933,933,930,930,930,930,930,930,930,930,930,928,928,928,928,928,928,928,928,925,925,925,925,925,925,925,925,925,925,925,925,925,925,925,925,925,925,925,925,925,925,925,923,923,923,923,923,923,923,923,923,923,923,923,923,923,923,923,923,923,923,923,920,920,920,920,920,920,920,920,920,920,920,918,918,920,920,918,918,918,918,915,915,915,915,915,915,915,915,915,915,915,915,915,915,915,915,915,913,913,913,915,915,915,915,915,915,915,913,913,913,913,913,913,913,910,908,908,908,908,908,908,908,908,908,908,908,908,908,908,908,908,908,908,908,908,908,908,906,906,906,906,906,906,906,906,906,906,906,906,906,906,906,906,906,906,906,906,906,906,906,906,906,906,906,906,906,906,903,903,903,901,901,898,898,898,898,898,898,898,898,898,898,898,898,898,896,880,878,878,878,878,875,823,823,821,821,821,821,819,819,817,817,815,815,813,813,813,811,811,811,813,813,813,813,813,813,813,813,894,894,894,894,894,894,894,894,894,894,891,891,891,891,891,891,891,891,891,891,891,889,889,889,889,889,887,887,887,887,887,887,0,0,0,0,0,0,0,0,0,790,789,789,789,787,785,783,783,781,781,776,774,773,771,769,767,767,766,762,762,762,0,0,0,0,0,0,0,0,0,0,0,0,0,0,0,0,0,0,0,0,0,0,0,0,0,0,0,0,0,0,0,0,0,0,0,0,0,0,0
0,0,0,989,989,992,992,989,989,989,989,989,987,984,984,987,984,981,981,981,981,981,978,978,978,978,978,978,975,975,978,975,975,975,975,975,975,975,975,975,975,975,975,975,975,975,973,973,973,973,970,967,967,967,967,967,967,970,970,970,970,970,970,970,967,967,964,964,964,967,964,964,967,967,967,967,967,967,967,967,967,967,967,967,967,967,967,967,967,964,964,964,964,962,962,962,962,964,964,964,964,964,964,964,964,964,964,964,964,964,964,964,964,962,962,964,962,962,964,964,962,962,962,959,959,959,959,959,959,959,962,962,959,959,959,959,959,959,959,956,956,956,956,956,954,954,954,954,954,954,837,837,837,837,837,837,837,839,839,839,841,843,843,843,845,845,847,849,849,849,851,851,854,854,856,954,954,954,951,948,948,951,951,948,948,948,948,948,948,946,946,948,948,946,946,946,946,946,946,946,946,946,946,946,946,943,943,943,943,943,943,943,943,943,943,943,943,943,943,943,940,940,940,943,940,940,940,940,940,938,938,940,938,938,938,938,938,938,938,938,938,938,938,938,938,938,938,938,938,938,938,935,935,935,935,935,935,935,935,935,935,935,935,935,935,935,935,935,935,935,935,933,933,935,935,933,933,935,935,933,933,933,933,933,933,933,933,933,933,933,933,930,930,930,930,928,928,930,930,930,930,930,930,930,930,930,930,930,930,930,930,930,930,930,930,930,930,930,930,930,930,930,930,930,928,928,928,928,928,928,928,928,928,925,925,925,925,925,925,925,925,925,925,925,925,923,923,923,923,923,923,923,923,923,923,923,923,923,923,923,923,923,923,923,923,920,920,920,920,920,920,920,920,920,920,920,923,923,920,920,920,918,918,918,918,918,918,918,918,918,920,918,918,918,918,918,918,915,915,915,915,915,913,913,913,913,913,913,913,915,913,913,915,913,913,913,913,913,913,910,910,910,910,910,913,913,913,913,913,910,910,910,910,910,910,908,908,908,908,908,906,906,906,908,908,908,906,906,906,908,906,906,906,906,906,906,906,906,903,903,903,903,903,903,903,903,903,903,903,903,903,903,903,903,903,906,906,906,906,903,903,901,901,903,903,903,903,903,903,903,901,898,898,898,898,898,898,898,898,898,898,896,896,898,898,898,896,882,823,823,878,875,873,821,821,821,821,821,821,821,819,817,817,815,815,813,813,811,811,811,811,811,811,811,813,813,813,813,813,894,894,894,894,894,894,894,891,891,891,891,891,891,889,889,889,889,889,889,889,889,889,889,889,889,887,887,887,887,887,887,885,885,887,889,889,0,0,0,0,796,790,789,789,789,787,785,783,783,781,781,776,776,774,771,769,767,766,764,762,761,761,0,0,0,0,0,0,0,0,0,0,0,0,0,0,0,0,0,0,0,0,0,0,0,0,0,0,0,0,0,0,0,0,0,0,0,0,0,0,0
0,0,0,987,987,989,989,989,987,987,987,987,978,978,978,978,978,981,978,978,978,978,978,978,978,975,975,975,975,975,975,975,975,975,975,975,975,973,973,975,975,973,973,975,973,973,970,967,967,967,964,964,967,967,967,967,967,967,967,967,967,967,967,967,967,962,962,962,964,964,962,962,964,964,964,964,964,964,964,964,964,964,964,964,964,964,964,964,964,962,962,959,959,959,959,959,959,959,959,959,962,962,962,962,962,962,962,959,959,959,959,959,962,959,959,959,959,962,962,962,959,959,959,956,956,956,956,956,956,959,959,959,959,959,956,956,956,956,956,956,954,954,954,954,954,954,954,954,954,954,839,839,839,837,837,839,839,841,841,841,841,843,843,843,845,845,847,849,849,851,851,851,854,856,858,954,954,951,948,946,946,946,946,946,946,946,948,946,946,946,946,946,946,946,946,946,946,943,943,943,943,943,943,943,943,943,943,940,940,940,940,940,943,943,943,940,940,940,940,940,938,938,940,940,940,940,938,938,938,935,935,935,935,935,935,935,938,935,935,935,935,935,935,935,935,935,935,935,935,935,935,935,935,935,935,935,935,935,935,935,935,933,933,933,933,933,933,930,930,930,930,930,930,933,933,933,933,933,933,933,933,933,933,933,933,933,933,933,930,930,930,928,928,928,928,928,928,928,928,930,928,928,928,928,928,930,928,928,928,928,928,928,928,928,928,928,928,928,928,928,928,928,928,928,928,928,925,925,925,925,925,925,925,925,925,925,925,925,925,923,923,923,923,923,923,920,920,920,920,920,920,920,920,920,920,920,920,920,920,920,920,920,920,920,920,918,918,918,918,918,918,918,918,918,918,918,918,918,918,918,918,918,918,918,918,918,918,918,915,915,915,915,915,915,915,915,915,915,915,913,913,913,913,913,910,910,910,910,913,913,910,910,913,910,910,910,910,910,910,908,908,908,908,908,908,908,908,910,908,908,908,908,908,908,908,908,908,908,908,906,906,906,906,906,906,906,906,906,906,906,906,906,906,906,906,903,903,903,901,901,901,901,901,901,901,901,901,901,901,901,901,901,901,903,903,903,901,901,901,901,901,898,898,898,898,898,898,898,898,898,898,898,898,898,896,896,896,896,896,896,896,896,896,896,898,896,823,823,823,821,821,875,871,821,821,821,821,821,821,821,817,817,815,813,813,811,811,811,811,811,811,811,811,811,811,811,811,811,811,811,891,891,891,891,891,891,889,889,889,889,889,889,889,889,889,889,889,889,889,889,887,887,887,887,887,887,885,885,885,885,882,882,885,885,889,0,0,0,0,796,792,789,789,789,787,787,785,783,783,781,780,776,774,769,769,766,766,764,762,761,761,0,0,0,0,0,0,0,0,0,0,0,0,0,0,0,0,0,0,0,0,0,0,0,0,0,0,0,0,0,0,0,0,0,0,0,0,0,0,0
0,0,0,984,984,987,987,987,984,984,984,984,978,978,978,978,978,978,978,978,978,978,975,975,975,975,973,973,973,973,975,975,973,973,973,973,973,973,973,973,973,970,970,973,970,970,967,967,964,964,964,964,964,964,967,964,964,967,967,967,967,967,964,964,962,959,959,959,959,959,959,959,959,962,962,962,962,962,962,962,962,962,962,962,962,962,962,962,962,962,959,959,959,956,956,956,956,956,956,956,956,956,959,959,956,956,956,956,956,956,956,956,956,956,956,956,959,959,959,959,956,956,956,954,954,954,954,954,956,956,956,956,956,956,954,954,954,954,954,954,954,954,954,954,954,951,951,951,954,954,841,841,841,839,839,839,839,841,841,841,841,843,843,845,845,847,849,849,849,851,851,854,854,856,858,860,948,948,946,946,946,946,946,946,946,946,946,946,946,946,946,946,946,946,946,943,943,943,943,943,943,943,940,940,940,940,940,940,940,940,940,940,940,940,940,940,940,938,938,938,935,935,935,938,938,935,935,935,935,935,935,935,935,935,935,935,935,935,935,935,935,935,935,935,933,933,933,935,935,933,933,933,933,930,930,933,933,933,933,933,933,933,933,930,930,930,930,930,930,928,928,928,928,930,930,930,930,930,933,930,930,930,930,930,930,930,930,930,928,928,928,925,925,925,928,925,925,925,928,928,925,925,925,925,925,928,928,928,928,928,925,925,925,925,923,923,925,925,925,925,925,925,925,925,925,925,925,923,923,923,923,923,923,923,923,925,923,923,923,923,923,920,920,920,920,920,920,918,918,918,918,918,918,918,918,918,918,918,918,918,918,918,918,918,918,918,918,918,915,915,915,913,913,913,913,915,915,915,915,915,915,915,915,915,915,915,915,915,913,913,913,913,913,910,910,910,913,913,913,913,913,913,910,910,910,910,910,910,910,910,910,910,910,910,910,910,908,908,908,908,908,908,906,906,906,906,906,903,903,906,906,906,906,906,906,906,906,906,906,906,906,906,906,906,906,906,903,903,903,903,903,903,901,901,903,901,901,901,898,898,898,898,898,898,898,901,901,898,898,901,901,901,901,901,901,901,898,898,896,896,896,896,896,894,894,894,894,896,894,894,896,896,896,896,896,896,896,896,896,896,896,896,896,896,896,896,823,821,821,821,821,871,867,821,821,821,821,821,821,821,817,817,815,813,813,811,811,811,811,811,811,811,811,811,811,811,811,811,811,811,889,889,891,889,889,889,889,889,889,889,889,889,887,887,887,887,887,887,887,887,887,887,887,887,887,887,885,885,885,882,882,882,882,882,885,0,0,0,0,0,0,789,789,789,787,787,785,785,783,783,781,776,774,769,767,766,766,764,762,761,761,0,0,0,0,0,0,0,0,0,0,0,0,0,0,0,0,0,0,0,0,0,0,0,0,0,0,0,0,0,0,0,0,0,0,0,0,0,0,0
0,0,0,984,984,987,987,984,984,981,978,978,978,978,978,978,978,978,978,978,978,975,975,973,973,973,973,973,970,970,973,973,973,973,970,970,967,967,967,967,970,967,967,970,967,967,964,964,964,964,964,964,964,964,962,962,964,964,967,967,964,964,964,964,962,956,956,959,959,959,959,959,959,959,959,959,959,959,959,959,956,956,956,956,959,959,959,959,959,959,956,956,956,956,956,956,954,954,956,956,954,954,956,956,954,954,954,954,954,954,954,954,954,954,954,954,954,954,956,956,956,956,956,954,954,954,954,954,954,954,954,956,956,956,954,954,954,954,954,954,951,951,954,954,951,948,948,948,948,946,841,841,841,841,841,841,841,841,841,841,843,843,845,845,845,847,849,849,851,851,854,854,856,858,858,860,860,946,943,943,943,943,943,943,943,943,943,946,946,943,943,943,943,943,943,943,943,940,940,940,940,940,938,938,938,938,938,938,938,938,938,938,938,938,938,938,938,938,938,935,935,935,935,935,935,933,933,933,933,933,933,933,933,933,933,933,933,933,933,933,933,933,933,933,933,930,930,933,933,933,930,930,930,928,928,928,928,930,930,930,930,930,930,930,928,928,928,928,928,925,925,925,925,928,928,928,928,930,930,930,930,928,928,928,930,928,928,928,928,928,925,925,925,925,925,923,923,925,925,925,923,923,923,923,923,925,925,925,925,925,925,923,923,920,920,920,920,920,920,923,923,923,923,923,923,923,923,920,920,920,920,920,920,920,920,923,923,923,920,920,920,920,918,918,918,918,920,918,918,918,918,918,918,915,915,915,915,915,915,915,915,915,918,918,918,915,915,915,915,913,913,913,913,910,910,910,910,913,913,913,913,913,913,913,913,913,913,913,910,910,910,908,908,908,908,908,908,910,910,910,910,910,910,910,908,908,908,908,908,908,908,908,908,908,908,908,908,908,908,908,906,906,906,906,906,903,903,901,901,901,901,901,903,903,903,903,903,903,903,903,903,903,903,903,903,903,901,901,901,901,901,901,898,898,901,901,898,898,898,898,898,898,898,898,898,898,898,898,898,898,898,898,898,898,898,898,898,896,896,896,894,894,894,891,891,891,891,891,891,891,891,894,894,894,894,894,894,894,894,894,896,894,894,896,896,896,891,819,819,819,823,869,867,867,821,821,821,821,821,821,817,817,813,813,813,811,811,811,811,811,811,811,811,811,811,811,811,811,811,811,889,889,889,889,889,889,889,889,887,887,887,887,887,887,887,887,887,887,887,887,887,885,885,885,885,885,882,882,882,882,882,882,882,882,885,0,0,0,0,0,0,0,0,789,789,787,785,785,783,783,781,776,774,769,767,766,766,764,762,761,761,0,0,0,0,0,0,0,0,0,0,0,0,0,0,0,0,0,0,0,0,0,0,0,0,0,0,0,0,0,0,0,0,0,0,0,0,0,0,0
