0,0,0,0,0,0,0,0,0,0,0,0,0,1794,1794,1804,1794,1794,1794,1794,1794,1794,1794,1794,1794,1794,1794,1794,1794,1794,1794,1794,1794,1794,1794,1794,1785,1785,1785,1785,1794,1794,1794,1794,1794,1794,1785,1785,1785,1785,1785,1785,1785,1785,1785,1785,1785,1776,1776,1776,1776,1776,1776,1776,1776,1776,1776,1766,1766,1776,1776,1776,1766,1766,1766,1766,1766,1766,1776,0,0,0,0,0,0,0,0,0,0,903,901,901,898,896,894,894,894,891,891,889,889,887,885,885,880,880,878,875,873,871,869,867,864,862,860,858,856,856,854,851,845,843,841,841,839,837,835,833,831,827,825,823,821,819,819,817,815,813,811,807,805,803,803,802,802,800,759,759,755,754,754,752,752,752,750,747,747,746,746,744,742,741,739,738,738,734,734,734,733,733,731,728,728,728,727,727,727,727,727,727,727,727,727,727,727,727,727,727,725,725,725,723,723,723,725,725,725,725,725,725,727,727,725,725,727,730,730,730,730,730,728,727,725,725,725,723,723,722,722,723,727,727,727,727,727,727,727,730,730,730,730,730,730,730,731,730,728,728,728,728,728,730,728,728,728,728,731,731,733,733,734,734,734,734,733,733,733,733,733,733,733,734,733,733,741,741,728,728,730,730,741,730,730,739,739,738,734,734,734,734,734,734,734,736,736,736,734,734,741,741,730,728,728,728,734,734,733,733,733,734,736,736,736,736,738,738,741,741,741,744,746,747,747,749,750,752,754,754,755,759,762,766,767,769,769,771,773,773,774,776,778,783,807,809,809,813,817,819,823,825,829,829,831,831,833,837,841,841,845,849,851,858,858,860,864,867,867,869,871,878,878,880,880,885,889,894,894,898,901,906,906,908,908,913,915,918,920,923,930,948,946,946,946,946,946,946,948,948,951,954,956,956,959,962,962,964,964,0,0,0,0,0,1536,1536,1543,1543,1543,1543,1536,1536,1529,1529,1529,1523,1523,1523,1523,1516,1516,1516,1516,1516,1509,1503,1503,1496,1496,1496,1496,1496,1489,1489,1489,1489,1489,1483,1477,1477,1477,1470,1470,1470,1470,1470,1464,1464,1464,1458,1458,1452,1452,1445,1445,1445,1445,1445,1439,1439,1439,1439,1433,1433,1427,1421,1421,1421,1421,1421,1415,1415,1415,1410,1410,1404,1404,1404,1404,1404,1404,1398,1398,1398,1398,1392,1392,1387,1387,1381,1381,1376,1376,1376,1376,1370,1370,1370,1370,1365,1359,1359,1354,1354,1354,1354,1354,1354,1354,1349,1349,1349,1349,1343,1338,1338,1333,1333,1328,1328,1328,1328,1328,1322,1322,1322,1317,1317,1312,1312,1312,1307,1307,1302,1302,1302,1297,1297,1292,1292,1292,1292,1292,1288,1288,1288,1288,1283,1283,1278,1278,1278,1273,1273,1273,1268,1268,1268,1268,1268,1268,1264,1264,1259,1255,1255,1255,1250,1250,1250,1250,1250,1245,1245,1241,1241,1236,1236,1236,1236,1236,1232,1232,1232,1232,1227,1223,1223,1223,1219,1219,1219,1219,1219,1214,1214,1214,1214,1210,1210,1206,1206,1202,1202,1202,1202,1202,1197,1197,1193,1193,1193,0,0,0,0,0,0,0,0,0,0,0,0,0,0,0,0,0,0,0,0,0,0,0,0,0,0,0,0,0,0
0,0,0,0,0,0,0,0,0,0,0,0,0,1794,1794,1804,1794,1794,1794,1794,1794,1794,1794,1794,1794,1794,1794,1794,1804,1804,1804,1794,1794,1794,1794,1794,1794,1794,1794,1794,1794,1794,1794,1794,1794,1794,1794,1794,1794,1794,1794,1785,1785,1785,1785,1785,1785,1776,1776,1776,1776,1776,1776,1776,1776,1776,1776,1776,1776,1776,1776,1776,1766,1766,1766,1766,1766,1766,1776,0,0,0,0,0,0,0,0,0,0,0,901,901,898,896,896,894,894,894,891,891,889,889,889,887,885,882,878,878,875,871,869,867,864,862,860,860,858,856,854,851,849,843,843,841,839,837,835,835,831,827,825,823,821,819,819,817,817,813,811,807,805,805,803,802,802,800,800,798,796,754,754,752,752,750,750,747,747,746,746,744,742,741,739,739,738,734,733,733,731,730,728,727,727,727,725,725,723,723,723,723,723,725,725,725,725,725,725,725,723,723,722,722,722,722,722,722,723,723,722,722,725,723,717,717,717,727,727,727,727,727,727,725,723,723,723,723,723,722,722,722,720,720,722,722,722,723,723,725,728,728,728,730,728,728,727,727,725,725,725,727,727,727,727,727,728,728,728,730,730,730,731,731,731,731,731,731,731,731,730,730,730,728,728,730,730,728,728,728,728,728,728,728,728,728,730,730,731,731,731,733,733,733,733,734,733,731,727,723,723,723,723,727,727,727,728,731,730,730,731,733,733,734,734,734,736,736,739,741,741,742,744,746,747,749,750,752,754,754,757,759,764,766,767,769,769,771,773,773,774,774,807,807,807,809,809,815,817,821,821,825,829,831,831,831,835,837,841,841,845,849,849,858,858,860,864,867,867,871,875,878,880,880,882,889,891,894,894,898,901,906,906,908,908,910,915,918,920,959,951,951,948,948,948,948,948,948,948,948,951,954,956,959,959,962,964,964,967,0,0,0,0,0,1536,1536,1543,1543,1543,1543,1543,1536,1529,1529,1529,1523,1523,1523,1523,1516,1516,1516,1516,1516,1509,1503,1503,1496,1496,1496,1496,1496,1489,1489,1489,1489,1489,1483,1477,1477,1477,1470,1470,1470,1470,1470,1464,1464,1464,1458,1458,1452,1452,1452,1445,1445,1445,1445,1439,1439,1439,1439,1439,1433,1427,1427,1421,1421,1421,1421,1415,1415,1415,1410,1410,1404,1404,1404,1404,1404,1404,1398,1398,1398,1398,1392,1392,1392,1387,1381,1381,1381,1376,1376,1376,1370,1370,1370,1370,1365,1365,1359,1359,1359,1354,1354,1354,1354,1354,1354,1349,1349,1349,1343,1338,1338,1333,1333,1328,1328,1328,1328,1328,1328,1322,1322,1317,1317,1312,1312,1312,1307,1307,1307,1307,1302,1302,1302,1297,1297,1292,1292,1292,1292,1288,1288,1288,1283,1283,1278,1278,1278,1273,1273,1273,1268,1268,1268,1268,1268,1268,1264,1264,1259,1255,1255,1255,1255,1250,1250,1250,1250,1245,1245,1241,1241,1241,1241,1236,1236,1236,1232,1232,1232,1232,1227,1227,1223,1223,1223,1219,1219,1219,1219,1214,1214,1214,1214,1210,1210,1206,1206,1206,1206,1202,1202,1202,1197,1197,1193,1193,1193,0,0,0,0,0,0,0,0,0,0,0,0,0,0,0,0,0,0,0,0,0,0,0,0,0,0,0,0,0,0
0,0,0,0,0,0,0,0,0,0,0,0,0,1794,1794,1804,1794,1794,1794,1794,1794,1794,1794,1794,1794,1794,1794,1804,1804,1804,1804,1804,1804,1804,1804,1804,1794,1794,1794,1794,1794,1794,1794,1794,1794,1794,1794,1794,1794,1794,1794,1785,1785,1785,1785,1785,1785,1776,1776,1776,1776,1776,1785,1776,1776,1776,1776,1776,1776,1776,1776,1776,1766,1766,1766,1776,1766,1766,1776,0,0,0,0,0,0,0,0,0,0,906,903,903,901,898,896,894,894,894,891,891,889,889,889,889,887,885,880,880,878,875,869,864,864,862,860,860,858,856,854,851,849,845,843,841,839,837,837,835,833,829,825,823,823,821,821,819,817,813,811,807,805,805,803,802,802,800,800,798,796,794,790,789,789,750,750,747,747,746,746,746,744,742,741,739,738,734,733,731,730,730,728,727,727,725,723,722,722,722,722,720,720,720,720,720,722,722,722,722,720,720,720,720,719,719,719,720,720,720,720,720,720,717,716,716,716,716,717,720,722,722,723,722,720,720,720,722,722,720,720,720,720,720,720,719,719,720,720,719,719,723,723,723,723,723,723,723,722,722,722,722,720,720,723,723,725,727,727,727,728,728,728,728,728,730,730,728,728,728,727,725,725,725,725,727,727,727,727,728,727,727,727,727,727,727,723,723,727,728,730,730,731,731,731,731,731,727,725,723,722,722,722,723,725,725,727,728,728,730,730,731,731,733,733,733,734,734,738,739,741,742,742,746,747,749,750,752,754,755,757,759,764,766,767,769,769,771,773,773,774,774,805,809,809,809,811,815,817,819,821,825,829,831,831,833,837,837,841,841,843,849,849,858,858,864,867,867,869,871,875,878,880,880,882,889,894,894,896,898,901,903,906,908,910,910,915,918,962,959,956,956,954,951,951,948,948,948,948,951,954,956,956,959,962,962,967,967,970,0,0,0,0,0,1536,1536,1543,1543,1543,1543,1543,1536,1536,1529,1529,1523,1523,1523,1523,1523,1516,1516,1516,1516,1509,1503,1503,1496,1496,1496,1496,1496,1496,1489,1489,1489,1489,1483,1483,1477,1477,1470,1470,1470,1470,1470,1464,1464,1464,1458,1458,1452,1452,1445,1445,1445,1445,1445,1445,1439,1439,1439,1439,1433,1427,1427,1427,1421,1421,1421,1421,1415,1415,1410,1410,1404,1404,1404,1404,1404,1404,1398,1398,1398,1398,1398,1392,1392,1387,1387,1381,1381,1376,1376,1376,1376,1370,1370,1370,1370,1365,1365,1359,1359,1359,1359,1359,1354,1354,1354,1349,1349,1349,1343,1338,1338,1333,1333,1333,1333,1328,1328,1328,1328,1322,1322,1317,1317,1312,1312,1312,1312,1307,1307,1307,1307,1302,1302,1302,1297,1297,1292,1292,1292,1288,1288,1288,1288,1283,1278,1278,1278,1273,1273,1273,1273,1268,1268,1268,1268,1268,1264,1264,1259,1255,1255,1255,1255,1250,1250,1250,1250,1250,1245,1245,1241,1241,1241,1236,1236,1236,1236,1232,1232,1232,1227,1227,1223,1223,1223,1219,1219,1219,1219,1214,1214,1214,1214,1210,1210,1210,1206,1206,1206,1202,1202,1202,1197,1197,1193,1193,1193,0,0,0,0,0,0,0,0,0,0,0,0,0,0,0,0,0,0,0,0,0,0,0,0,0,0,0,0,0,0
0,0,0,0,0,0,0,0,0,0,0,0,0,1794,1794,1804,1794,1794,1794,1794,1794,1794,1794,1794,1804,1804,1804,1804,1804,1804,1804,1804,1804,1804,1804,1804,1804,1804,1804,1804,1804,1804,1804,1804,1794,1794,1794,1794,1794,1794,1794,1794,1794,1785,1785,1794,1794,1794,1785,1785,1785,1785,1785,1776,1776,1776,1776,1776,1776,1776,1776,1776,1776,1776,1776,1776,1776,1776,1785,0,0,0,0,0,0,0,0,0,0,906,906,903,901,898,898,896,894,894,894,894,891,891,891,891,891,891,887,885,885,864,864,864,864,862,860,860,858,856,854,854,849,845,843,841,841,839,837,837,833,829,827,823,823,821,821,819,817,815,811,807,805,805,803,802,802,800,800,798,796,794,790,789,789,787,785,783,781,780,746,746,744,741,741,739,738,734,733,731,730,730,728,727,727,725,723,722,720,720,719,719,717,717,716,716,716,716,716,717,716,716,716,716,716,716,717,719,719,719,716,716,716,716,716,714,714,714,716,716,716,719,720,719,719,719,719,719,722,720,717,717,719,719,719,717,717,717,717,716,716,716,716,719,719,720,720,720,720,720,719,719,719,719,720,720,720,722,723,725,725,727,727,727,727,728,728,727,727,725,725,722,722,722,722,722,722,722,722,723,725,723,723,723,725,723,722,722,722,723,723,728,728,730,727,727,725,723,723,722,722,722,722,723,723,723,725,727,727,727,727,728,730,730,730,731,733,734,738,739,741,742,742,746,747,749,750,752,754,755,757,759,764,766,767,769,769,771,773,773,802,803,805,809,809,809,813,817,819,819,823,827,829,831,831,833,837,839,841,843,843,849,851,854,860,864,867,869,871,873,878,880,880,880,885,891,894,894,896,898,901,903,908,908,910,910,967,962,959,959,956,956,954,954,954,951,951,951,951,951,954,956,956,959,962,962,967,967,970,970,0,0,0,0,1536,1536,1543,1543,1543,1543,1543,1536,1536,1529,1529,1523,1523,1523,1523,1523,1516,1516,1516,1516,1509,1503,1503,1496,1496,1496,1496,1496,1496,1496,1489,1489,1489,1489,1483,1477,1477,1477,1470,1470,1470,1470,1464,1464,1464,1458,1458,1452,1452,1445,1445,1445,1445,1445,1445,1439,1439,1439,1439,1433,1427,1427,1427,1421,1421,1421,1421,1415,1415,1410,1410,1410,1404,1404,1404,1404,1404,1404,1398,1398,1398,1398,1392,1392,1387,1387,1381,1381,1376,1376,1376,1376,1376,1370,1370,1370,1365,1365,1365,1365,1359,1359,1359,1354,1354,1354,1349,1349,1349,1343,1338,1338,1333,1333,1333,1333,1328,1328,1328,1328,1322,1322,1322,1317,1312,1312,1312,1312,1307,1307,1307,1307,1307,1302,1302,1297,1297,1297,1292,1292,1288,1288,1288,1288,1283,1278,1278,1278,1273,1273,1273,1273,1273,1273,1268,1268,1268,1264,1264,1259,1259,1255,1255,1255,1250,1250,1250,1250,1250,1250,1245,1245,1245,1241,1241,1236,1236,1236,1232,1232,1232,1227,1227,1223,1223,1223,1219,1219,1219,1219,1214,1214,1214,1214,1210,1210,1210,1210,1206,1206,1206,1202,1202,1202,1197,1197,1197,1197,0,0,0,0,0,0,0,0,0,0,0,0,0,0,0,0,0,0,0,0,0,0,0,0,0,0,0,0,0,0
0,0,0,0,0,0,0,0,0,0,0,0,0,1785,1785,1794,1794,1794,1794,1794,1794,1794,1794,1794,1804,1804,1804,1804,1804,1804,1804,1804,1804,1804,1804,1804,1804,1804,1804,1804,1804,1804,1804,1804,1794,1794,1794,1794,1794,1794,1794,1794,1794,1794,1794,1794,1794,1794,1794,1794,1785,1785,1785,1785,1785,1785,1776,1776,1776,1776,1776,1776,1776,1776,1776,1776,1776,1776,1785,1785,0,0,0,0,0,0,0,0,0,906,906,903,901,898,898,896,896,894,894,894,894,894,894,894,894,894,894,894,896,901,864,864,862,862,860,860,858,858,856,851,851,849,843,841,841,839,837,837,835,833,827,825,823,823,821,819,819,815,813,811,807,805,803,803,802,802,800,798,796,792,790,789,789,787,785,781,781,780,780,746,742,741,741,741,738,736,733,731,730,730,728,727,727,725,722,720,720,719,719,717,716,716,714,714,714,713,713,710,710,711,710,710,711,711,713,714,716,716,711,711,713,713,714,713,713,713,714,714,714,714,716,716,716,716,716,716,716,714,714,714,716,716,716,716,716,716,716,714,714,714,714,714,714,714,719,719,719,717,717,717,716,716,716,719,720,720,720,720,719,719,722,725,725,727,728,727,725,725,722,720,719,719,717,717,717,717,717,717,720,720,720,720,720,720,722,722,722,722,722,725,722,722,723,722,722,722,722,720,720,720,722,722,722,720,720,723,725,725,725,727,728,730,730,731,733,733,736,738,741,742,742,746,746,749,750,752,754,755,757,761,764,766,767,769,774,774,774,798,802,803,805,809,809,811,815,817,819,819,823,829,829,831,831,835,839,839,843,843,847,849,854,854,858,867,867,869,871,873,878,880,880,882,889,891,894,894,896,898,901,903,906,908,970,967,964,962,959,959,956,956,956,954,954,951,951,951,951,954,954,956,959,962,962,964,967,967,970,970,0,0,0,0,0,1543,1543,1550,1550,1543,1543,1543,1536,1536,1529,1523,1523,1523,1523,1523,1523,1523,1516,1516,1509,1503,1503,1496,1496,1496,1496,1496,1496,1496,1489,1489,1489,1489,1483,1483,1477,1477,1470,1470,1470,1470,1470,1464,1464,1458,1458,1452,1452,1452,1445,1445,1445,1445,1445,1439,1439,1439,1439,1439,1433,1433,1427,1427,1421,1421,1421,1415,1415,1415,1410,1410,1404,1404,1404,1404,1404,1404,1398,1398,1398,1398,1392,1392,1392,1387,1387,1381,1381,1376,1376,1376,1376,1370,1370,1370,1370,1365,1365,1365,1365,1359,1359,1354,1354,1354,1349,1349,1349,1349,1343,1338,1338,1333,1333,1333,1333,1328,1328,1328,1322,1322,1322,1317,1312,1312,1312,1312,1312,1307,1307,1307,1307,1302,1302,1297,1297,1297,1292,1292,1292,1288,1288,1288,1283,1283,1283,1283,1278,1273,1273,1273,1273,1273,1268,1268,1268,1268,1264,1264,1259,1259,1255,1255,1255,1250,1250,1250,1250,1250,1245,1245,1245,1245,1241,1236,1236,1236,1232,1232,1232,1232,1227,1227,1227,1223,1223,1219,1219,1219,1214,1214,1214,1214,1214,1214,1210,1210,1206,1206,1202,1202,1202,1202,1202,1197,1197,1197,0,0,0,0,0,0,0,0,0,0,0,0,0,0,0,0,0,0,0,0,0,0,0,0,0,0,0,0,0,0
0,0,0,0,0,0,0,0,0,0,0,0,0,1776,1776,1785,1785,1785,1794,1794,1794,1794,1794,1794,1804,1804,1804,1804,1794,1794,1804,1804,1804,1804,1794,1794,1804,1804,1804,1804,1804,1804,1804,1804,1794,1794,1794,1794,1794,1794,1794,1785,1785,1794,1794,1794,1794,1794,1794,1794,1794,1785,1785,1794,1785,1785,1776,1776,1776,1776,1776,1776,1776,1776,1776,1785,1776,1776,1785,1785,0,0,0,0,0,0,0,0,0,906,906,906,901,898,898,898,896,894,894,894,894,894,894,894,896,898,901,901,901,901,908,864,862,862,860,860,860,858,856,851,851,849,847,843,843,841,839,839,837,835,833,827,825,825,823,821,819,815,813,811,809,807,805,803,803,802,798,798,796,792,790,789,789,787,785,781,781,780,780,778,742,741,741,741,738,736,734,733,730,728,728,727,725,723,722,720,720,719,719,717,716,716,714,714,713,711,710,708,708,710,708,708,708,708,708,708,708,713,711,710,710,710,713,711,710,710,710,711,711,711,710,710,711,711,711,711,713,713,713,713,713,713,713,713,713,713,713,711,711,711,711,710,710,710,713,713,716,716,716,716,714,714,714,716,717,717,717,717,714,711,710,710,708,708,711,727,714,714,716,717,717,717,716,716,717,717,717,717,717,717,717,719,719,719,720,720,720,720,720,722,722,720,720,719,719,719,719,719,719,720,720,720,720,717,717,720,723,723,725,727,727,728,728,731,733,733,736,738,741,742,744,746,746,749,750,752,755,755,759,761,764,766,792,792,792,796,798,798,800,803,807,809,809,811,815,817,821,821,825,829,831,831,833,837,839,839,843,843,847,851,854,854,858,867,867,869,873,878,878,880,880,885,887,889,894,894,896,898,901,903,906,970,970,967,964,964,962,959,959,956,956,956,954,954,954,954,954,954,956,956,959,962,964,967,967,970,970,973,0,0,0,0,0,1543,1543,1550,1550,1543,1543,1543,1536,1536,1529,1529,1523,1523,1523,1523,1523,1523,1516,1516,1509,1509,1503,1496,1496,1496,1496,1496,1496,1496,1496,1496,1489,1489,1489,1483,1483,1483,1477,1477,1470,1470,1470,1464,1464,1464,1464,1458,1452,1452,1452,1445,1445,1445,1445,1445,1439,1439,1439,1439,1433,1433,1427,1427,1427,1421,1421,1415,1415,1415,1415,1410,1410,1404,1404,1404,1404,1404,1398,1398,1398,1398,1392,1392,1392,1387,1387,1381,1381,1376,1376,1376,1376,1370,1370,1370,1370,1365,1365,1365,1365,1359,1359,1354,1354,1354,1349,1349,1349,1349,1343,1343,1343,1338,1333,1333,1333,1328,1328,1328,1328,1328,1322,1317,1317,1312,1312,1312,1312,1307,1307,1307,1307,1307,1302,1302,1297,1297,1292,1292,1292,1292,1288,1288,1288,1283,1283,1283,1278,1278,1278,1278,1273,1273,1273,1268,1268,1268,1264,1264,1259,1259,1259,1255,1255,1255,1250,1250,1250,1250,1245,1245,1245,1245,1241,1236,1236,1236,1232,1232,1232,1232,1232,1227,1227,1223,1223,1223,1219,1219,1214,1214,1214,1214,1214,1214,1210,1210,1206,1206,1202,1202,1202,1202,1202,1197,1197,1197,0,0,0,0,0,0,0,0,0,0,0,0,0,0,0,0,0,0,0,0,0,0,0,0,0,0,0,0,0,0
0,0,0,0,0,0,0,0,0,0,0,0,0,1776,1776,1776,1776,1785,1785,1785,1794,1794,1794,1794,1794,1794,1794,1794,1794,1794,1794,1794,1794,1794,1794,1794,1804,1804,1804,1804,1804,1804,1804,1804,1794,1794,1794,1794,1794,1794,1794,1785,1785,1794,1794,1794,1794,1794,1794,1794,1794,1785,1785,1794,1785,1785,1785,1785,1776,1776,1776,1776,1776,1776,1785,1785,1785,1785,1785,1794,0,0,0,0,0,0,0,0,0,906,906,906,903,901,901,898,898,896,894,894,894,894,894,894,896,898,901,903,903,903,908,913,913,862,860,860,860,858,856,851,851,849,847,845,843,843,841,841,837,835,835,829,827,825,823,819,817,815,813,811,809,807,807,805,803,802,798,798,796,792,790,789,789,787,785,781,781,780,780,780,778,778,776,774,773,736,734,733,731,728,728,727,725,723,722,722,720,720,719,717,716,716,714,713,711,710,708,708,706,706,706,704,704,706,706,706,706,706,708,708,708,708,710,711,710,710,708,708,708,707,707,708,710,710,710,710,710,710,710,710,710,710,710,711,711,711,710,710,710,708,708,707,706,704,704,704,704,713,711,711,711,710,710,710,708,708,710,710,710,707,707,707,707,707,707,708,708,708,711,713,714,714,714,714,714,716,714,714,714,714,716,716,716,716,717,716,716,719,719,719,719,711,711,713,713,714,716,716,716,716,717,717,717,717,717,719,720,722,725,727,727,728,728,731,733,733,736,739,741,744,744,746,746,749,750,750,755,757,761,762,789,789,790,792,792,796,798,798,800,805,807,809,809,811,815,817,819,821,825,829,831,831,833,837,839,841,845,845,849,854,854,854,867,867,867,871,873,878,878,880,880,885,887,889,891,894,896,898,901,903,906,970,970,967,967,964,962,959,959,956,956,956,956,954,954,954,954,956,956,959,959,962,964,967,970,970,970,970,0,0,0,0,0,1550,1550,1550,1550,1543,1543,1543,1543,1536,1529,1529,1523,1523,1523,1523,1523,1523,1523,1516,1516,1509,1509,1503,1496,1496,1496,1496,1496,1496,1496,1496,1489,1489,1489,1489,1483,1483,1477,1477,1477,1470,1470,1464,1464,1464,1464,1458,1458,1452,1452,1452,1445,1445,1445,1445,1445,1439,1439,1439,1439,1433,1433,1427,1427,1421,1421,1421,1415,1415,1415,1410,1410,1410,1404,1404,1404,1404,1404,1404,1398,1398,1392,1392,1392,1387,1387,1381,1381,1376,1376,1376,1376,1376,1370,1370,1370,1370,1370,1365,1365,1359,1359,1359,1354,1354,1349,1349,1349,1349,1343,1343,1343,1338,1338,1333,1333,1328,1328,1328,1328,1328,1322,1322,1317,1312,1312,1312,1312,1307,1307,1307,1307,1307,1302,1302,1297,1297,1297,1292,1292,1292,1288,1288,1288,1288,1283,1283,1278,1278,1278,1278,1273,1273,1273,1268,1268,1268,1268,1264,1259,1259,1259,1255,1255,1255,1255,1250,1250,1250,1250,1245,1245,1245,1241,1236,1236,1236,1232,1232,1232,1232,1232,1227,1227,1223,1223,1223,1219,1219,1219,1214,1214,1214,1214,1214,1210,1210,1206,1206,1206,1202,1202,1202,1202,1197,1197,1197,0,0,0,0,0,0,0,0,0,0,0,0,0,0,0,0,0,0,0,0,0,0,0,0,0,0,0,0,0,0
0,0,0,0,0,0,0,0,0,0,0,0,0,1766,1766,1766,1766,1776,1776,1785,1785,1785,1785,1785,1785,1785,1785,1785,1776,1776,1785,1785,1785,1785,1785,1794,1794,1794,1794,1794,1794,1804,1804,1794,1794,1794,1794,1794,1785,1785,1785,1785,1785,1785,1794,1794,1794,1794,1794,1794,1785,1785,1785,1794,1785,1785,1785,1785,1776,1776,1776,1776,1776,1776,1785,1785,1785,1785,1785,1794,0,0,0,0,0,0,0,0,0,0,906,906,903,901,901,901,898,896,896,896,896,896,896,896,896,898,901,903,903,906,908,913,913,913,860,860,858,858,858,851,849,849,847,845,843,843,843,841,839,837,835,833,829,827,825,819,817,815,813,811,809,807,807,805,805,803,800,798,796,792,790,789,789,789,787,781,781,780,780,780,778,778,776,774,773,771,734,733,731,731,731,728,727,725,722,722,720,719,719,717,716,716,714,713,711,710,708,707,706,704,704,704,703,703,703,703,703,703,704,704,706,706,707,708,707,707,706,706,706,704,704,706,707,707,707,707,707,708,708,707,707,707,708,708,708,707,707,707,707,706,706,706,706,704,704,704,704,708,707,707,708,708,708,708,706,704,704,706,707,706,706,706,706,706,706,706,706,706,707,707,708,710,713,713,713,713,713,713,711,711,713,713,713,713,714,714,714,713,711,711,711,711,710,710,711,711,711,711,711,711,714,714,714,716,716,717,717,719,722,727,728,728,728,730,731,733,736,738,741,742,742,744,744,749,750,750,755,776,787,787,787,789,790,792,796,796,798,798,802,807,807,809,809,811,815,819,819,821,827,829,831,831,833,839,841,841,843,845,851,854,854,856,867,867,869,871,873,878,878,880,880,885,887,889,891,894,894,898,901,901,0,970,970,967,967,964,962,959,959,959,959,956,956,956,956,956,956,956,956,959,962,962,964,967,970,970,970,970,0,0,0,0,1550,1550,1550,1550,1550,1543,1543,1543,1543,1536,1536,1529,1529,1523,1523,1523,1523,1523,1523,1516,1516,1509,1509,1503,1496,1496,1496,1496,1496,1496,1496,1496,1496,1489,1489,1489,1483,1483,1477,1477,1477,1470,1470,1470,1464,1464,1464,1464,1458,1458,1452,1452,1452,1445,1445,1445,1445,1445,1439,1439,1439,1439,1433,1433,1427,1421,1421,1421,1421,1415,1415,1415,1410,1410,1410,1410,1410,1404,1404,1404,1398,1398,1398,1392,1392,1387,1387,1387,1381,1381,1376,1376,1376,1376,1376,1370,1370,1370,1370,1365,1365,1365,1359,1359,1354,1354,1354,1354,1349,1349,1343,1343,1343,1338,1338,1333,1333,1328,1328,1328,1328,1328,1322,1322,1317,1312,1312,1312,1312,1307,1307,1307,1307,1307,1302,1302,1297,1297,1297,1292,1292,1292,1288,1288,1288,1288,1288,1283,1283,1278,1278,1278,1273,1273,1273,1268,1268,1268,1268,1264,1264,1264,1259,1259,1255,1255,1255,1255,1250,1250,1250,1245,1245,1245,1236,1236,1236,1236,1232,1232,1232,1232,1232,1232,1227,1227,1227,1223,1223,1219,1219,1219,1214,1214,1214,1214,1214,1210,1210,1206,1206,1202,1202,1202,1202,1197,1197,1197,0,0,0,0,0,0,0,0,0,0,0,0,0,0,0,0,0,0,0,0,0,0,0,0,0,0,0,0,0,0
0,0,0,0,0,0,0,0,0,0,0,0,0,1766,1766,1766,1766,1766,1766,1766,1776,1776,1776,1776,1776,1776,1776,1776,1776,1776,1776,1776,1785,1785,1785,1776,1776,1794,1794,1794,1794,1794,1794,1794,1785,1785,1785,1785,1785,1785,1785,1785,1785,1785,1794,1794,1794,1785,1785,1785,1785,1785,1785,1785,1785,1785,1785,1785,1776,1776,1776,1776,1776,1776,1785,1785,1785,1785,1794,1794,0,0,0,0,0,0,0,0,0,0,906,906,906,903,903,901,898,898,896,896,896,896,896,896,896,901,903,903,903,906,908,913,913,913,860,860,858,858,858,851,849,847,845,845,843,843,843,843,841,839,839,835,831,829,825,823,819,815,813,811,809,809,807,807,807,803,802,800,796,794,792,792,790,789,787,785,781,780,778,778,778,776,774,774,773,771,767,766,733,733,728,728,727,725,723,722,720,719,719,717,717,714,714,711,711,710,708,707,704,703,703,703,703,700,700,698,698,700,698,698,704,704,704,704,704,704,703,703,701,701,704,704,704,706,706,706,706,707,706,704,704,704,704,704,704,704,704,704,703,701,700,700,701,701,703,703,703,704,704,704,706,706,706,706,704,704,704,704,704,704,704,704,704,704,704,704,706,706,707,707,708,708,708,708,708,711,711,710,710,710,711,711,710,710,711,711,711,710,710,710,710,710,708,708,708,708,708,708,710,710,713,714,714,714,716,717,717,719,722,725,728,728,728,730,731,733,736,738,741,742,742,744,744,749,750,774,774,776,783,787,787,789,790,792,796,796,798,798,802,807,809,809,811,813,817,819,819,821,827,831,831,831,835,839,841,843,843,849,851,854,856,858,867,867,867,871,873,878,878,880,880,885,887,887,889,894,894,0,0,0,0,970,970,967,967,964,962,962,959,959,959,959,956,956,956,956,956,956,956,959,962,964,967,970,970,970,970,0,0,0,0,0,1550,1550,1550,1550,1550,1543,1543,1543,1543,1543,1536,1536,1529,1529,1523,1523,1523,1523,1523,1516,1516,1516,1509,1509,1503,1503,1503,1503,1496,1496,1496,1496,1496,1489,1489,1489,1483,1483,1477,1477,1477,1470,1470,1470,1470,1464,1464,1464,1464,1458,1458,1452,1452,1445,1445,1445,1445,1445,1445,1439,1439,1439,1433,1433,1427,1421,1421,1421,1421,1421,1415,1415,1415,1410,1410,1410,1410,1410,1404,1404,1398,1398,1398,1392,1392,1392,1387,1387,1381,1381,1376,1376,1376,1376,1376,1370,1370,1370,1370,1370,1365,1365,1365,1359,1354,1354,1354,1354,1349,1349,1343,1343,1343,1338,1338,1333,1333,1333,1333,1328,1328,1328,1328,1322,1322,1317,1312,1312,1312,1312,1307,1307,1307,1307,1302,1302,1297,1297,1292,1292,1292,1292,1292,1288,1288,1288,1288,1288,1283,1283,1278,1278,1278,1278,1273,1273,1268,1268,1268,1268,1264,1264,1264,1264,1259,1255,1255,1255,1250,1250,1250,1245,1245,1245,1236,1236,1236,1236,1236,1232,1232,1232,1232,1232,1232,1232,1227,1227,1223,1219,1219,1219,1214,1214,1214,1214,1214,1210,1210,1210,1206,1202,1202,1202,1202,1202,1197,1197,0,0,0,0,0,0,0,0,0,0,0,0,0,0,0,0,0,0,0,0,0,0,0,0,0,0,0,0,0,0
0,0,0,0,0,0,0,0,0,0,0,0,0,1757,1757,1766,1757,1757,1757,1757,1757,1757,1757,1766,1766,1766,1766,1766,1766,1766,1766,1766,1766,1776,1776,1766,1766,1766,1766,1776,1776,1776,1785,1785,1785,1776,1776,1776,1776,1776,1776,1776,1785,1785,1785,1785,1785,1785,1785,1776,1776,1776,1776,1785,1785,1785,1776,1776,1776,1776,1776,1776,1776,1776,1785,1776,1776,1785,1794,1794,0,0,0,0,0,0,0,0,0,0,906,906,906,906,903,903,901,898,896,896,896,896,896,896,896,901,903,906,906,906,908,913,913,913,864,862,858,858,858,851,849,847,845,845,845,843,843,843,841,841,839,835,833,831,827,825,823,819,815,813,811,809,809,807,807,803,802,800,796,796,794,792,790,789,787,785,781,780,778,778,776,776,774,774,773,771,767,766,766,762,728,728,727,725,723,722,720,720,719,719,717,714,714,711,711,710,707,706,704,703,703,701,700,700,698,698,697,697,696,693,693,693,693,693,693,694,697,696,696,697,697,697,697,697,703,703,703,703,703,701,700,696,696,698,697,697,700,701,701,698,697,697,700,700,701,701,701,701,701,703,703,703,704,704,703,703,701,701,703,703,703,703,703,703,703,704,704,704,704,704,707,701,700,698,697,696,696,698,703,708,708,708,708,708,708,708,708,708,707,707,707,707,707,707,707,707,708,708,708,708,710,711,713,714,714,716,717,719,722,725,728,728,728,730,731,731,734,736,739,741,742,744,744,774,774,776,776,776,780,787,787,789,790,792,796,796,798,798,805,809,809,811,811,815,817,819,819,821,829,831,831,833,837,839,843,843,845,849,854,854,856,858,864,867,867,869,871,873,875,880,880,882,885,887,889,0,0,0,0,0,0,970,970,967,967,967,964,962,959,959,959,959,956,956,956,956,956,956,959,959,962,964,967,970,970,970,970,0,0,0,0,0,1550,1550,1550,1550,1550,1543,1543,1543,1543,1543,1536,1536,1529,1529,1529,1523,1523,1523,1523,1516,1516,1516,1509,1509,1509,1509,1503,1503,1503,1496,1496,1496,1496,1489,1489,1489,1489,1483,1483,1477,1477,1477,1470,1470,1470,1464,1464,1464,1464,1464,1458,1452,1452,1452,1445,1445,1445,1445,1445,1439,1439,1439,1433,1433,1427,1421,1421,1421,1421,1421,1415,1415,1415,1415,1410,1410,1410,1410,1404,1404,1398,1398,1398,1392,1392,1392,1387,1387,1381,1381,1381,1376,1376,1376,1376,1370,1370,1370,1370,1370,1365,1365,1365,1359,1359,1354,1354,1354,1349,1349,1349,1343,1343,1343,1338,1333,1333,1333,1333,1328,1328,1328,1328,1322,1317,1317,1317,1312,1312,1312,1307,1307,1307,1307,1302,1302,1297,1297,1292,1292,1292,1292,1292,1292,1292,1292,1288,1288,1283,1283,1278,1278,1278,1278,1273,1273,1273,1268,1268,1268,1264,1264,1264,1264,1259,1255,1255,1255,1255,1250,1250,1250,1245,1245,1241,1236,1236,1236,1236,1236,1232,1232,1232,1232,1232,1232,1232,1227,1227,1223,1219,1219,1219,1219,1214,1214,1214,1210,1210,1210,1210,1206,1202,1202,1202,1202,1202,1202,0,0,0,0,0,0,0,0,0,0,0,0,0,0,0,0,0,0,0,0,0,0,0,0,0,0,0,0,0,0
0,0,0,0,0,0,0,0,0,0,0,0,0,1757,1757,1757,1757,1757,1757,1748,1748,1748,1748,1757,1757,1757,1757,1766,1766,1766,1766,1766,1766,1766,1766,1766,1766,1766,1766,1766,1766,1766,1766,1776,1776,1766,1766,1766,1766,1766,1776,1776,1776,1776,1785,1785,1785,1776,1776,1776,1766,1766,1766,1766,1776,1776,1776,1776,1776,1776,1776,1766,1766,1766,1776,1766,1766,1776,1785,0,0,0,0,0,0,0,0,0,0,0,0,908,908,906,906,906,903,901,896,896,896,896,896,896,901,903,903,906,906,908,910,913,913,913,913,862,860,858,858,851,849,849,847,845,845,843,843,843,841,841,839,835,833,831,827,825,825,819,817,817,813,811,811,809,809,803,803,802,800,796,796,794,792,790,787,785,781,781,780,780,776,776,774,774,773,771,769,766,766,762,728,728,727,725,723,722,722,720,720,719,717,716,714,713,711,710,707,706,704,703,703,701,700,700,698,697,697,696,694,693,691,691,691,690,690,690,693,693,696,697,694,693,693,693,693,693,693,690,690,693,693,693,693,698,697,697,698,698,700,697,697,697,698,698,700,700,698,698,700,700,700,701,701,701,701,701,700,700,700,701,701,701,701,701,701,701,701,701,703,703,700,698,697,697,694,694,694,697,698,700,701,698,698,707,707,707,707,701,701,707,704,704,706,706,706,706,707,707,708,708,710,710,711,713,714,716,717,719,722,725,728,728,730,731,731,731,734,736,739,741,741,773,773,773,776,776,778,778,780,787,787,787,789,794,796,796,798,800,807,809,809,811,813,815,817,819,819,823,829,831,831,833,839,841,843,843,845,851,854,854,858,862,864,864,867,869,871,873,873,880,880,882,885,0,0,0,0,0,0,0,0,973,970,970,970,967,967,964,962,962,959,959,959,956,956,956,956,956,959,962,964,964,967,970,970,970,970,0,0,0,0,0,1550,1550,1550,1550,1550,1550,1543,1543,1543,1543,1536,1536,1536,1529,1529,1529,1523,1523,1523,1516,1516,1516,1516,1509,1509,1509,1509,1503,1503,1503,1496,1496,1489,1489,1489,1489,1489,1483,1483,1477,1477,1477,1470,1470,1470,1470,1464,1464,1464,1464,1458,1452,1452,1452,1445,1445,1445,1445,1445,1445,1439,1439,1439,1433,1427,1421,1421,1421,1421,1421,1415,1415,1415,1415,1410,1410,1410,1410,1404,1404,1398,1398,1398,1392,1392,1392,1387,1387,1387,1387,1381,1381,1381,1381,1376,1376,1370,1370,1370,1370,1365,1365,1365,1359,1359,1359,1354,1354,1354,1349,1349,1349,1343,1343,1338,1338,1333,1333,1333,1328,1328,1328,1328,1322,1317,1317,1317,1317,1312,1312,1312,1307,1307,1307,1302,1302,1297,1297,1297,1292,1292,1292,1292,1292,1292,1292,1288,1288,1288,1283,1278,1278,1278,1278,1273,1273,1273,1268,1268,1268,1268,1268,1264,1264,1259,1259,1255,1255,1255,1250,1250,1250,1245,1241,1241,1241,1236,1236,1236,1236,1236,1236,1232,1232,1232,1232,1232,1227,1227,1223,1223,1219,1219,1219,1214,1214,1214,1214,1214,1210,1210,1206,1206,1206,1202,1202,1202,1202,0,0,0,0,0,0,0,0,0,0,0,0,0,0,0,0,0,0,0,0,0,0,0,0,0,0,0,0,0,0
0,0,0,0,0,0,0,0,0,0,0,0,1748,1748,1757,1748,1748,1757,1748,1748,1748,1748,1748,1748,1757,1748,1748,1748,1748,1748,1748,1757,1757,1757,1766,1766,1766,1757,1757,1757,1757,1757,1757,1757,1766,1766,1766,1766,1766,1766,1766,1766,1766,1766,1776,1776,1776,1766,1766,1766,1766,1766,1766,1766,1766,1766,1766,1766,1766,1766,1766,1757,1757,1757,1757,1757,1757,1731,1731,0,0,0,0,0,0,0,0,0,0,0,0,908,908,908,906,906,903,901,896,896,896,896,896,896,901,903,903,906,906,908,910,913,913,913,913,913,915,915,851,851,849,849,847,845,845,845,843,843,841,841,839,837,835,833,829,827,825,821,819,819,817,813,813,811,809,807,803,802,800,798,796,794,792,792,789,787,781,781,780,780,780,778,776,774,773,773,769,767,766,764,728,728,725,723,723,722,722,720,720,719,717,716,714,713,711,710,708,707,706,703,703,701,700,698,697,697,696,696,693,693,691,690,690,688,687,687,690,690,690,690,690,690,691,691,691,691,691,690,690,691,691,688,687,687,688,688,688,691,693,694,694,694,696,696,696,697,694,694,694,694,694,696,693,693,694,694,694,694,694,694,697,698,698,698,697,697,696,696,696,696,697,697,696,696,694,694,694,696,696,697,697,697,697,696,696,696,696,696,697,698,698,701,703,704,704,706,707,707,708,708,710,710,711,713,714,716,717,720,723,725,728,728,730,731,731,733,736,738,738,741,741,771,773,773,776,776,778,778,781,787,787,787,789,794,796,798,798,800,807,809,809,811,815,817,819,819,821,827,831,831,833,835,839,841,843,843,847,854,854,856,858,862,864,864,867,867,871,873,873,880,880,0,0,0,0,0,0,0,0,0,0,973,970,970,970,970,967,967,964,962,962,959,959,959,959,959,959,959,959,962,964,964,970,970,970,970,973,0,0,0,0,0,1550,1550,1550,1550,1550,1550,1543,1543,1543,1543,1536,1536,1536,1536,1529,1529,1529,1523,1523,1516,1516,1516,1516,1516,1509,1509,1509,1509,1503,1503,1503,1496,1489,1489,1489,1489,1483,1483,1483,1483,1477,1477,1470,1470,1470,1470,1470,1464,1464,1464,1458,1458,1452,1452,1445,1445,1445,1445,1445,1445,1445,1439,1439,1433,1427,1427,1421,1421,1421,1421,1421,1415,1415,1415,1415,1410,1410,1410,1410,1404,1398,1398,1398,1398,1392,1392,1392,1387,1387,1387,1381,1381,1381,1381,1376,1376,1370,1370,1370,1370,1370,1365,1365,1359,1359,1359,1354,1354,1354,1349,1349,1349,1343,1343,1343,1338,1333,1333,1333,1333,1328,1328,1328,1322,1322,1317,1317,1317,1312,1312,1312,1307,1307,1307,1302,1302,1297,1297,1297,1297,1297,1292,1292,1292,1292,1292,1288,1288,1288,1283,1283,1283,1278,1278,1273,1273,1273,1268,1268,1268,1268,1268,1268,1264,1259,1259,1255,1255,1255,1250,1250,1250,1245,1241,1241,1241,1236,1236,1236,1236,1236,1236,1232,1232,1232,1232,1232,1227,1227,1223,1223,1223,1219,1219,1214,1214,1214,1214,1214,1210,1210,1206,1206,1206,1202,1202,1202,1202,0,0,0,0,0,0,0,0,0,0,0,0,0,0,0,0,0,0,0,0,0,0,0,0,0,0,0,0,0,0
0,0,0,0,0,0,0,0,0,0,0,0,1739,1739,1739,1739,1739,1739,1739,1739,1739,1739,1748,1748,1748,1739,1739,1739,1739,1739,1739,1748,1739,1739,1757,1766,1757,1748,1748,1757,1757,1757,1757,1757,1757,1766,1757,1757,1757,1757,1766,1766,1766,1766,1766,1766,1766,1766,1766,1757,1757,1757,1757,1757,1766,1766,1757,1757,1766,1757,1757,1757,1757,1757,1757,1748,1748,1731,1731,1731,1731,0,0,0,0,0,0,0,0,0,0,0,910,910,908,906,903,903,896,896,896,896,896,896,901,903,903,906,906,910,910,913,913,913,915,915,915,915,915,851,851,849,847,847,845,845,843,843,841,839,837,837,835,833,829,827,825,823,821,819,817,817,815,813,811,809,805,802,802,800,796,796,794,792,790,787,783,781,781,780,778,778,776,774,773,773,769,767,766,764,762,762,725,723,723,722,722,722,720,719,716,716,714,713,711,710,708,707,706,704,703,701,700,698,697,697,696,696,693,693,691,690,690,687,687,687,688,688,688,688,687,687,688,684,684,687,688,688,688,688,688,687,687,687,687,687,688,688,687,687,690,687,687,688,696,697,688,688,690,690,690,690,693,693,693,694,693,693,693,693,693,696,696,696,696,694,694,693,691,691,691,696,693,693,693,693,693,693,693,691,691,696,693,693,693,693,693,694,696,696,697,698,700,703,704,704,707,707,708,708,710,710,711,713,714,716,719,720,723,725,728,730,730,733,733,733,736,738,738,741,769,771,773,773,776,776,778,778,783,787,787,787,789,792,796,798,798,800,807,809,809,811,815,817,819,819,821,829,831,831,833,835,839,841,843,845,851,854,854,856,858,862,864,864,867,867,871,871,873,0,0,0,0,0,0,0,0,0,0,0,0,973,970,970,970,970,967,967,964,964,962,959,959,959,959,959,959,959,959,962,964,967,970,970,970,970,973,0,0,0,0,0,1550,1550,1550,1550,1550,1550,1543,1543,1543,1543,1536,1536,1536,1536,1536,1529,1529,1523,1523,1516,1516,1516,1516,1516,1509,1509,1509,1509,1503,1503,1503,1496,1496,1489,1489,1489,1483,1483,1483,1483,1477,1477,1470,1470,1470,1470,1470,1464,1464,1464,1464,1458,1452,1452,1445,1445,1445,1445,1445,1445,1445,1439,1439,1439,1427,1427,1421,1421,1421,1421,1421,1415,1415,1415,1415,1410,1410,1410,1410,1404,1398,1398,1398,1398,1392,1392,1392,1387,1387,1387,1387,1381,1381,1381,1381,1376,1370,1370,1370,1370,1370,1370,1365,1359,1359,1359,1354,1354,1354,1349,1349,1349,1343,1343,1343,1338,1333,1333,1333,1333,1328,1328,1328,1322,1322,1322,1317,1317,1317,1312,1312,1312,1307,1307,1302,1302,1302,1297,1297,1297,1297,1292,1292,1292,1292,1292,1292,1288,1288,1283,1283,1283,1278,1278,1273,1273,1273,1268,1268,1268,1268,1268,1264,1264,1264,1259,1255,1255,1255,1250,1250,1250,1245,1245,1241,1241,1236,1236,1236,1236,1236,1236,1232,1232,1232,1232,1232,1227,1227,1227,1223,1223,1219,1219,1214,1214,1214,1214,1214,1214,1210,1210,1206,1206,1206,1202,1202,1202,0,0,0,0,0,0,0,0,0,0,0,0,0,0,0,0,0,0,0,0,0,0,0,0,0,0,0,0,0,0
0,0,0,0,0,0,0,0,0,0,0,0,1731,1731,1731,1731,1731,1739,1739,1739,1739,1739,1739,1739,1739,1739,1739,1731,1731,1739,1739,1739,1739,1739,1739,1739,1739,1739,1739,1748,1748,1748,1748,1757,1757,1757,1757,1757,1757,1757,1757,1757,1757,1757,1748,1748,1748,1748,1748,1748,1748,1748,1748,1748,1748,1748,1748,1757,1757,1757,1757,1757,1757,1757,1757,1748,1748,1731,1731,1731,1731,1731,0,0,0,0,0,0,0,0,0,0,913,913,908,906,906,903,901,898,898,898,898,901,901,903,903,906,908,910,910,913,913,913,915,915,918,918,918,851,851,851,849,847,847,845,843,843,841,839,837,837,835,833,831,827,827,823,823,821,821,817,815,813,811,809,809,803,802,800,800,796,794,794,792,789,783,781,781,780,778,778,776,774,771,771,769,767,766,764,762,762,762,761,759,759,757,755,722,720,716,716,714,713,711,710,708,707,706,706,703,701,700,698,698,697,696,696,694,693,691,690,688,687,686,686,687,686,686,686,686,686,684,683,682,682,682,682,682,687,687,686,686,686,686,686,686,686,683,683,687,686,686,686,686,686,686,684,684,686,686,686,687,687,687,687,688,687,687,686,686,687,687,687,690,690,693,693,691,687,687,690,688,688,690,691,690,690,688,687,687,687,688,688,688,693,693,694,696,696,696,697,697,700,703,704,706,707,707,708,708,710,711,713,714,716,719,722,723,727,728,730,730,733,733,734,738,738,766,767,767,771,771,774,776,776,778,778,785,787,787,789,789,792,796,798,798,805,809,809,811,813,815,819,819,821,823,829,831,833,835,839,841,843,843,845,851,854,854,854,858,862,864,864,867,869,871,871,871,0,0,0,0,0,0,0,0,0,0,0,975,973,973,973,970,970,970,967,967,964,964,962,959,959,959,959,959,959,959,962,964,967,970,970,970,973,973,0,0,0,0,0,1550,1550,1550,1550,1550,1550,1543,1543,1543,1543,1536,1536,1536,1536,1536,1536,1529,1523,1523,1516,1516,1516,1516,1516,1516,1516,1509,1509,1509,1509,1503,1503,1496,1489,1489,1489,1483,1483,1483,1483,1477,1477,1470,1470,1470,1470,1470,1464,1464,1464,1464,1458,1458,1452,1445,1445,1445,1445,1445,1445,1445,1445,1439,1439,1427,1427,1427,1421,1421,1421,1421,1421,1421,1415,1415,1415,1410,1410,1410,1404,1404,1404,1398,1398,1398,1392,1392,1387,1387,1387,1387,1381,1381,1381,1381,1376,1376,1370,1370,1370,1370,1370,1365,1365,1359,1359,1359,1354,1354,1349,1349,1349,1349,1343,1343,1343,1338,1333,1333,1333,1333,1328,1328,1328,1322,1322,1322,1322,1317,1312,1312,1312,1307,1307,1302,1302,1302,1297,1297,1297,1297,1292,1292,1292,1292,1292,1288,1288,1288,1288,1283,1283,1278,1278,1273,1273,1268,1268,1268,1268,1268,1264,1264,1264,1259,1259,1255,1255,1255,1255,1250,1250,1250,1250,1245,1241,1241,1236,1236,1236,1236,1236,1236,1236,1232,1232,1232,1232,1227,1227,1223,1223,1219,1219,1219,1214,1214,1214,1214,1214,1210,1210,1206,1206,1206,1206,1202,1202,0,0,0,0,0,0,0,0,0,0,0,0,0,0,0,0,0,0,0,0,0,0,0,0,0,0,0,0,0,0
0,0,0,0,0,0,0,0,0,0,0,0,1722,1722,1722,1731,1731,1731,1731,1731,1731,1731,1731,1731,1731,1731,1731,1731,1731,1731,1731,1731,1731,1731,1731,1739,1739,1739,1739,1739,1739,1739,1748,1748,1748,1757,1757,1757,1757,1757,1757,1748,1748,1739,1739,1739,1739,1739,1739,1739,1739,1739,1739,1739,1739,1739,1739,1739,1739,1748,1748,1748,1748,1748,1739,1739,1731,1731,1731,1722,1722,1731,0,0,0,0,0,0,0,0,0,0,913,913,908,906,906,903,901,901,901,901,901,901,903,903,906,906,908,910,910,913,913,915,915,915,918,918,918,851,851,851,849,849,847,845,843,843,841,839,837,837,835,833,831,827,827,825,823,821,819,819,817,815,813,811,809,807,805,803,802,798,796,796,792,790,785,783,781,781,780,778,776,774,771,771,769,767,766,764,764,762,761,761,759,759,755,754,754,752,716,716,714,713,711,710,708,707,706,706,703,701,700,698,698,697,697,696,694,693,691,690,688,687,686,686,686,684,683,683,683,682,682,680,680,680,680,680,680,684,684,683,683,684,684,684,684,684,683,683,684,683,683,684,683,683,683,683,683,683,683,683,683,683,683,686,686,687,686,684,684,683,683,682,682,683,683,683,682,682,683,690,686,684,684,686,687,686,686,686,686,686,686,687,687,688,691,694,694,696,696,697,697,700,701,704,706,706,707,708,708,710,711,714,716,717,719,722,725,727,730,730,730,733,733,734,761,761,766,767,767,769,771,774,776,776,778,778,787,787,789,789,790,792,796,800,800,807,809,809,811,813,815,819,819,821,827,831,831,833,835,841,843,843,843,845,851,854,854,854,860,862,862,864,867,869,869,871,871,0,0,0,0,0,0,0,0,0,0,0,975,975,973,973,970,970,970,970,967,967,964,962,962,959,959,959,959,959,962,964,964,967,970,973,973,973,975,0,0,0,0,0,1557,1557,1557,1550,1550,1550,1543,1543,1543,1543,1543,1543,1536,1536,1536,1529,1529,1523,1523,1523,1516,1516,1516,1516,1509,1509,1509,1509,1509,1509,1503,1503,1503,1496,1496,1489,1489,1483,1483,1483,1477,1477,1470,1470,1470,1470,1470,1470,1464,1464,1464,1458,1458,1452,1452,1445,1445,1445,1445,1445,1445,1445,1439,1439,1427,1427,1427,1421,1421,1421,1421,1421,1421,1415,1415,1415,1415,1410,1410,1404,1404,1404,1398,1398,1398,1392,1392,1392,1387,1387,1387,1387,1387,1381,1381,1376,1376,1376,1370,1370,1370,1370,1365,1365,1359,1359,1359,1354,1354,1349,1349,1349,1349,1343,1343,1343,1338,1333,1333,1333,1333,1333,1328,1328,1328,1322,1322,1322,1317,1312,1312,1312,1312,1307,1307,1307,1307,1302,1302,1302,1297,1292,1292,1292,1292,1292,1288,1288,1288,1288,1283,1283,1278,1278,1273,1273,1268,1268,1268,1268,1268,1264,1264,1264,1259,1259,1255,1255,1255,1255,1250,1250,1250,1250,1245,1241,1241,1241,1241,1236,1236,1236,1236,1236,1236,1232,1232,1232,1227,1227,1227,1223,1219,1219,1219,1219,1214,1214,1214,1214,1210,1210,1206,1206,1206,1206,1202,1202,0,0,0,0,0,0,0,0,0,0,0,0,0,0,0,0,0,0,0,0,0,0,0,0,0,0,0,0,0,0
0,0,0,0,0,0,0,0,0,0,0,0,1713,1713,1722,1722,1722,1722,1722,1722,1722,1722,1731,1722,1722,1722,1731,1731,1731,1731,1731,1731,1731,1731,1731,1731,1731,1731,1731,1739,1739,1739,1739,1739,1739,1739,1748,1748,1748,1748,1748,1739,1739,1731,1731,1731,1731,1731,1731,1731,1731,1731,1731,1731,1739,1739,1739,1739,1739,1739,1739,1748,1748,1739,1739,1739,1731,1731,1731,1722,1722,1731,1731,0,0,0,0,0,0,0,0,0,918,913,910,908,906,906,903,903,903,903,903,903,903,903,906,906,908,910,913,913,915,915,915,915,918,918,918,918,0,0,0,0,0,845,843,843,841,839,839,837,835,833,831,831,827,825,823,821,819,819,817,817,815,813,811,809,807,805,803,798,798,796,796,792,789,785,783,781,780,778,776,774,773,771,769,769,766,766,764,762,761,759,759,759,755,754,754,752,749,716,714,713,713,710,710,708,706,706,703,703,701,700,698,697,697,696,694,693,690,690,688,687,686,684,684,683,682,682,682,680,680,679,678,678,678,678,676,676,680,682,682,682,682,682,682,683,683,683,683,682,682,682,682,682,682,682,682,682,683,683,683,682,682,684,684,686,684,683,683,682,682,680,679,679,680,680,679,679,678,678,678,678,682,682,683,684,684,684,684,684,686,686,687,687,688,691,693,694,696,697,697,698,701,704,706,706,707,707,708,710,711,714,716,717,719,722,725,747,747,747,749,750,754,755,761,761,766,767,767,769,771,774,776,778,778,778,787,787,789,789,790,792,796,800,800,807,809,809,811,815,817,821,823,825,829,831,831,833,837,841,843,843,843,849,851,854,854,854,860,862,862,862,867,869,869,869,0,0,0,0,0,0,0,0,0,0,0,0,0,975,973,973,970,970,970,970,967,967,964,962,962,959,959,959,959,962,962,964,967,967,970,973,973,975,975,0,0,0,0,0,1557,1557,1557,1550,1550,1550,1550,1543,1543,1543,1543,1543,1536,1536,1536,1529,1529,1523,1523,1523,1516,1516,1516,1516,1509,1509,1509,1509,1509,1509,1503,1503,1496,1496,1496,1489,1489,1489,1483,1483,1483,1477,1477,1477,1470,1470,1470,1470,1470,1464,1464,1464,1458,1458,1452,1452,1445,1445,1445,1445,1445,1445,1445,1439,1433,1427,1427,1421,1421,1421,1421,1421,1421,1421,1415,1415,1415,1410,1410,1404,1404,1404,1398,1398,1398,1392,1392,1392,1387,1387,1387,1387,1387,1381,1381,1376,1376,1376,1370,1370,1370,1370,1365,1365,1359,1359,1359,1354,1354,1349,1349,1349,1349,1343,1343,1343,1338,1338,1333,1333,1333,1333,1328,1328,1328,1322,1322,1322,1317,1312,1312,1312,1312,1307,1307,1307,1307,1302,1302,1302,1302,1297,1292,1292,1292,1292,1288,1288,1288,1288,1283,1283,1278,1278,1278,1273,1273,1268,1268,1268,1268,1264,1264,1264,1259,1259,1259,1255,1255,1255,1250,1250,1250,1250,1245,1241,1241,1241,1241,1236,1236,1236,1236,1236,1236,1232,1232,1232,1232,1227,1227,1223,1219,1219,1219,1219,1214,1214,1214,1214,1210,1210,1210,1206,1206,1202,1202,1202,0,0,0,0,0,0,0,0,0,0,0,0,0,0,0,0,0,0,0,0,0,0,0,0,0,0,0,0,0,0
0,0,0,0,0,0,0,0,0,0,0,0,1713,1713,1713,1713,1713,1713,1713,1713,1713,1713,1722,1722,1722,1722,1722,1722,1722,1722,1722,1722,1722,1722,1731,1722,1722,1731,1731,1731,1731,1731,1731,1731,1731,1731,1731,1731,1731,1731,1739,1731,1731,1731,1722,1722,1722,1722,1722,1722,1731,1731,1731,1731,1731,1731,1731,1731,1731,1739,1739,1739,1739,1739,1731,1731,1731,1722,1722,1722,1722,1731,1731,0,0,0,0,0,0,0,0,0,0,913,910,908,906,906,903,903,903,903,903,903,903,903,906,908,910,913,913,913,915,915,915,915,918,918,918,920,0,0,0,0,0,0,843,843,841,841,837,835,835,833,833,831,829,827,825,823,821,819,817,817,815,813,811,809,809,807,805,800,798,798,796,794,794,789,785,781,781,778,776,774,773,771,769,769,767,766,764,762,761,759,759,759,755,754,754,752,749,747,747,746,713,711,710,708,707,706,704,703,701,701,700,698,697,696,696,693,690,688,688,687,686,684,684,683,682,682,680,680,679,678,676,676,676,675,675,674,674,675,675,679,680,680,680,680,680,680,680,682,682,682,680,680,680,680,680,680,680,680,680,680,680,682,683,682,682,682,682,680,679,679,678,678,679,679,679,678,676,676,678,678,678,680,680,682,682,683,683,683,686,686,687,687,688,690,691,693,694,696,697,698,701,703,706,707,707,707,708,710,711,716,717,720,720,722,746,747,747,747,749,750,754,755,761,761,766,767,767,769,771,774,776,778,778,783,787,787,789,789,792,794,796,798,800,807,809,809,811,815,821,821,825,825,829,831,831,833,837,841,841,843,843,849,851,854,854,856,860,862,862,862,862,1671,1663,1663,1663,1663,1655,1655,1663,0,0,0,0,0,0,0,0,975,975,975,973,973,970,970,970,967,967,964,962,962,959,959,962,962,962,964,967,970,973,973,973,975,975,978,0,0,0,0,1564,1557,1557,1557,1550,1550,1550,1543,1543,1543,1543,1543,1536,1536,1536,1536,1529,1523,1523,1523,1516,1516,1516,1516,1516,1509,1509,1509,1509,1509,1503,1503,1496,1496,1496,1489,1489,1489,1489,1483,1483,1477,1477,1477,1470,1470,1470,1470,1470,1464,1464,1464,1458,1458,1452,1452,1452,1445,1445,1445,1445,1445,1445,1439,1433,1433,1427,1421,1421,1421,1421,1421,1421,1421,1415,1415,1415,1415,1410,1410,1410,1404,1404,1398,1398,1398,1392,1392,1392,1392,1387,1387,1387,1381,1381,1381,1376,1376,1376,1370,1370,1370,1365,1365,1359,1359,1359,1354,1354,1354,1349,1349,1349,1343,1343,1343,1338,1338,1333,1333,1333,1333,1333,1328,1328,1322,1322,1322,1317,1317,1312,1312,1312,1312,1307,1307,1307,1307,1307,1302,1302,1297,1292,1292,1292,1292,1288,1288,1288,1288,1283,1283,1283,1278,1278,1278,1273,1273,1268,1268,1268,1268,1264,1264,1264,1264,1259,1259,1255,1255,1255,1250,1250,1250,1250,1250,1245,1241,1241,1241,1241,1236,1236,1236,1236,1232,1232,1232,1232,1227,1227,1223,1219,1219,1219,1219,1214,1214,1214,1214,1210,1210,1210,1206,1206,1202,1202,1202,0,0,0,0,0,0,0,0,0,0,0,0,0,0,0,0,0,0,0,0,0,0,0,0,0,0,0,0,0,0
0,0,0,0,0,0,0,0,0,0,0,0,1705,1705,1705,1705,1705,1705,1713,1705,1705,1705,1722,1722,1722,1722,1722,1722,1722,1722,1722,1713,1713,1713,1722,1713,1713,1713,1713,1722,1722,1722,1722,1722,1731,1731,1722,1722,1722,1722,1722,1722,1722,1722,1722,1722,1722,1722,1722,1722,1722,1722,1722,1722,1722,1722,1722,1722,1722,1731,1731,1731,1731,1731,1731,1731,1722,1722,1722,1722,1722,1722,1722,1722,0,0,0,0,0,0,0,0,920,918,913,908,908,906,906,903,903,903,903,903,903,903,906,906,910,910,913,913,915,915,915,918,918,918,918,920,0,0,0,0,0,0,0,0,0,0,837,835,835,833,833,831,829,827,825,823,821,819,817,817,815,813,811,811,809,807,803,800,800,798,796,794,794,789,787,781,781,780,778,774,773,773,771,769,767,766,766,764,762,761,759,759,755,754,754,752,749,747,747,746,746,744,710,708,707,706,706,703,703,701,701,698,697,696,696,693,690,688,687,687,686,686,684,683,682,680,679,679,678,676,676,675,675,674,674,672,672,671,671,672,672,671,671,679,680,680,680,680,679,679,679,679,679,679,679,679,679,679,679,679,679,680,682,680,680,680,679,678,676,676,675,675,676,676,676,676,675,675,676,676,676,678,678,678,680,680,682,683,684,686,686,687,687,688,690,691,694,696,697,698,701,703,704,707,708,708,708,710,711,716,717,720,728,742,746,747,747,747,750,752,754,755,761,761,766,767,767,769,774,776,778,778,780,783,787,787,789,790,792,794,798,798,807,809,809,811,813,815,823,823,827,827,829,831,831,833,837,841,841,843,843,849,851,854,854,854,854,1671,1671,0,1671,1671,1671,1663,1663,1663,1655,1655,1663,1663,0,0,0,0,0,0,0,975,975,975,975,975,973,970,970,970,967,967,967,962,962,962,962,962,964,967,967,970,973,975,975,975,975,978,0,0,0,0,0,1557,1557,1557,1550,1550,1550,1550,1543,1543,1543,1543,1543,1543,1536,1536,1529,1523,1523,1523,1516,1516,1516,1516,1516,1516,1509,1509,1509,1509,1509,1503,1503,1496,1496,1496,1489,1489,1489,1489,1483,1477,1477,1477,1470,1470,1470,1470,1470,1464,1464,1464,1464,1458,1458,1452,1452,1452,1445,1445,1445,1445,1445,1439,1433,1433,1427,1427,1421,1421,1421,1421,1421,1421,1415,1415,1415,1415,1415,1410,1410,1410,1404,1398,1398,1398,1398,1392,1392,1392,1387,1387,1387,1381,1381,1381,1376,1376,1376,1370,1370,1370,1370,1365,1365,1365,1359,1354,1354,1354,1349,1349,1349,1343,1343,1343,1338,1338,1333,1333,1333,1333,1333,1328,1328,1328,1322,1322,1317,1317,1312,1312,1312,1312,1307,1307,1307,1307,1307,1307,1302,1302,1292,1292,1292,1292,1288,1288,1288,1288,1283,1283,1283,1283,1283,1283,1278,1273,1273,1268,1268,1268,1268,1264,1264,1264,1259,1259,1259,1255,1255,1255,1250,1250,1250,1250,1245,1245,1241,1241,1241,1236,1236,1236,1236,1232,1232,1232,1232,1227,1227,1223,1223,1219,1219,1219,1214,1214,1214,1214,1214,1214,1210,1210,1206,1206,1202,1202,0,0,0,0,0,0,0,0,0,0,0,0,0,0,0,0,0,0,0,0,0,0,0,0,0,0,0,0,0,0
0,0,0,0,0,0,0,0,0,0,0,0,1705,1705,1705,1696,1696,1705,1705,1696,1696,1696,1705,1713,1713,1713,1722,1722,1722,1722,1713,1713,1713,1713,1713,1705,1705,1705,1705,1705,1713,1713,1713,1713,1722,1722,1722,1722,1713,1713,1713,1713,1713,1713,1713,1713,1722,1722,1722,1722,1722,1722,1722,1722,1722,1722,1722,1722,1722,1722,1722,1722,1722,1722,1722,1722,1722,1722,1713,1713,1713,1713,1705,1705,0,0,0,0,0,0,0,0,920,918,915,910,908,908,906,903,903,903,903,903,903,903,906,906,910,910,913,913,915,915,915,918,918,918,918,918,0,0,0,0,0,0,0,0,0,0,835,835,835,833,831,829,829,827,825,823,821,819,817,817,815,813,811,811,809,809,803,803,802,800,796,796,796,792,790,783,783,781,778,776,774,773,771,771,769,769,766,764,762,761,759,759,755,754,754,752,749,747,747,747,746,744,742,710,708,707,706,703,701,701,701,698,697,696,696,694,690,688,687,687,686,686,684,684,683,679,679,679,678,676,675,674,674,672,672,671,671,670,670,667,666,666,666,666,662,662,662,666,675,675,674,672,672,672,676,675,671,671,671,671,672,680,682,680,679,679,678,676,676,675,675,674,674,674,674,674,674,674,675,675,675,676,676,676,678,679,680,682,683,684,686,687,687,688,690,691,694,697,697,700,701,703,704,707,708,708,708,710,733,733,734,728,728,741,746,747,747,749,750,752,754,755,761,761,766,767,767,769,774,776,778,778,780,785,789,789,789,792,794,796,798,800,809,809,809,811,813,817,819,823,827,829,829,831,831,833,837,839,841,841,843,849,854,854,854,854,0,1680,1671,1671,1671,1680,1671,1671,1663,1663,1663,1663,1663,1663,0,0,0,0,0,0,0,0,975,975,975,975,973,970,970,970,967,967,967,964,964,964,964,964,964,967,970,970,973,975,978,978,978,978,0,0,0,0,0,1557,1557,1557,1557,1550,1550,1550,1550,1543,1543,1543,1543,1543,1536,1536,1529,1529,1523,1523,1523,1516,1516,1516,1516,1516,1516,1509,1509,1509,1509,1503,1503,1496,1496,1496,1489,1489,1489,1489,1483,1483,1477,1477,1477,1470,1470,1470,1470,1464,1464,1464,1464,1464,1458,1458,1452,1452,1445,1445,1445,1445,1445,1439,1439,1433,1433,1427,1421,1421,1421,1421,1421,1421,1421,1415,1415,1415,1415,1415,1410,1410,1404,1404,1398,1398,1398,1392,1392,1392,1387,1387,1387,1387,1381,1381,1376,1376,1376,1370,1370,1370,1370,1370,1365,1365,1359,1354,1354,1354,1349,1349,1349,1349,1343,1343,1338,1338,1338,1338,1333,1333,1333,1328,1328,1328,1328,1322,1322,1317,1312,1312,1312,1312,1312,1307,1307,1307,1307,1307,1302,1302,1292,1292,1292,1292,1288,1288,1288,1288,1283,1283,1283,1283,1283,1283,1278,1278,1273,1273,1268,1268,1268,1268,1268,1264,1264,1259,1259,1255,1255,1255,1250,1250,1250,1250,1245,1245,1241,1241,1241,1236,1236,1236,1236,1236,1232,1232,1232,1227,1227,1223,1223,1219,1219,1219,1214,1214,1214,1214,1214,1214,1210,1210,1206,1206,1202,1202,0,0,0,0,0,0,0,0,0,0,0,0,0,0,0,0,0,0,0,0,0,0,0,0,0,0,0,0,0,0
0,0,0,0,0,0,0,0,0,0,0,0,1696,1696,1696,1696,1696,1696,1705,1696,1696,1696,1705,1705,1705,1705,1705,1713,1722,1713,1713,1713,1713,1713,1705,1705,1696,1696,1696,1696,1705,1705,1705,1713,1713,1713,1713,1713,1713,1705,1705,1713,1713,1713,1713,1713,1713,1713,1713,1713,1713,1713,1713,1713,1713,1713,1713,1722,1722,1713,1713,1713,1713,1713,1713,1713,1713,1713,1713,1713,1713,1705,1705,1705,0,0,0,0,0,0,0,923,920,918,915,913,910,910,906,906,906,906,906,906,906,906,906,908,910,910,913,913,915,915,918,918,918,918,918,918,923,0,0,0,0,0,0,0,0,0,0,1696,831,831,831,829,827,827,825,823,821,819,817,817,815,813,813,811,811,809,803,803,802,800,796,796,796,794,792,790,785,783,780,776,774,774,773,771,769,769,767,764,762,761,759,759,755,754,754,752,749,747,747,747,746,744,742,741,738,736,734,703,701,701,701,700,697,696,696,691,690,688,688,687,686,686,684,684,683,679,679,679,676,675,674,674,672,672,672,671,670,670,668,667,666,666,666,664,662,662,662,666,670,670,671,670,670,670,670,670,670,671,671,671,670,670,670,680,676,676,675,675,675,674,674,672,672,671,671,671,672,672,672,674,674,675,675,676,676,678,679,680,682,684,686,687,687,688,690,693,694,698,698,700,701,703,704,707,708,708,733,733,734,734,736,736,741,741,746,749,749,749,750,754,754,755,757,762,766,767,767,771,776,776,778,780,780,785,787,789,790,794,796,798,798,802,809,809,811,811,815,819,819,823,827,829,831,831,833,835,837,837,839,839,843,0,843,0,1688,0,1688,1680,1680,1671,1671,1680,1680,1671,1671,1671,1671,1671,1663,1663,0,0,0,0,0,0,0,0,975,975,975,975,973,973,970,970,970,967,967,967,964,964,964,964,967,967,970,973,975,978,978,981,981,981,989,0,0,0,0,1564,1564,1557,1557,1557,1550,1550,1550,1550,1543,1543,1543,1543,1536,1536,1536,1536,1529,1523,1523,1523,1516,1516,1516,1516,1516,1516,1509,1509,1509,1503,1496,1496,1496,1496,1489,1489,1489,1489,1483,1483,1477,1477,1477,1470,1470,1470,1470,1470,1464,1464,1464,1464,1464,1458,1458,1452,1452,1445,1445,1445,1445,1439,1439,1439,1433,1427,1427,1421,1421,1421,1421,1421,1421,1421,1415,1415,1415,1415,1410,1410,1404,1404,1404,1398,1398,1398,1392,1392,1392,1392,1392,1387,1381,1381,1381,1376,1376,1376,1376,1370,1370,1370,1365,1365,1365,1354,1354,1354,1354,1349,1349,1349,1349,1343,1343,1338,1338,1338,1338,1333,1333,1333,1328,1328,1328,1328,1322,1317,1317,1312,1312,1312,1312,1312,1312,1307,1307,1307,1307,1302,1297,1292,1292,1292,1288,1288,1288,1288,1283,1283,1283,1283,1283,1283,1278,1278,1278,1273,1268,1268,1268,1268,1268,1264,1264,1259,1259,1255,1255,1255,1255,1250,1250,1250,1250,1245,1245,1245,1241,1241,1236,1236,1236,1236,1236,1232,1232,1227,1227,1223,1223,1223,1219,1219,1219,1214,1214,1214,1214,1214,1210,1210,1206,1206,1202,1202,0,0,0,0,0,0,0,0,0,0,0,0,0,0,0,0,0,0,0,0,0,0,0,0,0,0,0,0,0,0
0,0,0,0,0,0,0,0,0,0,0,0,1696,1696,1696,1696,1696,1696,1696,1696,1696,1696,1696,1696,1696,1696,1696,1713,1713,1705,1705,1705,1705,1705,1696,1696,1696,1696,1696,1688,1688,1696,1696,1696,1705,1705,1705,1705,1705,1696,1696,1696,1696,1705,1705,1705,1705,1705,1705,1705,1705,1696,1696,1705,1705,1705,1705,1713,1713,1705,1705,1705,1705,1705,1705,1713,1705,1705,1713,1705,1705,1696,1696,1696,0,0,0,0,0,0,0,923,920,920,918,913,913,913,908,906,906,906,906,906,906,906,906,908,910,913,913,913,915,918,918,918,918,918,920,918,918,0,0,0,0,0,0,0,0,0,1696,1696,1696,1696,829,829,827,827,825,825,819,819,817,817,815,813,813,811,811,809,805,803,802,800,796,796,796,794,792,790,789,785,783,780,780,776,773,773,771,771,769,766,764,762,761,759,757,755,754,752,750,749,747,747,746,744,742,741,738,738,734,734,734,733,733,700,698,696,696,691,690,688,688,688,687,686,684,684,683,680,679,679,676,675,674,674,672,671,671,671,670,668,667,666,666,664,664,663,662,661,661,659,659,666,666,666,667,667,667,667,666,666,667,666,666,666,666,676,676,676,674,674,674,672,671,671,671,670,670,670,671,671,671,672,674,675,675,675,676,678,678,680,682,684,686,687,687,690,690,693,694,698,698,700,701,703,704,727,728,733,733,733,734,734,736,738,739,742,746,747,749,750,752,754,755,755,757,764,766,767,767,771,776,778,778,780,785,787,787,790,790,796,798,798,800,803,809,809,811,813,815,819,819,823,827,829,831,831,831,835,835,837,837,839,0,0,0,0,0,1688,1688,1688,1680,1680,1688,1688,1680,1680,1671,1671,1671,1671,1671,1671,0,0,0,0,0,0,0,0,978,978,978,978,975,973,973,970,970,970,967,967,967,967,967,967,967,967,970,973,975,978,978,981,981,984,989,0,0,0,0,0,1564,1564,1564,1557,1557,1550,1550,1550,1543,1543,1543,1543,1543,1536,1536,1536,1529,1523,1523,1523,1516,1516,1516,1516,1516,1516,1509,1509,1509,1503,1496,1496,1496,1496,1489,1489,1489,1489,1483,1483,1477,1477,1477,1470,1470,1470,1470,1470,1464,1464,1464,1464,1464,1458,1458,1452,1452,1445,1445,1445,1445,1439,1439,1439,1433,1433,1427,1427,1421,1421,1421,1421,1421,1421,1415,1415,1415,1415,1410,1410,1404,1404,1404,1398,1398,1398,1392,1392,1392,1392,1392,1392,1387,1381,1381,1376,1376,1376,1376,1376,1370,1370,1370,1365,1365,1354,1354,1354,1354,1354,1349,1349,1349,1349,1343,1343,1343,1338,1338,1333,1333,1333,1328,1328,1328,1328,1322,1317,1317,1312,1312,1312,1312,1312,1312,1307,1307,1307,1307,1302,1297,1292,1292,1292,1288,1288,1288,1288,1283,1283,1283,1283,1283,1283,1278,1278,1278,1273,1273,1268,1268,1268,1268,1264,1264,1259,1259,1259,1255,1255,1255,1255,1250,1250,1250,1250,1245,1245,1241,1241,1236,1236,1236,1236,1236,1232,1232,1232,1232,1227,1223,1223,1219,1219,1219,1214,1214,1214,1214,1214,1214,1210,1206,1206,1202,1202,0,0,0,0,0,0,0,0,0,0,0,0,0,0,0,0,0,0,0,0,0,0,0,0,0,0,0,0,0,0
0,0,0,0,0,0,0,0,0,0,0,0,1688,1688,1688,1688,1688,1688,1688,1688,1688,1688,1688,1688,1688,1688,1696,1705,1696,1696,1696,1696,1696,1696,1696,1696,1696,1688,1688,1688,1688,1688,1688,1688,1696,1696,1696,1696,1696,1696,1696,1696,1696,1696,1696,1696,1696,1696,1696,1696,1696,1696,1696,1696,1696,1696,1696,1705,1705,1705,1705,1705,1705,1705,1705,1705,1705,1705,1705,1705,1696,1696,1688,1688,0,0,0,0,0,0,0,923,920,920,920,915,915,915,913,908,906,906,906,906,906,906,906,910,910,913,913,913,915,918,918,920,920,920,920,918,918,0,0,0,0,0,1705,1696,1696,1696,1696,1696,1696,1696,1688,827,827,827,825,825,819,819,817,817,815,813,813,811,811,807,805,803,802,800,800,798,796,796,794,792,789,787,785,781,780,778,774,773,773,771,767,766,764,762,761,761,759,757,755,752,750,749,747,747,746,744,742,741,738,738,736,734,734,733,733,733,733,696,696,691,690,687,687,687,687,686,684,684,683,682,679,679,676,675,674,674,672,671,671,671,668,668,667,666,666,664,664,663,661,661,659,658,658,662,663,664,664,664,664,664,663,663,664,662,662,661,661,659,659,661,661,661,674,668,668,668,668,667,667,668,668,670,670,671,672,674,675,675,676,676,678,679,682,684,686,687,687,690,690,691,694,700,700,701,703,703,704,725,728,731,731,733,734,734,736,739,739,746,747,747,749,750,754,754,755,757,757,766,767,767,769,774,776,778,780,781,785,787,787,790,792,796,798,798,802,805,809,809,811,813,817,819,821,823,827,829,831,831,831,833,833,835,837,837,837,0,0,0,0,0,1688,1688,1688,1688,1688,1688,1680,1680,1680,1680,1671,1671,1671,1663,1663,0,0,0,0,0,0,0,981,978,978,978,975,975,973,973,970,970,970,967,967,967,967,967,967,970,970,973,978,981,981,984,984,987,989,0,0,0,0,1564,1564,1564,1564,1557,1557,1550,1550,1550,1543,1543,1543,1543,1543,1543,1536,1536,1529,1529,1523,1523,1516,1516,1516,1516,1516,1516,1509,1509,1509,1503,1496,1496,1496,1496,1489,1489,1489,1489,1489,1483,1483,1477,1477,1470,1470,1470,1470,1470,1464,1464,1464,1464,1464,1458,1458,1452,1452,1452,1445,1445,1445,1439,1439,1439,1439,1433,1427,1427,1427,1421,1421,1421,1421,1421,1415,1415,1415,1415,1410,1410,1404,1404,1404,1398,1398,1398,1392,1392,1392,1392,1392,1392,1387,1387,1381,1381,1376,1376,1376,1376,1370,1370,1370,1365,1365,1354,1354,1354,1354,1354,1349,1349,1349,1349,1349,1343,1343,1343,1338,1333,1333,1333,1328,1328,1328,1322,1322,1317,1317,1317,1312,1312,1312,1312,1312,1307,1307,1307,1307,1302,1302,1292,1292,1292,1292,1288,1288,1288,1288,1288,1288,1288,1283,1283,1283,1278,1278,1273,1273,1273,1273,1268,1268,1268,1264,1264,1259,1259,1255,1255,1255,1255,1250,1250,1250,1250,1245,1241,1241,1236,1236,1236,1236,1236,1236,1232,1232,1232,1232,1227,1227,1223,1219,1219,1219,1219,1214,1214,1214,1214,1214,1210,1206,1206,1202,1202,0,0,0,0,0,0,0,0,0,0,0,0,0,0,0,0,0,0,0,0,0,0,0,0,0,0,0,0,0,0
0,0,0,0,0,0,0,0,0,0,0,0,1688,1688,1688,1688,1688,1680,1680,1688,1688,1680,1680,1680,1680,1680,1688,1688,1688,1688,1688,1688,1688,1688,1688,1688,1688,1688,1688,1680,1680,1680,1680,1680,1688,1696,1696,1688,1688,1688,1688,1688,1688,1688,1688,1688,1688,1688,1688,1688,1688,1688,1688,1688,1688,1688,1696,1696,1696,1688,1688,1696,1696,1705,1705,1705,1696,1696,1696,1696,1688,1688,1680,1680,0,0,0,0,0,0,925,923,920,920,920,918,918,915,913,910,908,906,906,906,906,906,908,910,910,913,915,915,915,918,918,920,920,920,920,920,0,0,0,0,0,1696,1696,1696,1696,1696,1696,1696,1688,1688,1688,1688,1688,1688,1688,823,823,819,819,817,817,815,813,811,811,807,805,803,802,800,800,798,796,796,794,792,790,789,785,783,781,780,776,774,773,771,767,766,764,764,762,761,759,757,754,752,750,749,747,747,746,744,742,741,738,738,736,734,734,733,731,731,731,728,728,725,720,686,686,687,686,686,684,684,684,682,682,680,676,675,674,674,672,671,671,670,668,667,666,666,664,664,663,662,661,659,658,658,658,658,659,661,663,663,663,662,662,662,662,661,661,659,658,658,658,658,658,658,661,663,664,664,666,666,666,667,667,668,668,668,671,674,674,675,676,676,678,679,682,684,686,687,687,688,690,691,693,703,703,703,703,723,723,725,727,730,730,731,734,734,736,739,739,746,747,747,749,750,754,754,755,757,762,766,769,769,771,776,776,778,780,781,785,787,787,790,796,798,798,800,802,805,809,809,811,813,817,819,819,823,827,829,829,831,831,833,833,835,835,835,0,1696,0,0,1696,1696,1688,1688,1688,1688,1688,1688,1680,1680,1680,1680,1671,1671,1671,1663,1663,0,0,0,0,0,0,0,981,981,981,978,978,978,975,975,970,970,970,967,967,967,967,967,970,970,973,975,978,981,981,984,984,987,989,0,0,0,0,1564,1564,1564,1564,1564,1557,1550,1550,1550,1550,1543,1543,1543,1543,1543,1536,1536,1536,1529,1523,1523,1523,1516,1516,1516,1516,1516,1516,1509,1509,1503,1503,1496,1496,1496,1496,1489,1489,1489,1489,1483,1483,1477,1477,1470,1470,1470,1470,1470,1470,1470,1470,1464,1464,1464,1458,1458,1452,1452,1445,1445,1445,1445,1439,1439,1439,1439,1433,1427,1427,1421,1421,1421,1421,1421,1415,1415,1415,1415,1415,1410,1410,1404,1404,1398,1398,1398,1392,1392,1392,1392,1392,1392,1387,1387,1381,1381,1376,1376,1376,1376,1370,1370,1370,1370,1365,1365,1359,1359,1354,1354,1349,1349,1349,1349,1349,1349,1343,1343,1338,1333,1333,1333,1328,1328,1328,1322,1322,1317,1317,1317,1317,1312,1312,1312,1312,1307,1307,1307,1307,1307,1302,1297,1297,1292,1292,1292,1292,1288,1288,1288,1288,1288,1288,1288,1283,1278,1278,1273,1273,1273,1273,1268,1268,1268,1264,1264,1259,1259,1255,1255,1255,1255,1255,1250,1250,1245,1245,1241,1241,1236,1236,1236,1236,1236,1236,1236,1236,1232,1232,1227,1227,1223,1219,1219,1219,1219,1219,1214,1214,1214,1214,1210,1210,1206,1202,1202,0,0,0,0,0,0,0,0,0,0,0,0,0,0,0,0,0,0,0,0,0,0,0,0,0,0,0,0,0,0
0,0,0,0,0,0,0,0,0,0,0,0,1680,1680,1680,1680,1680,1680,1680,1688,1680,1680,1671,1671,1680,1680,1680,1680,1680,1680,1680,1680,1680,1688,1688,1688,1688,1688,1680,1680,1680,1680,1680,1680,1680,1688,1688,1688,1688,1688,1688,1680,1680,1680,1680,1688,1688,1688,1688,1688,1688,1688,1688,1688,1688,1688,1688,1688,1688,1688,1688,1688,1688,1688,1688,1688,1688,1688,1688,1680,1671,1671,1671,1680,0,0,0,0,0,0,925,923,923,920,920,918,918,918,915,913,910,908,908,908,908,908,910,910,913,913,915,915,918,918,918,920,920,920,920,923,0,0,0,0,0,1696,1696,1696,1696,1696,1696,1696,1688,1688,1688,1688,1688,1688,1688,1663,821,821,819,817,817,815,813,811,811,807,805,803,802,800,800,798,796,796,794,792,790,789,787,785,783,781,780,778,776,773,769,767,766,764,764,762,761,759,754,752,752,750,749,747,747,746,744,741,741,738,736,734,734,733,731,731,730,728,727,723,720,686,686,686,686,686,686,686,686,683,682,680,678,675,674,674,672,671,671,670,668,667,666,666,664,663,662,661,659,659,658,657,657,657,657,655,655,658,659,661,661,661,661,659,659,657,655,655,657,657,657,657,658,659,661,661,664,664,664,666,667,668,668,668,671,674,674,675,676,678,678,679,682,683,686,687,688,688,690,691,693,706,713,716,720,720,722,723,727,730,730,731,734,736,738,739,739,746,747,747,750,752,754,755,757,757,762,764,769,769,773,776,778,778,780,785,787,787,789,792,796,798,798,800,802,805,809,809,811,815,817,819,819,821,827,829,829,831,831,833,833,833,1688,0,0,0,1696,1696,1696,1696,1688,1688,1688,1688,1688,1688,1680,1680,1680,1680,1671,1671,1671,1663,1663,0,0,0,0,0,0,0,984,981,981,981,981,978,978,975,975,973,970,970,967,967,967,970,970,970,973,975,978,981,981,984,984,987,989,0,0,0,0,0,1572,1572,1572,1564,1557,1557,1550,1550,1550,1543,1543,1543,1543,1543,1543,1543,1536,1529,1523,1523,1523,1523,1516,1516,1516,1516,1516,1516,1509,1509,1503,1496,1496,1496,1496,1489,1489,1489,1489,1483,1483,1483,1477,1470,1470,1470,1470,1470,1470,1470,1470,1464,1464,1464,1458,1458,1458,1452,1452,1445,1445,1445,1445,1439,1439,1439,1433,1433,1427,1427,1421,1421,1421,1421,1415,1415,1415,1415,1415,1415,1410,1410,1404,1404,1398,1398,1398,1392,1392,1392,1392,1387,1387,1381,1381,1381,1376,1376,1376,1376,1370,1370,1370,1370,1365,1365,1359,1359,1354,1354,1354,1349,1349,1349,1349,1349,1343,1343,1343,1338,1333,1333,1333,1328,1328,1328,1328,1322,1322,1322,1317,1317,1312,1312,1312,1312,1307,1307,1307,1307,1302,1297,1297,1297,1292,1292,1292,1292,1288,1288,1288,1288,1288,1288,1283,1278,1278,1278,1273,1273,1273,1268,1268,1268,1264,1264,1264,1259,1259,1255,1255,1255,1255,1250,1250,1245,1245,1241,1241,1236,1236,1236,1236,1236,1236,1236,1236,1232,1232,1232,1232,1223,1219,1219,1219,1219,1219,1214,1214,1214,1214,1210,1210,1206,1206,1206,0,0,0,0,0,0,0,0,0,0,0,0,0,0,0,0,0,0,0,0,0,0,0,0,0,0,0,0,0,0
0,0,0,0,0,0,0,0,0,0,0,0,1680,1680,1680,1671,1671,1671,1671,1680,1671,1671,1663,1663,1671,1671,1671,1671,1671,1671,1671,1671,1671,1671,1671,1680,1680,1663,1663,1680,1680,1680,1680,1680,1680,1688,1688,1688,1688,1688,1688,1680,1680,1680,1680,1680,1680,1680,1671,1671,1680,1680,1680,1680,1680,1680,1680,1680,1680,1680,1680,1680,1680,1680,1680,1680,1680,1671,1671,1671,1671,1671,1671,1671,0,0,0,0,0,0,0,923,923,920,920,918,918,918,915,915,913,910,908,908,908,908,910,913,913,913,915,915,918,918,923,923,923,923,923,923,0,0,0,0,0,0,1696,1688,1688,1688,1688,1688,1688,1688,1680,1680,1671,1663,1663,1663,1663,819,819,817,817,815,813,811,811,805,803,803,802,800,800,798,796,796,794,792,790,789,787,785,785,783,780,780,778,774,773,769,767,767,766,764,761,759,754,754,752,750,750,749,747,746,746,744,742,738,736,734,734,733,731,731,730,728,727,723,722,720,686,686,686,686,684,684,686,683,683,680,679,676,675,674,672,671,671,670,668,667,666,666,664,663,662,661,659,659,658,657,657,655,655,655,654,654,655,659,658,655,655,655,654,652,652,652,653,654,654,655,657,658,659,661,661,663,663,664,666,667,668,668,671,674,674,675,676,678,678,679,680,682,684,687,688,690,690,711,711,713,713,716,720,720,722,723,727,730,730,731,734,736,738,739,739,746,747,747,750,754,755,755,757,757,762,764,769,769,776,778,778,778,781,787,787,790,792,794,796,798,798,800,803,807,809,809,811,815,817,819,819,821,827,829,831,831,831,1696,1696,1696,0,1688,0,1696,1696,1696,1696,1696,1696,1696,1696,1688,1688,1688,1688,1680,1680,1680,1671,1671,1671,1671,1671,0,0,0,0,0,0,0,0,984,981,981,981,978,978,978,975,975,973,970,970,970,970,970,970,970,973,975,978,981,984,984,987,989,989,0,0,0,0,0,1572,1564,1564,1564,1557,1557,1557,1550,1550,1543,1543,1543,1543,1543,1543,1543,1543,1529,1529,1523,1523,1523,1523,1516,1516,1516,1516,1509,1509,1509,1503,1496,1496,1496,1496,1496,1489,1489,1489,1483,1483,1483,1477,1477,1477,1470,1470,1470,1470,1470,1470,1464,1464,1464,1458,1458,1458,1458,1452,1445,1445,1445,1445,1439,1439,1439,1433,1433,1427,1427,1421,1421,1421,1421,1421,1415,1415,1415,1415,1415,1410,1410,1410,1404,1398,1398,1398,1392,1392,1392,1392,1387,1387,1381,1381,1381,1376,1376,1376,1376,1370,1370,1370,1370,1365,1365,1365,1359,1354,1354,1354,1354,1354,1349,1349,1349,1343,1343,1343,1338,1333,1333,1333,1328,1328,1328,1328,1322,1322,1322,1317,1317,1312,1312,1312,1312,1307,1307,1307,1307,1302,1297,1297,1297,1292,1292,1292,1292,1288,1288,1288,1288,1288,1288,1283,1283,1278,1278,1273,1273,1273,1268,1268,1268,1264,1264,1264,1259,1259,1255,1255,1255,1255,1250,1250,1250,1245,1245,1241,1241,1241,1241,1236,1236,1236,1236,1236,1232,1232,1232,1232,1223,1219,1219,1219,1219,1219,1214,1214,1214,1214,1210,1210,1206,1206,1206,0,0,0,0,0,0,0,0,0,0,0,0,0,0,0,0,0,0,0,0,0,0,0,0,0,0,0,0,0,0
0,0,0,0,0,0,0,0,0,0,0,0,1655,1655,1663,1663,1663,1663,1663,1663,1663,1663,1663,1663,1663,1663,1663,1663,1663,1663,1655,1655,1663,1663,1663,1663,1663,1663,1663,1671,1671,1671,1671,1671,1680,1688,1688,1688,1688,1688,1688,1680,1671,1671,1671,1671,1671,1671,1671,1671,1671,1671,1671,1671,1671,1671,1671,1671,1671,1671,1671,1671,1671,1671,1671,1671,1671,1663,1663,1663,1663,1663,1663,1671,0,0,0,0,0,0,0,925,923,923,920,920,918,918,915,915,915,910,910,908,908,910,913,913,913,913,915,915,918,918,923,923,923,923,923,923,0,0,0,0,0,0,1688,1680,1680,1688,1680,1680,1680,1680,1680,1680,1671,1663,1663,1663,1663,1663,1663,817,817,815,815,813,811,805,803,803,802,800,800,798,796,796,794,792,790,789,787,785,785,783,781,780,780,774,773,771,767,767,766,764,761,761,755,754,752,750,750,749,747,746,746,744,742,741,739,738,734,733,731,731,730,728,727,725,722,722,720,717,686,686,684,684,684,684,682,680,679,676,676,675,672,671,671,670,668,667,666,666,664,663,662,661,659,659,658,657,655,655,654,654,653,653,653,654,655,655,655,654,653,652,652,652,652,653,654,654,655,657,658,659,659,662,663,664,666,666,667,667,670,674,674,675,676,678,678,679,680,680,682,687,710,710,711,713,713,713,713,717,720,720,722,725,727,730,730,731,734,736,739,739,742,746,747,747,750,754,755,755,757,757,762,766,767,769,776,778,778,780,781,787,787,790,792,796,798,798,798,800,803,807,809,809,811,815,815,817,819,825,829,829,831,831,831,1696,1696,1696,1688,1688,1688,1688,1688,1688,1688,1696,1696,1696,1696,1696,1688,1688,1688,1680,1680,1680,1671,1671,1671,1671,1671,0,0,0,0,0,0,0,987,984,984,981,981,981,981,978,978,975,973,970,970,970,970,970,973,973,975,978,981,981,984,987,987,989,989,0,0,0,0,1572,1572,1564,1564,1564,1557,1557,1557,1550,1550,1543,1543,1543,1543,1543,1543,1543,1543,1536,1529,1529,1523,1523,1523,1516,1516,1516,1509,1509,1509,1503,1503,1496,1496,1496,1496,1496,1489,1489,1489,1489,1483,1483,1477,1477,1477,1470,1470,1470,1470,1470,1470,1470,1464,1464,1458,1458,1458,1458,1452,1445,1445,1445,1445,1439,1439,1439,1439,1433,1433,1427,1427,1421,1421,1421,1421,1421,1421,1415,1415,1415,1415,1410,1410,1404,1398,1398,1398,1398,1392,1392,1392,1392,1387,1381,1381,1381,1376,1376,1376,1376,1370,1370,1370,1370,1370,1365,1365,1365,1359,1354,1354,1354,1354,1354,1349,1349,1349,1349,1343,1338,1333,1333,1333,1328,1328,1328,1328,1328,1328,1322,1322,1317,1312,1312,1312,1312,1307,1307,1307,1307,1302,1302,1302,1297,1292,1292,1292,1292,1288,1288,1288,1288,1288,1288,1283,1283,1278,1278,1273,1273,1273,1268,1268,1268,1264,1264,1264,1259,1259,1255,1255,1255,1255,1250,1250,1250,1245,1245,1245,1241,1241,1241,1241,1236,1236,1236,1236,1236,1232,1232,1232,1223,1223,1219,1219,1219,1219,1214,1214,1214,1214,1210,1210,1206,1206,1206,0,0,0,0,0,0,0,0,0,0,0,0,0,0,0,0,0,0,0,0,0,0,0,0,0,0,0,0,0,0
0,0,0,0,0,0,0,0,0,0,0,0,1655,1655,1655,1655,1655,1647,1647,1655,1655,1663,1655,1655,1663,1663,1663,1655,1655,1655,1655,1655,1655,1655,1655,1663,1655,1655,1655,1663,1663,1663,1671,1671,1680,1688,1680,1680,1680,1680,1680,1671,1663,1663,1671,1671,1671,1663,1663,1663,1663,1663,1663,1671,1671,1671,1671,1663,1663,1663,1663,1663,1663,1663,1663,1663,1663,1663,1663,1655,1655,1663,1663,1663,0,0,0,0,0,0,0,0,923,923,920,920,918,918,915,915,913,910,910,910,910,910,913,913,913,915,915,918,918,920,923,923,923,923,923,923,0,0,0,0,0,0,1688,1680,1680,1680,1680,1680,1680,1680,1671,1671,1663,1663,1663,1663,1663,1663,1663,1655,1655,1655,1655,811,811,803,803,803,802,800,800,798,796,794,794,792,790,789,787,787,785,783,781,781,780,774,774,773,771,769,767,766,764,762,761,755,754,752,752,750,747,747,746,746,744,742,739,739,734,734,733,731,731,728,727,725,722,722,720,719,717,716,684,684,684,684,680,680,679,676,676,675,672,671,670,670,668,667,666,666,664,663,662,661,659,658,657,655,655,654,653,653,653,652,652,652,652,652,650,650,650,650,650,650,650,652,653,654,654,655,658,658,659,661,662,664,666,666,667,667,670,674,674,676,676,678,678,679,679,679,682,707,707,707,710,713,713,713,714,717,720,720,722,727,728,730,730,731,736,738,739,739,742,746,747,747,750,754,755,757,757,761,766,767,767,771,776,778,778,780,781,787,787,790,794,798,798,798,798,800,803,807,809,809,813,815,815,817,821,821,0,1671,1671,1671,1688,1688,1688,1688,1688,1688,1688,1688,1688,1688,1688,1696,1696,1696,1688,1688,1688,1688,1688,1680,1680,1680,1671,1671,1671,1671,1671,0,0,0,0,0,0,0,987,984,984,981,981,981,981,978,978,978,973,973,970,970,970,973,973,975,978,978,981,984,984,987,987,989,989,0,0,0,0,1572,1572,1564,1564,1564,1557,1557,1557,1550,1550,1550,1543,1543,1543,1543,1543,1543,1536,1536,1529,1529,1523,1523,1523,1516,1516,1516,1509,1509,1509,1503,1503,1496,1496,1496,1496,1496,1489,1489,1489,1489,1483,1483,1483,1477,1477,1470,1470,1470,1470,1470,1470,1464,1464,1464,1464,1464,1464,1458,1452,1445,1445,1445,1445,1439,1439,1439,1439,1433,1433,1427,1427,1421,1421,1421,1421,1421,1421,1415,1415,1415,1415,1410,1410,1404,1398,1398,1398,1398,1392,1392,1392,1392,1387,1387,1381,1381,1381,1376,1376,1376,1370,1370,1370,1370,1370,1365,1365,1359,1359,1354,1354,1354,1354,1354,1349,1349,1349,1349,1343,1343,1338,1333,1333,1328,1328,1328,1328,1322,1322,1322,1322,1317,1312,1312,1312,1312,1307,1307,1307,1307,1307,1302,1302,1297,1297,1292,1292,1292,1288,1288,1288,1288,1288,1288,1283,1283,1278,1278,1273,1273,1273,1268,1268,1268,1264,1264,1264,1264,1259,1259,1259,1255,1255,1250,1250,1250,1245,1245,1245,1241,1241,1241,1241,1236,1236,1236,1236,1236,1232,1232,1232,1227,1223,1223,1219,1219,1219,1219,1214,1214,1214,1210,1210,1210,1206,1206,0,0,0,0,0,0,0,0,0,0,0,0,0,0,0,0,0,0,0,0,0,0,0,0,0,0,0,0,0,0
0,0,0,0,0,0,0,0,0,0,0,0,1639,1639,1647,1647,1647,1639,1639,1639,1639,1647,1647,1647,1655,1655,1655,1655,1647,1647,1647,1647,1655,1655,1655,1655,1655,1655,1655,1655,1655,1655,1663,1663,1671,1680,1671,1671,1671,1671,1671,1663,1655,1655,1663,1663,1663,1663,1663,1663,1663,1663,1663,1663,1663,1663,1663,1663,1663,1663,1663,1655,1655,1655,1655,1655,1655,1655,1655,1655,1655,1655,1663,1663,0,0,0,0,0,0,0,0,923,923,923,920,918,915,915,913,913,910,910,910,910,913,913,913,915,915,915,918,918,920,923,923,925,925,925,925,925,0,0,0,0,0,1688,1680,1680,1671,1671,1671,1671,1671,1671,1663,1663,1663,1655,1655,1655,1655,1655,1655,1655,1655,1655,1655,803,803,803,803,803,802,800,798,796,794,794,792,792,789,787,787,785,783,781,781,780,774,774,773,773,771,769,767,767,766,764,759,755,754,752,750,749,747,746,746,744,742,739,739,736,734,733,733,731,730,727,727,723,722,720,719,717,716,716,716,714,684,680,680,680,679,678,676,675,671,670,670,668,667,667,666,664,663,662,661,659,658,657,655,655,654,653,653,652,652,650,650,650,650,650,650,649,649,650,650,650,652,652,653,654,655,658,658,659,661,662,664,666,666,667,670,670,674,675,676,678,678,678,678,678,678,706,706,706,707,710,713,713,714,716,719,720,720,722,727,728,730,730,733,736,738,739,741,744,747,747,747,750,754,755,757,757,762,766,767,767,771,778,778,780,780,785,787,787,792,794,798,798,798,798,802,803,805,807,809,813,815,815,815,1663,1663,1663,1671,1671,1671,1680,1680,1680,1680,1680,1680,1680,1680,1680,1688,1688,1696,1696,1688,1688,1688,1688,1688,1680,1680,1680,1680,1671,1671,1663,1663,1663,1671,0,0,0,0,0,0,987,987,984,984,984,981,981,978,978,978,973,973,970,970,970,973,973,975,978,981,984,987,987,989,989,989,0,0,0,0,0,1572,1572,1564,1564,1564,1557,1557,1557,1550,1550,1550,1543,1543,1543,1543,1543,1543,1536,1536,1529,1529,1529,1523,1523,1516,1516,1516,1509,1509,1509,1509,1503,1503,1496,1496,1496,1496,1489,1489,1489,1489,1489,1483,1483,1477,1477,1470,1470,1470,1470,1470,1470,1464,1464,1464,1464,1464,1464,1458,1452,1452,1445,1445,1445,1439,1439,1439,1439,1433,1433,1427,1427,1427,1421,1421,1421,1421,1421,1415,1415,1415,1415,1410,1410,1404,1398,1398,1398,1398,1392,1392,1392,1392,1387,1387,1381,1381,1381,1376,1376,1376,1376,1370,1370,1370,1370,1370,1370,1359,1359,1354,1354,1354,1354,1354,1349,1349,1349,1349,1343,1343,1338,1333,1333,1333,1328,1328,1328,1322,1322,1322,1322,1317,1312,1312,1312,1312,1307,1307,1307,1307,1307,1302,1302,1297,1297,1292,1292,1292,1292,1292,1292,1292,1288,1288,1283,1283,1283,1278,1273,1273,1273,1273,1268,1268,1264,1264,1264,1264,1259,1259,1259,1255,1255,1250,1250,1250,1250,1250,1245,1245,1245,1245,1245,1241,1241,1236,1236,1236,1232,1232,1232,1227,1227,1223,1219,1219,1219,1219,1214,1214,1214,1214,1214,1210,1210,1210,0,0,0,0,0,0,0,0,0,0,0,0,0,0,0,0,0,0,0,0,0,0,0,0,0,0,0,0,0,0
0,0,0,0,0,0,0,0,0,0,0,0,1639,1639,1639,1639,1632,1632,1632,1632,1632,1632,1639,1639,1639,1639,1639,1639,1647,1639,1639,1639,1647,1647,1647,1647,1647,1647,1655,1647,1647,1655,1655,1655,1663,1671,1663,1663,1663,1663,1663,1663,1655,1655,1655,1655,1655,1655,1655,1655,1655,1655,1655,1655,1655,1655,1655,1655,1655,1647,1647,1647,1647,1655,1655,1655,1655,1655,1655,1655,1655,1655,1655,1655,0,0,0,0,0,0,0,0,923,923,923,923,918,915,915,913,913,913,913,910,910,913,913,913,915,915,915,918,918,920,923,923,925,925,925,925,925,0,0,0,0,0,0,1671,1671,1671,1663,1663,1663,1663,1663,1663,1663,1663,1655,1655,1655,1655,1655,1655,1655,1655,1655,1655,1655,1655,803,803,803,802,800,798,796,794,792,792,792,789,789,787,785,783,781,781,780,774,774,774,773,773,771,769,767,767,764,762,761,755,754,752,749,747,747,746,746,744,741,738,736,734,733,733,731,731,728,727,725,723,722,720,717,716,716,716,714,714,680,680,680,679,679,676,675,672,671,670,668,668,667,667,666,664,663,661,659,658,657,655,655,654,653,652,652,650,650,650,649,649,649,649,648,648,649,649,649,650,652,653,654,655,657,658,659,661,662,664,666,666,667,670,674,675,675,676,678,678,678,678,678,678,704,706,706,708,710,713,713,714,717,719,720,722,723,727,728,730,730,734,738,739,739,741,744,747,747,747,752,755,757,757,759,762,767,767,769,776,778,778,780,781,785,789,789,792,794,798,798,798,798,802,803,805,807,813,813,0,0,0,0,1663,1663,1663,1663,1663,1671,1671,1671,1680,1680,1680,1680,1680,1680,1680,1680,1680,1680,1671,1671,1680,1688,1688,1680,1671,1671,1671,1671,1671,1663,1663,1663,1671,0,0,0,0,0,0,989,987,987,984,984,984,981,981,978,978,975,973,973,973,973,973,975,978,978,981,984,987,989,989,989,989,0,0,0,0,0,1572,1572,1564,1564,1564,1557,1557,1557,1550,1550,1550,1543,1543,1543,1543,1543,1543,1543,1536,1536,1529,1529,1523,1523,1523,1516,1516,1516,1509,1509,1509,1503,1503,1503,1496,1496,1496,1489,1489,1489,1489,1489,1483,1483,1477,1477,1470,1470,1470,1470,1470,1470,1464,1464,1464,1464,1464,1464,1458,1452,1452,1445,1445,1445,1445,1439,1439,1439,1433,1433,1433,1427,1427,1421,1421,1421,1421,1421,1421,1415,1415,1415,1410,1410,1404,1398,1398,1398,1398,1392,1392,1392,1392,1387,1387,1381,1381,1381,1376,1376,1376,1376,1376,1376,1370,1370,1370,1370,1365,1359,1354,1354,1354,1354,1354,1349,1349,1349,1349,1349,1343,1338,1338,1333,1333,1333,1328,1328,1328,1328,1322,1322,1317,1317,1317,1312,1312,1307,1307,1307,1307,1307,1302,1302,1297,1297,1292,1292,1292,1292,1292,1292,1292,1288,1288,1283,1283,1283,1278,1278,1273,1273,1273,1268,1268,1268,1264,1264,1264,1259,1259,1259,1255,1255,1250,1250,1250,1250,1250,1250,1245,1245,1245,1245,1241,1241,1236,1236,1236,1232,1232,1232,1227,1227,1223,1223,1219,1219,1219,1214,1214,1214,1214,1214,1210,1210,1210,0,0,0,0,0,0,0,0,0,0,0,0,0,0,0,0,0,0,0,0,0,0,0,0,0,0,0,0,0,0
0,0,0,0,0,0,0,0,0,0,0,0,1632,1632,1632,1632,1632,1624,1624,1624,1624,1624,1632,1624,1624,1632,1632,1632,1632,1632,1632,1632,1639,1647,1639,1639,1647,1647,1647,1647,1647,1647,1647,1655,1655,1655,1655,1647,1647,1647,1639,1639,1647,1647,1655,1655,1655,1655,1655,1655,1655,1655,1655,1655,1655,1655,1655,1655,1655,1647,1647,1647,1647,1647,1647,1647,1647,1655,1655,1647,1647,1647,1655,1655,0,0,0,0,0,0,0,0,923,923,923,923,918,915,915,915,913,913,913,910,910,913,913,913,915,915,915,918,918,920,923,923,925,925,925,925,925,0,0,0,0,0,0,1655,1655,1663,1655,1655,1655,1655,1655,1655,1655,1655,1655,1655,1655,1655,1655,1655,1655,1655,1655,1655,1655,1655,1655,1655,802,802,800,798,796,796,792,792,790,789,789,787,785,783,781,780,780,776,774,774,773,773,771,769,769,767,766,764,761,757,755,754,752,749,747,747,746,744,741,738,736,734,734,733,731,731,728,727,727,725,723,722,720,717,717,717,714,714,710,710,708,708,707,676,676,672,671,670,668,668,667,667,666,664,663,662,661,659,658,657,655,654,653,652,652,650,649,649,648,648,648,648,648,648,649,649,649,650,650,652,654,655,657,658,659,662,663,664,667,667,668,671,672,675,675,676,678,678,678,678,678,704,704,706,706,708,710,713,713,714,717,719,720,722,725,728,730,730,731,734,738,739,739,742,744,747,747,749,754,755,757,757,761,764,769,769,771,776,778,778,780,781,785,787,789,792,796,798,798,798,800,802,803,805,0,0,0,0,0,0,1655,1663,1663,1663,1663,1663,1663,1671,1671,1671,1671,1671,1671,1671,1671,1671,1671,1671,1671,1671,1671,1671,1671,1671,1671,1671,1671,1671,1671,1671,1663,1663,1663,1663,0,0,0,0,0,0,989,987,987,987,984,984,981,981,981,978,978,975,975,973,973,975,975,978,981,981,987,989,989,992,992,992,0,0,0,0,0,1572,1572,1564,1564,1564,1557,1557,1557,1550,1550,1550,1543,1543,1543,1543,1543,1543,1543,1536,1536,1529,1529,1523,1523,1523,1516,1516,1516,1509,1509,1503,1503,1503,1503,1496,1496,1496,1489,1489,1489,1489,1489,1483,1483,1477,1477,1470,1470,1470,1470,1470,1470,1464,1464,1464,1464,1464,1464,1458,1452,1452,1445,1445,1445,1445,1439,1439,1439,1439,1439,1433,1433,1427,1427,1427,1421,1421,1421,1421,1421,1415,1415,1415,1410,1404,1404,1398,1398,1398,1398,1392,1392,1392,1387,1387,1381,1381,1381,1381,1376,1376,1376,1376,1376,1370,1370,1370,1370,1365,1359,1354,1354,1354,1354,1354,1349,1349,1349,1349,1349,1343,1343,1338,1333,1333,1333,1333,1328,1328,1328,1328,1322,1322,1317,1317,1312,1312,1312,1307,1307,1307,1307,1302,1302,1302,1297,1297,1292,1292,1292,1292,1292,1292,1288,1288,1288,1283,1283,1278,1278,1273,1273,1273,1268,1268,1268,1268,1268,1264,1264,1259,1259,1259,1255,1255,1255,1250,1250,1250,1250,1250,1250,1250,1245,1241,1241,1236,1236,1236,1232,1232,1232,1232,1232,1227,1223,1219,1219,1219,1219,1214,1214,1214,1214,1210,1210,1210,0,0,0,0,0,0,0,0,0,0,0,0,0,0,0,0,0,0,0,0,0,0,0,0,0,0,0,0,0,0
0,0,0,0,0,0,0,0,0,0,0,0,1632,1632,1632,1632,1624,1624,1624,1624,1624,1624,1632,1624,1624,1632,1632,1632,1632,1632,1632,1632,1632,1632,1632,1632,1632,1632,1639,1639,1639,1639,1639,1639,1639,1639,1639,1639,1639,1639,1632,1632,1639,1639,1647,1647,1647,1647,1647,1647,1647,1647,1647,1647,1647,1647,1647,1647,1647,1647,1647,1639,1639,1639,1639,1639,1639,1647,1647,1647,1639,1639,1639,0,0,0,0,0,0,0,0,0,923,923,923,923,920,920,920,918,915,915,913,913,913,913,913,915,915,915,918,918,920,923,923,925,925,925,925,925,925,0,0,0,0,0,0,1655,1655,1647,1647,1647,1647,1647,1647,1647,1647,1647,1655,1655,1655,1655,1655,1655,1655,1647,1647,1647,1647,1647,1655,1655,1655,1639,1639,796,796,796,794,792,790,789,787,787,785,783,781,780,780,776,774,774,773,773,771,769,769,767,766,764,762,759,757,754,754,752,752,749,747,744,741,741,736,734,734,733,733,731,728,728,727,725,723,722,720,719,717,717,716,714,710,710,708,708,707,706,704,704,671,670,670,668,668,667,666,664,663,662,661,659,658,657,655,654,653,652,652,650,649,649,648,648,648,648,648,648,648,649,649,650,650,652,654,655,657,658,659,662,663,666,667,667,670,671,672,674,674,675,678,700,700,703,704,704,706,706,707,708,710,713,713,716,719,720,720,722,727,728,730,730,731,736,738,739,739,742,746,747,747,749,754,757,757,759,764,766,767,769,771,776,778,778,780,781,787,787,789,790,796,796,798,798,800,803,803,0,0,0,0,0,0,0,1655,1655,1655,1663,1663,1663,1663,1671,1671,1671,1671,1671,1671,1671,1671,1671,1663,1663,1671,1663,1663,1663,1663,1663,1671,1671,1671,1671,1671,1671,1663,1663,1663,1663,0,0,0,0,0,0,989,989,987,987,987,984,984,981,981,978,978,975,975,975,975,975,978,978,981,984,987,989,992,992,995,995,0,0,0,0,0,1572,1572,1564,1564,1564,1557,1557,1557,1550,1550,1550,1543,1543,1543,1543,1543,1543,1543,1543,1536,1536,1536,1529,1523,1523,1516,1516,1516,1516,1509,1503,1503,1503,1503,1503,1496,1496,1496,1496,1489,1489,1489,1489,1483,1483,1477,1470,1470,1470,1470,1470,1470,1470,1464,1464,1464,1464,1464,1458,1452,1452,1445,1445,1445,1445,1445,1439,1439,1439,1439,1433,1433,1433,1433,1427,1427,1427,1421,1421,1421,1415,1415,1415,1410,1410,1404,1404,1398,1398,1398,1398,1392,1392,1387,1387,1381,1381,1381,1381,1376,1376,1376,1376,1376,1370,1370,1370,1370,1365,1365,1359,1354,1354,1354,1354,1349,1349,1349,1349,1349,1343,1343,1338,1338,1333,1333,1333,1328,1328,1328,1328,1322,1322,1317,1317,1312,1312,1312,1307,1307,1307,1307,1302,1302,1302,1297,1297,1297,1297,1292,1292,1292,1292,1288,1288,1288,1283,1283,1278,1278,1273,1273,1273,1273,1268,1268,1268,1268,1264,1264,1259,1259,1259,1255,1255,1255,1255,1255,1250,1250,1250,1250,1245,1245,1245,1241,1236,1236,1236,1232,1232,1232,1232,1232,1227,1227,1223,1219,1219,1219,1219,1214,1214,1214,1210,1210,1210,0,0,0,0,0,0,0,0,0,0,0,0,0,0,0,0,0,0,0,0,0,0,0,0,0,0,0,0,0,0
0,0,0,0,0,0,0,0,0,0,0,0,1624,1624,1624,1624,1624,1624,1624,1624,1624,1624,1624,1624,1624,1624,1624,1624,1624,1624,1624,1624,1632,1632,1632,1632,1624,1624,1632,1632,1632,1632,1632,1632,1632,1632,1632,1632,1632,1632,1632,1632,1632,1639,1639,1632,1632,1647,1647,1639,1639,1639,1639,1639,1639,1639,1639,1639,1647,1639,1639,1639,1639,1639,1639,1632,1632,1639,1639,1632,1632,1624,1616,1609,1609,0,0,0,0,0,0,0,0,923,923,923,920,920,920,918,915,915,915,915,913,913,913,915,915,915,918,918,920,923,925,925,925,925,925,925,925,0,0,0,0,0,1663,1655,1655,1647,1639,1639,1639,1639,1639,1639,1639,1639,1647,1647,1647,1647,1647,1647,1655,1647,1647,1647,1647,1647,1639,1632,1632,1639,1639,1624,1624,1632,792,792,792,789,787,787,785,783,781,781,780,776,774,774,773,773,771,769,769,767,766,764,762,759,759,757,754,752,752,750,749,746,744,742,739,736,734,733,733,731,731,728,727,727,723,723,722,719,719,717,716,714,710,710,708,708,707,706,704,704,671,671,670,670,668,668,666,664,663,662,661,659,657,657,655,654,653,652,652,650,649,649,648,648,648,648,648,648,648,649,649,650,650,652,654,655,657,658,661,663,664,666,667,668,670,671,672,674,674,675,698,698,700,703,704,704,704,706,708,710,711,713,714,717,719,720,720,722,727,728,730,731,734,736,738,739,739,742,746,747,747,749,754,757,757,761,766,767,767,771,773,776,778,778,780,785,787,787,789,790,794,796,798,798,802,803,0,0,0,0,0,0,1655,1655,1655,1655,1655,1655,1663,1663,1663,1663,1671,1671,1671,1671,1671,1663,1663,1663,1663,1663,1663,1663,1663,1663,1663,1663,1663,1663,1663,1663,1663,1663,1655,1655,1663,1663,0,0,0,0,0,0,989,989,989,989,987,987,984,984,981,978,978,978,975,975,975,978,978,981,981,984,987,992,992,995,998,998,0,0,0,0,0,1572,1572,1572,1564,1564,1564,1564,1557,1550,1550,1550,1550,1550,1550,1543,1543,1543,1543,1543,1536,1536,1536,1529,1523,1523,1516,1516,1516,1516,1509,1509,1503,1503,1503,1503,1503,1496,1496,1496,1496,1489,1489,1489,1489,1483,1477,1477,1470,1470,1470,1470,1470,1470,1464,1464,1464,1464,1464,1458,1458,1452,1445,1445,1445,1445,1445,1439,1439,1439,1439,1433,1433,1433,1433,1427,1427,1427,1421,1421,1421,1415,1415,1415,1410,1410,1404,1404,1404,1398,1398,1398,1398,1392,1392,1387,1387,1387,1381,1381,1376,1376,1376,1376,1376,1370,1370,1370,1370,1365,1365,1359,1359,1354,1354,1354,1354,1349,1349,1349,1349,1349,1343,1338,1338,1338,1333,1333,1328,1328,1328,1328,1322,1322,1317,1317,1312,1312,1312,1307,1307,1307,1307,1302,1302,1302,1297,1297,1297,1297,1292,1292,1292,1292,1288,1288,1288,1283,1283,1278,1278,1273,1273,1273,1273,1268,1268,1268,1268,1264,1264,1259,1259,1259,1255,1255,1255,1255,1255,1250,1250,1250,1250,1245,1245,1245,1241,1236,1236,1236,1232,1232,1232,1232,1232,1227,1227,1223,1219,1219,1219,1219,1219,1214,1214,1214,1210,1210,0,0,0,0,0,0,0,0,0,0,0,0,0,0,0,0,0,0,0,0,0,0,0,0,0,0,0,0,0,0
0,0,0,0,0,0,0,0,0,0,0,0,1624,1624,1624,1624,1624,1624,1616,1616,1616,1616,1624,1616,1616,1616,1616,1616,1624,1624,1616,1616,1616,1616,1624,1624,1624,1624,1624,1624,1624,1624,1624,1632,1632,1632,1624,1624,1624,1632,1624,1624,1632,1632,1632,1624,1624,1624,1624,1632,1632,1632,1632,1632,1632,1632,1632,1632,1639,1639,1639,1639,1639,1632,1624,1624,1632,1632,1632,1632,1632,1624,1616,1609,1609,1624,0,0,0,0,0,0,0,925,923,923,923,923,920,920,918,915,915,915,915,915,915,915,915,915,918,918,923,923,923,925,925,925,925,925,0,0,0,0,0,0,1655,1655,1655,1647,1639,1632,1632,1632,1632,1632,1632,1632,1639,1639,1639,1639,1639,1639,1647,1639,1639,1639,1639,1639,1632,1632,1632,1632,1624,1624,1624,1632,1632,790,0,790,789,787,787,783,781,781,780,776,774,774,773,773,771,769,769,767,766,764,761,759,759,757,755,754,754,752,749,747,746,744,741,739,734,734,733,731,731,728,728,727,723,723,722,720,719,719,717,714,711,711,710,708,708,707,704,704,703,701,670,670,668,668,666,666,663,662,659,658,657,655,655,654,654,653,652,650,649,649,648,648,648,648,648,648,648,649,649,650,652,653,654,655,657,658,659,662,664,667,668,668,671,671,672,674,697,697,697,698,700,703,703,704,704,706,708,710,713,713,714,719,720,720,722,722,727,728,730,731,734,738,739,739,741,744,746,747,747,750,755,757,759,762,766,767,767,771,774,776,778,778,780,785,787,787,787,790,794,796,798,798,0,0,0,0,0,0,1663,1663,1655,1655,1655,1655,1655,1655,1655,1663,1663,1663,1663,1663,1663,1663,1663,1663,1663,1663,1655,1655,1663,1663,1663,1663,1655,1655,1663,1663,1663,1663,1655,1655,1655,1655,1655,1655,0,0,0,0,0,0,989,989,989,989,989,987,987,984,984,978,978,978,975,975,978,978,978,981,984,987,989,992,995,995,998,1001,0,0,0,0,0,1572,1572,1572,1572,1572,1564,1564,1557,1550,1550,1550,1550,1550,1550,1550,1543,1543,1543,1543,1543,1536,1536,1529,1529,1523,1523,1516,1516,1516,1516,1509,1509,1509,1509,1503,1503,1503,1496,1496,1496,1496,1489,1489,1489,1483,1483,1477,1477,1470,1470,1470,1470,1470,1470,1464,1464,1464,1464,1458,1458,1452,1445,1445,1445,1445,1445,1439,1439,1439,1439,1439,1439,1433,1433,1433,1427,1427,1421,1421,1421,1415,1415,1415,1415,1410,1410,1410,1404,1398,1398,1398,1398,1392,1392,1387,1387,1387,1387,1381,1381,1376,1376,1376,1376,1376,1370,1370,1370,1370,1365,1359,1359,1359,1354,1354,1354,1349,1349,1349,1349,1349,1343,1338,1338,1338,1333,1333,1333,1333,1328,1328,1328,1322,1317,1317,1317,1312,1312,1307,1307,1307,1307,1307,1307,1302,1302,1297,1297,1297,1292,1292,1292,1292,1288,1288,1288,1283,1283,1283,1278,1273,1273,1273,1273,1273,1268,1268,1268,1264,1264,1259,1259,1259,1255,1255,1255,1255,1255,1255,1250,1250,1250,1245,1245,1241,1241,1236,1236,1236,1236,1232,1232,1232,1232,1227,1227,1223,1219,1219,1219,1219,1219,1219,1214,1214,1214,1214,0,0,0,0,0,0,0,0,0,0,0,0,0,0,0,0,0,0,0,0,0,0,0,0,0,0,0,0,0,0
0,0,0,0,0,0,0,0,0,0,0,0,1624,1624,1624,1624,1624,1624,1616,1616,1616,1616,1616,1616,1616,1609,1609,1616,1616,1616,1616,1609,1609,1616,1609,1609,1616,1616,1616,1616,1616,1624,1616,1616,1616,1616,1616,1616,1624,1624,1624,1624,1624,1624,1632,1624,1624,1624,1624,1624,1624,1624,1624,1624,1632,1632,1632,1632,1632,1632,1632,1632,1632,1632,1624,1624,1632,1632,1632,1632,1632,1624,1616,1609,1609,1624,0,0,0,0,0,0,0,0,925,925,923,923,923,920,920,918,918,915,915,915,915,915,915,918,918,920,923,923,923,925,925,928,928,928,930,0,0,0,0,0,1655,1647,1647,1639,1632,1632,1632,1632,1632,1632,1632,1632,1632,1632,1632,1632,1632,1632,1639,1632,1632,1632,1632,1632,1632,1632,1632,1632,1624,1624,1624,1632,1632,1624,1624,1624,0,783,0,0,783,781,780,776,774,774,773,773,771,771,769,767,766,764,761,759,759,757,755,755,754,752,752,747,747,746,742,741,736,734,733,733,731,731,728,727,725,723,722,720,720,719,717,714,713,713,711,710,708,707,706,704,703,701,701,670,668,668,666,666,663,659,657,657,655,655,654,654,654,653,652,652,649,649,649,648,648,648,648,648,648,649,650,650,652,653,654,655,657,658,659,662,664,670,670,671,672,672,672,672,697,697,697,698,700,703,703,704,704,707,708,711,713,713,717,719,720,720,722,725,727,730,730,731,734,738,739,739,744,746,747,747,747,752,757,757,762,764,766,767,767,771,774,776,778,778,780,785,787,787,787,790,794,794,794,794,0,0,0,0,0,0,1663,1663,1655,1647,1647,1647,1647,1655,1655,1655,1655,1655,1663,1655,1655,1655,1655,1647,1647,1647,1647,1647,1647,1647,1647,1647,1647,1647,1655,1655,1655,1655,1655,1655,1647,1647,1647,1639,1639,0,0,0,0,992,989,989,989,989,989,989,987,987,984,981,978,978,978,978,978,978,978,981,984,987,989,992,995,998,1001,1001,0,0,0,0,0,1572,1572,1572,1572,1572,1564,1564,1557,1550,1550,1550,1550,1550,1550,1550,1543,1543,1543,1543,1543,1536,1536,1536,1529,1523,1523,1523,1516,1516,1516,1516,1516,1509,1509,1509,1503,1503,1496,1496,1496,1496,1489,1489,1489,1483,1483,1477,1477,1470,1470,1470,1470,1470,1470,1464,1464,1464,1464,1458,1458,1452,1452,1445,1445,1445,1445,1445,1439,1439,1439,1439,1439,1433,1433,1433,1427,1421,1421,1421,1421,1421,1415,1415,1415,1415,1410,1410,1404,1404,1398,1398,1398,1392,1392,1392,1387,1387,1387,1381,1381,1376,1376,1376,1376,1376,1376,1370,1370,1370,1365,1365,1359,1359,1354,1354,1354,1354,1349,1349,1349,1349,1343,1338,1338,1338,1333,1333,1333,1333,1328,1328,1328,1322,1322,1317,1317,1312,1312,1307,1307,1307,1307,1307,1307,1307,1302,1302,1297,1297,1292,1292,1292,1292,1288,1288,1288,1283,1283,1283,1278,1273,1273,1273,1273,1273,1268,1268,1268,1268,1264,1264,1259,1259,1255,1255,1255,1255,1255,1255,1250,1250,1250,1250,1245,1241,1241,1236,1236,1236,1236,1232,1232,1232,1232,1227,1227,1223,1219,1219,1219,1219,1219,1219,1214,1214,1214,1214,0,0,0,0,0,0,0,0,0,0,0,0,0,0,0,0,0,0,0,0,0,0,0,0,0,0,0,0,0,0
