0,0,0,0,0,0,0,0,0,0,0,0,733,731,730,730,731,0,0,722,722,720,720,719,717,716,716,711,710,710,708,707,706,704,704,703,701,700,698,698,698,698,698,698,698,698,698,698,698,698,698,698,698,698,698,698,698,698,698,698,700,700,700,700,698,698,697,696,696,696,694,694,696,697,697,697,697,697,696,694,694,694,693,693,693,693,693,698,697,697,696,694,694,694,694,693,691,691,691,691,691,691,693,693,694,696,696,694,694,693,693,691,691,691,693,693,691,691,694,693,693,691,691,693,691,691,691,691,690,690,690,690,690,690,690,690,690,691,691,690,690,691,690,687,687,687,687,687,687,687,688,690,690,690,690,691,691,690,690,688,688,690,688,688,688,687,687,687,687,687,688,688,688,690,691,693,694,696,697,698,698,700,700,701,703,706,708,711,713,714,716,717,734,739,741,742,744,744,746,747,747,749,750,752,754,757,759,761,762,762,766,767,769,773,774,778,780,780,781,781,781,783,789,792,794,796,800,802,803,805,805,809,809,811,811,815,815,817,817,817,819,819,0,0,0,0,0,1564,1564,1572,1572,1572,1572,1572,1572,1572,1572,1572,1572,1572,1572,1572,1572,1564,1564,1564,1564,1564,1564,1564,1557,1557,1557,1557,0,0,0,0,0,0,0,970,970,967,964,964,962,962,959,956,956,956,956,956,956,956,959,959,964,967,970,973,973,975,975,975,975,978,0,0,0,0,0,1550,1550,1557,1550,1550,1550,1550,1550,1550,1550,1550,1550,1550,1550,1543,1543,1543,1543,1543,1543,1550,1550,1550,1550,1550,1550,1543,1543,1543,1543,1543,1543,1543,1543,1543,1536,1536,1536,1536,1536,1529,1529,1529,1529,1523,1523,1529,1523,1523,1523,1523,1523,1523,1516,1516,1516,1516,1509,1509,1503,1503,1503,1496,1496,1496,1489,1489,1489,1489,1489,1489,1483,1483,1483,1483,1483,1477,1477,1470,1470,1470,1464,1464,1458,1458,1458,1452,1452,1452,1445,1445,1445,1445,1439,1439,1439,1439,1439,1433,1433,1433,1427,1427,1421,1421,1421,1421,1415,1415,1415,1410,1410,1404,1404,1404,1398,1398,1398,1398,1398,1398,1392,1392,1392,1387,1387,1381,1381,1376,1376,1376,1376,1370,1370,1370,1370,1370,1365,1365,1365,1359,1354,1354,1354,1349,1349,1349,1349,1349,1349,1349,1349,1343,1338,1338,1338,1333,1328,1328,1328,1328,1322,1322,1322,1322,1317,1317,1312,1312,1312,1312,1307,1307,1302,1302,1302,1297,1297,1292,1292,1292,1292,1292,1288,1288,1288,1288,1283,1278,1278,1273,1273,1273,1273,1273,1273,1268,1268,1268,1268,1268,1264,1259,1255,1255,1255,1255,1157,1157,1157,1157,1157,1157,1153,1149,1126,1123,1123,1123,0,0,0,1080,1080,0,0,0,0,0,1067,1067,1067,1067,1063,1063,1060,1057,1057,1057,1057,1054,1054,1050,1050,1050,1050,1050,1050,1047,1047,1050,1067,1067,1067,1067,1067,1067,1063,1063,1060,1060,1057,1057,1057,1057,1004,1004,1004,1004,1004,875,875,875,873,871,871,989,989,864,862,862,862,862,862,862,860,858,858,858,858,858,0,0,0,0,0,0,0,0,0,0,0,0,0,0,0,0,0,0,0,0,0,0,0,0,0,0,0,0,0,0,0,0,0,0,0,0
0,0,0,0,0,0,0,0,0,0,0,0,0,0,0,0,0,0,0,722,722,720,720,719,717,717,716,714,710,710,708,706,706,704,703,703,700,700,698,697,697,697,697,697,697,697,697,697,696,696,696,696,696,696,696,696,696,694,694,694,696,696,697,697,696,694,694,693,693,693,693,693,693,693,693,693,693,693,693,693,693,691,690,690,690,688,687,687,687,688,690,693,693,693,691,691,690,690,690,690,690,690,690,691,693,693,694,693,691,691,690,688,687,687,690,690,688,687,687,690,690,688,688,688,690,690,688,688,688,688,688,688,688,688,688,688,688,688,688,688,688,688,686,684,684,684,684,683,683,683,683,686,687,687,687,687,687,687,687,687,687,687,687,687,687,687,687,687,687,687,687,687,688,690,691,693,693,694,696,698,698,700,700,701,703,706,708,713,714,716,717,734,734,738,739,741,742,744,746,747,747,749,750,754,755,757,759,761,762,762,766,767,769,773,776,778,780,781,781,783,783,785,789,792,794,796,798,800,803,803,805,807,809,809,811,815,815,817,817,817,817,0,0,0,0,0,1557,1557,1557,1564,1564,1564,1572,1572,1572,1572,1572,1572,1572,1564,1564,1564,1564,1564,1564,1564,1564,1564,1557,1557,1557,1557,1550,1550,0,0,0,0,0,0,0,973,970,970,967,967,964,962,959,959,959,956,956,956,956,956,959,962,964,967,970,973,973,975,975,975,975,978,0,0,0,0,0,1550,1550,1550,1550,1550,1550,1550,1550,1543,1543,1543,1543,1543,1543,1543,1536,1536,1543,1543,1543,1543,1543,1550,1550,1543,1543,1543,1536,1536,1536,1536,1536,1536,1536,1536,1536,1536,1529,1529,1529,1529,1523,1523,1523,1523,1523,1523,1523,1523,1523,1523,1516,1516,1516,1516,1516,1516,1509,1509,1503,1503,1503,1496,1496,1496,1496,1489,1489,1489,1489,1489,1489,1483,1483,1483,1483,1477,1477,1470,1470,1470,1464,1464,1464,1458,1458,1452,1452,1452,1452,1445,1445,1445,1445,1445,1439,1439,1439,1439,1439,1433,1433,1427,1427,1421,1421,1421,1421,1421,1415,1415,1410,1410,1404,1404,1404,1404,1398,1398,1398,1398,1398,1392,1392,1392,1387,1387,1381,1381,1376,1376,1376,1370,1370,1370,1370,1370,1370,1365,1365,1359,1354,1354,1354,1354,1349,1349,1349,1349,1349,1349,1349,1343,1338,1338,1338,1333,1328,1328,1328,1328,1322,1322,1322,1322,1317,1317,1317,1312,1312,1312,1312,1307,1302,1302,1302,1297,1297,1292,1292,1292,1292,1292,1288,1288,1288,1288,1283,1283,1278,1273,1273,1273,1273,1273,1273,1268,1268,1268,1268,1268,1264,1259,1259,1255,1255,1153,1153,1157,1157,1157,1157,1157,1149,1126,1123,1123,1123,1123,0,0,1080,1080,1080,1080,1077,1077,1073,1070,1067,1067,1067,1067,1063,1063,1063,1057,1057,1057,1057,1054,1054,1050,1050,1050,1050,1050,1050,1050,1050,1050,1067,1067,1067,1067,1067,1067,1067,1063,1060,1060,1057,1057,1057,1057,0,1007,1007,1007,1007,875,875,871,869,869,869,869,869,864,862,862,862,862,862,862,862,860,860,860,860,860,0,0,0,0,0,0,0,0,0,0,0,0,0,0,0,0,0,0,0,0,0,0,0,0,0,0,0,0,0,0,0,0,0,0,0,0
0,0,0,0,0,0,0,0,0,0,0,0,0,0,0,0,0,0,0,0,720,717,717,719,717,716,716,714,711,710,708,706,706,704,703,701,700,698,697,697,697,696,696,696,697,696,696,696,694,694,694,694,694,694,693,693,693,693,693,693,693,693,694,694,694,693,693,691,691,691,691,690,690,690,693,691,691,691,691,691,690,690,688,688,687,687,687,687,687,687,687,688,687,687,690,690,688,688,688,688,688,687,687,690,691,691,691,691,690,690,686,686,687,687,688,687,687,686,686,686,686,686,686,686,687,687,687,687,687,687,687,687,687,687,687,687,687,687,686,686,686,686,684,683,683,683,683,682,682,682,682,682,684,686,686,686,686,686,684,680,680,680,684,684,684,684,686,686,686,686,686,687,688,690,691,693,693,694,696,698,698,700,700,701,703,708,713,714,716,731,731,733,734,738,739,741,742,744,746,747,747,749,750,754,755,757,759,761,762,764,766,767,769,773,776,778,780,781,783,783,785,787,792,794,794,796,798,798,800,802,803,805,809,809,809,815,815,817,817,0,0,0,0,0,1550,1550,1550,1550,1550,1550,1550,1557,1557,1564,1564,1564,1564,1564,1564,1564,1564,1557,1557,1557,1557,1557,1557,1557,1557,1550,1550,1543,1543,1543,1543,0,0,0,0,0,975,975,973,970,967,967,967,964,964,962,962,956,956,956,956,959,959,962,964,967,970,970,973,975,975,975,975,981,0,0,0,0,0,1550,1550,1550,1543,1543,1543,1543,1543,1543,1543,1543,1543,1536,1536,1536,1536,1536,1536,1536,1536,1536,1536,1543,1543,1543,1536,1536,1536,1529,1529,1536,1529,1529,1529,1529,1529,1529,1523,1523,1523,1523,1523,1523,1523,1523,1523,1523,1523,1523,1523,1516,1516,1516,1516,1516,1516,1516,1516,1509,1503,1503,1503,1496,1496,1496,1496,1496,1489,1489,1489,1489,1489,1489,1489,1483,1483,1477,1477,1477,1470,1470,1464,1464,1464,1464,1458,1458,1452,1452,1452,1452,1445,1445,1445,1445,1439,1439,1439,1439,1439,1439,1433,1433,1427,1427,1421,1421,1421,1421,1415,1415,1410,1410,1404,1404,1404,1404,1404,1398,1398,1398,1398,1392,1392,1392,1392,1387,1381,1381,1381,1376,1376,1376,1370,1370,1370,1370,1370,1365,1365,1359,1354,1354,1354,1354,1354,1349,1349,1349,1349,1349,1349,1343,1343,1338,1338,1333,1333,1328,1328,1328,1328,1322,1322,1322,1317,1317,1317,1312,1312,1312,1312,1307,1302,1302,1302,1297,1297,1297,1292,1292,1292,1292,1288,1288,1288,1288,1288,1283,1278,1278,1278,1273,1273,1273,1273,1273,1273,1268,1268,1268,1264,1259,1259,1255,1255,1153,1153,1153,1157,1157,1157,1157,1123,1119,1119,1112,1112,1112,1097,1080,1080,1080,1077,1077,1077,1077,1073,1070,1067,1067,1067,1067,1063,1063,1063,1057,1057,1057,1057,1054,1054,1050,1050,1050,1050,1050,1050,1050,1050,1077,1073,1070,1070,1070,1067,1067,1063,1063,1060,1057,1054,1054,1054,875,875,875,1013,1013,1013,875,873,871,869,869,869,869,869,864,862,862,862,862,862,862,862,860,860,862,862,862,0,0,0,0,0,0,0,0,0,0,0,0,0,0,0,0,0,0,0,0,0,0,0,0,0,0,0,0,0,0,0,0,0,0,0,0
0,0,0,0,0,0,0,0,0,0,0,0,0,0,0,0,0,0,0,0,720,717,717,717,716,716,716,714,714,710,708,707,707,704,703,701,700,698,697,697,696,696,694,694,696,694,693,693,691,691,691,691,691,691,690,690,690,690,690,688,688,688,688,690,690,691,691,690,690,690,690,688,687,687,688,688,688,688,690,688,688,687,687,686,686,686,684,684,686,686,686,684,684,684,686,686,686,686,687,687,686,686,684,684,688,686,683,683,684,684,683,683,683,682,682,683,684,682,682,683,683,683,682,682,683,684,686,686,686,686,686,684,684,684,684,684,684,684,684,684,680,680,682,680,680,680,680,680,680,679,679,679,680,682,682,682,682,682,680,678,678,678,678,678,680,680,683,684,684,684,686,686,687,688,691,693,694,696,697,698,700,700,700,700,703,713,717,720,722,730,731,733,734,738,738,739,742,744,747,747,749,750,752,754,755,757,759,761,762,764,766,767,769,773,776,780,780,781,783,783,785,789,792,794,794,796,798,798,800,802,803,805,807,807,809,809,809,1536,1536,0,0,0,1543,1543,1543,1550,1550,1550,1550,1550,1550,1550,1550,1550,1550,1557,1557,1557,1557,1557,1557,1557,1557,1557,1550,1550,1557,1550,1550,1550,1543,1543,1543,1543,1543,0,0,0,0,0,975,975,973,973,970,970,967,967,964,964,962,962,959,956,956,959,959,962,964,967,970,970,973,975,975,975,975,981,0,0,0,0,0,1543,1543,1543,1543,1543,1536,1536,1536,1536,1529,1529,1529,1529,1529,1529,1529,1529,1529,1529,1529,1529,1529,1523,1523,1529,1529,1529,1523,1523,1523,1529,1529,1529,1529,1529,1529,1523,1523,1523,1523,1523,1516,1516,1523,1523,1523,1516,1516,1516,1516,1516,1516,1516,1516,1516,1509,1509,1509,1509,1509,1509,1503,1503,1503,1503,1496,1496,1496,1489,1489,1489,1489,1489,1489,1489,1483,1483,1483,1477,1470,1470,1470,1464,1464,1464,1464,1458,1458,1458,1452,1452,1452,1445,1445,1445,1439,1439,1439,1439,1439,1439,1433,1433,1427,1427,1427,1421,1421,1421,1415,1415,1415,1410,1410,1410,1404,1404,1404,1404,1398,1398,1398,1392,1392,1392,1392,1392,1387,1381,1381,1376,1376,1376,1376,1370,1370,1370,1370,1370,1365,1365,1365,1354,1354,1354,1354,1354,1349,1349,1349,1349,1349,1349,1343,1343,1338,1338,1333,1328,1328,1328,1328,1328,1322,1322,1322,1322,1317,1317,1317,1312,1307,1307,1302,1302,1302,1297,1297,1297,1297,1292,1292,1292,1292,1288,1288,1288,1288,1283,1278,1278,1278,1273,1273,1273,1273,1273,1273,1268,1268,1268,1268,1259,1259,1259,1259,1153,1153,1153,1153,1153,1123,1119,1119,1115,1112,1108,1105,1101,1097,1094,1094,1077,1077,1073,1073,1073,1070,1067,1067,1067,1067,1067,1063,1063,1063,1060,1057,1057,1057,1054,1054,1050,1050,1050,1050,1050,1050,1050,1077,1077,1073,1073,1070,1070,1067,1067,1063,1063,1060,1057,1054,1054,1054,875,875,875,873,871,871,873,873,871,869,869,869,869,871,869,862,862,864,864,864,864,864,862,862,867,867,867,0,0,0,0,0,0,0,0,0,0,0,0,0,0,0,0,0,0,0,0,0,0,0,0,0,0,0,0,0,0,0,0,0,0,0,0
0,0,0,0,0,0,0,0,0,0,0,0,0,0,0,0,0,0,0,0,0,717,717,716,716,716,714,714,714,710,710,707,707,706,703,701,700,698,697,696,696,694,693,693,693,693,691,691,690,690,690,690,690,690,688,688,688,687,687,687,686,686,686,687,687,688,688,687,687,688,687,686,686,686,686,686,684,684,686,686,686,684,684,684,684,684,683,683,683,682,682,682,682,682,682,682,682,683,683,683,682,682,682,682,682,682,682,682,682,682,682,682,680,679,679,679,680,680,680,680,680,680,680,680,680,682,683,684,682,682,682,682,676,676,679,676,676,676,676,678,678,678,678,679,679,679,679,679,679,678,678,678,678,671,671,671,674,674,676,676,676,676,676,676,678,679,680,682,683,683,684,684,687,688,691,693,694,696,697,698,700,700,700,700,720,720,722,723,725,730,731,734,734,736,738,739,741,742,747,747,749,750,752,754,755,757,759,761,762,764,766,767,769,773,776,780,780,781,783,785,787,789,792,794,794,796,796,798,798,800,802,805,807,807,809,809,1536,1536,1536,1536,1536,1543,1543,1543,1543,1543,1543,1543,1543,1543,1543,1543,1543,1543,1543,1550,1550,1550,1550,1550,1543,1543,1543,1543,1543,1543,1543,1543,1543,1543,1543,1536,1536,1536,1543,1543,0,0,0,0,975,975,975,973,973,970,970,967,964,964,964,962,962,959,959,962,962,964,964,967,970,973,973,975,978,978,978,981,0,0,0,0,0,1543,1543,1536,1536,1536,1529,1529,1529,1529,1523,1523,1529,1523,1523,1523,1523,1523,1523,1523,1523,1523,1523,1523,1523,1523,1523,1523,1523,1523,1523,1523,1523,1523,1523,1523,1523,1523,1523,1523,1516,1516,1516,1516,1516,1516,1516,1516,1516,1516,1516,1509,1509,1509,1509,1509,1509,1509,1509,1509,1509,1509,1503,1503,1503,1496,1496,1496,1496,1496,1489,1489,1489,1489,1489,1489,1483,1483,1483,1477,1477,1470,1470,1464,1464,1464,1464,1458,1458,1458,1452,1452,1452,1445,1445,1445,1439,1439,1439,1439,1439,1439,1439,1433,1427,1427,1427,1427,1421,1421,1415,1415,1415,1410,1410,1410,1404,1404,1404,1404,1398,1398,1398,1392,1392,1392,1392,1392,1392,1387,1381,1376,1376,1376,1376,1376,1370,1370,1370,1370,1370,1365,1365,1359,1354,1354,1354,1354,1354,1349,1349,1349,1349,1349,1343,1338,1338,1333,1333,1333,1328,1328,1328,1328,1328,1322,1322,1322,1322,1317,1317,1312,1307,1307,1307,1307,1302,1302,1297,1297,1297,1292,1292,1292,1292,1288,1288,1288,1288,1283,1283,1278,1278,1273,1273,1273,1273,1273,1273,1268,1268,1268,1268,1264,1264,1259,1259,1255,1153,1153,1153,1153,1119,1115,1115,1112,1112,1108,1105,1097,1094,1094,1094,1077,1077,1073,1073,1073,1070,1067,1067,1067,1067,1067,1063,1063,1063,1060,1057,1057,1057,1054,1054,1050,1050,1050,1050,1050,1054,1054,1080,1077,1073,1073,1070,1070,1070,1067,1067,1063,1060,1060,1060,878,878,878,875,875,873,871,871,873,873,871,871,871,871,871,871,871,869,867,867,867,867,864,864,867,867,869,869,869,0,0,0,0,0,0,0,0,0,0,0,0,0,0,0,0,0,0,0,0,0,0,0,0,0,0,0,0,0,0,0,0,0,0,0,0
0,0,0,0,0,0,0,0,0,0,0,0,0,0,0,0,0,0,0,0,0,717,717,716,716,716,714,713,713,710,708,706,706,704,703,701,700,700,698,696,696,694,693,691,691,690,690,690,688,688,688,687,687,687,687,687,687,687,687,686,686,684,684,683,683,683,684,684,684,684,684,683,683,682,682,683,682,682,683,683,683,683,683,682,682,683,683,683,683,682,680,680,679,678,678,678,678,678,680,680,679,679,678,678,679,680,680,680,680,680,680,680,679,678,678,678,678,678,678,678,679,679,678,678,679,680,680,679,678,678,679,678,676,676,676,676,676,676,676,676,675,675,675,675,675,675,675,676,676,675,675,675,674,671,671,671,672,672,674,674,675,675,676,676,678,679,680,680,683,683,683,684,686,690,691,693,694,694,697,698,700,700,701,722,722,723,725,727,727,730,731,734,734,736,738,739,741,742,747,747,749,750,752,754,757,757,761,762,762,764,766,769,771,773,776,780,781,781,783,785,787,789,792,794,794,796,796,798,798,800,802,802,802,1509,1509,1536,1536,1536,1536,1536,1536,1543,1543,1543,1543,1543,1543,1543,1536,1536,1536,1543,1543,1543,1543,1543,1543,1543,1543,1543,1543,1543,1543,1543,1536,1536,1536,1536,1536,1536,1536,1536,1536,1536,1536,1536,1536,0,0,0,975,975,975,973,973,970,970,967,967,964,964,964,962,962,962,962,964,964,967,967,970,973,973,975,978,978,978,984,0,0,0,0,0,1529,1529,1529,1529,1529,1529,1523,1523,1523,1523,1523,1523,1523,1523,1523,1523,1523,1523,1523,1523,1523,1516,1516,1516,1516,1516,1516,1516,1516,1516,1523,1523,1523,1523,1523,1523,1523,1516,1516,1516,1516,1516,1516,1516,1516,1509,1509,1509,1509,1509,1509,1503,1503,1503,1503,1503,1503,1503,1503,1503,1503,1496,1496,1496,1496,1496,1496,1489,1489,1489,1489,1489,1489,1489,1489,1483,1483,1483,1483,1477,1470,1470,1470,1464,1464,1464,1458,1458,1458,1458,1452,1452,1452,1445,1445,1439,1439,1439,1439,1439,1439,1439,1433,1433,1427,1427,1427,1421,1421,1421,1415,1415,1415,1415,1415,1410,1410,1404,1404,1398,1398,1398,1392,1392,1392,1392,1392,1387,1387,1381,1381,1376,1376,1376,1376,1370,1370,1370,1370,1370,1370,1365,1365,1359,1359,1354,1354,1354,1354,1349,1349,1349,1343,1343,1338,1338,1333,1333,1333,1328,1328,1328,1328,1328,1328,1322,1322,1317,1317,1317,1312,1312,1307,1307,1307,1302,1302,1302,1297,1297,1292,1292,1292,1292,1288,1288,1288,1288,1283,1283,1278,1273,1273,1273,1273,1273,1273,1273,1268,1268,1268,1268,1264,1264,1259,1259,1255,1255,1255,1115,1115,1115,1112,1112,1108,1108,1105,1101,1094,1094,1084,1084,1080,1077,1073,1073,1070,1070,1067,1067,1067,1067,1067,1063,1063,1063,1060,1060,1057,1057,1054,1050,1050,1050,1050,1050,1050,1054,1077,1077,1077,1073,1073,1070,1070,1067,1067,1067,1063,1063,1063,880,880,878,878,878,878,875,875,875,875,875,873,871,871,871,873,871,871,869,869,869,869,869,869,869,869,869,871,871,871,0,0,0,0,0,0,0,0,0,0,0,0,0,0,0,0,0,0,0,0,0,0,0,0,0,0,0,0,0,0,0,0,0,0,0,0
0,0,0,0,0,0,0,0,0,0,0,0,0,0,0,0,0,0,0,0,0,767,764,714,714,711,708,708,708,708,708,706,706,704,703,701,701,700,698,696,696,694,693,690,690,688,688,688,687,687,687,687,687,687,686,686,686,686,686,684,684,684,683,682,682,682,682,682,682,682,682,680,680,680,680,680,679,679,680,680,679,679,680,680,680,682,682,682,682,680,679,679,678,676,676,675,675,676,676,678,678,676,676,676,676,676,676,678,678,679,679,678,678,676,676,676,676,676,676,676,678,676,676,676,676,676,676,675,675,675,676,676,675,675,675,675,674,674,674,674,674,674,674,674,674,674,674,674,674,674,674,674,671,671,671,671,671,671,672,672,674,675,675,676,676,678,679,680,682,683,683,684,686,690,690,693,693,694,696,698,701,719,720,722,723,723,725,727,727,728,731,734,734,736,738,739,741,744,747,749,750,752,752,754,757,759,761,762,764,764,767,769,773,774,778,780,781,783,785,785,787,789,792,794,794,796,796,798,798,798,798,1509,1509,1509,1509,1516,1536,1536,1536,1536,1536,1543,1536,1536,1543,1543,1543,1543,1536,1536,1536,1536,1536,1536,1536,1536,1543,1543,1543,1536,1536,1536,1536,1536,1536,1536,1536,1536,1536,1536,1536,1536,1536,1536,1536,1536,1536,0,0,0,975,975,975,973,973,973,970,967,967,967,964,964,964,964,964,964,964,964,967,967,970,973,975,978,981,981,981,987,0,0,0,0,0,1529,1523,1523,1523,1523,1523,1523,1523,1523,1523,1523,1516,1516,1516,1516,1523,1516,1516,1516,1516,1516,1516,1516,1516,1516,1516,1516,1516,1516,1516,1516,1516,1516,1516,1516,1516,1516,1516,1516,1509,1509,1509,1509,1509,1509,1509,1503,1503,1509,1509,1503,1503,1503,1503,1503,1496,1496,1496,1496,1496,1496,1496,1496,1496,1489,1489,1489,1489,1489,1489,1489,1489,1489,1489,1483,1483,1483,1483,1483,1477,1477,1470,1470,1464,1464,1464,1464,1458,1458,1458,1458,1452,1452,1445,1445,1439,1439,1439,1439,1439,1439,1439,1433,1433,1427,1427,1427,1421,1421,1421,1415,1415,1415,1415,1415,1415,1415,1410,1404,1398,1398,1398,1392,1392,1392,1392,1392,1387,1387,1381,1381,1376,1376,1376,1376,1370,1370,1370,1370,1370,1370,1365,1365,1359,1359,1354,1354,1354,1354,1349,1349,1349,1343,1343,1338,1338,1338,1333,1333,1333,1328,1328,1328,1328,1322,1322,1322,1317,1317,1317,1312,1312,1312,1307,1307,1307,1302,1302,1302,1297,1297,1292,1292,1292,1292,1288,1288,1288,1283,1283,1278,1273,1273,1273,1273,1273,1273,1273,1273,1268,1268,1268,1264,1264,1264,1259,1259,1259,1259,1112,1112,1112,1112,1112,1108,1105,1101,1097,1094,1094,1084,1084,1080,1077,1073,1073,1070,1070,1067,1067,1067,1063,1063,1063,1063,1063,1060,1060,1057,1057,1054,1050,1050,1050,1050,1050,1050,1077,1077,1077,1077,1073,1073,1070,1070,1067,1067,1067,1067,882,880,880,880,880,880,878,878,878,875,875,878,875,875,875,875,875,875,873,871,871,871,871,869,869,869,869,871,871,873,873,873,0,0,0,0,0,0,0,0,0,0,0,0,0,0,0,0,0,0,0,0,0,0,0,0,0,0,0,0,0,0,0,0,0,0,0,0
0,0,0,0,0,0,0,0,0,0,0,0,0,0,0,0,0,0,0,0,0,767,764,714,714,710,707,706,704,704,704,704,704,704,704,703,701,700,698,696,696,694,693,690,688,688,688,687,687,686,686,686,686,684,683,683,683,683,683,683,683,682,682,682,680,680,680,680,680,680,680,679,679,679,678,678,678,678,678,679,678,678,679,679,679,679,680,680,680,679,678,678,676,675,675,674,674,674,675,674,674,674,674,675,675,675,675,676,675,675,675,674,674,675,674,674,674,674,674,675,676,675,674,674,675,675,675,674,674,674,675,675,674,672,672,672,672,672,672,672,672,672,672,671,671,672,672,671,671,672,670,670,671,670,670,670,671,671,671,672,674,675,675,676,676,678,679,680,682,683,683,684,686,690,690,693,693,694,696,704,704,716,720,722,723,723,725,727,727,728,733,734,734,736,738,739,741,744,747,749,750,752,752,754,755,759,762,764,764,766,767,771,773,776,778,780,781,783,783,785,787,789,790,794,794,796,798,798,798,798,0,1516,1509,1509,1509,1516,1523,1529,1536,1536,1536,1536,1536,1536,1536,1536,1543,1536,1536,1536,1529,1529,1529,1529,1529,1529,1529,1529,1529,1529,1529,1529,1529,1529,1529,1529,1529,1529,1529,1529,1529,1529,1529,1529,1536,1536,1536,1536,0,0,975,975,975,975,975,973,970,967,967,967,964,964,964,964,964,964,964,964,967,967,970,973,975,981,981,984,984,987,0,0,0,0,0,1523,1523,1523,1516,1516,1516,1516,1516,1516,1516,1516,1516,1516,1516,1516,1516,1516,1516,1516,1516,1516,1516,1516,1509,1509,1516,1509,1509,1509,1509,1509,1509,1509,1509,1509,1509,1516,1509,1509,1509,1509,1503,1503,1503,1503,1503,1503,1503,1503,1503,1503,1496,1496,1496,1496,1496,1496,1496,1496,1496,1496,1496,1496,1496,1489,1489,1489,1489,1489,1489,1489,1489,1489,1483,1483,1483,1483,1483,1477,1477,1477,1470,1470,1470,1464,1464,1464,1458,1458,1458,1458,1458,1452,1452,1445,1445,1439,1439,1439,1439,1439,1439,1433,1427,1427,1427,1427,1421,1421,1421,1421,1415,1415,1415,1415,1415,1415,1410,1410,1404,1398,1398,1398,1392,1392,1392,1392,1387,1387,1387,1381,1381,1376,1376,1376,1376,1376,1370,1370,1370,1370,1365,1365,1359,1359,1354,1354,1354,1354,1354,1349,1349,1349,1343,1338,1338,1338,1333,1333,1333,1328,1328,1328,1328,1322,1322,1322,1317,1317,1317,1312,1312,1312,1307,1307,1307,1307,1302,1302,1297,1297,1292,1292,1292,1292,1288,1288,1288,1283,1283,1283,1278,1273,1273,1273,1273,1273,1273,1268,1268,1268,1268,1264,1264,1264,1264,1259,1259,1115,1115,1112,1112,1112,1112,1108,1105,1101,1094,1087,1087,1087,1077,1077,1077,1073,1070,1070,1070,1067,1067,1067,1063,1063,1063,1063,1060,1060,1057,1057,1054,1054,1050,1050,1050,1050,1080,1080,1080,1080,1080,1077,1073,1073,1067,1067,1067,1067,1067,882,882,882,880,880,880,880,878,878,878,878,878,878,875,875,875,875,875,875,873,873,871,871,871,871,871,873,873,875,875,873,873,873,0,0,0,0,0,0,0,0,0,0,0,0,0,0,0,0,0,0,0,0,0,0,0,0,0,0,0,0,0,0,0,0,0,0,0,0
0,0,0,0,0,0,0,0,0,0,0,0,0,0,0,0,0,0,0,0,0,769,764,764,762,710,707,704,703,703,703,703,703,704,704,704,703,703,698,697,696,694,693,690,688,688,688,687,686,684,684,682,682,682,682,680,680,680,680,680,680,679,679,678,678,678,678,678,678,679,679,679,678,678,676,676,675,675,675,675,675,675,675,675,675,675,676,676,676,675,674,674,674,674,672,671,671,672,672,672,672,671,671,671,671,671,674,675,675,674,674,672,671,671,670,670,670,672,672,674,674,672,672,672,671,671,672,671,671,672,674,674,674,671,671,672,671,670,670,670,670,670,670,670,670,670,670,668,668,668,670,670,670,668,668,668,670,670,671,671,672,674,675,675,676,678,679,680,682,683,683,684,686,687,688,693,693,713,710,710,713,716,717,719,722,723,725,727,727,730,733,734,734,736,738,739,741,744,747,749,750,752,752,754,755,759,762,764,764,766,767,769,774,776,778,780,781,781,783,783,785,787,790,792,794,794,794,0,1509,1509,1509,1516,1516,1509,1509,1516,1523,1529,1529,1529,1536,1536,1529,1529,1529,1536,1536,1529,1529,1529,1529,1529,1529,1523,1523,1529,1529,1523,1523,1523,1523,1523,1523,1523,1523,1523,1523,1523,1523,1523,1523,1523,1523,1523,1529,1536,1536,1536,0,0,975,975,975,975,975,975,973,970,967,967,967,964,964,964,964,964,964,967,967,967,970,973,978,981,981,984,984,987,987,0,0,0,0,1523,1516,1516,1516,1509,1509,1509,1509,1509,1509,1509,1509,1509,1509,1509,1509,1509,1509,1509,1509,1509,1509,1509,1509,1509,1509,1509,1509,1503,1503,1503,1503,1503,1503,1503,1503,1503,1503,1503,1503,1503,1503,1496,1496,1496,1496,1496,1496,1496,1496,1496,1496,1496,1496,1496,1496,1489,1489,1489,1489,1489,1489,1489,1489,1489,1489,1489,1489,1489,1483,1483,1483,1483,1483,1483,1483,1477,1477,1477,1477,1470,1470,1470,1470,1470,1464,1464,1464,1464,1464,1458,1458,1452,1452,1445,1445,1439,1439,1439,1439,1439,1439,1433,1427,1427,1427,1427,1421,1421,1421,1421,1415,1415,1415,1415,1415,1415,1410,1410,1404,1404,1398,1398,1398,1392,1392,1392,1392,1392,1387,1381,1381,1376,1376,1376,1376,1376,1370,1370,1370,1370,1365,1365,1359,1359,1354,1354,1354,1354,1354,1349,1349,1349,1343,1338,1338,1338,1338,1333,1333,1333,1328,1328,1328,1322,1322,1322,1317,1317,1317,1312,1312,1312,1307,1307,1307,1307,1302,1302,1297,1297,1292,1292,1292,1292,1288,1288,1288,1288,1288,1283,1278,1273,1273,1273,1273,1273,1273,1268,1268,1268,1268,1264,1264,1264,1264,1259,1259,1119,1115,1115,1115,1112,1108,1108,1105,1097,1090,1087,1087,1087,1077,1073,1070,1070,1067,1067,1067,1067,1067,1063,1063,1063,1063,1063,1060,1060,1057,1057,1054,1054,1050,1050,1050,1080,1080,1080,1080,1080,1080,1077,1073,1073,1067,1067,1067,1067,0,882,882,882,882,882,882,880,880,880,878,878,878,878,878,875,875,878,878,878,875,875,875,875,875,875,875,875,878,880,878,878,878,878,948,948,0,0,0,0,0,0,0,0,0,0,0,0,0,0,0,0,0,0,0,0,0,0,0,0,0,0,0,0,0,0,0,0,0,0
0,0,0,0,0,0,0,0,0,0,0,0,0,0,0,0,0,0,0,0,774,769,767,766,764,762,762,703,703,703,703,703,703,704,704,704,704,701,700,698,697,696,693,690,688,688,688,687,686,684,683,680,680,680,679,679,679,679,679,678,678,676,675,675,675,674,674,675,675,674,674,675,676,675,675,675,674,674,674,672,671,671,671,671,671,671,671,672,672,671,671,671,671,671,671,670,670,670,670,670,668,667,667,666,666,667,668,667,667,667,670,670,670,670,668,668,668,667,667,667,667,668,670,670,668,668,668,668,668,670,672,672,670,670,670,670,668,668,668,667,667,667,667,667,668,667,667,667,664,664,666,666,668,668,667,667,668,670,670,671,672,674,675,675,676,678,679,680,682,683,683,684,684,687,688,693,693,713,713,713,714,716,717,719,722,723,725,727,728,728,733,734,734,736,738,739,741,746,747,749,750,752,752,754,755,759,762,764,766,766,767,769,774,776,778,780,780,781,781,783,783,787,790,792,792,0,0,1509,0,0,1509,1509,1509,1516,1516,1516,1523,1523,1523,1523,1529,1523,1523,1523,1523,1523,1529,1523,1523,1523,1523,1523,1523,1523,1523,1523,1523,1523,1516,1516,1523,1516,1516,1516,1516,1516,1523,1516,1516,1516,1523,1516,1516,1523,1523,1529,1529,1536,0,0,0,978,978,975,975,975,973,970,970,967,967,967,964,964,964,964,964,967,967,967,970,973,978,981,981,984,984,987,987,0,0,0,0,1523,1516,1516,1509,1503,1503,1503,1503,1503,1503,1503,1503,1503,1503,1503,1503,1503,1503,1503,1503,1503,1503,1503,1503,1503,1509,1503,1503,1496,1496,1496,1496,1496,1496,1496,1496,1496,1496,1496,1496,1496,1496,1496,1496,1496,1496,1496,1496,1496,1496,1496,1496,1489,1489,1489,1489,1489,1489,1483,1483,1483,1483,1483,1483,1483,1483,1483,1483,1483,1477,1477,1477,1477,1470,1470,1477,1477,1477,1477,1477,1470,1470,1470,1464,1464,1464,1464,1464,1464,1464,1458,1458,1452,1452,1445,1445,1439,1439,1439,1439,1439,1439,1433,1433,1427,1427,1421,1421,1421,1421,1421,1421,1415,1415,1415,1415,1415,1410,1410,1404,1404,1398,1398,1398,1392,1392,1392,1392,1392,1387,1381,1381,1376,1376,1376,1376,1376,1370,1370,1370,1370,1365,1365,1359,1359,1359,1354,1354,1354,1354,1349,1349,1349,1343,1343,1338,1338,1338,1333,1333,1333,1328,1328,1328,1328,1328,1322,1322,1317,1317,1312,1312,1312,1312,1307,1307,1307,1302,1302,1297,1297,1297,1292,1292,1292,1288,1288,1288,1288,1288,1283,1278,1278,1273,1273,1273,1273,1273,1273,1273,1268,1268,1264,1264,1264,1264,1264,1119,1119,1115,1115,1112,1112,1108,1105,1097,1090,1087,1080,1080,1077,1077,1073,1070,1067,1067,1067,1067,1067,1063,1063,1060,1060,1063,1063,1060,1060,1057,1057,1054,1054,1054,1054,1080,1080,1080,1080,1080,1080,1077,1077,1073,1073,1077,1077,1077,889,885,885,882,882,882,882,885,882,882,880,880,880,878,878,878,878,878,878,878,878,878,878,878,878,878,880,878,878,880,880,880,880,880,948,948,948,0,0,0,0,0,0,0,0,0,0,0,0,0,0,0,0,0,0,0,0,0,0,0,0,0,0,0,0,0,0,0,0,0,0
0,0,0,0,0,0,0,0,0,0,0,0,0,0,0,0,0,0,0,774,774,773,769,767,766,766,764,703,703,755,754,754,752,749,747,704,704,701,701,698,698,697,693,691,690,688,688,687,686,684,682,679,679,679,678,678,676,676,675,675,674,672,671,671,670,670,671,671,672,671,671,672,672,672,674,672,672,671,671,671,670,670,668,668,670,670,667,667,667,667,668,668,668,670,670,668,668,667,667,667,666,666,666,666,666,666,666,666,666,666,666,666,666,667,666,666,666,666,666,666,666,666,666,666,666,667,666,666,661,661,661,661,668,668,668,667,667,666,666,666,664,664,664,666,666,664,664,664,664,664,664,664,664,667,667,667,668,670,670,670,671,674,675,675,676,678,679,680,682,683,683,684,684,686,691,706,710,711,713,714,714,716,717,719,722,725,725,727,728,728,733,734,736,736,738,739,741,744,747,749,750,752,754,755,757,761,762,764,766,766,767,769,773,776,776,778,780,781,781,783,783,787,0,0,1516,0,0,1509,1509,1509,1509,1509,1509,1516,1516,1516,1516,1516,1523,1523,1523,1516,1516,1516,1516,1516,1523,1516,1516,1516,1516,1516,1516,1516,1516,1516,1516,1516,1516,1516,1516,1516,1516,1516,1516,1516,1516,1516,1509,1509,1516,1516,1516,1516,1516,1516,1529,1529,0,0,0,978,978,978,975,975,975,973,973,970,967,967,967,967,964,964,964,967,967,967,970,975,978,981,984,984,984,987,987,989,0,0,0,1523,1516,1516,1503,1503,1496,1496,1496,1496,1496,1503,1496,1496,1496,1496,1496,1496,1489,1489,1503,1503,1503,1503,1503,1503,1503,1496,1496,1496,1496,1496,1496,1496,1496,1496,1496,1496,1496,1496,1496,1496,1489,1489,1489,1489,1489,1489,1489,1489,1489,1489,1489,1489,1489,1483,1483,1483,1483,1477,1477,1477,1477,1483,1477,1477,1477,1477,1477,1477,1470,1470,1477,1470,1470,1470,1470,1477,1477,1470,1470,1470,1470,1470,1464,1464,1464,1464,1464,1458,1458,1458,1458,1458,1452,1445,1445,1439,1439,1439,1439,1439,1439,1433,1433,1427,1427,1421,1421,1421,1421,1421,1421,1415,1415,1415,1415,1415,1415,1410,1410,1404,1404,1398,1398,1392,1392,1392,1392,1392,1387,1381,1381,1376,1376,1376,1376,1376,1370,1370,1370,1370,1370,1365,1365,1365,1359,1359,1354,1354,1354,1354,1349,1349,1343,1343,1343,1338,1338,1338,1333,1333,1333,1328,1328,1328,1328,1322,1322,1322,1317,1312,1312,1312,1312,1312,1307,1307,1307,1302,1297,1297,1297,1292,1292,1292,1292,1292,1288,1288,1288,1283,1278,1278,1273,1273,1273,1273,1273,1273,1273,1268,1268,1268,1268,1264,1264,1126,1119,1119,1115,1115,1112,1108,1105,1101,1094,1087,1084,1080,1077,1077,1073,1070,1067,1067,1063,1063,1063,1063,1063,1060,1057,1057,1057,1060,1060,1060,1060,1054,1054,1054,1054,1090,1090,1080,1080,1080,1080,1077,1077,1077,1073,1073,1073,0,0,889,889,885,885,885,882,882,885,882,882,882,882,880,880,880,880,878,878,880,880,880,880,880,880,880,882,882,885,882,882,882,882,948,948,946,946,948,0,0,0,0,0,0,0,0,0,0,0,0,0,0,0,0,0,0,0,0,0,0,0,0,0,0,0,0,0,0,0,0,0,0
0,0,0,0,0,0,0,0,0,0,0,0,0,0,0,0,0,0,0,774,774,774,773,769,769,767,766,762,761,759,759,754,752,749,747,746,744,701,701,698,698,697,694,691,690,690,688,687,686,684,682,679,679,678,676,676,675,674,674,671,671,670,670,667,667,667,667,668,670,670,670,670,671,671,671,671,670,670,670,670,670,668,668,668,668,668,667,666,666,666,666,666,666,666,666,666,664,664,664,664,663,663,664,664,664,664,664,664,664,664,664,664,664,666,664,664,664,664,664,664,664,663,663,664,661,661,661,661,661,661,659,659,661,666,666,666,666,664,664,663,662,662,662,662,662,662,662,662,662,661,661,664,664,666,666,666,667,668,670,670,671,674,675,676,676,678,679,680,682,682,682,682,682,686,706,707,710,711,713,714,714,716,717,719,722,725,727,728,730,731,733,734,736,738,739,741,741,744,747,749,750,752,754,755,759,761,764,764,766,766,767,769,773,776,776,778,780,781,781,783,0,0,0,1516,0,1516,1509,1509,1509,1509,1509,1509,1509,1509,1516,1516,1516,1516,1516,1516,1516,1516,1516,1516,1516,1516,1516,1516,1516,1516,1509,1509,1509,1509,1509,1509,1509,1509,1509,1509,1509,1509,1509,1509,1509,1509,1509,1509,1509,1509,1509,1503,1503,1503,1503,1503,0,0,0,0,0,0,978,978,975,975,975,973,973,970,967,967,967,967,964,964,967,967,967,967,970,975,978,981,984,984,984,987,987,989,0,0,0,1496,1496,1496,1496,1496,1496,1496,1496,1496,1496,1496,1489,1489,1489,1489,1489,1489,1489,1489,1489,1489,1496,1496,1503,1503,1503,1496,1496,1496,1496,1496,1489,1489,1489,1489,1489,1489,1489,1489,1489,1489,1489,1489,1489,1489,1489,1489,1489,1489,1489,1489,1483,1483,1483,1483,1483,1483,1477,1477,1477,1477,1477,1477,1477,1477,1477,1470,1470,1470,1470,1470,1470,1470,1470,1470,1470,1470,1470,1470,1470,1470,1470,1470,1464,1464,1464,1464,1464,1458,1458,1458,1458,1458,1452,1445,1445,1445,1445,1439,1439,1439,1439,1433,1433,1427,1427,1427,1421,1421,1421,1421,1421,1415,1415,1415,1415,1415,1415,1415,1410,1410,1404,1398,1398,1398,1398,1392,1392,1392,1387,1387,1381,1376,1376,1376,1376,1376,1370,1370,1370,1370,1370,1365,1365,1359,1359,1359,1354,1354,1354,1354,1349,1349,1343,1343,1343,1338,1338,1338,1333,1333,1333,1328,1328,1328,1328,1322,1322,1322,1317,1317,1317,1312,1312,1312,1307,1307,1307,1302,1297,1297,1297,1297,1297,1292,1292,1292,1292,1288,1288,1283,1278,1278,1278,1278,1273,1273,1273,1273,1273,1268,1268,1264,1264,1138,1130,1123,1119,1115,1108,1108,1108,1105,1101,1094,1090,1084,1080,1080,1077,1077,1073,1070,1067,1067,1063,1060,1060,1060,1060,1057,1057,1057,1057,1060,1060,1060,1060,1060,1101,1094,1094,1094,1090,1080,1080,1080,1080,1077,1077,1077,1077,1077,896,0,0,0,889,887,885,885,885,885,885,882,882,882,882,882,880,880,880,880,880,880,880,880,882,882,882,885,887,887,889,887,887,887,887,948,948,946,946,0,0,0,0,0,0,0,0,0,0,0,0,0,0,0,0,0,0,0,0,0,0,0,0,0,0,0,0,0,0,0,0,0,0,0
0,0,0,0,0,869,869,0,0,0,0,0,0,0,0,0,0,0,0,774,774,774,774,773,771,769,767,764,762,759,759,754,752,749,747,746,744,742,741,698,697,697,696,693,691,690,690,688,686,684,682,679,679,678,676,676,675,671,670,670,668,668,667,667,666,666,667,667,668,668,668,668,670,668,668,668,667,667,667,667,667,667,666,666,667,667,664,664,664,664,662,662,663,664,663,662,662,662,662,662,662,662,663,663,663,663,663,663,663,663,662,662,662,663,662,662,662,662,662,662,659,659,659,659,659,659,659,659,658,657,657,657,658,662,662,662,662,664,663,662,662,662,661,661,661,661,661,661,661,659,659,663,663,664,666,666,667,668,668,670,672,674,675,676,676,678,679,680,682,682,682,682,682,706,706,707,710,711,713,714,714,716,717,719,722,725,727,728,730,731,734,736,738,738,739,741,741,744,747,749,750,752,754,755,759,761,764,764,766,767,767,769,773,774,776,778,780,781,781,0,0,0,0,0,1516,1516,1516,1509,1509,1509,1509,1509,1509,1509,1509,1516,1516,1516,1516,1516,1516,1509,1509,1509,1509,1509,1509,1509,1509,1509,1509,1509,1509,1503,1503,1503,1503,1503,1509,1509,1509,1509,1509,1509,1509,1503,1503,1509,1509,1503,1503,1503,1496,1489,1489,1489,1489,0,0,0,0,0,981,978,978,978,978,975,975,973,970,970,967,967,967,967,967,967,967,970,970,975,978,984,984,984,987,989,989,989,0,0,0,0,1489,1489,1489,1489,1489,1489,1489,1489,1489,1489,1489,1483,1483,1483,1489,1489,1483,1483,1489,1489,1489,1483,1483,1483,1483,1489,1489,1489,1489,1489,1489,1489,1489,1489,1489,1489,1489,1489,1489,1489,1483,1483,1483,1483,1483,1483,1483,1483,1483,1477,1477,1477,1470,1470,1477,1477,1477,1470,1470,1470,1470,1470,1470,1470,1470,1470,1470,1470,1470,1470,1470,1470,1464,1464,1470,1470,1470,1470,1470,1470,1464,1464,1464,1464,1464,1464,1458,1458,1464,1458,1458,1458,1452,1445,1445,1445,1445,1439,1439,1439,1439,1439,1433,1433,1427,1427,1427,1421,1421,1421,1421,1421,1415,1415,1415,1415,1415,1415,1410,1410,1404,1398,1398,1398,1398,1392,1392,1392,1392,1387,1387,1381,1376,1376,1376,1376,1376,1370,1370,1370,1365,1365,1365,1359,1359,1359,1354,1354,1354,1354,1349,1349,1349,1343,1343,1343,1338,1338,1333,1333,1333,1328,1328,1328,1328,1322,1322,1322,1317,1317,1317,1312,1312,1312,1307,1307,1307,1302,1297,1297,1297,1297,1297,1292,1292,1292,1292,1288,1288,1288,1283,1283,1283,1278,1273,1273,1273,1273,1268,1268,1268,1138,1138,1130,1123,1119,1115,1112,1108,1105,1105,1101,1097,1090,1087,1084,1080,1077,1077,1073,1073,1070,1067,1063,1060,1060,1060,1060,1060,1057,1054,1054,1054,1060,1060,1063,1063,1101,1101,1101,1094,1094,1090,1080,1080,1080,1080,1077,1077,1077,1077,0,896,0,889,889,889,887,887,887,885,885,885,885,885,885,885,885,882,882,882,882,882,882,882,882,885,887,887,887,889,889,889,889,889,889,948,948,948,946,946,948,0,0,0,0,0,0,0,0,0,0,0,0,0,0,0,0,0,0,0,0,0,0,0,0,0,0,0,0,0,0,0,0,0,0
0,0,0,869,869,869,869,0,0,0,0,0,0,0,0,0,0,0,0,774,774,776,774,774,773,771,769,766,764,762,762,761,754,750,747,747,744,744,742,698,697,697,696,693,691,690,690,688,686,684,682,679,679,678,678,676,675,671,670,668,667,667,667,666,666,666,666,666,667,667,667,667,667,667,664,664,663,663,663,663,663,664,664,664,666,666,664,663,663,662,661,661,661,661,661,661,661,661,661,661,659,659,659,659,659,661,661,661,662,661,661,661,661,662,661,661,658,658,658,658,658,658,659,659,658,658,658,658,657,655,655,655,655,657,657,657,659,662,662,661,661,661,659,659,658,658,659,659,659,659,659,661,662,664,664,666,666,668,668,670,672,674,675,676,676,676,678,680,682,682,682,683,706,706,706,707,710,711,713,714,714,716,717,719,723,727,727,728,730,733,734,736,738,738,739,741,742,746,747,749,752,752,754,757,759,761,764,764,766,766,767,769,771,773,774,778,0,0,0,0,0,0,0,1516,1516,1516,1509,1509,1509,1509,1509,1509,1509,1509,1509,1509,1509,1509,1509,1509,1509,1509,1509,1503,1503,1503,1503,1503,1503,1503,1496,1496,1503,1503,1496,1496,1496,1496,1496,1496,1496,1496,1496,1496,1496,1503,1503,1503,1503,1503,1503,1496,1489,1489,1483,1483,1483,0,0,0,0,0,0,978,978,978,978,975,975,975,973,970,967,967,967,967,967,967,967,970,970,975,978,981,984,987,987,989,989,989,0,0,0,0,1489,1489,1483,1483,1489,1489,1483,1483,1483,1489,1483,1483,1483,1483,1489,1489,1477,1477,1477,1477,1477,1477,1477,1477,1477,1477,1477,1483,1483,1483,1483,1483,1483,1483,1483,1483,1483,1483,1483,1477,1477,1477,1477,1477,1470,1470,1477,1477,1470,1470,1470,1470,1470,1470,1470,1470,1470,1470,1470,1470,1470,1470,1470,1470,1470,1470,1470,1464,1464,1464,1464,1470,1464,1464,1470,1470,1470,1470,1470,1464,1464,1464,1464,1458,1458,1458,1452,1452,1458,1458,1458,1458,1452,1445,1445,1439,1439,1439,1439,1439,1439,1439,1433,1433,1433,1427,1427,1427,1421,1421,1421,1415,1415,1415,1415,1415,1415,1415,1410,1410,1404,1404,1398,1398,1398,1392,1392,1392,1392,1392,1387,1381,1381,1376,1376,1376,1376,1376,1370,1370,1365,1365,1365,1359,1359,1359,1354,1354,1354,1354,1354,1349,1349,1343,1343,1343,1343,1338,1338,1333,1333,1333,1328,1328,1328,1328,1322,1322,1317,1317,1317,1312,1312,1312,1307,1307,1307,1302,1302,1297,1297,1297,1297,1297,1292,1292,1292,1292,1288,1288,1288,1283,1283,1278,1278,1273,1273,1273,1268,1268,1134,1134,1134,1126,1123,1119,1115,1108,1105,1105,1101,1097,1094,1090,1087,1084,1080,1073,1073,1073,1070,1067,1067,1063,1060,1060,1060,1060,1060,1057,1054,1054,1054,1060,1060,1108,1101,1101,1101,1101,1101,1094,1090,1080,1077,1077,1077,1080,1080,1080,901,0,896,896,896,889,889,889,887,887,887,887,887,887,887,887,887,887,885,885,885,885,885,885,887,887,889,889,889,889,889,889,889,891,889,889,951,951,951,951,948,948,0,0,0,0,0,0,0,0,0,0,0,0,0,0,0,0,0,0,0,0,0,0,0,0,0,0,0,0,0,0,0,0,0,0
0,0,0,869,869,869,871,0,0,0,0,0,0,0,0,0,0,0,0,0,0,778,776,774,773,773,769,767,766,764,762,762,755,752,749,747,746,744,742,742,741,736,733,693,691,690,690,688,686,684,682,680,679,679,678,676,675,671,670,668,667,667,666,666,664,664,664,663,663,663,664,664,664,663,661,661,661,661,661,661,661,661,662,663,663,663,663,663,662,661,661,659,659,659,661,659,659,659,658,658,658,657,657,657,658,658,658,658,659,659,659,658,658,657,655,655,653,653,653,653,655,658,657,657,657,655,655,655,654,654,654,654,654,654,654,654,655,655,657,659,659,659,658,657,657,657,658,658,658,658,658,661,661,663,664,666,666,668,668,670,672,674,675,676,676,676,678,680,682,682,682,704,706,706,706,707,710,713,714,714,716,716,719,720,722,727,728,728,731,733,734,736,738,738,739,741,742,747,749,750,752,754,755,757,759,761,762,764,764,766,766,767,769,771,774,0,0,0,0,0,0,0,1509,1503,1503,1509,1509,1509,1509,1503,1503,1503,1503,1503,1503,1503,1503,1503,1509,1509,1503,1503,1503,1503,1496,1496,1496,1496,1496,1496,1496,1496,1496,1496,1496,1496,1496,1496,1489,1489,1489,1489,1489,1489,1489,1489,1489,1496,1496,1496,1489,1489,1489,1483,1483,1483,1483,1483,0,0,0,0,0,0,978,978,978,978,978,975,975,973,970,967,967,967,967,967,967,970,970,975,978,981,984,987,987,989,989,992,0,0,0,1483,1483,1483,1483,1483,1489,1483,1477,1477,1477,1483,1477,1477,1477,1477,1477,1477,1477,1470,1470,1470,1470,1470,1470,1470,1470,1470,1470,1477,1477,1477,1470,1470,1477,1477,1477,1477,1483,1483,1477,1477,1477,1470,1470,1470,1470,1470,1470,1470,1470,1464,1464,1464,1464,1464,1470,1470,1470,1470,1470,1470,1464,1464,1464,1464,1464,1464,1464,1464,1464,1464,1464,1464,1464,1464,1464,1464,1464,1464,1464,1464,1464,1458,1458,1458,1458,1452,1452,1452,1452,1452,1452,1445,1445,1445,1445,1439,1439,1439,1439,1439,1439,1439,1433,1433,1433,1427,1427,1427,1427,1421,1421,1415,1415,1415,1415,1415,1415,1415,1410,1410,1404,1404,1398,1398,1398,1398,1398,1392,1392,1392,1387,1387,1381,1376,1376,1376,1376,1376,1370,1370,1370,1365,1365,1365,1359,1359,1359,1354,1354,1354,1354,1349,1349,1349,1343,1343,1343,1338,1338,1333,1333,1333,1328,1328,1328,1328,1328,1322,1322,1317,1317,1312,1312,1312,1307,1307,1307,1307,1302,1302,1302,1302,1297,1297,1292,1292,1292,1292,1288,1288,1288,1283,1283,1283,1278,1273,1273,1273,1268,1268,1134,1130,1123,1123,1119,1115,1112,1108,1105,1101,1097,1094,1090,1087,1084,1084,1080,1073,1073,1070,1067,1067,1063,1063,1060,1060,1060,1060,1060,1057,1057,1057,1057,1060,1108,1108,1105,1101,1097,1097,1094,1090,1084,1080,1077,1077,1077,1080,1080,901,901,898,898,896,894,889,889,889,889,889,887,887,887,887,887,887,887,887,887,887,887,887,887,889,889,889,891,891,889,889,889,889,889,891,891,891,954,954,951,951,948,948,0,0,0,0,0,0,0,0,0,0,0,0,0,0,0,0,0,0,0,0,0,0,0,0,0,0,0,0,0,0,0,0,0,0
0,0,0,875,871,871,871,0,0,0,0,0,0,0,0,0,0,0,0,0,0,781,780,776,774,773,771,769,766,766,764,762,755,752,749,747,746,744,742,742,741,738,736,693,691,690,690,686,686,684,682,680,680,679,678,676,675,674,670,668,667,667,666,666,664,664,663,663,662,661,661,659,659,661,659,659,659,659,659,659,658,658,659,659,661,661,661,661,661,661,659,659,659,659,659,658,657,657,657,657,657,655,655,655,655,655,655,655,655,657,657,655,655,653,652,652,652,652,650,650,652,650,650,653,654,653,653,653,653,653,652,652,652,652,653,653,652,652,653,654,654,654,655,657,657,657,657,658,658,658,658,659,661,663,664,666,667,667,668,670,671,674,674,675,676,676,678,682,682,698,701,704,704,706,706,707,711,713,714,714,716,716,719,722,722,727,727,730,731,733,734,736,738,739,741,742,744,747,749,750,752,754,755,759,761,762,762,764,764,764,766,766,767,771,0,0,0,0,0,0,0,1503,1503,1503,1503,1509,1503,1503,1503,1503,1496,1496,1496,1496,1496,1496,1496,1503,1503,1503,1503,1496,1496,1496,1496,1496,1496,1496,1496,1496,1496,1496,1489,1489,1489,1489,1489,1489,1489,1489,1489,1489,1489,1483,1483,1483,1483,1489,1483,1483,1483,1483,1483,1483,1477,1477,1477,1477,0,0,0,0,0,0,981,981,981,978,978,978,975,975,973,970,967,967,967,970,970,970,973,975,978,981,987,987,989,992,992,992,0,0,0,1477,1477,1477,1477,1477,1483,1483,1470,1470,1470,1477,1470,1470,1470,1470,1470,1470,1470,1470,1470,1470,1470,1470,1470,1470,1470,1470,1470,1470,1470,1470,1470,1464,1464,1464,1464,1464,1470,1470,1470,1470,1470,1470,1464,1464,1464,1464,1464,1464,1464,1464,1464,1464,1464,1464,1464,1464,1464,1464,1464,1464,1458,1458,1458,1458,1458,1458,1458,1458,1458,1458,1458,1458,1458,1458,1458,1458,1458,1458,1458,1458,1458,1452,1452,1452,1452,1452,1445,1445,1445,1445,1445,1445,1445,1445,1445,1439,1439,1439,1439,1439,1439,1439,1433,1433,1433,1433,1427,1427,1427,1421,1421,1421,1415,1415,1415,1415,1415,1415,1410,1410,1404,1404,1398,1398,1398,1398,1398,1392,1392,1392,1387,1387,1381,1381,1376,1376,1376,1376,1370,1370,1370,1365,1365,1365,1359,1359,1359,1354,1354,1354,1354,1349,1349,1349,1349,1343,1343,1343,1338,1338,1333,1333,1333,1328,1328,1328,1328,1322,1322,1322,1317,1317,1312,1312,1307,1307,1307,1307,1307,1302,1302,1302,1302,1302,1292,1292,1292,1292,1288,1288,1288,1288,1288,1283,1278,1278,1273,1273,1273,1130,1130,1126,1123,1123,1115,1115,1108,1105,1101,1097,1094,1094,1090,1087,1084,1080,1080,1073,1073,1067,1067,1067,1063,1063,1060,1060,1060,1060,1060,1060,1057,1057,1063,1063,1101,1101,1097,1097,1094,1094,1090,1084,1084,1080,1077,1077,1077,901,901,898,898,898,898,896,894,891,891,891,889,889,889,889,889,887,887,887,887,887,887,889,889,889,889,891,891,891,894,894,891,891,889,889,891,894,898,954,954,954,954,946,946,948,0,0,0,0,0,0,0,0,0,0,0,0,0,0,0,0,0,0,0,0,0,0,0,0,0,0,0,0,0,0,0,0,0,0
0,0,0,875,873,873,873,875,0,0,0,0,0,0,0,0,0,0,0,0,0,781,780,778,776,774,773,771,769,767,766,764,757,752,749,747,746,746,744,742,742,739,739,738,734,734,734,686,686,684,683,682,680,679,679,678,675,674,671,670,667,667,667,666,664,663,663,661,661,659,658,657,657,657,655,655,655,657,658,658,657,657,657,658,658,657,657,658,658,658,658,657,657,657,657,655,655,655,655,655,655,655,654,654,654,654,654,653,653,654,654,653,652,652,650,650,650,650,650,650,650,649,649,649,649,649,649,649,649,650,649,649,649,649,650,649,648,648,648,648,650,652,653,654,654,654,655,657,658,658,658,659,661,663,664,666,667,667,668,670,671,674,674,675,676,676,696,696,698,698,700,703,704,706,706,708,711,713,714,714,716,717,720,723,725,727,727,728,731,733,734,736,738,739,741,742,746,749,749,750,752,754,755,759,761,762,762,764,764,764,766,766,767,0,0,0,0,0,0,0,1496,1496,1496,1496,1496,1496,1496,1496,1496,1496,1496,1496,1496,1489,1489,1489,1489,1496,1496,1496,1496,1489,1489,1489,1489,1489,1489,1489,1489,1489,1489,1489,1489,1489,1489,1489,1483,1483,1483,1483,1483,1483,1483,1483,1483,1483,1483,1483,1483,1477,1477,1477,1477,1477,1477,1470,1470,1477,0,0,0,0,0,0,0,981,981,981,978,978,975,975,973,970,970,970,970,970,970,970,973,975,978,981,987,989,989,992,995,0,0,0,0,1477,1477,1477,1470,1470,1477,1477,1470,1464,1464,1464,1464,1464,1464,1464,1464,1470,1464,1464,1464,1464,1464,1464,1464,1464,1464,1464,1464,1464,1464,1464,1464,1464,1464,1458,1458,1458,1464,1464,1464,1464,1464,1464,1464,1464,1458,1458,1464,1464,1458,1458,1458,1458,1458,1458,1458,1458,1458,1458,1458,1458,1458,1458,1452,1452,1452,1452,1452,1452,1452,1452,1452,1458,1452,1452,1452,1452,1452,1452,1452,1452,1452,1452,1452,1445,1445,1445,1445,1445,1445,1445,1445,1439,1439,1439,1439,1439,1439,1439,1439,1439,1439,1433,1433,1433,1433,1427,1427,1427,1427,1421,1421,1421,1421,1415,1415,1415,1415,1415,1410,1410,1404,1404,1398,1398,1398,1398,1398,1392,1392,1392,1387,1387,1381,1381,1376,1376,1376,1376,1376,1370,1370,1370,1365,1365,1365,1365,1359,1359,1354,1354,1354,1354,1349,1349,1349,1343,1343,1343,1338,1338,1333,1333,1328,1328,1328,1328,1328,1322,1322,1322,1322,1317,1312,1312,1312,1307,1307,1307,1307,1307,1302,1302,1302,1302,1292,1292,1292,1288,1288,1288,1288,1288,1288,1283,1283,1278,1273,1273,1134,1130,1130,1126,1123,1123,1115,1112,1105,1101,1101,1094,1094,1090,1087,1084,1080,1080,1080,1073,1073,1067,1067,1063,1063,1063,1060,1060,1060,1060,1060,1060,1060,1060,1060,1112,1112,1101,1097,1097,1094,1094,1090,1084,1084,1080,1080,898,898,898,898,898,898,898,898,896,896,896,896,894,891,889,889,889,889,889,889,889,889,889,889,889,889,891,891,894,894,894,894,894,894,894,889,889,891,894,956,954,954,954,954,946,946,0,0,0,0,0,0,0,0,0,0,0,0,0,0,0,0,0,0,0,0,0,0,0,0,0,0,0,0,0,0,0,0,0,0,0
0,0,0,875,875,875,875,875,0,0,0,0,0,0,0,0,0,0,0,0,0,780,778,778,776,774,773,773,769,767,766,766,761,755,750,747,747,746,744,744,742,741,741,739,738,734,734,686,686,684,683,682,682,680,679,678,675,675,671,670,668,667,667,666,664,663,662,659,659,657,657,655,655,654,654,654,654,654,654,654,654,654,655,655,655,654,654,655,655,655,655,655,654,654,653,653,653,653,653,653,654,654,654,654,653,653,653,652,652,652,650,650,650,650,650,649,649,649,649,649,649,648,648,648,647,646,646,646,646,647,647,647,647,647,648,647,647,647,647,647,647,649,650,652,653,654,655,655,657,658,658,661,662,663,664,666,667,667,668,670,671,672,674,675,676,694,696,696,698,698,700,703,704,706,706,708,711,713,714,716,717,719,722,723,725,727,728,728,731,733,734,736,738,739,741,742,746,749,749,750,752,754,755,757,759,761,762,762,764,764,764,766,0,0,0,0,0,0,0,0,1489,1489,1489,1489,1489,1489,1489,1489,1489,1489,1489,1489,1489,1489,1489,1489,1489,1489,1489,1489,1489,1483,1483,1483,1483,1483,1483,1483,1483,1483,1483,1483,1483,1483,1483,1483,1483,1483,1483,1483,1483,1483,1483,1477,1477,1477,1477,1477,1477,1477,1477,1477,1477,1477,1470,1470,1470,1470,0,0,0,0,0,0,987,984,984,981,981,978,978,975,973,970,970,970,970,970,970,973,975,978,978,984,987,989,992,995,995,995,0,0,0,1477,1470,1470,1470,1470,1470,1470,1464,1464,1464,1464,1464,1464,1464,1464,1464,1464,1464,1464,1464,1458,1458,1458,1458,1458,1458,1458,1464,1464,1458,1458,1458,1458,1458,1458,1458,1458,1458,1458,1452,1452,1452,1452,1458,1458,1458,1458,1458,1458,1458,1452,1452,1452,1452,1452,1452,1452,1452,1452,1458,1452,1452,1452,1452,1452,1452,1452,1452,1452,1452,1452,1452,1452,1445,1445,1445,1445,1445,1445,1445,1445,1452,1445,1445,1445,1445,1445,1445,1439,1439,1439,1439,1439,1439,1439,1439,1439,1439,1439,1439,1433,1433,1433,1433,1433,1433,1427,1427,1427,1427,1421,1421,1421,1421,1415,1415,1415,1415,1415,1410,1410,1404,1404,1398,1398,1398,1398,1398,1392,1392,1392,1392,1387,1387,1381,1381,1381,1376,1376,1376,1370,1370,1370,1365,1365,1365,1365,1359,1359,1359,1354,1354,1354,1349,1349,1349,1349,1343,1343,1338,1338,1333,1333,1328,1328,1328,1328,1328,1322,1322,1322,1322,1317,1312,1312,1312,1312,1307,1307,1307,1307,1307,1302,1302,1302,1292,1292,1292,1288,1288,1288,1288,1288,1288,1283,1283,1278,1138,1134,1134,1130,1130,1126,1123,1119,1115,1112,1105,1101,1097,1094,1094,1090,1087,1084,1080,1080,1077,1077,1073,1070,1067,1063,1063,1063,1060,1060,1060,1060,1060,1060,1060,1060,1060,1112,1112,1105,1097,1097,1094,1094,1090,1084,1084,1084,901,901,898,898,898,898,898,896,896,896,896,896,896,894,894,891,889,889,889,889,889,889,889,889,891,891,891,894,894,894,894,896,896,896,894,894,891,891,959,956,956,956,954,954,951,946,946,0,0,0,0,0,0,0,0,0,0,0,0,0,0,0,0,0,0,0,0,0,0,0,0,0,0,0,0,0,0,0,0,0,0,0
0,0,0,875,875,875,875,878,878,0,0,0,0,0,0,0,0,0,0,0,0,780,778,778,776,774,773,773,769,767,767,766,762,759,754,749,747,747,746,746,744,742,741,741,739,736,734,730,727,725,723,722,682,680,679,678,675,675,671,670,668,668,667,666,664,663,662,659,658,657,655,655,654,654,653,653,652,652,650,650,653,648,647,647,649,652,652,652,652,652,653,653,652,652,650,650,650,650,650,652,652,653,653,653,652,652,650,650,650,650,650,649,649,649,649,649,649,648,648,648,647,647,646,646,646,646,646,646,646,646,646,646,646,646,646,646,646,646,646,646,647,648,649,650,652,654,655,655,657,658,659,661,662,663,664,666,667,667,668,670,671,672,674,691,694,694,696,697,698,698,698,703,704,706,706,708,711,713,714,716,717,719,722,725,727,727,728,730,731,733,734,736,738,739,741,744,746,749,749,750,752,754,755,757,759,761,762,762,764,764,764,766,0,0,0,0,0,0,1483,1483,1483,1483,1483,1483,1483,1483,1483,1483,1483,1483,1483,1483,1483,1483,1483,1483,1477,1477,1477,1477,1477,1477,1477,1477,1483,1483,1483,1483,1483,1483,1483,1483,1483,1483,1483,1483,1483,1483,1483,1483,1477,1477,1477,1470,1470,1470,1470,1470,1470,1470,1470,1470,1470,1470,1470,1464,1464,1464,1464,0,0,0,0,0,987,984,984,984,981,981,978,975,973,973,970,970,970,973,973,973,975,978,978,984,987,989,992,995,998,0,0,0,1470,1470,1470,1470,1464,1464,1464,1464,1464,1464,1458,1458,1458,1464,1458,1458,1458,1464,1464,1464,1458,1458,1458,1458,1458,1458,1458,1458,1458,1458,1452,1452,1458,1452,1452,1452,1452,1452,1452,1452,1452,1452,1445,1445,1445,1445,1445,1452,1452,1452,1452,1452,1445,1445,1445,1452,1452,1452,1452,1452,1452,1445,1445,1445,1445,1445,1445,1445,1445,1445,1445,1445,1445,1445,1445,1445,1445,1445,1439,1439,1445,1445,1445,1445,1445,1439,1439,1439,1439,1439,1439,1439,1433,1433,1439,1433,1433,1433,1433,1433,1433,1427,1427,1427,1427,1427,1427,1427,1427,1427,1427,1421,1421,1421,1421,1415,1415,1415,1415,1415,1410,1410,1404,1404,1398,1398,1398,1398,1398,1392,1392,1392,1392,1392,1387,1381,1381,1381,1376,1376,1376,1376,1376,1370,1370,1370,1365,1365,1359,1359,1359,1354,1354,1354,1349,1349,1349,1349,1343,1343,1343,1338,1338,1333,1333,1333,1333,1328,1328,1322,1322,1322,1322,1317,1312,1312,1312,1312,1312,1312,1307,1307,1307,1302,1302,1297,1297,1292,1292,1292,1288,1288,1288,1288,1288,1288,1288,1138,1134,1134,1134,1130,1126,1126,1123,1119,1115,1105,1101,1101,1097,1094,1090,1087,1084,1080,1080,1080,1077,1077,1073,1070,1070,1063,1063,1063,1063,1060,1060,1060,1063,1063,1063,1063,0,1101,1101,1101,1097,1097,1094,1094,1090,1084,1084,901,901,898,898,898,898,898,898,896,896,896,896,896,896,896,896,894,894,894,891,891,891,891,891,891,891,894,894,896,896,896,896,896,896,896,896,896,959,959,959,956,956,956,954,954,948,943,943,0,0,0,0,0,0,0,0,0,0,0,0,0,0,0,0,0,0,0,0,0,0,0,0,0,0,0,0,0,0,0,0,0,0,0
0,0,0,875,875,878,878,878,878,882,0,0,0,0,0,0,0,0,0,0,0,0,778,778,776,774,773,771,769,767,767,766,762,761,757,752,750,749,747,746,744,742,741,741,739,736,734,730,727,725,723,722,722,722,722,679,675,674,671,670,670,668,668,667,666,663,659,659,658,657,655,655,654,653,652,652,650,647,647,647,647,647,647,647,647,648,648,648,648,649,650,650,648,648,648,648,648,648,649,649,652,653,652,650,650,650,649,649,648,647,646,646,646,646,648,648,648,646,646,646,644,644,644,643,643,643,643,643,643,644,644,643,643,643,643,643,643,644,644,644,646,647,649,649,652,654,654,654,655,657,659,661,662,663,664,666,667,667,668,670,671,690,690,691,693,694,696,697,698,698,698,703,704,706,707,710,711,713,714,716,717,720,722,723,725,727,728,730,731,733,734,736,738,741,742,744,746,749,749,749,752,752,754,755,759,761,761,762,764,764,764,0,0,0,1464,1464,1464,1464,1470,1477,1483,1483,1483,1483,1483,1483,1483,1483,1483,1483,1483,1483,1477,1477,1470,1470,1470,1470,1470,1470,1470,1470,1470,1470,1477,1477,1477,1477,1477,1477,1477,1477,1477,1477,1477,1477,1477,1477,1477,1477,1470,1470,1470,1470,1470,1470,1470,1470,1470,1464,1464,1470,1464,1464,1464,1464,1464,1464,1464,0,0,0,0,0,0,984,984,984,981,981,978,978,973,973,973,973,973,973,973,975,975,978,978,984,987,992,992,998,1001,1001,0,0,1470,1470,1464,1464,1464,1464,1464,1458,1458,1458,1458,1458,1458,1458,1452,1452,1452,1458,1458,1458,1458,1458,1458,1452,1452,1452,1452,1452,1452,1452,1452,1452,1445,1445,1445,1445,1445,1445,1445,1445,1445,1445,1445,1445,1445,1445,1445,1445,1445,1445,1445,1445,1445,1445,1445,1445,1445,1445,1445,1445,1445,1445,1445,1439,1439,1439,1439,1439,1439,1439,1439,1439,1439,1445,1439,1439,1439,1439,1439,1439,1439,1439,1439,1439,1439,1439,1439,1439,1439,1433,1433,1433,1433,1433,1433,1427,1427,1427,1427,1427,1427,1427,1427,1427,1427,1427,1427,1421,1421,1421,1421,1421,1421,1415,1415,1415,1415,1415,1415,1415,1410,1410,1410,1404,1404,1398,1398,1398,1398,1392,1392,1392,1392,1392,1387,1381,1381,1381,1381,1376,1376,1376,1376,1376,1370,1370,1370,1370,1365,1365,1359,1359,1354,1354,1349,1349,1349,1349,1349,1349,1343,1343,1338,1338,1333,1333,1333,1333,1328,1328,1322,1322,1322,1317,1317,1312,1312,1312,1312,1312,1307,1307,1307,1302,1302,1297,1297,1292,1292,1292,1288,1288,1288,1288,1288,1288,1288,1134,1134,1134,1130,1130,1126,1123,1123,1119,1115,1105,1101,1097,1097,1094,1090,1084,1084,1080,1080,1077,1077,1077,1073,1073,1073,1067,1063,1063,1063,1063,1063,1063,1063,1063,1063,0,0,0,1101,1101,1097,1097,1094,1094,1090,1090,1090,901,901,898,898,898,898,898,898,898,898,898,896,896,896,896,896,896,894,894,894,896,891,891,891,891,894,896,896,898,898,898,898,898,898,896,896,959,956,956,956,956,956,954,954,954,946,943,943,0,0,0,0,0,0,0,0,0,0,0,0,0,0,0,0,0,0,0,0,0,0,0,0,0,0,0,0,0,0,0,0,0,0,0
0,0,0,875,875,878,878,878,882,882,0,0,0,0,0,0,0,0,0,0,0,0,778,778,776,774,773,771,769,767,767,766,762,761,759,755,754,750,749,747,744,742,741,741,739,738,736,734,728,727,725,723,722,722,722,671,671,672,671,671,670,670,668,668,666,663,659,659,658,657,655,655,654,653,652,650,649,647,647,646,646,646,646,646,646,646,646,646,646,646,644,643,643,646,646,644,643,643,644,643,642,642,642,647,648,648,647,647,646,644,643,643,642,642,642,642,643,643,643,643,642,642,642,642,641,641,641,642,642,642,642,642,642,642,642,642,643,643,644,644,646,647,649,649,652,653,654,654,655,657,659,661,662,664,666,667,667,671,672,672,672,688,690,691,693,694,696,697,697,698,698,703,704,706,707,710,713,713,714,716,717,720,720,722,723,727,728,730,731,733,734,736,739,741,742,744,747,747,747,749,752,752,754,755,759,761,761,762,0,0,0,0,0,1464,1464,1464,1464,1464,1464,1470,1477,1477,1477,1477,1477,1477,1477,1477,1477,1477,1477,1477,1470,1470,1470,1464,1464,1464,1464,1464,1464,1464,1464,1464,1470,1470,1470,1470,1470,1470,1470,1470,1470,1470,1470,1470,1470,1470,1470,1470,1470,1464,1464,1464,1464,1464,1464,1464,1464,1464,1464,1464,1464,1464,1458,1458,1458,1458,1458,1458,0,0,0,0,0,987,987,987,987,984,981,978,975,973,973,973,973,973,975,975,975,978,981,984,987,992,992,998,1001,0,1001,0,1470,1470,1464,1464,1464,1458,1458,1458,1458,1458,1452,1452,1452,1452,1452,1452,1452,1452,1452,1452,1452,1445,1445,1445,1445,1445,1445,1445,1445,1445,1445,1445,1445,1445,1445,1439,1439,1439,1439,1439,1439,1439,1439,1439,1439,1439,1439,1439,1439,1439,1439,1439,1439,1439,1439,1439,1439,1439,1439,1439,1439,1439,1439,1439,1439,1439,1433,1433,1439,1439,1433,1433,1433,1433,1433,1433,1433,1433,1433,1433,1433,1433,1433,1433,1433,1433,1433,1433,1433,1433,1427,1427,1427,1427,1427,1427,1427,1427,1427,1421,1421,1421,1421,1421,1421,1421,1421,1415,1415,1415,1415,1421,1421,1415,1415,1415,1415,1415,1415,1415,1410,1410,1404,1404,1404,1398,1398,1398,1398,1398,1392,1392,1392,1392,1387,1381,1381,1381,1381,1376,1376,1376,1376,1376,1370,1370,1370,1370,1365,1365,1359,1359,1354,1354,1349,1349,1349,1349,1349,1349,1349,1343,1343,1338,1333,1333,1333,1333,1333,1328,1328,1322,1322,1317,1317,1312,1312,1312,1312,1312,1307,1307,1307,1302,1302,1297,1297,1292,1292,1292,1288,1288,1288,1288,1288,1288,1134,1134,1134,1130,1130,1130,1126,1123,1119,1119,1112,1105,1101,1097,1094,1090,1087,1084,1080,1077,1077,1077,1077,1077,1073,1073,1073,1067,1063,1063,1063,1063,1063,1063,1063,1063,1067,0,1067,0,1097,0,1097,1097,1094,1094,1090,1090,1090,901,901,898,898,898,898,898,898,898,898,898,898,898,896,896,896,896,896,896,896,896,896,896,898,896,896,898,898,898,901,898,898,898,898,898,959,956,956,956,956,954,954,954,951,951,946,943,943,0,0,0,0,0,0,0,0,0,0,0,0,0,0,0,0,0,0,0,0,0,0,0,0,0,0,0,0,0,0,0,0,0,0,0
0,0,878,875,875,878,875,875,882,882,0,0,0,0,0,0,0,0,0,0,0,0,0,778,776,774,771,771,769,767,767,766,762,761,759,757,755,754,750,749,746,744,742,741,739,738,736,734,731,728,727,723,723,722,722,671,671,671,671,671,670,670,668,668,666,664,661,659,658,657,655,655,654,653,652,649,649,647,646,646,644,644,644,643,643,643,643,643,643,642,642,642,642,642,642,642,642,642,642,641,641,641,641,641,641,643,643,642,641,641,640,640,640,640,640,640,640,640,640,641,640,640,640,641,641,640,640,641,641,641,641,641,641,641,641,641,642,642,643,644,646,647,649,649,652,653,655,655,657,657,659,661,662,664,667,668,671,672,683,683,686,687,690,691,693,694,696,697,697,698,701,703,704,707,708,710,711,713,714,716,717,720,720,722,723,727,728,730,733,734,734,736,739,741,742,744,746,747,747,749,750,752,754,757,0,0,0,0,0,0,0,0,1464,1464,1464,1464,1464,1464,1464,1464,1470,1470,1470,1470,1470,1470,1470,1470,1470,1470,1464,1464,1464,1464,1464,1464,1464,1458,1458,1458,1458,1458,1464,1464,1464,1464,1464,1464,1464,1464,1464,1464,1464,1464,1464,1464,1464,1464,1464,1464,1464,1458,1458,1458,1458,1458,1464,1464,1464,1464,1464,1464,1458,1458,1458,1458,1458,1452,1452,1452,0,0,0,0,0,987,987,987,987,984,981,978,975,975,975,975,975,975,975,975,978,978,981,984,987,989,992,998,1001,1001,0,1001,1470,1470,1464,1464,1464,1452,1452,1452,1452,1452,1452,1452,1452,1445,1445,1445,1445,1445,1445,1445,1445,1445,1445,1445,1445,1445,1445,1445,1445,1445,1439,1439,1439,1439,1439,1439,1439,1439,1439,1439,1439,1439,1439,1439,1439,1439,1439,1433,1433,1433,1433,1433,1433,1433,1433,1433,1433,1439,1439,1439,1439,1439,1439,1439,1433,1433,1433,1433,1433,1433,1427,1427,1427,1427,1427,1427,1427,1427,1427,1427,1427,1427,1427,1427,1427,1433,1427,1427,1427,1427,1427,1421,1421,1421,1421,1421,1421,1421,1421,1415,1415,1421,1421,1415,1415,1415,1415,1415,1415,1415,1415,1415,1415,1415,1415,1415,1415,1410,1410,1410,1410,1404,1404,1404,1404,1398,1398,1398,1398,1398,1392,1392,1392,1392,1387,1381,1381,1381,1381,1376,1376,1376,1376,1376,1370,1370,1370,1370,1365,1365,1365,1359,1354,1354,1354,1354,1349,1349,1349,1349,1349,1343,1343,1338,1338,1333,1333,1333,1333,1328,1328,1322,1322,1322,1317,1312,1312,1312,1312,1312,1307,1307,1307,1307,1302,1302,1302,1297,1292,1292,1292,1288,1288,1288,1288,1288,1130,1130,1130,1130,1126,1126,1126,1123,1119,1119,1105,1101,1097,1094,1090,1087,1084,1080,1080,1077,1077,1077,1077,1077,1077,1073,1073,1070,1067,1063,1063,1063,1063,1063,1063,1063,1067,1067,1067,0,0,0,1097,1097,1094,1094,1090,1090,1090,901,901,898,898,898,898,898,898,898,898,898,898,898,898,898,896,896,896,896,896,898,898,898,898,901,901,903,901,901,903,901,898,898,898,959,959,956,956,956,954,954,951,951,948,946,943,940,940,0,0,0,0,0,0,0,0,0,0,0,0,0,0,0,0,0,0,0,0,0,0,0,0,0,0,0,0,0,0,0,0,0,0,0
0,0,878,878,878,878,875,875,882,882,0,0,0,0,0,0,0,0,0,0,0,0,0,780,778,774,771,771,769,767,767,766,764,762,761,759,757,757,754,750,749,746,744,742,741,738,738,734,733,731,728,725,723,723,722,671,671,671,671,671,670,670,668,668,666,664,661,659,658,657,655,655,654,653,652,649,648,647,646,644,644,643,643,642,642,642,641,641,641,641,641,641,641,640,640,640,638,638,638,638,640,640,640,640,640,641,641,641,640,640,638,638,638,638,638,638,637,637,638,638,637,637,637,637,638,638,638,638,638,640,640,640,640,641,641,641,642,642,643,644,646,647,649,649,650,653,654,655,655,657,659,661,664,666,670,671,676,682,684,684,686,687,690,691,693,694,696,697,698,698,701,703,704,707,708,710,711,713,714,716,719,720,720,722,723,727,728,731,733,734,734,738,739,741,742,744,746,747,747,747,749,750,754,0,0,0,0,0,0,0,0,1464,1464,1464,1458,1458,1464,1458,1458,1464,1464,1464,1464,1464,1470,1464,1464,1464,1464,1464,1464,1464,1458,1458,1458,1458,1458,1458,1458,1458,1458,1458,1458,1458,1458,1458,1458,1458,1458,1458,1458,1458,1458,1458,1458,1458,1464,1458,1458,1458,1458,1458,1458,1458,1458,1458,1458,1458,1458,1458,1458,1458,1458,1458,1452,1452,1452,1445,1445,1445,0,0,0,0,0,987,987,987,987,987,984,978,978,975,975,975,975,975,978,978,978,981,984,987,987,989,992,998,1001,1001,1001,1001,1464,0,1464,1464,1452,1452,1445,1445,1452,1452,1445,1445,1445,1445,1439,1439,1439,1439,1439,1439,1439,1439,1439,1439,1439,1439,1439,1439,1439,1439,1439,1433,1433,1433,1433,1433,1433,1433,1433,1433,1433,1433,1439,1433,1433,1433,1433,1427,1427,1427,1427,1427,1427,1427,1427,1427,1427,1427,1427,1427,1427,1433,1433,1433,1427,1427,1427,1427,1427,1421,1421,1421,1421,1421,1421,1421,1421,1421,1421,1421,1421,1421,1421,1427,1427,1427,1427,1427,1421,1421,1421,1421,1421,1421,1421,1415,1415,1415,1415,1415,1415,1415,1415,1415,1415,1415,1415,1410,1410,1410,1410,1415,1410,1410,1410,1410,1410,1404,1404,1404,1404,1404,1404,1404,1404,1398,1398,1398,1398,1398,1392,1392,1392,1392,1392,1387,1387,1381,1381,1376,1376,1376,1376,1376,1370,1370,1370,1370,1365,1365,1365,1359,1354,1354,1354,1354,1349,1349,1349,1349,1349,1343,1343,1338,1338,1333,1333,1333,1333,1328,1328,1328,1322,1322,1322,1317,1317,1317,1312,1312,1312,1307,1307,1307,1307,1302,1302,1302,1297,1292,1292,1288,1288,1288,1288,1288,1130,1130,1130,1126,1126,1126,1123,1119,1119,1115,1105,1101,1094,1094,1090,1087,1084,1080,1080,1077,1077,1077,1077,1077,1077,1077,1073,1070,1067,1063,1063,1063,1063,1063,1063,1063,1063,1063,0,0,0,0,0,0,0,0,1090,1090,901,901,901,898,898,898,898,898,898,898,898,898,898,898,898,898,898,898,896,896,898,898,898,901,901,903,903,906,906,908,910,906,906,959,959,959,959,956,956,956,954,951,951,946,943,940,940,938,938,0,0,0,0,0,0,0,0,0,0,0,0,0,0,0,0,0,0,0,0,0,0,0,0,0,0,0,0,0,0,0,0,0,0,0
0,0,878,878,878,880,880,882,882,885,0,0,0,0,0,0,0,0,0,0,0,0,0,0,0,0,0,771,769,767,767,766,764,762,761,759,757,757,755,754,750,746,744,742,741,738,738,734,733,731,728,725,725,723,723,720,671,671,671,671,670,670,668,668,667,666,662,661,659,658,657,655,654,653,652,649,648,647,646,644,643,643,642,642,641,641,640,640,640,640,640,638,638,637,637,637,637,637,637,637,637,637,637,637,638,638,638,638,637,637,637,637,637,637,637,636,636,637,637,637,636,636,636,636,636,637,637,637,637,637,638,638,640,640,641,641,642,642,643,644,646,647,649,650,650,653,654,655,655,657,675,675,671,671,674,675,680,683,684,686,686,687,688,690,693,693,696,697,698,700,701,703,704,707,708,710,711,713,714,717,719,720,720,722,723,727,728,731,733,734,734,738,739,741,742,744,746,746,746,747,747,750,0,0,0,0,0,0,0,0,1464,1464,1464,1458,1458,1458,1458,1458,1458,1458,1458,1458,1464,1464,1464,1464,1464,1464,1458,1458,1458,1458,1458,1458,1452,1452,1452,1452,1452,1452,1452,1452,1452,1452,1452,1452,1452,1452,1452,1452,1452,1452,1458,1458,1452,1452,1458,1452,1452,1452,1452,1452,1452,1452,1452,1452,1458,1458,1458,1458,1452,1452,1452,1452,1445,1445,1445,1439,1439,1439,0,0,0,0,0,0,989,989,989,987,984,984,978,978,978,978,978,978,978,978,981,984,984,987,987,989,992,998,1001,1001,1001,1001,1004,0,1464,1464,1452,1445,1445,1445,1445,1445,1445,1439,1439,1439,1439,1433,1433,1439,1439,1439,1439,1433,1433,1433,1433,1439,1439,1439,1433,1433,1433,1427,1427,1427,1427,1427,1427,1427,1427,1433,1433,1427,1427,1427,1427,1427,1427,1427,1427,1427,1427,1427,1427,1427,1427,1421,1421,1421,1421,1421,1421,1421,1421,1421,1427,1421,1421,1421,1421,1421,1421,1421,1421,1421,1421,1421,1421,1421,1421,1421,1421,1421,1421,1421,1421,1421,1421,1421,1421,1415,1415,1415,1415,1415,1415,1415,1415,1415,1415,1410,1410,1410,1410,1410,1410,1410,1410,1410,1410,1410,1410,1410,1404,1404,1404,1404,1404,1404,1404,1398,1398,1398,1398,1398,1398,1398,1398,1398,1398,1398,1398,1392,1392,1392,1392,1387,1387,1381,1381,1376,1376,1376,1376,1376,1376,1370,1370,1370,1365,1365,1365,1359,1354,1354,1354,1354,1349,1349,1349,1349,1349,1349,1343,1343,1338,1338,1333,1333,1333,1328,1328,1328,1322,1322,1322,1317,1317,1317,1312,1312,1312,1307,1307,1307,1307,1307,1307,1297,1297,1292,1292,1292,1288,1288,1288,1288,1130,1130,1126,1126,1126,1123,1123,1119,1119,1112,1101,1097,1094,1090,1090,1087,1084,1084,1080,1080,1080,1077,1077,1077,1077,1077,1073,1067,1067,1067,1063,1063,1063,1063,1063,1063,1063,1063,1063,0,0,0,0,0,0,0,901,901,901,901,901,898,898,898,898,898,898,898,898,898,898,898,898,898,898,898,898,898,898,901,901,903,903,906,906,906,908,910,913,913,913,959,959,959,959,956,956,954,951,951,948,946,943,940,938,935,935,0,0,0,0,0,0,0,0,0,0,0,0,0,0,0,0,0,0,0,0,0,0,0,0,0,0,0,0,0,0,0,0,0,0,0
0,0,878,878,880,880,882,882,885,885,887,0,0,0,0,0,0,0,0,0,0,0,0,0,0,0,0,0,0,0,767,766,764,762,761,759,759,759,757,755,752,749,746,744,742,739,739,736,734,733,728,727,725,723,722,720,720,719,719,672,670,668,667,667,667,667,663,661,661,659,657,657,654,653,652,649,648,647,646,644,643,643,642,642,641,640,640,638,638,638,638,637,636,636,636,636,636,636,635,635,636,636,636,635,635,635,635,636,637,636,636,635,635,635,635,635,635,635,636,635,635,635,635,634,634,635,635,636,636,636,636,637,638,640,641,641,642,642,644,644,646,647,649,649,650,652,654,655,655,657,675,675,675,675,678,679,680,683,684,686,686,687,688,690,693,693,696,697,701,703,703,704,704,707,708,710,713,714,716,717,719,720,720,722,723,727,730,731,734,736,736,738,739,741,742,744,746,746,746,747,747,0,0,0,0,0,0,0,0,1458,1458,1458,1458,1458,1458,1458,1458,1458,1458,1458,1458,1458,1458,1458,1458,1458,1458,1458,1458,1458,1458,1452,1452,1452,1452,1452,1452,1452,1452,1452,1452,1452,1445,1445,1445,1445,1445,1445,1445,1445,1445,1445,1445,1445,1445,1445,1452,1445,1445,1445,1445,1445,1445,1445,1445,1445,1445,1452,1452,1452,1445,1445,1445,1439,1439,1439,1439,1433,1427,1427,0,0,0,0,0,0,992,989,989,989,987,984,981,978,978,978,978,978,978,981,981,984,984,987,987,989,992,998,1001,1001,1001,1004,1004,0,1464,1464,1433,1433,1439,1439,1439,1439,1439,1433,1433,1433,1433,1433,1433,1433,1439,1439,1433,1427,1427,1433,1433,1433,1433,1433,1433,1433,1427,1427,1427,1427,1427,1421,1421,1421,1427,1427,1427,1421,1421,1427,1427,1427,1427,1421,1421,1421,1421,1421,1421,1421,1421,1421,1421,1421,1421,1421,1415,1415,1415,1415,1415,1415,1415,1415,1415,1415,1415,1415,1415,1415,1415,1415,1415,1415,1415,1415,1415,1415,1415,1421,1421,1415,1415,1415,1415,1410,1410,1410,1410,1410,1410,1410,1410,1410,1410,1410,1410,1410,1404,1404,1404,1404,1404,1404,1404,1404,1404,1404,1398,1398,1398,1398,1398,1398,1398,1398,1398,1398,1398,1398,1398,1398,1398,1398,1398,1392,1392,1392,1392,1392,1392,1387,1387,1381,1381,1376,1376,1376,1376,1376,1376,1370,1370,1370,1365,1365,1365,1365,1354,1354,1354,1354,1354,1349,1349,1349,1349,1349,1343,1343,1338,1338,1338,1333,1333,1333,1328,1328,1328,1322,1322,1317,1317,1317,1312,1312,1312,1307,1307,1307,1307,1307,1307,1297,1297,1292,1292,1292,1292,1292,1288,1288,1130,1126,1126,1126,1123,1123,1123,1119,1115,1105,1097,1097,1094,1090,1090,1087,1087,1084,1084,1080,1077,1077,1077,1077,1077,1077,1070,1067,1067,1067,1067,1063,1063,1063,1063,1063,1063,1063,1063,1063,1063,0,0,0,0,0,0,901,901,901,901,901,901,898,898,901,901,901,901,901,901,901,901,901,898,898,898,901,901,901,903,903,906,906,906,908,908,913,913,915,915,959,959,959,956,956,954,951,948,946,946,943,940,940,938,935,935,0,0,0,0,0,0,0,0,0,0,0,0,0,0,0,0,0,0,0,0,0,0,0,0,0,0,0,0,0,0,0,0,0,0,0
0,0,0,880,880,880,882,882,885,885,885,0,0,0,0,0,0,0,0,0,0,0,0,0,0,0,0,0,0,0,0,0,764,762,761,759,759,759,757,757,754,750,746,744,742,741,741,738,736,734,728,727,725,723,722,720,720,719,719,711,711,668,667,667,667,666,663,662,661,659,658,657,654,653,652,649,648,647,646,644,643,643,642,641,640,640,638,638,637,637,637,636,635,635,635,635,634,634,634,632,632,634,632,632,634,634,634,634,634,632,631,631,632,632,632,631,631,634,634,634,634,634,634,632,632,634,635,635,635,635,636,636,637,638,640,641,642,643,644,644,646,647,649,649,650,652,654,655,655,657,675,675,675,676,678,680,682,683,686,686,687,688,690,691,693,693,698,698,701,703,703,704,706,707,708,711,713,714,716,719,719,720,720,722,723,727,730,731,734,736,736,738,739,741,742,744,744,746,746,747,0,0,0,0,0,0,0,0,1458,1452,1452,1452,1452,1452,1445,1445,1445,1452,1445,1445,1445,1452,1452,1452,1452,1452,1445,1445,1445,1445,1445,1445,1445,1445,1452,1452,1445,1445,1452,1445,1445,1445,1445,1439,1439,1439,1445,1439,1439,1439,1439,1439,1439,1439,1439,1439,1439,1439,1439,1439,1439,1439,1439,1439,1439,1439,1439,1445,1439,1439,1439,1439,1439,1433,1433,1433,1433,1433,1427,1427,0,0,0,0,0,0,995,992,992,989,989,987,984,984,981,978,978,978,981,981,984,984,984,987,989,992,995,1001,1004,1007,1007,1004,1004,1004,1421,1421,1421,1421,1427,1427,1427,1427,1433,1427,1427,1427,1427,1427,1427,1421,1421,1421,1421,1421,1421,1421,1421,1427,1427,1427,1427,1427,1427,1421,1421,1421,1421,1421,1421,1421,1421,1421,1421,1421,1421,1421,1421,1421,1421,1421,1421,1415,1415,1415,1415,1415,1415,1415,1415,1415,1415,1415,1415,1415,1415,1415,1415,1415,1415,1410,1410,1415,1415,1415,1415,1415,1415,1415,1415,1415,1415,1415,1415,1415,1415,1415,1415,1415,1415,1410,1410,1410,1410,1404,1404,1410,1410,1410,1410,1404,1404,1404,1404,1404,1404,1404,1404,1404,1404,1398,1398,1398,1398,1398,1398,1398,1398,1398,1398,1392,1392,1392,1392,1392,1392,1392,1392,1392,1392,1392,1392,1392,1392,1392,1392,1392,1392,1387,1387,1381,1381,1376,1376,1376,1376,1376,1370,1370,1370,1370,1370,1370,1365,1365,1359,1354,1354,1354,1354,1349,1349,1349,1349,1349,1343,1343,1338,1338,1338,1333,1333,1333,1333,1328,1328,1322,1322,1317,1317,1317,1312,1312,1312,1307,1307,1307,1307,1307,1307,1302,1297,1297,1292,1292,1292,1292,1288,1288,1126,1126,1126,1123,1123,1123,1119,1115,1112,1101,1097,1094,1090,1090,1090,1087,1087,1084,1084,1080,1077,1077,1080,1077,1077,1067,1067,1067,1067,1067,1067,1063,1063,1063,1063,1063,1063,1060,1057,1057,1063,0,0,0,0,0,0,903,903,903,903,901,901,901,901,903,903,901,901,901,901,901,901,901,901,901,901,901,903,903,906,906,906,908,908,908,908,910,913,915,959,959,959,956,956,956,954,951,946,946,943,940,940,938,938,933,933,0,0,0,0,0,0,0,0,0,0,0,0,0,0,0,0,0,0,0,0,0,0,0,0,0,0,0,0,0,0,0,0,0,0,0
0,0,878,878,880,880,882,882,882,885,885,0,0,0,0,0,0,0,0,0,0,0,0,0,0,0,0,0,0,0,0,0,0,0,761,759,759,759,759,759,755,754,746,746,744,741,741,739,738,736,734,727,725,723,723,722,720,719,719,716,711,710,710,707,667,666,662,661,661,661,659,659,655,653,652,649,648,647,646,644,643,643,641,641,640,640,638,636,636,636,635,635,634,632,632,632,632,632,631,631,631,630,630,630,630,631,629,629,629,629,629,629,629,629,628,628,630,631,630,630,631,631,631,631,631,632,634,634,635,635,635,636,637,638,640,641,642,643,644,646,646,648,649,649,650,652,654,655,672,674,675,675,675,678,679,680,682,683,686,686,687,688,690,691,693,696,698,701,703,703,704,704,706,707,708,711,714,716,717,719,720,720,722,722,723,727,730,733,736,736,738,738,739,739,741,744,744,744,744,744,0,0,0,0,0,0,0,0,1458,1452,1452,1445,1445,1445,1445,1445,1445,1445,1445,1445,1445,1445,1445,1445,1445,1445,1439,1439,1439,1445,1445,1445,1445,1445,1445,1445,1445,1445,1445,1439,1439,1439,1439,1439,1439,1439,1439,1439,1439,1439,1439,1439,1439,1439,1439,1439,1439,1439,1439,1439,1439,1439,1439,1439,1439,1439,1439,1439,1439,1439,1439,1433,1433,1433,1433,1433,1433,1427,1427,1427,0,0,0,0,0,0,995,995,995,992,989,989,987,984,984,981,981,981,981,981,984,984,987,987,989,992,995,1004,1007,1007,1010,1007,1007,1007,0,1421,1421,1421,1421,1421,1421,1421,1427,1421,1421,1421,1421,1421,1421,1421,1421,1421,1421,1421,1421,1421,1421,1421,1421,1421,1421,1421,1421,1415,1415,1415,1415,1415,1415,1415,1415,1415,1415,1415,1415,1415,1415,1415,1415,1415,1415,1415,1415,1415,1415,1415,1410,1410,1410,1410,1410,1410,1410,1410,1410,1410,1410,1410,1410,1404,1404,1410,1410,1410,1410,1410,1410,1410,1410,1410,1410,1410,1410,1410,1410,1410,1410,1410,1404,1404,1404,1398,1398,1398,1398,1398,1398,1404,1398,1398,1398,1398,1398,1398,1398,1398,1398,1398,1398,1398,1398,1398,1398,1398,1398,1392,1392,1392,1392,1392,1392,1392,1392,1392,1392,1392,1392,1392,1387,1387,1392,1387,1387,1392,1392,1392,1387,1387,1381,1376,1376,1376,1376,1376,1376,1370,1370,1370,1370,1370,1370,1370,1365,1365,1359,1354,1354,1354,1354,1354,1349,1349,1349,1349,1343,1343,1343,1338,1338,1333,1333,1333,1333,1328,1328,1322,1322,1317,1317,1317,1312,1312,1312,1312,1307,1307,1307,1307,1302,1297,1297,1297,1292,1292,1292,1292,1288,1288,1126,1126,1126,1123,1119,1119,1119,1115,1105,1101,1097,1094,1090,1090,1090,1087,1087,1084,1084,1080,1080,1080,1080,1077,1077,1067,1067,1063,1063,1067,1067,1067,1063,1063,1063,1063,1063,1060,1057,1057,1063,0,0,0,906,0,0,0,903,903,903,903,903,903,903,903,903,903,903,903,901,901,903,903,903,903,903,903,903,906,906,906,906,908,908,908,908,908,908,962,962,959,959,956,956,956,954,951,946,946,943,940,938,938,935,933,933,0,0,0,0,0,0,0,0,0,0,0,0,0,0,0,0,0,0,0,0,0,0,0,0,0,0,0,0,0,0,0,0,0,0,0
0,0,878,878,880,880,882,882,882,885,885,0,0,0,0,0,0,0,0,0,0,0,1464,1464,0,0,0,0,0,0,0,0,0,0,761,759,759,759,759,759,754,754,747,746,744,742,741,739,739,736,734,733,728,725,723,722,722,720,720,717,711,710,710,708,707,704,662,661,661,662,697,697,655,654,653,652,649,648,647,646,644,643,641,641,640,640,636,636,636,635,634,634,632,632,632,631,631,631,630,629,629,628,628,628,628,628,627,627,627,627,627,627,627,627,627,627,627,627,627,628,629,629,630,630,630,631,631,634,634,635,635,636,637,638,641,642,643,643,644,646,646,648,649,649,650,650,672,672,672,674,675,675,676,678,679,680,682,684,686,686,687,688,690,691,693,696,698,701,701,703,704,704,706,707,708,711,714,716,717,719,720,720,722,723,725,728,731,733,734,736,736,738,738,739,741,742,744,744,744,744,0,0,0,0,0,1489,1464,1464,1452,1445,1445,1445,1445,1445,1445,1439,1439,1439,1439,1439,1439,1439,1439,1439,1439,1439,1439,1439,1439,1439,1439,1439,1439,1439,1439,1439,1439,1439,1439,1439,1439,1439,1439,1439,1433,1433,1439,1433,1433,1433,1433,1433,1433,1433,1433,1433,1433,1433,1433,1433,1433,1433,1433,1433,1427,1427,1439,1433,1433,1433,1433,1427,1427,1427,1427,1427,1427,1421,1421,1415,1410,1410,0,0,0,0,995,995,995,992,992,989,987,987,984,981,981,981,981,981,984,984,987,987,989,995,998,1004,1007,1007,1010,1007,1007,1007,0,1415,1415,1415,1421,1421,1421,1421,1421,1421,1421,1415,1415,1415,1421,1421,1421,1421,1421,1415,1415,1415,1415,1415,1421,1415,1415,1415,1415,1415,1415,1415,1415,1415,1415,1415,1415,1415,1415,1410,1410,1410,1410,1410,1410,1410,1410,1410,1410,1410,1410,1410,1404,1404,1404,1404,1404,1404,1404,1404,1404,1404,1404,1404,1404,1404,1404,1404,1404,1404,1404,1404,1404,1404,1404,1404,1404,1404,1404,1404,1404,1404,1404,1398,1398,1398,1398,1398,1398,1398,1398,1398,1398,1398,1398,1398,1392,1392,1392,1392,1392,1392,1392,1392,1392,1392,1392,1392,1392,1392,1392,1392,1392,1392,1392,1392,1387,1387,1387,1387,1387,1387,1387,1387,1387,1387,1387,1387,1387,1387,1387,1387,1387,1381,1381,1376,1376,1376,1376,1376,1370,1370,1370,1370,1370,1370,1365,1365,1365,1365,1359,1354,1354,1354,1354,1354,1354,1354,1349,1349,1349,1349,1343,1343,1343,1338,1333,1333,1333,1328,1328,1322,1322,1322,1317,1317,1317,1312,1312,1312,1312,1307,1307,1307,1302,1297,1297,1297,1292,1292,1292,1292,1288,1288,1126,1126,1123,1123,1119,1119,1115,1105,1101,1097,1094,1094,1090,1090,1090,1087,1087,1084,1084,1084,1080,1080,1084,1084,1067,1067,1067,1063,1063,1063,1067,1063,1063,1063,1063,1063,1060,1060,1057,1057,1060,0,0,0,906,903,903,903,903,903,903,903,903,903,903,903,903,903,903,903,903,903,903,903,903,906,906,906,906,908,908,908,908,908,910,908,908,908,967,967,962,962,959,956,956,956,954,946,946,943,940,938,938,935,935,933,933,0,0,0,0,0,0,0,0,0,0,0,0,0,0,0,0,0,0,0,0,0,0,0,0,0,0,0,0,0,0,0,0,0,0,0
0,0,0,880,880,880,882,882,885,885,0,0,0,0,0,0,0,0,0,0,0,1464,1452,1445,1445,0,0,0,0,0,0,0,0,0,0,0,759,759,757,757,754,754,747,746,746,744,742,741,739,738,736,734,730,728,727,723,722,722,720,720,711,710,710,708,707,704,704,703,700,698,697,697,696,654,653,652,649,649,647,646,644,643,642,641,640,640,636,636,635,635,634,634,632,631,631,630,629,628,628,627,627,627,627,625,625,625,625,625,625,624,624,624,625,625,625,625,625,625,625,625,627,627,627,629,630,630,631,632,632,634,634,636,637,638,641,642,643,643,644,646,646,648,649,649,650,671,671,672,672,674,675,676,676,678,679,680,682,684,686,687,687,688,691,691,693,696,698,701,701,703,704,704,706,707,708,713,716,717,719,720,720,722,722,725,728,728,731,731,734,734,736,736,738,739,741,742,744,744,744,744,0,0,1503,1503,1496,1489,1464,1464,1452,1445,1439,1439,1439,1439,1439,1439,1439,1439,1439,1433,1433,1433,1433,1433,1433,1433,1433,1439,1439,1433,1433,1433,1433,1433,1433,1439,1439,1439,1439,1439,1439,1439,1433,1433,1433,1433,1433,1433,1433,1433,1433,1427,1427,1427,1427,1427,1427,1433,1433,1433,1433,1433,1433,1433,1427,1427,1427,1427,1421,1421,1427,1421,1421,1421,1421,1421,1421,1421,1415,1415,1410,1410,1410,0,0,0,995,995,995,992,992,989,989,987,984,981,981,981,981,984,984,987,987,989,992,995,998,1004,1007,1007,1010,1007,1007,1007,1410,1415,1415,1415,1415,1415,1415,1415,1415,1415,1415,1415,1415,1415,1410,1410,1410,1415,1421,1415,1415,1410,1410,1415,1415,1415,1415,1410,1410,1410,1410,1410,1410,1410,1410,1410,1410,1410,1404,1404,1404,1404,1404,1404,1404,1404,1410,1410,1410,1410,1404,1404,1398,1398,1398,1398,1398,1404,1404,1398,1398,1398,1398,1398,1398,1398,1398,1398,1398,1404,1398,1398,1398,1398,1398,1398,1398,1398,1398,1398,1398,1398,1398,1398,1398,1398,1398,1392,1392,1392,1392,1392,1392,1392,1392,1392,1392,1392,1392,1392,1387,1387,1387,1392,1387,1387,1392,1392,1392,1392,1392,1387,1387,1387,1387,1387,1387,1387,1387,1381,1381,1381,1381,1381,1381,1381,1381,1381,1381,1381,1381,1381,1381,1376,1376,1376,1376,1376,1376,1370,1370,1370,1370,1370,1370,1370,1365,1365,1365,1365,1359,1354,1354,1354,1354,1354,1354,1349,1349,1349,1349,1349,1343,1343,1343,1338,1333,1333,1333,1328,1328,1328,1328,1322,1322,1322,1317,1317,1312,1312,1312,1307,1307,1307,1302,1302,1297,1297,1297,1297,1292,1292,1292,1292,1123,1123,1123,1119,1119,1115,1112,1105,1101,1097,1094,1094,1090,1090,1090,1087,1087,1084,1084,1084,1080,1080,1080,1080,1067,1067,1067,1063,1063,1063,1067,1063,1063,1063,1063,1060,1060,1057,1057,1057,1060,1060,906,906,906,903,903,903,903,903,903,903,903,903,906,903,903,903,903,903,903,903,906,906,906,906,906,908,908,908,910,910,910,910,910,910,910,910,967,964,964,962,959,956,956,956,951,946,943,940,940,938,938,935,933,930,930,0,0,0,0,0,0,0,0,0,0,0,0,0,0,0,0,0,0,0,0,0,0,0,0,0,0,0,0,0,0,0,0,0,0,0
0,0,0,880,880,880,880,882,885,885,0,0,0,0,0,0,0,0,0,0,1458,1445,1445,1439,1439,1439,0,0,0,0,0,0,0,0,0,0,0,0,757,757,754,754,747,746,746,744,742,742,741,739,738,734,733,731,728,725,723,722,722,720,717,711,710,708,707,706,706,703,701,698,697,697,696,694,653,652,650,649,648,647,644,644,642,642,641,640,636,636,635,634,632,631,631,630,630,628,628,627,627,625,625,625,625,624,624,623,623,624,623,623,623,623,623,624,624,624,624,625,624,624,625,625,627,627,628,629,630,631,632,634,634,636,637,638,641,642,643,643,644,646,647,648,649,668,670,670,671,671,672,674,675,676,676,678,679,680,682,684,686,687,687,688,691,691,693,694,698,701,701,703,704,706,706,708,710,713,716,717,719,720,720,722,723,725,728,728,730,731,733,734,734,736,736,739,741,741,741,1202,1210,0,1214,1214,1214,1214,1214,1219,1219,1452,1445,1439,1439,1439,1433,1433,1433,1433,1433,1433,1433,1433,1433,1433,1433,1433,1433,1433,1433,1433,1433,1433,1433,1433,1427,1427,1433,1433,1433,1433,1433,1433,1433,1433,1433,1433,1427,1427,1427,1427,1427,1427,1427,1421,1421,1421,1421,1421,1421,1427,1427,1427,1427,1427,1427,1427,1421,1421,1421,1421,1421,1415,1415,1415,1415,1415,1421,1421,1421,1415,1415,1410,1410,1404,1404,0,0,0,995,995,995,995,992,992,989,989,987,984,984,984,984,984,987,987,989,989,992,998,998,1004,1007,1007,1010,1007,1007,0,1410,1410,1410,1415,1415,1415,1415,1415,1415,1415,1410,1410,1410,1410,1410,1410,1404,1404,1404,1404,1404,1410,1410,1410,1410,1410,1410,1410,1410,1404,1404,1404,1404,1404,1404,1404,1404,1404,1404,1398,1398,1398,1398,1398,1398,1398,1404,1404,1404,1398,1398,1398,1398,1398,1398,1392,1392,1398,1398,1398,1398,1398,1398,1398,1398,1392,1392,1398,1398,1398,1398,1398,1398,1398,1392,1392,1392,1392,1392,1392,1392,1392,1392,1392,1392,1392,1392,1392,1392,1387,1387,1387,1387,1392,1392,1387,1387,1387,1387,1387,1381,1381,1387,1387,1387,1387,1387,1387,1387,1387,1387,1387,1387,1387,1387,1381,1381,1381,1381,1381,1376,1376,1376,1376,1376,1376,1376,1376,1376,1376,1376,1376,1376,1376,1370,1370,1370,1370,1370,1370,1370,1370,1370,1370,1365,1365,1365,1365,1359,1359,1359,1359,1354,1354,1354,1354,1354,1349,1349,1349,1349,1349,1343,1343,1343,1338,1338,1338,1333,1333,1328,1328,1328,1328,1322,1322,1322,1317,1312,1312,1312,1312,1307,1307,1307,1302,1302,1302,1297,1297,1292,1292,1292,1123,1123,1123,1119,1119,1115,1112,1112,1105,1101,1097,1097,1094,1090,1090,1090,1090,1087,1087,1084,1084,1080,1080,1080,1080,0,1067,1067,1067,1067,1067,1067,1067,1063,1063,1063,1060,1060,1057,1054,1054,910,910,910,906,906,903,903,906,906,906,906,906,906,906,906,906,906,906,906,906,906,906,906,906,908,908,908,908,910,910,910,910,910,913,910,910,910,970,964,964,962,959,956,956,954,954,951,943,943,938,938,938,935,935,933,930,930,0,0,0,0,0,0,0,0,0,0,0,0,0,0,0,0,0,0,0,0,0,0,0,0,0,0,0,0,0,0,0,0,0,0,0
0,0,0,880,880,880,880,882,885,885,887,0,0,0,0,0,0,0,0,1458,1458,1445,1445,1439,1439,1439,1439,0,0,0,0,0,0,0,0,0,0,0,0,759,754,750,744,744,744,744,742,742,741,741,739,738,736,733,730,727,725,723,722,722,717,714,711,710,708,707,707,706,704,700,698,697,696,694,654,653,650,649,648,647,646,646,644,643,641,641,636,636,635,634,632,631,631,630,628,628,627,625,625,624,624,624,624,623,623,623,623,622,622,622,622,622,622,622,622,623,623,624,624,624,624,625,625,627,628,629,629,631,632,634,634,636,637,638,641,642,643,643,644,646,647,649,666,667,668,670,671,671,672,674,675,676,676,679,680,680,683,684,686,687,688,690,691,693,693,694,698,700,701,703,704,706,707,708,711,714,716,717,719,720,720,722,723,727,728,728,728,730,731,731,733,733,736,736,736,1202,1202,1202,1210,1210,1210,1214,1214,1214,1214,1214,1214,1452,1439,1433,1433,1433,1433,1433,1433,1433,1433,1433,1433,1433,1427,1427,1427,1427,1427,1427,1427,1427,1427,1427,1427,1421,1421,1421,1421,1421,1427,1427,1427,1433,1433,1433,1427,1427,1427,1427,1421,1421,1421,1421,1421,1421,1421,1421,1415,1415,1421,1421,1421,1421,1421,1421,1421,1421,1415,1415,1415,1415,1415,1415,1415,1415,1415,1415,1415,1415,1415,1415,1415,1410,1410,1404,1404,0,0,0,998,998,998,998,995,995,992,989,987,987,984,984,984,987,987,987,989,989,995,998,1001,1004,1007,1007,1010,1010,1010,0,1404,1404,1404,1410,1410,1410,1410,1410,1415,1410,1398,1398,1398,1398,1404,1404,1398,1398,1398,1398,1398,1398,1398,1398,1398,1404,1404,1404,1404,1404,1398,1398,1398,1398,1404,1404,1398,1398,1398,1398,1398,1398,1398,1398,1398,1398,1398,1398,1398,1398,1398,1398,1392,1392,1392,1392,1392,1392,1392,1392,1392,1392,1392,1392,1392,1387,1387,1392,1392,1392,1392,1392,1392,1392,1392,1392,1392,1392,1392,1387,1387,1387,1387,1387,1392,1392,1392,1387,1387,1387,1387,1381,1381,1387,1387,1381,1381,1381,1381,1381,1381,1381,1381,1381,1381,1381,1387,1387,1387,1387,1387,1381,1381,1381,1381,1376,1376,1376,1376,1376,1376,1376,1376,1370,1370,1370,1370,1370,1370,1370,1370,1370,1370,1370,1370,1370,1370,1370,1370,1365,1365,1365,1370,1365,1365,1365,1359,1359,1359,1359,1359,1354,1354,1354,1354,1354,1349,1349,1349,1349,1349,1349,1349,1349,1349,1338,1338,1338,1333,1333,1333,1328,1328,1328,1328,1328,1322,1317,1312,1312,1312,1312,1307,1307,1307,1302,1302,1302,1297,1297,1297,1292,1292,1115,1115,1115,1119,1119,1115,1112,1108,1105,1101,1097,1097,1094,1094,1094,1094,1090,1087,1087,1087,1087,1087,1087,1077,0,0,0,1067,1067,0,1067,1067,1067,1067,1063,1063,1057,1057,1057,1054,1054,910,910,910,906,906,906,906,906,906,906,906,906,906,906,906,906,906,906,906,906,906,906,908,908,908,908,908,910,910,913,913,913,913,913,913,913,970,970,964,962,962,959,956,954,951,951,946,943,940,938,938,935,935,933,933,930,930,0,0,0,0,0,0,0,0,0,0,0,0,0,0,0,0,0,0,0,0,0,0,0,0,0,0,0,0,0,0,0,0,0,0,0
0,0,0,880,880,880,882,882,885,885,887,889,0,0,0,0,0,0,0,1458,1458,1452,1452,1445,1445,1439,1439,1439,1439,0,0,0,0,0,0,0,0,0,0,0,0,750,744,744,744,744,742,741,741,741,741,739,738,734,731,730,728,725,723,722,719,716,711,710,708,707,707,706,704,701,698,698,696,694,694,694,650,649,648,647,647,646,644,643,642,640,637,636,635,634,632,631,631,630,628,627,627,625,624,624,623,623,623,622,622,622,622,621,621,621,621,621,621,621,621,622,622,622,623,623,624,625,625,627,627,628,629,631,632,634,635,636,637,638,641,641,642,642,642,646,647,664,664,667,668,670,670,671,672,674,675,676,678,679,680,682,683,684,686,687,687,690,691,693,693,696,698,700,701,704,706,707,708,710,711,713,716,717,719,720,722,722,723,725,727,728,728,728,730,731,733,733,733,733,1206,1202,1202,1202,1202,1206,1210,1214,1214,1214,1214,1214,1214,1452,1439,1433,1433,1427,1427,1427,1427,1427,1427,1427,1427,1427,1421,1421,1421,1421,1421,1421,1421,1421,1421,1421,1421,1421,1415,1415,1415,1415,1421,1421,1421,1421,1427,1427,1427,1421,1421,1421,1415,1415,1415,1415,1415,1415,1415,1415,1415,1415,1415,1415,1415,1415,1415,1415,1415,1415,1410,1410,1415,1415,1415,1415,1415,1415,1415,1415,1415,1410,1410,1410,1410,1410,1404,1398,1398,1398,0,1001,1001,1001,998,998,998,995,995,989,987,987,987,987,987,987,987,987,989,989,995,998,1001,1004,1007,1007,1010,1010,1010,0,1404,1404,1404,1404,1404,1404,1398,1398,1398,1398,1392,1392,1392,1392,1398,1398,1398,1398,1398,1398,1398,1398,1398,1398,1398,1398,1398,1398,1398,1398,1398,1398,1398,1398,1398,1398,1398,1398,1398,1398,1392,1392,1392,1392,1392,1392,1392,1392,1392,1392,1392,1392,1392,1392,1392,1387,1387,1387,1387,1387,1387,1387,1387,1387,1387,1381,1381,1381,1381,1381,1387,1387,1387,1387,1387,1387,1387,1387,1387,1387,1387,1387,1387,1387,1387,1381,1381,1381,1381,1381,1381,1381,1381,1381,1381,1381,1381,1381,1381,1376,1376,1376,1376,1381,1381,1381,1381,1381,1381,1381,1381,1376,1376,1376,1376,1376,1376,1376,1376,1376,1370,1370,1370,1370,1370,1370,1370,1370,1370,1370,1370,1370,1370,1370,1365,1365,1365,1365,1365,1365,1359,1359,1359,1359,1359,1359,1359,1359,1354,1354,1354,1354,1354,1354,1349,1349,1349,1349,1349,1349,1349,1349,1349,1349,1349,1343,1343,1338,1338,1333,1333,1328,1328,1328,1328,1328,1322,1317,1317,1312,1312,1312,1307,1307,1307,1302,1302,1302,1297,1297,1292,1108,1105,1105,1112,1112,1112,1112,1112,1108,1108,1105,1105,1101,1097,1094,1094,1094,1094,1090,1087,1087,1087,1077,1077,1077,0,0,0,0,0,0,0,0,1070,1070,1067,1063,1060,1057,1057,1054,1054,913,913,910,910,908,908,908,906,906,908,908,908,908,908,908,908,908,908,908,908,908,908,908,908,908,908,908,908,910,910,913,913,913,913,913,913,913,970,967,962,959,959,956,954,951,948,948,943,940,938,938,935,935,933,933,930,928,928,0,0,0,0,0,0,0,0,0,0,0,0,0,0,0,0,0,0,0,0,0,0,0,0,0,0,0,0,0,0,0,0,0,0,0
0,0,0,880,880,880,882,882,885,887,887,885,885,0,0,0,0,0,0,1458,1452,1452,1445,1445,1445,1445,1439,1439,1439,1445,1452,1452,1452,1452,0,0,0,0,0,0,0,0,0,744,744,744,742,741,741,741,741,739,738,734,733,730,730,727,725,723,722,719,713,710,708,708,708,707,706,701,700,698,697,694,694,694,650,649,648,647,647,646,644,643,642,640,637,636,635,634,632,631,631,630,627,627,625,624,624,623,622,622,621,621,620,620,620,619,619,620,620,620,620,620,620,621,621,622,622,623,623,625,625,627,627,628,629,631,631,634,635,636,638,638,641,641,642,642,642,666,664,664,664,666,667,668,670,671,672,674,675,676,676,679,680,682,683,684,686,687,687,690,691,693,694,697,700,700,701,704,707,707,708,710,711,713,716,717,720,720,722,722,723,725,727,727,727,727,730,730,0,1210,0,0,1206,1206,1202,1202,1202,1206,1210,1214,1214,1214,1219,1214,1214,1219,1433,1427,1427,1421,1421,1421,1421,1421,1421,1415,1415,1415,1415,1415,1415,1415,1415,1415,1415,1415,1415,1415,1415,1415,1415,1415,1415,1415,1415,1415,1415,1415,1415,1421,1421,1415,1415,1415,1415,1415,1415,1415,1410,1410,1415,1415,1415,1415,1415,1415,1415,1410,1410,1410,1410,1410,1410,1410,1410,1410,1410,1410,1410,1410,1410,1410,1410,1410,1410,1410,1410,1404,1404,1398,1398,1398,0,1001,1001,1001,1001,998,998,998,995,989,989,987,987,987,987,987,987,989,989,992,995,998,1001,1004,1007,1007,1010,1010,1010,0,1398,1398,1398,1398,1398,1392,1392,1392,1392,1392,1387,1387,1387,1392,1392,1392,1392,1392,1392,1398,1392,1392,1392,1392,1392,1392,1392,1392,1392,1392,1392,1392,1392,1398,1398,1392,1392,1392,1392,1392,1392,1392,1387,1387,1392,1392,1392,1392,1392,1387,1387,1387,1387,1387,1387,1381,1381,1381,1381,1381,1381,1381,1381,1381,1381,1376,1376,1376,1376,1376,1381,1381,1381,1381,1381,1381,1381,1381,1381,1381,1381,1376,1376,1381,1376,1376,1376,1376,1376,1376,1376,1376,1376,1381,1376,1376,1376,1376,1376,1376,1376,1376,1376,1376,1376,1376,1376,1376,1376,1376,1376,1376,1376,1370,1370,1370,1370,1370,1370,1370,1370,1370,1365,1365,1365,1365,1365,1365,1365,1365,1365,1365,1365,1365,1365,1365,1365,1365,1365,1365,1359,1359,1359,1354,1354,1354,1354,1354,1354,1354,1354,1354,1349,1349,1349,1349,1349,1349,1349,1349,1349,1349,1349,1349,1349,1343,1343,1338,1338,1333,1333,1333,1328,1328,1328,1328,1322,1317,1317,1317,1312,1312,1312,1307,1307,1307,1302,1302,1297,1297,1108,1108,1105,1105,1112,1112,1112,1112,1112,1108,1108,1105,1105,1101,1097,1097,1097,1097,1094,1090,1087,1087,1080,1077,1077,1077,0,0,0,0,0,0,0,0,1080,1067,1067,1060,1057,1054,1054,1054,1054,910,910,910,908,908,908,908,908,908,908,908,908,908,908,908,908,908,908,908,908,908,908,908,908,908,908,908,910,910,913,913,913,913,913,913,915,973,970,964,962,959,959,956,954,951,948,948,940,940,938,938,935,933,933,933,930,928,928,0,0,0,0,0,0,0,0,0,0,0,0,0,0,0,0,0,0,0,0,0,0,0,0,0,0,0,0,0,0,0,0,0,0,0
0,0,0,880,880,882,882,882,887,887,887,885,885,0,0,0,0,0,0,1458,1452,1452,1445,1445,1445,1439,1439,1439,1439,1445,1445,1445,1445,1445,1445,0,0,0,0,0,0,0,0,0,746,744,744,742,741,741,741,739,738,734,733,731,730,727,725,723,722,722,720,711,710,708,708,707,706,703,700,700,698,697,696,696,652,650,648,648,646,646,644,643,643,641,638,637,636,635,632,631,631,628,627,627,625,624,623,622,622,621,619,619,619,619,619,618,618,619,619,619,619,619,620,620,621,621,622,622,623,624,625,627,628,629,629,631,631,634,635,638,640,641,641,641,642,642,642,664,664,664,664,664,667,668,670,672,674,675,675,675,676,679,680,682,683,684,686,687,687,688,691,693,694,697,700,700,701,704,707,708,708,710,711,713,716,717,719,720,722,722,722,723,725,727,727,727,0,0,0,0,0,0,1206,1206,1206,1206,1206,1210,1210,1214,1214,1214,1219,1219,1219,1219,1223,1421,1421,1421,1415,1415,1415,1415,1415,1415,1410,1410,1410,1410,1415,1415,1415,1415,1415,1415,1415,1415,1410,1410,1410,1410,1410,1410,1415,1415,1415,1415,1415,1415,1415,1415,1415,1415,1410,1410,1410,1410,1410,1410,1410,1410,1410,1410,1410,1410,1410,1410,1410,1410,1410,1404,1404,1404,1404,1404,1404,1410,1410,1410,1404,1404,1404,1404,1404,1404,1404,1404,1404,1398,1398,1398,1392,1004,1004,1001,1001,1001,998,998,995,992,989,987,987,987,987,987,987,989,989,995,998,998,1001,1004,1007,1007,1010,1010,1013,1013,0,1392,1392,1392,1392,1387,1387,1387,1387,1387,1387,1387,1387,1387,1387,1392,1392,1392,1392,1392,1392,1392,1392,1392,1392,1387,1387,1387,1387,1387,1387,1381,1381,1387,1387,1392,1392,1392,1392,1392,1387,1387,1387,1387,1387,1387,1387,1387,1387,1381,1381,1381,1381,1381,1381,1376,1376,1376,1376,1376,1376,1376,1376,1376,1376,1376,1376,1376,1376,1376,1376,1376,1376,1376,1376,1376,1376,1376,1376,1376,1376,1370,1370,1370,1370,1370,1370,1370,1370,1370,1370,1370,1370,1370,1376,1376,1376,1370,1370,1370,1370,1370,1370,1370,1370,1370,1370,1370,1370,1370,1370,1370,1370,1370,1365,1365,1365,1365,1365,1365,1365,1359,1359,1359,1359,1359,1359,1359,1359,1359,1359,1359,1359,1359,1359,1359,1359,1359,1359,1359,1354,1354,1354,1354,1354,1354,1349,1349,1349,1349,1349,1349,1349,1349,1349,1349,1349,1349,1349,1349,1349,1349,1343,1343,1343,1343,1343,1343,1338,1338,1333,1333,1333,1328,1328,1328,1322,1322,1317,1317,1312,1312,1312,1307,1307,1307,1302,1302,1302,1302,1108,1108,1105,1105,1115,1115,1112,1112,1112,1108,1108,1108,1105,1105,1101,1097,1097,1097,1094,1090,1087,1087,1080,1077,1077,1077,1077,0,0,0,0,0,0,0,0,1067,1063,1060,1054,1054,1050,915,913,910,910,910,908,908,908,908,908,908,908,908,908,908,908,910,910,910,910,910,908,908,908,908,908,910,910,910,913,913,913,915,915,915,913,913,973,970,967,962,959,959,956,954,951,951,948,946,940,938,938,935,933,933,930,930,925,923,923,0,0,0,0,0,0,0,0,0,0,0,0,0,0,0,0,0,0,0,0,0,0,0,0,0,0,0,0,0,0,0,0,0,0,0
