0,0,0,0,0,0,0,0,0,0,0,0,0,1594,1594,1594,1594,1594,1594,1594,1594,1594,1594,1594,1594,1594,1594,1586,1586,1594,1594,1594,1594,1594,1594,1594,1594,1586,1586,1586,1586,1586,1586,1586,1586,1586,1586,1586,1594,1586,1586,1594,1594,1594,1594,1601,1601,1609,1616,1616,1624,1639,1655,1655,1663,1671,1671,1663,1663,1663,1663,1655,1655,1655,1655,1655,1655,1655,1647,1639,1632,1632,1624,1616,1609,1609,1601,1601,1601,1601,1609,1609,1616,1616,1616,1616,1624,1624,1624,1624,1632,1632,1632,1639,1639,1647,1647,1647,1647,1655,1663,1663,1663,1671,1671,1680,1680,1680,1680,1688,1688,1688,1696,1696,1705,1696,1696,1705,1713,1722,1722,1722,1722,1731,1731,1731,1731,1731,1739,1739,1748,1757,1757,1757,1757,1757,1757,1757,1757,1757,1757,1757,1757,1766,1766,0,1084,1084,1080,1080,1077,1077,1077,1073,1073,1070,1070,1070,1070,1070,1070,1070,1073,1073,1073,1077,1077,1080,1080,1084,1087,1087,1087,1090,1090,0,0,0,0,1823,1823,1823,1813,1813,1813,1813,1804,1804,1804,1804,1794,1794,1785,1785,1785,1776,1766,1766,1766,1766,1766,1757,1757,1757,1757,1757,1757,1757,1748,1748,1739,1739,1731,1731,1731,1722,1722,1722,1722,1722,1713,1713,1713,1713,1713,1705,1696,1696,1696,1688,1688,1688,1688,1680,1671,1671,1663,1663,1663,1663,1663,1655,1655,1655,1647,1647,1639,1639,1632,1632,1624,1624,1624,1624,1624,0,0,0,0,0,0,0,0,0,896,894,894,894,894,891,889,889,887,885,885,882,880,880,880,880,882,882,885,887,891,891,894,896,896,896,896,898,901,0,0,0,0,0,0,1516,1509,1509,1503,1503,1503,1503,1503,1496,1496,1496,1489,1489,1489,1489,1483,1483,1477,1477,1470,1470,1470,1470,1464,1464,1464,1458,1458,1452,1445,1445,1445,1445,1439,1439,1439,1439,1439,1433,1433,1427,1427,1421,1421,1421,1415,1415,1415,1415,1415,1410,1410,1404,1404,1398,1398,1398,1392,1392,1392,1392,1387,1381,1381,1381,1376,1376,1376,1376,1370,1370,1370,1370,1365,1359,1354,1354,1354,1354,1349,1349,1349,1349,1349,1349,1343,1338,1333,1333,1333,1333,1333,1333,1328,1328,1328,1328,1322,1317,1312,1312,1312,1312,1312,1307,1307,1307,1307,1302,1302,1302,1297,1292,1292,1292,1288,1288,1288,1288,1288,1283,1283,1283,1283,1278,1278,1273,1273,1273,1268,1268,1268,1264,1264,1259,1259,1255,1255,1255,1255,1255,1250,1250,1250,1245,1241,1241,1241,1236,1236,1236,1236,1236,1236,1232,1232,1232,1232,1227,1223,1219,1219,1219,1214,1214,1214,1214,1210,1210,1210,1206,1206,1202,1202,1197,1197,1197,1197,1197,1197,1193,1193,1189,1189,1185,1185,1185,1181,1181,1177,1177,1173,1173,1169,1169,1169,1169,1169,1169,1165,1165,1165,1161,1157,1157,1157,1153,1153,1153,1153,1153,1149,1149,1149,1145,1145,1145,1141,1138,1138,1138,1138,1134,1134,1134,1130,1130,1126,1126,1123,1123,1123,1123,1123,1119,1119,1119,1115,1112,1112,1108,1108,1108,1108,1108,1108,1105,1105,1105,1105,1101,1101,1097,1097,1094,1094,1094,1094,1094,1090,1090,1090,1090,1087,1087,1084,1084,1080,1080,1080,1080,1080,1077,1077,1073,1073,1073,1070,1070,1067,1067,1067,1063,1063,1063,1063,1063,1063,1060,1060,1057,1054,1054,1054,1054,1050,1050,1050,1047,1047,0,0,0,0,0,0,0,0,0,0,0,0,0,0,0,0,0,0,0,0,0,0,0,0,0,0,0,0,0,0,0
0,0,0,0,0,0,0,0,0,0,0,0,0,1594,1594,1594,1594,1594,1594,1594,1594,1594,1594,1594,1594,1594,1594,1594,1594,1594,1594,1594,1594,1594,1594,1594,1594,1586,1586,1586,1586,1586,1586,1586,1586,1586,1586,1594,1594,1594,1594,1594,1594,1594,1594,1601,1609,1616,1616,1616,1624,1639,1647,1655,1663,1671,1671,1663,1663,1663,1655,1655,1655,1647,1647,1647,1647,1647,1639,1639,1632,1632,1624,1616,1609,1609,1609,1601,1601,1609,1609,1609,1616,1616,1616,1616,1624,1624,1624,1632,1632,1632,1632,1639,1639,1647,1647,1647,1655,1655,1663,1663,1663,1671,1671,1680,1680,1680,1680,1688,1688,1688,1696,1696,1705,1705,1705,1705,1713,1722,1722,1722,1722,1731,1731,1731,1731,1739,1739,1739,1748,1757,1757,1757,1757,1757,1757,1757,1757,1757,1757,1757,1757,1766,1766,0,0,1077,1077,1077,1077,1077,1077,1073,1073,1070,1070,1070,1070,1070,1070,1070,1073,1073,1073,1077,1077,1080,1084,1084,1087,1087,1090,1090,1090,1090,0,0,0,1833,1823,1823,1823,1823,1813,1813,1804,1804,1804,1804,1794,1794,1794,1785,1785,1776,1776,1766,1766,1766,1766,1766,1757,1757,1757,1757,1757,1757,1757,1748,1748,1739,1739,1731,1731,1731,1722,1722,1722,1722,1722,1722,1713,1713,1713,1705,1696,1696,1696,1688,1688,1688,1680,1680,1671,1671,1671,1663,1663,1663,1663,1663,1655,1655,1655,1647,1639,1639,1632,1632,1632,1624,1624,1624,1624,0,0,0,0,0,0,0,0,0,896,896,894,894,894,891,889,889,887,885,885,882,880,880,882,882,882,885,887,889,891,891,894,896,896,896,896,898,901,0,0,0,0,0,0,1516,1509,1509,1509,1509,1509,1503,1503,1503,1496,1496,1496,1489,1489,1489,1483,1483,1477,1477,1477,1470,1470,1470,1464,1464,1464,1464,1458,1452,1452,1445,1445,1445,1439,1439,1439,1439,1439,1433,1433,1427,1427,1421,1421,1421,1421,1415,1415,1415,1415,1410,1410,1410,1404,1404,1398,1398,1398,1392,1392,1392,1387,1387,1381,1381,1381,1376,1376,1376,1370,1370,1370,1370,1365,1365,1359,1354,1354,1354,1349,1349,1349,1349,1349,1343,1343,1338,1338,1333,1333,1333,1333,1333,1328,1328,1328,1328,1322,1317,1312,1312,1312,1312,1312,1307,1307,1307,1307,1302,1302,1302,1297,1292,1292,1292,1288,1288,1288,1288,1288,1288,1288,1283,1283,1283,1278,1278,1273,1273,1268,1268,1268,1264,1264,1259,1259,1259,1259,1259,1255,1255,1250,1250,1250,1250,1245,1245,1241,1236,1236,1236,1236,1236,1236,1232,1232,1232,1232,1227,1223,1219,1219,1219,1219,1219,1219,1214,1214,1214,1210,1210,1206,1202,1202,1197,1197,1197,1197,1197,1197,1197,1193,1193,1189,1189,1185,1185,1181,1181,1181,1177,1177,1173,1173,1173,1169,1169,1169,1169,1169,1165,1165,1161,1161,1157,1157,1153,1153,1153,1153,1153,1153,1149,1149,1149,1145,1145,1145,1138,1138,1138,1138,1134,1134,1134,1134,1130,1130,1126,1123,1123,1123,1123,1123,1119,1119,1119,1115,1112,1112,1112,1108,1108,1108,1108,1108,1108,1105,1105,1105,1101,1101,1101,1097,1097,1094,1094,1094,1094,1090,1090,1090,1090,1090,1090,1087,1084,1080,1080,1080,1080,1080,1077,1077,1077,1073,1073,1070,1070,1067,1067,1067,1063,1063,1063,1063,1063,1063,1060,1060,1057,1057,1054,1054,1054,1054,1050,1050,1050,1050,0,0,0,0,0,0,0,0,0,0,0,0,0,0,0,0,0,0,0,0,0,0,0,0,0,0,0,0,0,0,0
0,0,0,0,0,0,0,0,0,0,0,0,0,1594,1594,1594,1594,1594,1594,1594,1594,1594,1594,1594,1594,1594,1594,1594,1594,1594,1594,1594,1594,1601,1594,1594,1594,1594,1586,1586,1586,1586,1594,1594,1594,1594,1594,1594,1594,1594,1594,1594,1594,1594,1601,1601,1609,1616,1616,1624,1624,1639,1647,1663,1663,1671,1671,1671,1663,1663,1655,1655,1655,1647,1647,1647,1647,1639,1639,1639,1632,1632,1624,1616,1616,1609,1609,1609,1609,1609,1609,1609,1616,1616,1616,1616,1624,1624,1624,1632,1632,1632,1639,1639,1639,1647,1647,1647,1655,1655,1663,1663,1663,1671,1671,1671,1680,1680,1680,1688,1688,1696,1696,1696,1705,1705,1705,1713,1713,1722,1722,1722,1731,1731,1731,1731,1731,1739,1739,1739,1748,1757,1757,1757,1757,1757,1757,1757,1757,1757,1757,1757,1757,1766,0,0,0,0,1077,1077,1077,1077,1077,1073,1073,1073,1070,1070,1070,1070,1070,1070,1073,1073,1077,1077,1080,1080,1084,1084,1087,1087,1090,1090,1090,1090,1090,0,1823,0,1823,1823,1823,1823,1813,1813,1813,1804,1804,1804,1794,1794,1794,1785,1785,1776,1776,1766,1766,1766,1766,1766,1766,1757,1757,1757,1757,1757,1757,1748,1748,1748,1739,1739,1731,1731,1731,1722,1722,1722,1722,1722,1713,1713,1713,1705,1705,1696,1696,1696,1688,1688,1680,1680,1671,1671,1671,1663,1663,1663,1663,1663,1663,1655,1655,1647,1639,1639,1632,1632,1632,1632,1624,1624,1624,0,0,0,0,0,0,0,0,0,896,896,894,894,894,891,891,889,887,887,885,882,882,882,882,882,885,885,887,889,891,891,894,896,896,896,898,898,901,0,0,0,0,0,0,1516,1516,1509,1509,1509,1509,1509,1503,1503,1503,1496,1496,1489,1489,1489,1483,1483,1483,1477,1477,1470,1470,1470,1470,1464,1464,1464,1458,1452,1452,1452,1445,1445,1445,1445,1439,1439,1439,1439,1433,1433,1427,1427,1421,1421,1421,1415,1415,1415,1415,1415,1410,1410,1404,1404,1398,1398,1398,1392,1392,1392,1387,1387,1381,1381,1381,1376,1376,1376,1370,1370,1370,1370,1370,1365,1359,1359,1354,1354,1354,1354,1349,1349,1349,1343,1343,1343,1338,1333,1333,1333,1333,1333,1328,1328,1328,1328,1322,1317,1317,1312,1312,1312,1312,1307,1307,1307,1307,1302,1302,1302,1297,1297,1292,1292,1292,1292,1288,1288,1288,1288,1288,1288,1283,1283,1278,1278,1273,1273,1273,1268,1268,1264,1264,1264,1259,1259,1259,1259,1255,1255,1250,1250,1250,1250,1245,1245,1245,1241,1241,1236,1236,1236,1236,1236,1232,1232,1232,1227,1223,1223,1223,1219,1219,1219,1219,1214,1214,1214,1214,1210,1210,1202,1202,1202,1202,1197,1197,1197,1197,1197,1193,1193,1189,1189,1185,1185,1181,1181,1181,1177,1177,1177,1173,1173,1169,1169,1169,1169,1169,1165,1165,1161,1161,1161,1157,1157,1153,1153,1153,1153,1153,1149,1149,1149,1145,1145,1145,1141,1138,1138,1138,1138,1134,1134,1134,1134,1130,1126,1126,1123,1123,1123,1123,1119,1119,1119,1115,1115,1112,1112,1112,1108,1108,1108,1108,1108,1108,1105,1105,1101,1101,1101,1097,1097,1094,1094,1094,1094,1094,1090,1090,1090,1090,1090,1087,1084,1080,1080,1080,1080,1080,1080,1077,1077,1073,1073,1073,1070,1067,1067,1067,1063,1063,1063,1063,1063,1063,1060,1060,1057,1057,1054,1054,1054,1054,1050,1050,1050,1050,0,0,0,0,0,0,0,0,0,0,0,0,0,0,0,0,0,0,0,0,0,0,0,0,0,0,0,0,0,0,0
0,0,0,0,0,0,0,0,0,0,0,0,0,1594,1594,1594,1601,1601,1601,1601,1601,1601,1601,1594,1594,1594,1594,1594,1594,1594,1601,1601,1601,1601,1601,1594,1594,1594,1594,1594,1594,1594,1594,1594,1594,1594,1594,1594,1594,1594,1594,1594,1594,1594,1601,1609,1609,1616,1616,1616,1624,1632,1639,1663,1663,1680,1680,1671,1671,1663,1663,1655,1655,1647,1647,1647,1647,1639,1639,1632,1632,1624,1624,1616,1616,1616,1609,1609,1609,1609,1616,1616,1616,1616,1616,1624,1624,1624,1632,1632,1632,1632,1639,1639,1647,1647,1647,1647,1655,1655,1663,1663,1663,1671,1671,1671,1680,1680,1680,1688,1688,1696,1696,1696,1705,1705,1705,1705,1713,1722,1722,1722,1731,1731,1731,1731,1731,1739,1748,1748,1748,1757,1757,1757,1757,1757,1757,1757,1757,1748,1748,1748,1757,1766,0,0,0,0,1077,1077,1077,1077,1077,1073,1073,1073,1070,1070,1070,1070,1070,1070,1073,1073,1077,1077,1080,1084,1084,1087,1087,1090,1090,1090,1090,1090,0,0,0,0,1833,1833,1823,1823,1823,1823,1813,1813,1813,1804,1794,1794,1794,1785,1785,1776,1776,1776,1776,1766,1766,1766,1766,1766,1766,1757,1757,1757,1757,1748,1748,1748,1739,1739,1731,1731,1731,1722,1722,1722,1722,1722,1713,1713,1713,1705,1705,1696,1696,1696,1688,1688,1688,1680,1680,1680,1671,1671,1663,1663,1663,1663,1663,1655,1655,1647,1647,1639,1639,1632,1632,1632,1624,1624,1624,0,0,0,0,0,0,0,0,0,896,896,894,894,894,891,891,889,887,887,885,882,882,882,882,882,885,885,887,889,891,891,894,896,896,896,898,901,903,906,0,0,0,0,0,1516,1509,1509,1509,1509,1516,1509,1509,1503,1503,1496,1496,1496,1496,1489,1489,1489,1483,1483,1477,1470,1470,1470,1470,1464,1464,1464,1458,1458,1452,1452,1445,1445,1445,1445,1439,1439,1439,1439,1433,1433,1433,1427,1427,1421,1421,1415,1415,1415,1415,1415,1410,1410,1404,1404,1398,1398,1398,1392,1392,1392,1392,1387,1387,1387,1381,1376,1376,1376,1376,1376,1370,1370,1370,1365,1359,1359,1354,1354,1354,1354,1354,1349,1349,1349,1343,1343,1338,1333,1333,1333,1333,1333,1328,1328,1328,1328,1322,1322,1317,1317,1312,1312,1312,1312,1312,1307,1307,1302,1302,1302,1302,1297,1292,1292,1292,1292,1288,1288,1288,1288,1288,1288,1283,1283,1278,1278,1273,1273,1273,1268,1268,1268,1264,1264,1264,1259,1259,1259,1255,1255,1255,1250,1250,1250,1245,1245,1245,1241,1241,1241,1236,1236,1236,1236,1232,1232,1232,1227,1227,1223,1223,1219,1219,1219,1219,1214,1214,1214,1214,1214,1210,1202,1202,1202,1202,1197,1197,1197,1197,1197,1193,1193,1193,1189,1189,1185,1181,1181,1181,1181,1177,1177,1173,1173,1173,1169,1169,1169,1169,1165,1165,1165,1161,1161,1157,1157,1153,1153,1153,1153,1153,1149,1149,1149,1149,1149,1145,1141,1138,1138,1138,1138,1138,1138,1134,1134,1134,1130,1126,1126,1123,1123,1123,1119,1119,1119,1115,1115,1112,1112,1112,1112,1108,1108,1108,1108,1108,1105,1105,1105,1101,1101,1101,1097,1094,1094,1094,1094,1094,1090,1090,1090,1090,1090,1087,1084,1084,1080,1080,1080,1080,1080,1077,1077,1077,1077,1073,1070,1067,1067,1067,1067,1067,1063,1063,1063,1063,1060,1060,1057,1057,1054,1054,1054,1054,1054,1050,1050,1050,0,0,0,0,0,0,0,0,0,0,0,0,0,0,0,0,0,0,0,0,0,0,0,0,0,0,0,0,0,0,0
0,0,0,0,0,0,0,0,0,0,0,0,0,1601,1601,1601,1601,1601,1601,1601,1601,1601,1601,1594,1594,1601,1601,1594,1594,1601,1601,1601,1601,1601,1601,1594,1594,1594,1594,1594,1594,1594,1594,1594,1594,1594,1601,1594,1594,1594,1594,1594,1594,1594,1601,1609,1609,1616,1616,1616,1624,1632,1639,1663,1663,1680,1680,1680,1671,1663,1663,1655,1655,1655,1655,1647,1647,1639,1639,1632,1632,1624,1624,1616,1616,1616,1616,1609,1609,1609,1616,1616,1616,1616,1616,1624,1624,1624,1632,1632,1632,1632,1639,1639,1647,1647,1647,1647,1655,1655,1663,1663,1663,1671,1671,1680,1680,1680,1680,1688,1688,1696,1696,1696,1705,1705,1705,1705,1713,1722,1722,1722,1722,1731,1731,1731,1731,1739,1748,1748,1757,1757,1757,1757,1757,1757,1757,1757,1757,1748,1748,1748,0,0,0,0,0,0,1077,1077,1077,1077,1077,1077,1073,1073,1073,1070,1070,1070,1070,1073,1073,1077,1077,1080,1080,1084,1084,1087,1087,1090,1090,1090,1094,1094,0,0,0,0,1833,1833,1833,1833,1823,1823,1823,1813,1813,1804,1804,1804,1794,1794,1785,1785,1785,1776,1776,1776,1776,1766,1766,1766,1766,1766,1757,1757,1757,1757,1748,1748,1739,1739,1731,1731,1731,1722,1722,1722,1722,1722,1713,1713,1713,1705,1705,1696,1696,1696,1696,1688,1688,1688,1680,1680,1680,1671,1671,1671,1663,1663,1663,1655,1655,1655,1647,1639,1639,1639,1632,1632,1632,1624,1624,0,0,0,0,0,0,0,0,0,896,896,896,894,894,891,891,889,887,887,885,882,882,882,882,882,885,885,887,889,891,894,894,896,896,898,901,903,903,906,0,0,0,0,0,0,1509,1509,1509,1509,1516,1509,1509,1503,1503,1496,1496,1496,1496,1489,1489,1489,1489,1483,1483,1477,1477,1470,1470,1470,1464,1464,1464,1458,1452,1452,1445,1445,1445,1445,1439,1439,1439,1439,1439,1433,1433,1427,1427,1421,1421,1421,1421,1415,1415,1415,1415,1410,1404,1404,1398,1398,1398,1392,1392,1392,1392,1392,1387,1387,1381,1376,1376,1376,1376,1370,1370,1370,1370,1370,1365,1359,1354,1354,1354,1354,1354,1349,1349,1349,1343,1343,1343,1338,1333,1333,1333,1333,1328,1328,1328,1328,1328,1322,1322,1317,1317,1317,1312,1312,1312,1307,1307,1307,1302,1302,1302,1302,1297,1292,1292,1292,1292,1288,1288,1288,1288,1288,1283,1283,1278,1278,1273,1273,1273,1268,1268,1268,1268,1264,1264,1264,1259,1259,1259,1255,1255,1250,1250,1250,1245,1245,1245,1241,1241,1241,1236,1236,1236,1236,1236,1232,1232,1227,1227,1223,1223,1219,1219,1219,1219,1214,1214,1214,1214,1214,1210,1206,1202,1202,1202,1197,1197,1197,1197,1197,1197,1193,1193,1189,1189,1185,1185,1181,1181,1181,1177,1177,1177,1173,1173,1173,1169,1169,1169,1165,1165,1165,1161,1161,1157,1157,1153,1153,1153,1153,1153,1153,1149,1149,1149,1149,1145,1141,1141,1138,1138,1138,1138,1138,1134,1134,1134,1130,1130,1126,1123,1123,1123,1119,1119,1119,1115,1115,1112,1112,1112,1112,1108,1108,1108,1108,1108,1105,1105,1105,1105,1101,1101,1097,1097,1094,1094,1094,1094,1090,1090,1090,1090,1087,1087,1084,1084,1080,1080,1080,1080,1080,1080,1077,1077,1077,1073,1073,1067,1067,1067,1067,1063,1063,1063,1063,1063,1060,1060,1060,1060,1057,1057,1054,1054,1054,1054,1050,1050,0,0,0,0,0,0,0,0,0,0,0,0,0,0,0,0,0,0,0,0,0,0,0,0,0,0,0,0,0,0,0
0,0,0,0,0,0,0,0,0,0,0,0,0,1601,1601,1601,1601,1601,1601,1601,1601,1601,1601,1601,1601,1601,1601,1601,1601,1601,1601,1601,1601,1601,1601,1601,1594,1594,1594,1594,1594,1594,1594,1601,1594,1594,1601,1601,1594,1594,1594,1594,1594,1594,1601,1609,1609,1616,1616,1616,1624,1632,1639,1663,1663,1671,1680,1680,1671,1663,1663,1655,1655,1655,1655,1647,1647,1639,1639,1632,1632,1624,1624,1624,1616,1616,1616,1616,1616,1616,1616,1616,1616,1616,1624,1624,1624,1624,1632,1632,1632,1632,1639,1639,1647,1647,1647,1647,1655,1655,1663,1663,1663,1671,1671,1680,1680,1680,1680,1688,1688,1696,1696,1696,1705,1705,1705,1705,1713,1722,1722,1722,1722,1731,1731,1731,1739,1739,1748,1748,1757,1757,1757,1757,1757,1757,1757,1766,1757,1748,1748,1757,0,0,0,0,0,0,1077,1077,1077,1077,1077,1077,1073,1073,1073,1070,1070,1070,1070,1073,1073,1077,1077,1080,1084,1084,1087,1087,1090,1090,1090,1094,1094,1094,0,0,0,1833,1833,1833,1833,1833,1823,1823,1823,1813,1813,1804,1804,1804,1794,1794,1794,1794,1785,1785,1776,1776,1776,1776,1766,1766,1766,1766,1757,1757,1757,1757,1748,1748,1748,1739,1739,1731,1731,1731,1731,1722,1722,1722,1722,1713,1713,1713,1705,1705,1696,1696,1696,1688,1688,1688,1680,1680,1680,1680,1671,1671,1663,1663,1663,1655,1655,1655,1647,1647,1639,1639,1639,1632,1632,1624,1624,0,0,0,0,0,0,0,0,0,896,896,896,896,894,894,891,891,887,887,885,882,882,882,882,885,885,885,887,889,891,894,894,896,896,898,901,903,906,906,0,0,0,0,0,1516,1516,1509,1509,1509,1516,1509,1509,1503,1503,1496,1496,1496,1496,1496,1489,1489,1489,1483,1483,1477,1477,1470,1470,1470,1470,1464,1464,1458,1458,1452,1445,1445,1445,1445,1439,1439,1439,1439,1439,1433,1433,1433,1427,1421,1421,1421,1421,1415,1415,1415,1415,1410,1410,1404,1404,1398,1398,1398,1398,1392,1392,1392,1392,1387,1387,1381,1376,1376,1376,1370,1370,1370,1370,1370,1365,1359,1359,1359,1354,1354,1354,1354,1349,1349,1349,1343,1343,1338,1338,1333,1333,1333,1333,1328,1328,1328,1328,1322,1322,1317,1317,1317,1317,1312,1312,1307,1307,1307,1307,1307,1302,1302,1302,1292,1292,1292,1292,1292,1288,1288,1288,1288,1283,1283,1278,1278,1273,1273,1273,1273,1268,1268,1268,1268,1264,1264,1259,1259,1255,1255,1255,1255,1250,1250,1250,1250,1245,1241,1241,1241,1236,1236,1236,1236,1236,1232,1232,1227,1227,1223,1223,1219,1219,1219,1219,1214,1214,1214,1214,1214,1210,1206,1206,1202,1202,1202,1197,1197,1197,1197,1197,1197,1193,1193,1189,1185,1185,1181,1181,1181,1181,1177,1177,1177,1173,1173,1169,1169,1169,1165,1165,1165,1161,1161,1161,1157,1157,1153,1153,1153,1153,1153,1149,1149,1149,1149,1145,1145,1141,1138,1138,1138,1138,1138,1134,1134,1134,1130,1130,1126,1126,1123,1123,1123,1119,1119,1115,1115,1112,1112,1112,1112,1112,1108,1108,1108,1108,1108,1105,1105,1105,1105,1101,1097,1097,1094,1094,1094,1094,1090,1090,1090,1090,1087,1087,1084,1084,1084,1080,1080,1080,1080,1080,1077,1077,1077,1073,1073,1070,1067,1067,1067,1063,1063,1063,1063,1063,1063,1060,1060,1060,1057,1057,1057,1054,1054,1054,1050,1050,0,0,0,0,0,0,0,0,0,0,0,0,0,0,0,0,0,0,0,0,0,0,0,0,0,0,0,0,0,0,0
0,0,0,0,0,0,0,0,0,0,0,0,0,1601,1601,1601,1601,1601,1601,1601,1601,1601,1601,1601,1601,1601,1601,1601,1601,1601,1601,1601,1601,1601,1601,1601,1601,1601,1594,1594,1594,1594,1601,1601,1601,1601,1601,1601,1601,1601,1594,1594,1594,1601,1601,1609,1616,1616,1624,1624,1624,1632,1639,1655,1663,1671,1671,1671,1663,1663,1663,1655,1655,1655,1655,1647,1639,1639,1639,1632,1632,1624,1624,1624,1624,1616,1616,1616,1616,1616,1616,1616,1616,1624,1624,1624,1624,1624,1632,1632,1632,1632,1639,1639,1647,1647,1647,1647,1655,1655,1663,1663,1671,1671,1680,1680,1680,1688,1688,1688,1688,1696,1696,1696,1696,1705,1705,1713,1713,1722,1722,1722,1731,1731,1731,1731,1739,1739,1748,1748,1757,1757,1757,1757,1757,1757,1766,1766,1766,1766,1766,1776,0,0,0,0,0,0,1087,1080,1077,1077,1077,1077,1073,1073,1073,1070,1070,1070,1070,1073,1073,1077,1077,1080,1084,1084,1087,1087,1090,1090,1090,1094,1097,1097,0,0,0,0,1833,1833,1833,1833,1833,1833,1823,1813,1813,1813,1804,1804,1804,1794,1794,1794,1794,1785,1785,1785,1785,1776,1766,1766,1766,1766,1757,1757,1757,1757,1757,1748,1748,1748,1739,1731,1731,1731,1731,1722,1722,1722,1722,1722,1722,1713,1713,1705,1696,1696,1696,1688,1688,1688,1688,1680,1680,1680,1671,1671,1663,1663,1663,1655,1655,1655,1655,1647,1647,1639,1639,1632,1632,1624,1624,0,0,0,0,0,0,0,0,0,896,896,896,896,894,894,894,891,889,887,885,882,882,882,882,885,885,885,887,889,891,894,894,896,898,898,903,903,906,906,0,0,0,0,0,1516,1516,1516,1509,1509,1516,1516,1509,1503,1503,1503,1496,1496,1496,1496,1496,1489,1489,1483,1483,1483,1477,1470,1470,1470,1470,1464,1464,1464,1464,1452,1445,1445,1445,1445,1439,1439,1439,1439,1439,1439,1433,1433,1427,1427,1421,1421,1421,1421,1415,1415,1415,1410,1410,1404,1404,1404,1398,1398,1398,1392,1392,1392,1392,1387,1387,1381,1376,1376,1376,1370,1370,1370,1370,1370,1365,1365,1359,1359,1354,1354,1354,1354,1349,1349,1349,1343,1343,1338,1338,1338,1333,1333,1333,1328,1328,1328,1328,1328,1328,1322,1322,1317,1317,1312,1312,1312,1307,1307,1307,1307,1302,1302,1302,1297,1297,1292,1292,1292,1288,1288,1288,1288,1283,1283,1278,1278,1273,1273,1273,1273,1268,1268,1268,1268,1264,1264,1259,1259,1255,1255,1255,1255,1250,1250,1250,1250,1245,1245,1241,1241,1236,1236,1236,1236,1236,1232,1232,1232,1227,1223,1223,1223,1219,1219,1219,1214,1214,1214,1214,1214,1210,1210,1206,1206,1202,1202,1202,1197,1197,1197,1197,1197,1193,1193,1189,1189,1185,1185,1181,1181,1181,1181,1177,1177,1177,1173,1173,1169,1169,1169,1165,1165,1161,1161,1161,1157,1157,1153,1153,1153,1153,1153,1149,1149,1149,1149,1145,1145,1141,1138,1138,1138,1138,1138,1134,1134,1134,1130,1130,1126,1126,1123,1123,1123,1119,1119,1119,1115,1115,1115,1115,1112,1112,1108,1108,1108,1108,1108,1105,1105,1105,1105,1101,1101,1097,1097,1094,1094,1094,1090,1090,1090,1090,1087,1087,1087,1084,1084,1080,1080,1080,1080,1080,1077,1077,1077,1073,1073,1070,1067,1067,1067,1067,1067,1063,1063,1063,1063,1060,1060,1060,1057,1057,1057,1054,1054,1054,1054,1054,0,0,0,0,0,0,0,0,0,0,0,0,0,0,0,0,0,0,0,0,0,0,0,0,0,0,0,0,0,0,0
0,0,0,0,0,0,0,0,0,0,0,0,1609,1601,1601,1601,1601,1601,1601,1601,1601,1601,1601,1601,1601,1601,1601,1601,1601,1601,1601,1601,1601,1601,1601,1601,1601,1601,1594,1594,1601,1601,1601,1601,1601,1601,1601,1601,1601,1601,1594,1594,1594,1601,1601,1609,1609,1616,1616,1624,1624,1632,1655,1655,1671,1671,1671,1671,1663,1663,1663,1655,1655,1655,1655,1647,1639,1639,1632,1632,1632,1624,1624,1624,1624,1616,1616,1616,1616,1616,1616,1616,1616,1624,1624,1624,1624,1624,1632,1632,1632,1632,1639,1639,1639,1647,1647,1647,1655,1655,1655,1663,1663,1671,1680,1680,1680,1688,1688,1688,1688,1696,1696,1696,1696,1705,1705,1713,1713,1722,1722,1722,1731,1731,1731,1739,1739,1748,1748,1748,1757,1757,1757,1757,1757,1757,1766,1766,1776,1766,1766,1776,0,0,0,0,0,1090,1087,1084,1080,1077,1077,1077,1073,1073,1073,1070,1070,1073,1073,1073,1073,1077,1077,1080,1084,1084,1087,1087,1090,1090,1090,1094,1097,1097,0,0,0,1833,1833,1833,1833,1833,1833,1833,1833,1823,1813,1813,1813,1804,1804,1794,1794,1794,1794,1794,1785,1785,1785,1785,1776,1776,1766,1766,1757,1757,1757,1757,1757,1757,1757,1748,1748,1739,1739,1731,1731,1731,1722,1722,1722,1722,1722,1722,1713,1705,1705,1696,1696,1688,1688,1688,1688,1688,1680,1680,1680,1671,1671,1663,1663,1663,1655,1655,1655,1647,1647,1639,1639,1632,1632,1632,1632,0,0,0,0,0,0,0,0,0,896,896,896,896,894,894,894,891,889,887,887,882,882,882,885,885,885,885,887,889,891,894,896,898,898,901,903,903,906,906,0,0,0,0,0,1516,1516,1516,1509,1509,1516,1516,1509,1509,1503,1503,1496,1496,1496,1496,1496,1489,1489,1483,1483,1477,1477,1477,1470,1470,1470,1464,1464,1464,1464,1458,1452,1452,1452,1445,1445,1445,1439,1439,1439,1439,1439,1433,1427,1427,1421,1421,1421,1421,1415,1415,1415,1410,1410,1410,1404,1404,1398,1398,1398,1398,1392,1392,1392,1387,1387,1381,1376,1376,1376,1370,1370,1370,1370,1370,1365,1365,1359,1359,1354,1354,1354,1349,1349,1349,1349,1349,1343,1343,1338,1338,1333,1333,1333,1333,1328,1328,1328,1328,1328,1328,1322,1322,1317,1312,1312,1312,1312,1307,1307,1307,1302,1302,1302,1302,1297,1292,1292,1292,1292,1288,1288,1288,1283,1283,1283,1278,1278,1273,1273,1273,1268,1268,1268,1268,1268,1264,1259,1259,1255,1255,1255,1255,1250,1250,1250,1250,1245,1245,1241,1241,1236,1236,1236,1236,1236,1232,1232,1232,1227,1223,1223,1219,1219,1219,1219,1214,1214,1214,1214,1214,1210,1210,1206,1206,1202,1202,1202,1197,1197,1197,1197,1197,1193,1193,1189,1189,1185,1185,1185,1181,1181,1181,1181,1177,1177,1173,1173,1169,1169,1169,1165,1165,1165,1161,1161,1161,1157,1153,1153,1153,1153,1153,1149,1149,1149,1149,1145,1145,1141,1138,1138,1138,1138,1138,1134,1134,1134,1130,1130,1126,1126,1123,1123,1123,1119,1119,1119,1119,1115,1115,1115,1115,1112,1112,1108,1108,1108,1108,1105,1105,1105,1105,1101,1101,1097,1097,1094,1094,1094,1090,1090,1090,1090,1090,1087,1087,1084,1084,1084,1080,1080,1080,1080,1077,1077,1077,1073,1073,1070,1070,1067,1067,1067,1067,1063,1063,1063,1063,1063,1060,1060,1060,1057,1057,1054,1054,1054,1054,1054,0,0,0,0,0,0,0,0,0,0,0,0,0,0,0,0,0,0,0,0,0,0,0,0,0,0,0,0,0,0,0
0,0,0,0,0,0,0,0,0,0,0,0,1609,1601,1601,1609,1601,1601,1601,1601,1601,1601,1601,1601,1601,1601,1601,1601,1601,1601,1601,1601,1601,1601,1601,1601,1601,1601,1601,1601,1601,1601,1601,1601,1601,1601,1601,1601,1601,1601,1594,1594,1594,1601,1601,1609,1609,1616,1616,1624,1624,1632,1655,1655,1680,1680,1680,1680,1671,1663,1663,1663,1655,1655,1655,1647,1639,1639,1632,1632,1632,1624,1624,1624,1624,1616,1616,1616,1616,1616,1616,1616,1624,1624,1624,1624,1624,1632,1632,1632,1632,1639,1639,1639,1639,1647,1647,1647,1655,1655,1655,1663,1663,1671,1680,1680,1680,1688,1688,1688,1696,1696,1696,1696,1696,1705,1705,1705,1713,1713,1722,1722,1731,1731,1731,1739,1739,1748,1748,1757,1757,1757,1757,1757,1766,1766,1766,1776,1776,1766,1766,1766,0,0,0,0,0,1087,1087,1084,1080,1080,1077,1077,1077,1073,1073,1073,1073,1073,1073,1073,1073,1077,1077,1084,1084,1084,1087,1087,1090,1090,1094,1094,1097,1097,0,0,0,0,1833,1833,1833,1833,1833,1833,1833,1823,1823,1813,1813,1804,1804,1804,1794,1794,1794,1794,1794,1794,1794,1785,1785,1785,1776,1766,1766,1757,1757,1757,1757,1757,1757,1748,1748,1739,1739,1731,1731,1731,1731,1722,1722,1722,1722,1722,1713,1705,1705,1705,1696,1696,1688,1688,1688,1688,1688,1680,1680,1680,1671,1671,1663,1663,1655,1655,1655,1647,1647,1639,1639,1639,1632,1632,1632,0,0,0,0,0,0,0,0,896,896,894,894,894,894,894,891,889,889,887,885,885,885,885,885,885,885,887,887,889,891,894,896,898,901,901,903,903,906,906,0,0,0,0,0,1516,1516,1516,1516,1516,1516,1516,1509,1509,1503,1503,1496,1496,1496,1496,1496,1489,1489,1483,1483,1477,1477,1477,1470,1470,1470,1464,1464,1464,1464,1458,1452,1452,1452,1445,1445,1445,1445,1445,1439,1439,1439,1433,1427,1427,1421,1421,1421,1415,1415,1415,1415,1410,1410,1410,1404,1404,1398,1398,1398,1398,1398,1392,1392,1387,1387,1381,1381,1376,1376,1376,1376,1370,1370,1370,1370,1365,1365,1359,1359,1354,1354,1349,1349,1349,1349,1349,1349,1343,1343,1338,1338,1333,1333,1333,1328,1328,1328,1328,1328,1328,1328,1322,1322,1317,1312,1312,1312,1307,1307,1307,1307,1307,1302,1302,1302,1297,1292,1292,1292,1288,1288,1288,1283,1283,1283,1278,1278,1273,1273,1273,1273,1268,1268,1268,1268,1264,1259,1259,1255,1255,1255,1255,1255,1250,1250,1250,1245,1245,1245,1241,1241,1236,1236,1236,1236,1232,1232,1232,1227,1227,1223,1219,1219,1219,1219,1219,1214,1214,1214,1214,1214,1210,1210,1206,1202,1202,1202,1197,1197,1197,1197,1197,1193,1193,1189,1189,1185,1185,1185,1185,1181,1181,1181,1181,1177,1177,1173,1169,1169,1169,1165,1165,1165,1161,1161,1161,1157,1157,1153,1153,1153,1153,1149,1149,1149,1149,1145,1145,1141,1141,1138,1138,1138,1138,1134,1134,1134,1134,1130,1130,1130,1126,1123,1123,1123,1119,1119,1119,1115,1115,1115,1115,1115,1112,1108,1108,1108,1108,1105,1105,1105,1105,1101,1101,1097,1097,1094,1094,1094,1094,1090,1090,1090,1090,1087,1087,1087,1084,1084,1080,1080,1080,1080,1077,1077,1077,1077,1077,1073,1070,1070,1067,1067,1067,1063,1063,1063,1063,1063,1060,1060,1060,1057,1057,1057,1054,1054,1054,1054,0,0,0,0,0,0,0,0,0,0,0,0,0,0,0,0,0,0,0,0,0,0,0,0,0,0,0,0,0,0,0
0,0,0,0,0,0,0,0,0,0,0,0,1609,1609,1609,1601,1601,1601,1601,1601,1601,1601,1601,1601,1601,1601,1601,1601,1601,1601,1601,1601,1601,1601,1601,1601,1601,1601,1601,1601,1601,1601,1601,1601,1601,1601,1601,1601,1601,1601,1594,1594,1594,1601,1601,1609,1609,1616,1616,1624,1624,1632,1947,1947,1947,1947,1936,1936,1926,1915,1915,1915,1915,1915,1915,1647,1639,1639,1632,1632,1624,1624,1624,1624,1624,1616,1616,1616,1616,1616,1616,1616,1624,1624,1624,1624,1632,1632,1632,1639,1639,1647,1647,1647,1647,1647,1647,1647,1655,1655,1655,1663,1663,1671,1680,1680,1688,1688,1688,1688,1696,1696,1696,1696,1696,1705,1705,1705,1713,1713,1722,1722,1731,1731,1731,1739,1739,1739,1748,1757,1757,1757,1757,1757,1766,1766,1766,1776,1776,1766,1766,1766,1776,0,0,0,0,1087,1084,1084,1080,1080,1077,1077,1077,1073,1073,1073,1073,1073,1073,1073,1073,1077,1077,1084,1084,1087,1087,1087,1090,1090,1094,1090,1090,1097,0,0,0,0,1843,1843,1843,1843,1833,1833,1833,1823,1823,1823,1813,1813,1804,1804,1804,1804,1794,1794,1794,1794,1794,1794,1785,1785,1776,1776,1766,1766,1757,1757,1757,1757,1757,1748,1748,1739,1739,1739,1731,1731,1731,1722,1722,1722,1722,1722,1713,1705,1705,1705,1696,1696,1688,1688,1688,1688,1688,1688,1680,1680,1671,1671,1663,1663,1663,1655,1655,1647,1647,1647,1639,1639,1632,1632,0,0,0,0,0,0,0,0,0,896,896,894,894,894,894,894,891,889,889,887,885,885,885,885,885,885,885,887,887,889,894,894,896,898,901,903,903,903,906,906,0,0,0,0,1516,1516,1516,1516,1516,1516,1516,1516,1509,1509,1503,1503,1496,1496,1496,1496,1496,1489,1489,1483,1483,1483,1477,1477,1470,1470,1470,1470,1470,1464,1464,1458,1452,1452,1452,1452,1452,1452,1445,1445,1445,1439,1439,1439,1427,1427,1421,1421,1421,1415,1415,1415,1415,1415,1410,1410,1410,1404,1404,1398,1398,1398,1398,1392,1392,1387,1387,1381,1381,1376,1376,1376,1376,1376,1370,1370,1370,1365,1365,1365,1359,1359,1359,1354,1349,1349,1349,1349,1349,1343,1343,1338,1338,1333,1333,1333,1328,1328,1328,1328,1328,1328,1328,1322,1322,1317,1312,1312,1312,1312,1312,1307,1307,1307,1307,1302,1302,1297,1297,1292,1292,1288,1288,1288,1283,1283,1283,1278,1278,1273,1273,1273,1273,1268,1268,1268,1268,1264,1264,1259,1259,1255,1255,1255,1255,1250,1250,1250,1245,1245,1245,1241,1241,1236,1236,1236,1236,1232,1232,1232,1227,1227,1223,1219,1219,1219,1219,1219,1214,1214,1214,1214,1214,1214,1210,1210,1206,1202,1202,1202,1197,1197,1197,1197,1193,1193,1193,1189,1189,1185,1185,1185,1181,1181,1181,1181,1177,1177,1173,1173,1169,1169,1165,1165,1165,1165,1165,1161,1161,1161,1157,1153,1153,1153,1153,1149,1149,1149,1145,1145,1145,1141,1141,1138,1138,1138,1134,1134,1134,1134,1130,1130,1126,1126,1123,1123,1123,1119,1119,1119,1119,1119,1119,1115,1115,1115,1112,1108,1108,1108,1108,1105,1105,1105,1105,1101,1101,1097,1094,1094,1094,1094,1090,1090,1090,1090,1087,1087,1087,1084,1084,1080,1080,1080,1080,1080,1077,1077,1077,1077,1073,1073,1070,1070,1067,1067,1067,1067,1063,1063,1063,1063,1063,1060,1060,1057,1057,1054,1054,1054,1054,0,0,0,0,0,0,0,0,0,0,0,0,0,0,0,0,0,0,0,0,0,0,0,0,0,0,0,0,0,0,0
0,0,0,0,0,0,0,0,0,0,0,0,1609,1609,1609,1601,1601,1601,1601,1601,1601,1601,1601,1601,1601,1601,1601,1601,1601,1601,1601,1601,1601,1609,1601,1601,1601,1601,1601,1601,1601,1601,1601,1601,1601,1601,1601,1601,1601,1601,1594,1594,1594,1601,1601,1609,1609,1616,1616,1624,1624,1632,1926,1926,1936,1936,1926,1926,1915,1915,1915,1915,1915,1915,1915,1915,1915,1915,1632,1632,1624,1624,1624,1624,1624,1624,1616,1616,1616,1616,1616,1616,1624,1624,1624,1624,1632,1632,1639,1639,1639,1639,1639,1639,1639,1647,1647,1647,1655,1655,1655,1663,1663,1671,1671,1680,1688,1688,1688,1696,1696,1696,1705,1705,1705,1705,1705,1705,1713,1722,1722,1722,1731,1731,1731,1739,1739,1739,1748,1757,1757,1757,1757,1757,1766,1766,1766,1776,1776,1766,1766,1776,1776,0,0,0,0,1087,1084,1084,1084,1080,1080,1077,1077,1073,1073,1073,1073,1073,1073,1073,1073,1077,1077,1084,1084,1087,1087,1087,1090,1090,1094,1090,1090,1097,0,0,0,0,1843,1843,1843,1843,1833,1833,1833,1823,1823,1823,1813,1813,1804,1804,1804,1804,1794,1794,1794,1794,1794,1794,1785,1785,1776,1776,1766,1766,1766,1757,1757,1757,1757,1757,1748,1748,1739,1739,1731,1731,1731,1722,1722,1722,1722,1722,1713,1705,1705,1705,1696,1696,1688,1688,1688,1688,1688,1688,1688,1680,1671,1671,1663,1663,1663,1655,1655,1655,1647,1647,1647,1639,1632,1632,0,0,0,0,0,0,0,0,0,0,894,894,894,894,894,894,891,889,889,887,887,885,885,885,885,885,887,887,889,891,894,896,896,898,901,903,903,903,903,0,0,0,0,0,1516,1516,1516,1516,1516,1516,1516,1516,1509,1509,1509,1503,1503,1496,1496,1496,1496,1489,1489,1489,1483,1483,1483,1477,1470,1470,1470,1470,1470,1464,1464,1458,1458,1452,1452,1452,1452,1452,1445,1445,1445,1439,1439,1439,1433,1427,1427,1421,1421,1421,1415,1415,1415,1415,1415,1410,1410,1410,1404,1398,1398,1398,1398,1392,1392,1387,1387,1381,1381,1376,1376,1376,1376,1376,1370,1370,1370,1370,1365,1365,1359,1359,1359,1354,1354,1349,1349,1349,1349,1349,1343,1343,1338,1338,1333,1333,1333,1333,1333,1328,1328,1328,1328,1322,1322,1317,1312,1312,1312,1312,1312,1307,1307,1307,1307,1307,1302,1297,1297,1292,1292,1292,1288,1288,1288,1283,1283,1283,1278,1278,1273,1273,1273,1273,1268,1268,1268,1268,1264,1259,1259,1255,1255,1255,1255,1250,1250,1250,1250,1245,1245,1241,1241,1236,1236,1236,1236,1232,1232,1232,1227,1227,1223,1223,1219,1219,1219,1219,1219,1219,1214,1214,1214,1214,1214,1210,1206,1206,1202,1202,1202,1197,1197,1197,1193,1193,1193,1189,1189,1185,1185,1185,1185,1181,1181,1181,1181,1177,1177,1173,1169,1169,1165,1165,1165,1165,1165,1165,1165,1161,1161,1157,1153,1153,1153,1149,1149,1149,1145,1145,1145,1141,1141,1138,1138,1138,1134,1134,1134,1134,1130,1130,1126,1126,1123,1123,1123,1119,1119,1119,1119,1119,1119,1115,1115,1115,1112,1112,1112,1108,1108,1105,1105,1105,1105,1101,1101,1097,1097,1097,1094,1094,1094,1090,1090,1090,1087,1087,1087,1087,1087,1084,1084,1080,1080,1080,1077,1077,1077,1077,1073,1073,1070,1070,1070,1070,1067,1067,1067,1063,1063,1063,1063,1063,1060,1060,1057,1057,1054,1054,1054,0,0,0,0,0,0,0,0,0,0,0,0,0,0,0,0,0,0,0,0,0,0,0,0,0,0,0,0,0,0,0
0,0,0,0,0,0,0,0,0,0,0,0,1609,1609,1601,1601,1601,1601,1601,1601,1601,1601,1601,1601,1601,1601,1601,1601,1601,1601,1601,1601,1601,1609,1609,1601,1601,1609,1601,1601,1601,1601,1601,1601,1601,1601,1601,1601,1601,1601,1601,1601,1601,1601,1601,1609,1616,1616,1624,1624,1624,1915,1915,1915,1926,1926,1926,1915,1915,1915,1915,1915,1915,1904,1904,1915,1915,1915,1915,1632,1624,1624,1624,1624,1624,1624,1616,1616,1616,1616,1616,1616,1616,1624,1624,1624,1632,1632,1639,1639,1639,1639,1639,1639,1639,1647,1647,1647,1655,1655,1655,1663,1671,1671,1671,1680,1688,1688,1688,1696,1696,1696,1705,1705,1705,1705,1705,1705,1713,1722,1722,1722,1731,1731,1731,1731,1739,1739,1739,1757,1757,1757,1757,1757,1766,1766,1766,1776,1776,1776,1776,1776,1776,1776,0,0,0,1087,1084,1084,1084,1080,1080,1077,1077,1073,1073,1073,1073,1073,1073,1073,1073,1077,1077,1080,1084,1087,1087,1090,1090,1090,1094,1090,1090,1097,0,0,0,1843,1843,1843,1843,1843,1843,1833,1833,1823,1823,1823,1813,1813,1804,1804,1804,1804,1794,1794,1794,1794,1794,1794,1785,1785,1776,1776,1766,1766,1766,1766,1757,1757,1757,1757,1757,1748,1739,1739,1731,1731,1731,1731,1722,1722,1722,1722,1713,1713,1705,1705,1696,1696,1688,1688,1688,1688,1688,1688,1688,1680,1671,1671,1663,1663,1663,1663,1655,1655,1655,1647,1647,1639,1632,1632,0,0,0,0,0,0,0,0,0,0,894,894,894,894,894,891,891,889,889,887,887,887,885,885,885,885,887,887,889,891,894,896,898,901,901,903,903,903,903,0,0,0,0,0,1516,1516,1516,1516,1516,1516,1516,1516,1509,1509,1509,1503,1503,1496,1496,1496,1496,1489,1489,1489,1489,1483,1483,1477,1470,1470,1470,1470,1470,1470,1464,1464,1458,1458,1458,1458,1452,1452,1452,1445,1445,1445,1439,1439,1433,1427,1427,1421,1421,1421,1421,1415,1415,1415,1415,1410,1410,1404,1404,1398,1398,1398,1398,1392,1392,1387,1387,1387,1381,1376,1376,1376,1376,1376,1376,1370,1370,1370,1365,1365,1365,1359,1354,1354,1354,1349,1349,1349,1349,1349,1349,1343,1343,1338,1333,1333,1333,1333,1333,1328,1328,1328,1328,1328,1322,1317,1317,1312,1312,1312,1312,1307,1307,1307,1307,1307,1302,1302,1297,1292,1292,1292,1288,1288,1288,1288,1288,1283,1278,1278,1278,1273,1273,1273,1273,1268,1268,1268,1264,1259,1259,1255,1255,1255,1255,1250,1250,1250,1250,1245,1245,1241,1241,1236,1236,1236,1236,1232,1232,1232,1232,1227,1227,1223,1219,1219,1219,1219,1219,1219,1214,1214,1214,1214,1214,1210,1206,1206,1202,1202,1202,1197,1197,1197,1197,1193,1193,1189,1189,1185,1185,1185,1185,1181,1181,1181,1181,1181,1177,1173,1169,1169,1169,1165,1165,1165,1165,1165,1165,1165,1161,1157,1157,1153,1153,1153,1149,1149,1145,1145,1145,1141,1141,1138,1138,1138,1134,1134,1134,1134,1134,1130,1130,1126,1123,1123,1123,1123,1119,1119,1119,1119,1119,1119,1119,1115,1115,1112,1112,1112,1108,1108,1105,1105,1105,1105,1101,1101,1097,1097,1097,1094,1094,1094,1090,1090,1090,1090,1090,1087,1087,1084,1084,1084,1080,1080,1080,1077,1077,1077,1077,1073,1073,1070,1070,1070,1067,1067,1067,1063,1063,1063,1063,1063,1060,1060,1057,1057,1057,1054,1054,0,0,0,0,0,0,0,0,0,0,0,0,0,0,0,0,0,0,0,0,0,0,0,0,0,0,0,0,0,0,0
0,0,0,0,0,0,0,0,0,0,0,0,1609,1609,1601,1601,1601,1601,1601,1601,1609,1609,1601,1601,1601,1601,1601,1601,1601,1601,1601,1609,1609,1609,1609,1601,1601,1601,1601,1601,1601,1601,1601,1601,1601,1601,1601,1601,1601,1601,1601,1601,1601,1601,1609,1616,1616,1616,1624,1624,1624,1624,1894,1894,1894,1904,1904,1904,1904,1904,1904,1904,1904,1873,1873,1904,1904,1904,1904,1915,1915,1624,1624,1624,1624,1624,1616,1616,1616,1616,1616,1616,1616,1624,1624,1624,1632,1632,1639,1647,1647,1647,1647,1647,1647,1647,1647,1655,1655,1655,1663,1663,1671,1671,1680,1680,1688,1688,1688,1696,1696,1696,1705,1705,1705,1705,1705,1713,1722,1722,1722,1722,1731,1731,1731,1731,1731,1739,1739,1748,1757,1757,1757,1757,1766,1766,1776,1776,1776,1766,1766,1766,1766,1766,0,0,0,1084,1080,1080,1084,1084,1080,1077,1077,1073,1073,1073,1073,1073,1073,1073,1073,1077,1077,1080,1084,1087,1087,1090,1090,1090,1094,1090,1090,0,0,0,0,1843,1843,1843,1843,1843,1843,1833,1833,1833,1823,1823,1813,1813,1804,1804,1804,1804,1794,1794,1794,1794,1794,1794,1794,1785,1776,1776,1776,1766,1766,1766,1766,1757,1757,1757,1757,1748,1748,1739,1731,1731,1731,1731,1731,1731,1722,1722,1713,1713,1705,1705,1696,1696,1696,1688,1688,1688,1688,1688,1688,1680,1671,1671,1663,1663,1663,1663,1655,1655,1655,1647,1647,1639,1639,0,0,0,0,0,0,0,0,0,0,0,896,896,896,894,894,891,891,889,889,887,887,887,887,887,887,887,887,887,889,891,894,896,898,901,901,903,903,903,906,0,0,0,0,0,1516,1516,1516,1516,1516,1516,1516,1516,1516,1509,1509,1503,1503,1496,1496,1496,1496,1489,1489,1489,1489,1483,1483,1483,1477,1470,1470,1470,1470,1470,1464,1464,1464,1458,1458,1458,1452,1452,1452,1445,1445,1445,1439,1439,1433,1433,1427,1427,1421,1421,1421,1421,1421,1415,1415,1415,1410,1404,1404,1398,1398,1398,1398,1392,1392,1392,1387,1387,1381,1381,1381,1376,1376,1376,1376,1370,1370,1370,1365,1365,1365,1359,1354,1354,1354,1354,1349,1349,1349,1349,1349,1343,1343,1338,1338,1333,1333,1333,1333,1333,1328,1328,1328,1328,1322,1317,1317,1312,1312,1312,1312,1307,1307,1307,1307,1307,1302,1302,1297,1297,1292,1292,1288,1288,1288,1288,1288,1288,1283,1283,1278,1278,1273,1273,1273,1273,1268,1268,1264,1259,1259,1255,1255,1255,1255,1255,1250,1250,1250,1245,1245,1245,1241,1241,1236,1236,1236,1236,1232,1232,1232,1232,1227,1223,1223,1219,1219,1219,1219,1219,1214,1214,1214,1214,1214,1210,1210,1206,1202,1202,1202,1197,1197,1197,1197,1193,1193,1193,1189,1189,1185,1185,1185,1185,1181,1181,1181,1181,1181,1177,1173,1169,1169,1169,1169,1165,1165,1165,1165,1165,1161,1157,1157,1153,1153,1153,1149,1149,1145,1145,1145,1145,1141,1141,1138,1138,1138,1138,1134,1134,1134,1130,1130,1130,1126,1123,1123,1123,1119,1119,1119,1119,1119,1119,1119,1115,1115,1115,1112,1112,1112,1108,1105,1105,1105,1105,1101,1101,1101,1101,1097,1097,1097,1094,1094,1090,1090,1090,1090,1087,1087,1084,1084,1084,1080,1080,1080,1077,1077,1077,1077,1077,1073,1073,1073,1070,1070,1067,1067,1067,1063,1063,1063,1063,1063,1060,1057,1057,1057,1054,1054,0,0,0,0,0,0,0,0,0,0,0,0,0,0,0,0,0,0,0,0,0,0,0,0,0,0,0,0,0,0,0
0,0,0,0,0,0,0,0,0,0,0,0,1609,1609,1601,1601,1601,1601,1601,1601,1609,1609,1609,1609,1609,1601,1601,1601,1601,1601,1609,1609,1609,1609,1609,1601,1601,1601,1601,1601,1601,1601,1601,1601,1601,1601,1601,1601,1601,1601,1601,1601,1601,1601,1601,1609,1616,1616,1624,1624,1624,1624,1883,1883,1883,1894,1894,1894,1894,1894,1894,1894,1883,1863,1863,1873,1873,1873,1894,1904,1904,1785,1624,1624,1624,1624,1616,1616,1616,1616,1616,1616,1624,1624,1624,1632,1632,1639,1639,1647,1647,1647,1647,1647,1647,1647,1647,1655,1655,1663,1663,1663,1671,1671,1680,1680,1688,1688,1696,1696,1696,1705,1705,1705,1705,1705,1705,1713,1722,1722,1722,1722,1731,1731,1731,1731,1731,1739,1739,1748,1757,1757,1757,1757,1766,1766,1766,1776,1776,1766,1766,1766,1766,1766,0,0,0,1077,1077,1077,1080,1080,1080,1077,1077,1077,1073,1073,1073,1073,1073,1073,1077,1077,1077,1080,1084,1087,1087,1090,1090,1090,1090,1090,1090,1090,0,0,0,1853,1843,1843,1843,1843,1843,1843,1833,1833,1823,1823,1813,1813,1804,1804,1804,1804,1804,1794,1794,1794,1794,1794,1794,1794,1785,1785,1776,1766,1766,1766,1766,1757,1757,1757,1757,1757,1748,1739,1739,1731,1731,1731,1731,1731,1722,1722,1722,1713,1705,1705,1696,1696,1696,1688,1688,1688,1688,1688,1688,1680,1680,1671,1671,1663,1663,1663,1663,1655,1655,1655,1647,1647,1647,1647,0,0,0,0,0,0,0,0,0,0,896,896,896,894,894,891,891,889,889,887,887,887,887,887,887,887,887,887,889,891,894,896,898,901,901,903,906,906,906,0,0,0,0,0,1516,1516,1516,1516,1516,1516,1516,1516,1516,1509,1509,1503,1503,1496,1496,1496,1496,1489,1489,1489,1489,1483,1483,1483,1477,1477,1470,1470,1470,1470,1464,1464,1464,1458,1458,1458,1458,1452,1452,1445,1445,1445,1439,1439,1433,1433,1427,1427,1427,1421,1421,1421,1421,1415,1415,1415,1410,1410,1404,1398,1398,1398,1398,1392,1392,1392,1387,1387,1381,1381,1381,1381,1376,1376,1376,1370,1370,1370,1370,1365,1365,1365,1359,1354,1354,1354,1354,1354,1349,1349,1349,1349,1349,1343,1338,1338,1338,1333,1333,1333,1328,1328,1328,1328,1322,1322,1317,1312,1312,1312,1312,1312,1307,1307,1307,1307,1307,1302,1297,1297,1297,1292,1292,1292,1288,1288,1288,1288,1283,1283,1278,1278,1273,1273,1273,1273,1268,1268,1268,1264,1259,1259,1255,1255,1255,1255,1250,1250,1250,1245,1245,1245,1241,1241,1241,1236,1236,1236,1232,1232,1232,1232,1227,1223,1223,1223,1223,1219,1219,1219,1214,1214,1214,1214,1214,1210,1210,1206,1202,1202,1202,1197,1197,1197,1197,1197,1197,1193,1193,1189,1189,1185,1185,1185,1185,1185,1181,1181,1181,1177,1177,1169,1169,1169,1169,1165,1165,1165,1165,1165,1161,1157,1157,1157,1153,1153,1149,1149,1149,1145,1145,1145,1141,1141,1138,1138,1138,1138,1138,1134,1134,1134,1130,1130,1130,1123,1123,1123,1123,1119,1119,1119,1119,1119,1119,1119,1115,1115,1115,1112,1112,1108,1105,1105,1105,1105,1101,1101,1101,1101,1097,1097,1097,1094,1094,1094,1090,1090,1090,1090,1087,1087,1084,1084,1080,1080,1080,1077,1077,1077,1077,1077,1077,1073,1073,1073,1073,1067,1067,1067,1067,1063,1063,1063,1063,1060,1060,1060,1057,1057,1057,0,0,0,0,0,0,0,0,0,0,0,0,0,0,0,0,0,0,0,0,0,0,0,0,0,0,0,0,0,0,0
0,0,0,0,0,0,0,0,0,0,0,0,1609,1609,1601,1601,1601,1601,1601,1601,1609,1609,1609,1609,1609,1601,1601,1601,1601,1609,1609,1609,1609,1609,1609,1609,1609,1601,1601,1601,1601,1601,1601,1601,1601,1601,1601,1601,1601,1601,1601,1601,1601,1601,1601,1609,1616,1624,1624,1624,1624,1624,1873,1873,1873,1883,1883,1883,1883,1883,1883,1883,1883,1863,1863,1873,1853,1843,1843,1904,1843,1785,1785,1624,1616,1616,1624,1624,1624,1616,1616,1624,1624,1624,1624,1632,1632,1632,1639,1647,1647,1647,1647,1647,1647,1655,1655,1655,1655,1663,1663,1663,1671,1671,1680,1680,1688,1688,1696,1696,1696,1705,1705,1705,1705,1705,1713,1713,1722,1722,1722,1722,1731,1731,1731,1731,1731,1739,1748,1748,1757,1757,1757,1757,1766,1766,1766,1776,1776,1766,1766,1766,1766,1766,0,0,0,1077,1077,1077,1080,1080,1080,1077,1077,1077,1073,1073,1073,1073,1073,1077,1077,1077,1080,1080,1084,1087,1087,1090,1090,1090,1090,1090,1090,0,0,0,0,1853,1853,1853,1853,1843,1843,1843,1833,1833,1833,1823,1823,1813,1804,1804,1804,1804,1804,1804,1794,1794,1794,1794,1794,1794,1794,1785,1776,1776,1766,1766,1766,1766,1757,1757,1757,1757,1748,1739,1739,1731,1731,1731,1731,1731,1731,1722,1722,1722,1713,1713,1705,1696,1696,1696,1696,1688,1688,1688,1688,1680,1680,1671,1671,1671,1663,1663,1663,1655,1655,1655,1655,1647,1647,1647,0,0,0,0,0,0,0,0,0,0,896,896,896,894,894,891,891,889,889,887,887,887,887,887,887,887,887,887,889,891,894,896,898,901,903,903,906,906,906,0,0,0,0,0,1516,1516,1516,1516,1516,1516,1523,1516,1516,1516,1509,1503,1503,1503,1496,1496,1496,1489,1489,1489,1489,1483,1483,1483,1477,1477,1477,1470,1470,1470,1464,1464,1464,1458,1458,1458,1452,1452,1452,1445,1445,1445,1439,1439,1433,1433,1427,1427,1427,1421,1421,1421,1421,1415,1415,1415,1410,1410,1404,1398,1398,1398,1398,1392,1392,1392,1387,1387,1381,1381,1381,1381,1376,1376,1376,1370,1370,1370,1370,1365,1365,1365,1365,1354,1354,1354,1354,1354,1349,1349,1349,1349,1349,1343,1343,1338,1338,1333,1333,1333,1333,1328,1328,1328,1322,1322,1317,1312,1312,1312,1312,1312,1312,1307,1307,1307,1307,1302,1302,1297,1297,1292,1292,1292,1292,1288,1288,1288,1283,1283,1278,1278,1273,1273,1273,1273,1268,1268,1268,1264,1264,1259,1259,1255,1255,1255,1255,1250,1250,1250,1245,1245,1245,1245,1241,1236,1236,1236,1232,1232,1232,1232,1227,1227,1227,1223,1223,1223,1219,1219,1219,1214,1214,1214,1214,1210,1210,1206,1202,1202,1202,1197,1197,1197,1197,1197,1197,1197,1193,1189,1189,1185,1185,1185,1185,1185,1181,1181,1181,1181,1177,1173,1169,1169,1169,1169,1165,1165,1165,1165,1161,1161,1157,1157,1153,1153,1149,1149,1149,1149,1145,1145,1145,1141,1141,1138,1138,1138,1138,1134,1134,1134,1134,1134,1130,1130,1123,1123,1123,1119,1119,1119,1119,1119,1119,1119,1115,1115,1115,1112,1112,1108,1108,1105,1105,1105,1105,1101,1101,1101,1101,1097,1097,1097,1094,1094,1094,1090,1090,1090,1087,1087,1084,1084,1084,1080,1080,1080,1077,1077,1077,1077,1077,1073,1073,1073,1073,1067,1067,1067,1067,1063,1063,1063,1063,1063,1060,1060,1057,1057,1057,0,0,0,0,0,0,0,0,0,0,0,0,0,0,0,0,0,0,0,0,0,0,0,0,0,0,0,0,0,0,0
0,0,0,0,0,0,0,0,0,0,0,0,1609,1609,1601,1601,1601,1601,1601,1601,1609,1609,1609,1609,1609,1609,1609,1601,1601,1609,1609,1609,1609,1609,1609,1609,1609,1601,1601,1601,1601,1609,1609,1601,1601,1601,1609,1609,1601,1601,1601,1601,1601,1601,1609,1616,1616,1624,1624,1624,1624,1624,1863,1863,1863,1873,1873,1873,1883,1873,1873,1873,1863,1853,1853,1843,1843,1843,1843,1843,1833,1776,1766,1766,1616,1616,1624,1624,1624,1624,1624,1624,1624,1624,1624,1632,1632,1632,1639,1639,1639,1647,1647,1647,1655,1655,1655,1655,1663,1663,1663,1671,1671,1680,1680,1680,1688,1688,1696,1696,1705,1705,1705,1705,1713,1713,1713,1713,1722,1722,1722,1722,1731,1731,1731,1731,1731,1739,1748,1748,1748,1757,1757,1757,1757,1766,1766,1776,1776,1776,1776,1776,1776,1776,0,0,0,1084,1077,1077,1084,1084,1080,1080,1077,1077,1077,1073,1073,1077,1077,1077,1077,1077,1080,1080,1084,1087,1090,1090,1090,1090,1094,1090,1090,1090,0,0,0,1853,1853,1853,1853,1843,1843,1843,1833,1833,1833,1823,1823,1813,1813,1804,1804,1804,1804,1804,1804,1804,1794,1794,1794,1794,1794,1785,1776,1776,1766,1766,1766,1766,1766,1757,1757,1757,1748,1739,1739,1731,1731,1731,1731,1731,1731,1722,1722,1722,1713,1713,1713,1696,1696,1696,1696,1696,1688,1688,1688,1688,1680,1680,1671,1671,1671,1663,1663,1663,1655,1655,1655,1655,1655,1655,0,0,0,0,0,0,0,0,0,0,896,896,896,894,894,891,891,889,889,887,887,887,887,887,887,887,887,889,891,894,896,896,898,901,903,903,906,906,908,0,0,0,0,0,1516,1516,1516,1516,1516,1516,1523,1516,1516,1516,1509,1503,1503,1503,1496,1496,1496,1496,1489,1489,1489,1489,1489,1483,1483,1477,1477,1477,1477,1470,1464,1464,1464,1458,1458,1458,1452,1452,1445,1445,1445,1445,1439,1439,1433,1433,1427,1427,1427,1427,1421,1421,1421,1421,1415,1415,1410,1410,1404,1404,1398,1398,1398,1392,1392,1392,1392,1387,1381,1381,1381,1381,1376,1376,1376,1370,1370,1370,1370,1365,1365,1365,1365,1359,1354,1354,1354,1354,1349,1349,1349,1349,1349,1343,1343,1338,1338,1338,1333,1333,1333,1328,1328,1328,1322,1322,1317,1317,1312,1312,1312,1312,1312,1307,1307,1307,1307,1302,1302,1297,1297,1297,1292,1292,1292,1292,1288,1288,1283,1283,1283,1278,1278,1273,1273,1273,1273,1268,1268,1268,1264,1264,1259,1259,1255,1255,1255,1255,1250,1250,1250,1245,1245,1245,1245,1241,1236,1236,1236,1232,1232,1232,1232,1227,1227,1227,1227,1223,1223,1219,1219,1214,1214,1214,1214,1210,1210,1206,1206,1202,1202,1202,1202,1197,1197,1197,1197,1197,1197,1189,1189,1185,1185,1185,1185,1185,1181,1181,1181,1181,1181,1177,1169,1169,1169,1169,1165,1165,1165,1165,1165,1161,1157,1157,1153,1153,1153,1149,1149,1149,1149,1149,1145,1145,1141,1141,1138,1138,1138,1138,1134,1134,1134,1134,1130,1130,1126,1123,1123,1123,1123,1123,1119,1119,1119,1119,1115,1115,1115,1112,1112,1108,1108,1105,1105,1105,1105,1101,1101,1101,1101,1101,1101,1097,1097,1094,1094,1094,1090,1090,1090,1087,1087,1084,1084,1084,1080,1080,1077,1077,1077,1077,1077,1077,1073,1073,1073,1067,1067,1067,1067,1067,1063,1063,1063,1063,1060,1060,1060,1057,1057,0,0,0,0,0,0,0,0,0,0,0,0,0,0,0,0,0,0,0,0,0,0,0,0,0,0,0,0,0,0,0
0,0,0,0,0,0,0,0,0,0,0,0,1609,1609,1601,1601,1601,1601,1601,1601,1616,1609,1609,1609,1609,1609,1609,1601,1601,1609,1609,1609,1609,1609,1609,1601,1601,1601,1601,1609,1609,1609,1609,1609,1609,1609,1609,1609,1601,1601,1601,1609,1601,1601,1609,1616,1616,1624,1624,1624,1624,1624,1632,1853,1853,1863,1863,1863,1863,1873,1863,1863,1853,1843,1843,1843,1843,1833,1833,1804,1776,1766,1757,1739,1624,1624,1624,1624,1624,1624,1624,1624,1624,1624,1624,1632,1632,1632,1639,1639,1639,1647,1647,1647,1655,1655,1655,1663,1663,1663,1663,1671,1671,1680,1680,1680,1688,1688,1696,1696,1696,1705,1713,1713,1713,1722,1722,1722,1722,1722,1722,1722,1731,1731,1731,1731,1731,1731,1739,1748,1748,1757,1757,1757,1757,1766,1776,1776,1776,1776,1776,1776,1776,1776,0,0,0,1084,1084,1084,1084,1087,1080,1080,1077,1077,1077,1077,1077,1077,1077,1077,1077,1080,1080,1080,1084,1087,1090,1090,1090,1090,1094,1090,1090,0,0,0,0,1853,1853,1853,1853,1853,1843,1843,1833,1833,1833,1823,1813,1813,1813,1804,1804,1804,1804,1804,1804,1804,1804,1804,1794,1794,1794,1785,1776,1766,1766,1766,1766,1766,1766,1766,1757,1757,1748,1748,1739,1731,1731,1731,1731,1731,1731,1722,1722,1722,1722,1713,1713,1705,1696,1696,1696,1696,1696,1688,1688,1688,1680,1680,1680,1671,1671,1663,1663,1663,1663,1655,1655,1655,1655,1655,0,0,0,0,0,0,0,0,0,0,898,898,896,896,894,894,891,891,889,887,887,887,887,887,887,887,887,889,891,894,896,896,898,901,903,903,906,906,908,0,0,0,0,0,1523,1523,1523,1523,1523,1523,1523,1523,1516,1516,1509,1509,1503,1503,1503,1496,1496,1496,1496,1489,1489,1489,1489,1489,1483,1477,1477,1477,1477,1470,1470,1464,1464,1464,1458,1458,1452,1452,1445,1445,1445,1445,1439,1439,1439,1433,1433,1427,1427,1427,1421,1421,1421,1421,1415,1415,1415,1410,1404,1404,1398,1398,1398,1398,1392,1392,1392,1392,1387,1381,1381,1381,1381,1376,1376,1376,1370,1370,1370,1370,1370,1365,1365,1365,1359,1354,1354,1354,1354,1349,1349,1349,1349,1343,1343,1343,1338,1338,1333,1333,1333,1333,1328,1328,1322,1322,1317,1317,1312,1312,1312,1312,1312,1307,1307,1307,1307,1302,1302,1302,1297,1297,1297,1292,1292,1292,1288,1288,1288,1283,1283,1283,1278,1273,1273,1273,1273,1268,1268,1268,1268,1264,1264,1259,1255,1255,1255,1255,1255,1250,1250,1250,1250,1250,1245,1241,1236,1236,1236,1236,1232,1232,1232,1232,1232,1227,1227,1223,1223,1219,1219,1219,1214,1214,1214,1214,1210,1210,1206,1206,1206,1202,1202,1202,1197,1197,1197,1197,1197,1193,1189,1185,1185,1185,1185,1185,1185,1185,1181,1181,1181,1177,1173,1169,1169,1169,1169,1165,1165,1165,1165,1161,1157,1157,1157,1153,1153,1153,1153,1149,1149,1149,1149,1145,1145,1141,1141,1138,1138,1138,1134,1134,1134,1134,1134,1130,1126,1123,1123,1123,1123,1123,1119,1119,1119,1119,1115,1115,1115,1112,1112,1108,1108,1108,1105,1105,1105,1105,1101,1101,1101,1101,1101,1097,1097,1094,1094,1094,1090,1090,1090,1087,1087,1084,1084,1084,1080,1080,1077,1077,1077,1077,1077,1077,1073,1073,1073,1070,1067,1067,1067,1067,1063,1063,1063,1063,1063,1060,1060,1057,1057,0,0,0,0,0,0,0,0,0,0,0,0,0,0,0,0,0,0,0,0,0,0,0,0,0,0,0,0,0,0,0
0,0,0,0,0,0,0,0,0,0,0,0,1609,1609,1609,1609,1609,1609,1601,1601,1616,1616,1609,1609,1609,1609,1609,1609,1609,1616,1616,1609,1609,1609,1609,1601,1601,1601,1601,1609,1609,1609,1609,1609,1609,1609,1609,1609,1601,1601,1601,1609,1609,1609,1609,1616,1616,1616,1616,1624,1624,1624,1624,1843,1843,1853,1853,1853,1843,1843,1843,1843,1843,1843,1843,1843,1843,1833,1833,1794,1776,1757,1748,1731,1731,1624,1624,1624,1624,1624,1624,1624,1624,1624,1632,1632,1632,1639,1639,1647,1647,1647,1647,1655,1655,1655,1655,1663,1663,1663,1663,1671,1671,1680,1680,1680,1688,1688,1696,1696,1696,1705,1705,1713,1722,1722,1722,1722,1722,1722,1722,1722,1731,1731,1731,1731,1731,1731,1739,1748,1748,1757,1757,1757,1766,1766,1776,1776,1776,1776,1776,1776,1776,1776,0,0,0,1087,1084,1084,1084,1084,1080,1080,1077,1077,1077,1077,1077,1077,1077,1077,1077,1080,1080,1080,1084,1087,1090,1090,1094,1094,1097,1097,1097,1097,0,0,0,1853,1853,1853,1853,1853,1843,1843,1843,1833,1833,1823,1813,1813,1813,1813,1813,1804,1804,1804,1804,1804,1804,1804,1794,1794,1794,1785,1776,1766,1766,1766,1766,1766,1766,1766,1757,1757,1748,1748,1739,1739,1731,1731,1731,1731,1731,1731,1722,1722,1722,1722,1713,1713,1705,1696,1696,1696,1696,1688,1688,1688,1688,1688,1680,1680,1671,1671,1663,1663,1663,1663,1655,1655,1655,1663,0,0,0,0,0,0,0,0,0,901,898,898,898,896,896,894,894,891,889,887,887,887,887,887,887,887,887,889,891,894,896,896,898,901,903,903,906,908,910,0,0,0,0,0,0,1529,1523,1523,1523,1523,1523,1523,1523,1516,1516,1509,1503,1503,1503,1503,1496,1496,1496,1496,1489,1489,1489,1489,1483,1477,1477,1477,1477,1470,1464,1464,1464,1464,1458,1458,1452,1452,1452,1445,1445,1445,1439,1439,1439,1433,1433,1427,1427,1427,1427,1421,1421,1421,1421,1415,1415,1410,1410,1404,1404,1398,1398,1398,1392,1392,1392,1392,1392,1387,1387,1387,1381,1376,1376,1376,1376,1370,1370,1370,1370,1365,1365,1365,1359,1354,1354,1354,1354,1349,1349,1349,1349,1343,1343,1343,1338,1338,1333,1333,1333,1333,1328,1328,1328,1322,1317,1317,1312,1312,1312,1312,1312,1312,1307,1307,1307,1307,1302,1302,1302,1297,1297,1297,1292,1292,1288,1288,1288,1283,1283,1283,1278,1278,1273,1273,1273,1273,1273,1268,1268,1268,1264,1264,1259,1259,1255,1255,1255,1255,1250,1250,1250,1250,1245,1241,1241,1236,1236,1236,1236,1232,1232,1232,1232,1227,1227,1227,1223,1223,1219,1214,1214,1214,1214,1214,1210,1210,1206,1206,1206,1202,1202,1202,1202,1197,1197,1197,1197,1193,1189,1189,1185,1185,1185,1185,1185,1185,1181,1181,1181,1181,1177,1173,1169,1169,1169,1169,1165,1165,1165,1165,1161,1157,1157,1153,1153,1153,1153,1149,1149,1149,1149,1149,1145,1141,1141,1138,1138,1138,1134,1134,1134,1134,1134,1130,1126,1126,1123,1123,1123,1123,1119,1119,1119,1119,1115,1115,1115,1112,1112,1108,1108,1108,1108,1105,1105,1105,1105,1105,1101,1101,1101,1101,1097,1097,1094,1094,1090,1090,1090,1087,1087,1084,1084,1084,1080,1080,1080,1077,1077,1077,1077,1077,1077,1073,1073,1070,1070,1067,1067,1067,1067,1063,1063,1063,1063,1060,1060,1057,1057,0,0,0,0,0,0,0,0,0,0,0,0,0,0,0,0,0,0,0,0,0,0,0,0,0,0,0,0,0,0,0
0,0,0,0,0,0,0,0,0,0,0,0,1609,1609,1609,1609,1609,1616,1616,1616,1616,1616,1616,1609,1609,1616,1616,1609,1609,1616,1616,1616,1616,1609,1609,1609,1609,1601,1601,1609,1609,1609,1609,1609,1609,1609,1609,1609,1601,1601,1601,1609,1609,1609,1609,1616,1616,1616,1616,1624,1624,1624,1624,1843,1843,1853,1843,1843,1843,1843,1843,1843,1833,1833,1833,1833,1833,1833,1833,1794,1776,1757,1748,1731,1713,1624,1624,1632,1632,1632,1632,1624,1624,1624,1632,1632,1632,1639,1639,1647,1647,1647,1655,1655,1655,1655,1655,1663,1663,1663,1663,1671,1671,1680,1680,1680,1688,1688,1696,1696,1696,1705,1705,1713,1722,1722,1722,1722,1722,1722,1722,1722,1731,1731,1731,1731,1731,1739,1748,1757,1757,1757,1757,1757,1766,1766,1776,1776,1776,1776,1776,1776,1776,1776,0,0,0,1087,1084,1084,1084,1084,1080,1080,1077,1077,1077,1077,1077,1077,1077,1077,1077,1080,1080,1080,1084,1087,1090,1090,1094,1094,1097,1097,1097,1097,0,0,0,0,1863,1863,1853,1853,1853,1843,1843,1843,1833,1833,1823,1813,1813,1813,1813,1813,1813,1804,1804,1804,1804,1804,1794,1794,1794,1794,1785,1776,1766,1766,1766,1766,1766,1766,1757,1757,1757,1748,1739,1739,1739,1731,1731,1731,1731,1731,1731,1722,1722,1722,1713,1713,1705,1696,1696,1696,1696,1688,1688,1688,1688,1688,1680,1680,1680,1671,1663,1663,1663,1663,1663,1663,1663,1663,1663,0,0,0,0,0,0,0,0,901,898,898,898,896,896,894,894,891,889,887,887,887,887,887,887,887,889,889,891,894,896,896,898,901,903,906,908,908,913,0,0,0,0,0,0,1529,1529,1529,1523,1523,1523,1523,1523,1516,1516,1516,1509,1509,1503,1503,1496,1496,1496,1496,1489,1489,1489,1489,1483,1477,1477,1477,1470,1470,1464,1464,1464,1464,1458,1458,1452,1452,1452,1445,1445,1445,1439,1439,1439,1433,1433,1427,1427,1427,1427,1427,1421,1421,1421,1415,1415,1415,1410,1404,1404,1398,1398,1398,1392,1392,1392,1392,1392,1392,1387,1387,1381,1381,1376,1376,1376,1376,1370,1370,1370,1370,1365,1365,1359,1354,1354,1354,1354,1354,1349,1349,1349,1349,1343,1343,1338,1338,1333,1333,1333,1333,1328,1328,1328,1322,1322,1317,1317,1312,1312,1312,1312,1312,1307,1307,1307,1307,1302,1302,1302,1297,1297,1297,1292,1292,1292,1288,1288,1288,1283,1283,1278,1278,1273,1273,1273,1273,1273,1268,1268,1268,1268,1268,1264,1259,1259,1255,1255,1255,1250,1250,1250,1250,1250,1245,1241,1241,1236,1236,1236,1232,1232,1232,1232,1232,1227,1227,1223,1223,1219,1214,1214,1214,1214,1214,1214,1210,1210,1210,1206,1202,1202,1202,1202,1202,1197,1197,1197,1193,1193,1189,1189,1185,1185,1185,1185,1185,1181,1181,1181,1181,1177,1173,1169,1169,1169,1169,1165,1165,1165,1165,1165,1161,1157,1157,1153,1153,1153,1153,1149,1149,1149,1149,1145,1145,1141,1141,1138,1138,1138,1134,1134,1134,1134,1130,1130,1126,1126,1123,1123,1123,1123,1119,1119,1119,1119,1115,1115,1112,1112,1108,1108,1108,1108,1105,1105,1105,1105,1105,1101,1101,1101,1101,1097,1097,1094,1094,1094,1090,1090,1090,1087,1087,1084,1084,1080,1080,1080,1077,1077,1077,1077,1077,1077,1073,1073,1070,1070,1067,1067,1067,1067,1063,1063,1063,1063,1060,1060,1057,1057,0,0,0,0,0,0,0,0,0,0,0,0,0,0,0,0,0,0,0,0,0,0,0,0,0,0,0,0,0,0,0
0,0,0,0,0,0,0,0,0,0,0,0,0,1616,1609,1609,1616,1616,1616,1616,1616,1616,1616,1609,1609,1616,1616,1616,1616,1616,1616,1609,1609,1609,1609,1609,1609,1609,1609,1609,1609,1609,1609,1609,1609,1609,1609,1609,1601,1601,1609,1609,1609,1609,1609,1616,1616,1616,1616,1624,1624,1624,1624,1853,1853,1853,1843,1843,1833,1833,1833,1833,1833,1833,1833,1833,1833,1823,1813,1794,1776,1757,1748,1731,1713,1663,1632,1632,1632,1632,1632,1624,1624,1632,1632,1632,1632,1639,1639,1647,1647,1647,1655,1655,1655,1655,1663,1663,1663,1663,1671,1671,1671,1680,1680,1680,1688,1688,1696,1696,1696,1705,1713,1713,1713,1722,1722,1722,1722,1722,1722,1731,1731,1731,1731,1731,1739,1748,1757,1757,1757,1757,1757,1757,1766,1766,1776,1785,1785,1785,1776,1776,1776,1776,1776,0,1090,1087,1087,1084,1084,1084,1080,1080,1077,1077,1077,1077,1077,1077,1077,1077,1077,1080,1084,1084,1087,1087,1090,1090,1094,1094,1097,1097,1097,1097,0,0,0,0,1863,1863,1863,1853,1853,1853,1843,1843,1833,1833,1823,1823,1823,1823,1813,1813,1813,1813,1804,1804,1804,1804,1794,1794,1794,1794,1785,1776,1776,1766,1766,1766,1766,1766,1757,1757,1757,1748,1748,1739,1739,1739,1731,1731,1731,1731,1731,1722,1722,1722,1722,1713,1705,1696,1696,1696,1696,1696,1688,1688,1688,1688,1688,1680,1680,1671,1663,1663,1663,1663,1663,1663,1663,1663,1663,0,0,0,0,0,0,0,0,901,901,898,898,896,896,894,894,891,889,887,887,887,887,887,887,887,889,889,891,894,896,898,898,901,903,906,908,910,913,0,0,0,0,0,0,1536,1529,1529,1523,1523,1523,1523,1523,1516,1516,1516,1516,1509,1509,1503,1503,1496,1496,1496,1489,1489,1489,1489,1483,1483,1477,1477,1470,1470,1470,1464,1464,1464,1464,1458,1458,1452,1452,1445,1445,1445,1439,1439,1439,1433,1433,1433,1427,1427,1427,1427,1421,1421,1421,1421,1415,1415,1415,1410,1404,1404,1398,1398,1398,1392,1392,1392,1392,1392,1387,1387,1387,1381,1381,1376,1376,1376,1370,1370,1370,1370,1370,1370,1365,1359,1359,1354,1354,1354,1349,1349,1349,1349,1343,1343,1343,1338,1338,1333,1333,1333,1328,1328,1328,1322,1322,1322,1317,1317,1317,1312,1312,1312,1307,1307,1307,1307,1302,1302,1302,1297,1297,1297,1292,1292,1292,1288,1288,1288,1283,1283,1278,1278,1273,1273,1273,1273,1273,1268,1268,1268,1268,1268,1268,1264,1264,1259,1259,1255,1255,1250,1250,1250,1250,1245,1245,1241,1241,1236,1236,1236,1232,1232,1232,1232,1227,1227,1223,1223,1219,1219,1214,1214,1214,1214,1214,1214,1210,1210,1210,1206,1206,1202,1202,1202,1202,1197,1197,1193,1193,1189,1189,1185,1185,1185,1185,1185,1185,1181,1181,1181,1181,1173,1173,1169,1169,1169,1169,1165,1165,1165,1165,1165,1161,1161,1157,1157,1153,1153,1153,1149,1149,1149,1149,1145,1141,1141,1138,1138,1138,1134,1134,1134,1134,1134,1130,1126,1126,1126,1123,1123,1123,1123,1119,1119,1119,1115,1115,1112,1112,1108,1108,1108,1108,1105,1105,1105,1105,1105,1101,1101,1101,1101,1097,1097,1094,1094,1094,1090,1090,1090,1090,1087,1087,1084,1084,1080,1080,1080,1080,1077,1077,1077,1077,1073,1073,1073,1070,1067,1067,1067,1067,1063,1063,1063,1063,1060,1060,1057,1057,0,0,0,0,0,0,0,0,0,0,0,0,0,0,0,0,0,0,0,0,0,0,0,0,0,0,0,0,0,0,0
0,0,0,0,0,0,0,0,0,0,0,0,0,1616,1616,1616,1616,1616,1616,1616,1616,1616,1616,1616,1616,1616,1616,1616,1616,1616,1616,1609,1609,1609,1609,1609,1609,1609,1609,1609,1616,1609,1609,1609,1609,1609,1609,1609,1601,1601,1609,1609,1609,1609,1609,1616,1616,1624,1624,1624,1632,1632,1632,1632,1853,1853,1843,1833,1833,1833,1823,1823,1823,1823,1823,1823,1823,1813,1794,1776,1766,1757,1748,1731,1722,1705,1639,1639,1632,1632,1632,1632,1632,1632,1632,1632,1632,1639,1639,1647,1647,1647,1655,1655,1655,1655,1663,1663,1663,1671,1671,1671,1671,1680,1680,1680,1688,1688,1696,1696,1696,1705,1705,1713,1713,1722,1722,1722,1722,1722,1722,1731,1731,1731,1739,1739,1748,1757,1757,1757,1757,1757,1757,1757,1766,1766,1776,1785,1785,1785,1776,1776,0,1776,0,0,0,1090,1087,1087,1087,1084,1080,1080,1077,1077,1077,1077,1077,1077,1077,1077,1077,1080,1084,1084,1087,1087,1090,1090,1094,1094,1097,1101,1101,1101,0,0,0,0,1863,1863,1863,1853,1853,1853,1843,1843,1833,1833,1833,1823,1823,1823,1823,1823,1813,1813,1813,1813,1804,1804,1804,1794,1794,1794,1794,1785,1776,1776,1766,1766,1766,1766,1757,1757,1757,1748,1748,1739,1739,1739,1731,1731,1731,1731,1731,1722,1722,1722,1722,1713,1705,1705,1696,1696,1696,1696,1688,1688,1688,1688,1688,1688,1680,1671,1663,1663,1663,1663,1663,1663,1663,1663,1663,0,0,0,0,0,0,0,903,901,901,898,898,896,896,894,894,891,889,889,887,887,887,887,887,887,889,891,894,896,896,898,901,903,906,906,908,910,915,0,0,0,0,0,1536,1536,1529,1529,1523,1523,1523,1523,1523,1516,1516,1516,1516,1516,1509,1509,1503,1503,1496,1496,1496,1496,1489,1489,1489,1483,1477,1477,1470,1470,1470,1470,1464,1464,1464,1458,1458,1452,1452,1445,1445,1445,1439,1439,1439,1439,1433,1433,1433,1427,1427,1427,1421,1421,1421,1421,1415,1415,1415,1410,1410,1404,1398,1398,1398,1398,1392,1392,1392,1392,1392,1392,1387,1387,1381,1376,1376,1376,1370,1370,1370,1370,1370,1370,1365,1359,1359,1354,1354,1354,1354,1349,1349,1349,1349,1349,1343,1343,1338,1333,1333,1333,1328,1328,1328,1322,1322,1322,1317,1317,1317,1312,1312,1312,1312,1307,1307,1307,1302,1302,1302,1302,1297,1297,1297,1292,1292,1288,1288,1288,1288,1283,1283,1278,1278,1273,1273,1273,1273,1268,1268,1268,1268,1268,1268,1268,1264,1264,1259,1255,1255,1255,1255,1250,1250,1250,1245,1245,1241,1236,1236,1236,1236,1236,1232,1232,1232,1227,1227,1223,1219,1219,1214,1214,1214,1214,1214,1214,1210,1210,1210,1206,1206,1202,1202,1202,1202,1197,1197,1193,1193,1189,1189,1185,1185,1185,1185,1185,1185,1181,1181,1181,1177,1173,1173,1169,1169,1169,1169,1165,1165,1165,1165,1165,1165,1161,1161,1161,1153,1153,1153,1153,1149,1149,1149,1145,1141,1141,1138,1138,1138,1138,1134,1134,1134,1134,1130,1126,1126,1126,1126,1123,1123,1123,1119,1119,1119,1119,1115,1115,1112,1112,1112,1108,1108,1108,1108,1108,1105,1105,1105,1105,1101,1101,1097,1097,1097,1094,1094,1094,1090,1090,1090,1087,1087,1084,1084,1080,1080,1080,1080,1080,1080,1077,1077,1073,1073,1073,1070,1070,1067,1067,1067,1063,1063,1063,1063,1060,1060,1057,1057,0,0,0,0,0,0,0,0,0,0,0,0,0,0,0,0,0,0,0,0,0,0,0,0,0,0,0,0,0,0,0
0,0,0,0,0,0,0,0,0,0,0,0,0,1616,1616,1616,1616,1616,1616,1616,1616,1616,1616,1616,1616,1616,1616,1616,1616,1616,1616,1616,1616,1616,1616,1616,1616,1616,1616,1616,1616,1616,1616,1616,1616,1616,1616,1609,1609,1616,1609,1609,1609,1609,1609,1616,1616,1624,1624,1624,1624,1632,1632,1632,1632,1853,1843,1833,1833,1823,1813,1813,1813,1813,1804,1804,1813,1794,1776,1766,1766,1757,1748,1739,1731,1713,1655,1639,1639,1632,1632,1632,1632,1632,1632,1632,1632,1639,1639,1647,1647,1647,1655,1655,1655,1655,1663,1663,1663,1671,1671,1671,1680,1680,1680,1680,1688,1688,1696,1696,1696,1705,1705,1713,1713,1722,1722,1722,1722,1722,1722,1731,1731,1739,1748,1748,1748,1757,1757,1757,1757,1757,1766,1766,1766,1776,1785,1785,1785,1785,1776,1776,1776,1776,0,0,0,1090,1087,1087,1087,1087,1080,1080,1077,1077,1077,1077,1077,1077,1077,1077,1077,1080,1080,1084,1084,1087,1090,1090,1094,1094,1097,1101,1101,1101,0,0,0,1863,1863,1863,1863,1853,1853,1853,1853,1843,1843,1833,1833,1833,1823,1823,1823,1823,1823,1813,1813,1813,1804,1804,1804,1794,1794,1794,1794,1785,1785,1776,1776,1766,1766,1766,1757,1757,1757,1748,1748,1748,1739,1739,1739,1731,1731,1731,1731,1722,1722,1722,1722,1722,1705,1705,1705,1696,1696,1696,1688,1688,1688,1688,1688,1688,1680,1671,1671,1663,1663,1663,1663,1663,1663,1663,1663,0,0,0,0,0,0,0,903,901,901,901,898,896,896,896,894,891,889,889,887,887,887,887,887,889,889,891,894,896,898,898,901,903,906,906,906,906,0,0,0,0,0,0,1536,1536,1529,1529,1523,1523,1523,1523,1523,1523,1516,1516,1516,1516,1516,1509,1509,1509,1503,1496,1496,1496,1496,1489,1489,1483,1477,1477,1470,1470,1470,1470,1464,1464,1464,1464,1458,1458,1452,1452,1445,1445,1439,1439,1439,1439,1433,1433,1433,1433,1427,1427,1427,1421,1421,1421,1415,1415,1415,1410,1410,1404,1404,1398,1398,1398,1398,1398,1392,1392,1392,1392,1392,1387,1387,1381,1376,1376,1376,1370,1370,1370,1370,1370,1365,1365,1359,1359,1354,1354,1354,1349,1349,1349,1349,1349,1349,1343,1338,1333,1333,1333,1328,1328,1328,1322,1322,1322,1317,1317,1317,1317,1312,1312,1312,1307,1307,1307,1307,1302,1302,1297,1297,1297,1297,1292,1292,1292,1288,1288,1288,1288,1283,1283,1278,1273,1273,1273,1273,1268,1268,1268,1268,1268,1268,1268,1264,1264,1259,1259,1255,1255,1255,1250,1250,1250,1250,1245,1241,1241,1236,1236,1236,1236,1232,1232,1232,1232,1227,1223,1223,1219,1219,1219,1214,1214,1214,1214,1214,1214,1210,1210,1206,1206,1202,1202,1202,1197,1197,1193,1193,1193,1189,1189,1185,1185,1185,1185,1185,1185,1181,1181,1177,1177,1173,1169,1169,1169,1169,1169,1165,1165,1165,1165,1165,1161,1161,1161,1153,1153,1153,1153,1153,1149,1149,1149,1145,1141,1138,1138,1138,1138,1134,1134,1134,1134,1130,1126,1126,1126,1126,1123,1123,1123,1119,1119,1119,1119,1119,1115,1115,1112,1112,1108,1108,1108,1108,1108,1105,1105,1105,1105,1101,1101,1097,1097,1097,1094,1094,1094,1090,1090,1090,1090,1087,1087,1084,1080,1080,1080,1080,1080,1080,1080,1077,1077,1077,1073,1073,1070,1070,1067,1067,1067,1063,1063,1063,1060,1060,1060,1060,0,0,0,0,0,0,0,0,0,0,0,0,0,0,0,0,0,0,0,0,0,0,0,0,0,0,0,0,0,0,0
0,0,0,0,0,0,0,0,0,0,0,0,0,1616,1616,1624,1616,1616,1624,1624,1616,1616,1616,1616,1616,1624,1616,1616,1616,1624,1616,1616,1616,1616,1616,1609,1609,1616,1616,1616,1616,1616,1616,1616,1616,1616,1616,1616,1616,1616,1616,1616,1616,1616,1616,1616,1616,1624,1624,1624,1624,1632,1632,1632,1632,1632,1843,1833,1823,1813,1804,1804,1804,1804,1794,1794,1785,1776,1766,1766,1757,1757,1748,1739,1731,1713,1663,1647,1639,1632,1632,1632,1632,1632,1632,1632,1632,1639,1639,1647,1647,1647,1655,1655,1655,1655,1663,1663,1663,1671,1671,1680,1680,1680,1680,1688,1688,1688,1696,1696,1696,1705,1705,1713,1713,1722,1722,1722,1722,1722,1722,1731,1731,1739,1739,1748,1757,1757,1757,1757,1757,1766,1766,1766,1766,1776,1785,1785,1785,1785,1776,1776,1776,1776,1766,1766,0,1090,1090,1087,1087,1087,1080,1080,1077,1077,1077,1077,1077,1077,1077,1077,1080,1080,1080,1084,1084,1087,1090,1090,1094,1097,1097,1101,1101,1101,0,0,0,0,1873,1873,1863,1863,1863,1853,1853,1843,1843,1833,1833,1833,1833,1833,1833,1823,1823,1823,1813,1813,1813,1804,1804,1794,1794,1794,1794,1794,1785,1785,1776,1766,1766,1766,1757,1757,1757,1757,1748,1748,1748,1739,1739,1731,1731,1731,1731,1731,1731,1722,1722,1722,1713,1705,1705,1696,1696,1696,1688,1688,1688,1688,1688,1688,1680,1671,1671,1663,1663,1663,1663,1663,1663,1663,1663,0,0,0,0,0,0,0,903,901,901,901,898,898,896,896,894,891,891,889,889,887,887,887,887,889,891,894,894,896,898,901,901,903,906,906,906,906,0,0,0,0,0,0,1536,1536,1536,1529,1529,1529,1523,1523,1523,1523,1516,1516,1516,1516,1516,1509,1509,1509,1503,1503,1496,1496,1496,1496,1489,1489,1483,1477,1470,1470,1470,1470,1464,1464,1464,1464,1458,1458,1458,1452,1445,1445,1445,1439,1439,1439,1439,1439,1433,1433,1433,1427,1427,1421,1421,1421,1415,1415,1415,1415,1410,1410,1404,1404,1398,1398,1398,1398,1392,1392,1392,1392,1392,1387,1387,1381,1381,1376,1376,1376,1370,1370,1370,1370,1365,1365,1359,1359,1354,1354,1354,1354,1354,1349,1349,1349,1349,1343,1338,1333,1333,1333,1328,1328,1328,1328,1322,1322,1322,1317,1317,1317,1312,1312,1312,1307,1307,1307,1307,1302,1302,1297,1297,1297,1297,1292,1292,1292,1288,1288,1288,1288,1283,1283,1278,1278,1273,1273,1273,1273,1273,1268,1268,1268,1268,1268,1264,1264,1259,1259,1255,1255,1255,1250,1250,1250,1250,1250,1245,1241,1241,1236,1236,1236,1236,1232,1232,1232,1227,1227,1223,1219,1219,1219,1214,1214,1214,1214,1214,1214,1210,1210,1206,1206,1202,1202,1202,1197,1197,1193,1193,1193,1189,1189,1189,1185,1185,1185,1185,1185,1181,1181,1177,1177,1173,1169,1169,1169,1169,1169,1165,1165,1165,1165,1165,1161,1161,1157,1153,1153,1153,1153,1153,1149,1149,1149,1145,1141,1138,1138,1138,1138,1134,1134,1134,1134,1130,1130,1126,1126,1126,1123,1123,1123,1123,1119,1119,1119,1119,1119,1115,1112,1112,1108,1108,1108,1108,1108,1105,1105,1105,1105,1101,1101,1097,1097,1094,1094,1094,1094,1094,1090,1090,1090,1087,1087,1084,1084,1080,1080,1080,1080,1080,1080,1077,1077,1077,1077,1073,1070,1070,1067,1067,1067,1063,1063,1063,1063,1060,1060,1060,0,0,0,0,0,0,0,0,0,0,0,0,0,0,0,0,0,0,0,0,0,0,0,0,0,0,0,0,0,0,0
0,0,0,0,0,0,0,0,0,0,0,0,0,1624,1624,1624,1624,1624,1624,1624,1624,1624,1616,1616,1624,1624,1616,1616,1616,1624,1616,1616,1616,1616,1616,1609,1609,1616,1616,1616,1616,1616,1616,1609,1609,1616,1616,1616,1616,1616,1616,1616,1616,1616,1616,1616,1616,1624,1624,1624,1624,1632,1632,1632,1632,1632,1843,1823,1823,1813,1794,1794,1794,1794,1785,1785,1776,1776,1766,1766,1757,1757,1748,1748,1739,1722,1671,1655,1647,1639,1632,1632,1632,1632,1632,1632,1632,1639,1647,1647,1647,1655,1655,1655,1655,1655,1663,1663,1663,1671,1671,1680,1680,1688,1688,1688,1688,1688,1696,1696,1696,1696,1705,1705,1713,1722,1722,1722,1722,1731,1731,1731,1731,1739,1739,1748,1757,1757,1757,1757,1757,1766,1766,1766,1766,1776,1785,1785,1785,1785,1785,1776,1766,1766,1766,0,0,1087,1087,1087,1087,1084,1080,1080,1080,1080,1077,1077,1077,1077,1077,1080,1080,1080,1084,1084,1087,1087,1090,1094,1097,1097,1097,1101,1101,1101,0,0,0,0,1873,1873,1873,1863,1863,1863,1853,1843,1843,1833,1833,1833,1833,1833,1833,1823,1823,1823,1823,1823,1813,1813,1804,1794,1794,1794,1794,1794,1794,1785,1785,1776,1776,1766,1766,1757,1757,1757,1748,1748,1748,1748,1739,1739,1731,1731,1731,1731,1731,1722,1722,1722,1713,1705,1705,1705,1696,1696,1696,1688,1688,1688,1688,1688,1680,1671,1671,1671,1663,1663,1663,1663,1663,1663,1663,0,0,0,0,0,0,903,903,901,901,901,901,898,896,896,894,891,891,889,889,889,887,887,889,889,891,894,894,896,898,901,903,906,906,906,903,903,0,0,0,0,0,0,1543,1536,1536,1529,1529,1529,1529,1523,1523,1523,1516,1516,1516,1516,1516,1509,1509,1509,1509,1503,1496,1496,1496,1496,1489,1489,1489,1477,1477,1470,1470,1470,1464,1464,1464,1464,1458,1458,1458,1452,1445,1445,1445,1445,1439,1439,1439,1439,1439,1433,1433,1433,1427,1421,1421,1421,1415,1415,1415,1415,1410,1410,1404,1404,1404,1398,1398,1398,1392,1392,1392,1392,1392,1387,1387,1381,1381,1376,1376,1376,1376,1370,1370,1370,1365,1365,1359,1359,1359,1354,1354,1354,1354,1354,1349,1349,1349,1349,1338,1333,1333,1333,1333,1328,1328,1328,1328,1322,1322,1322,1322,1317,1312,1312,1312,1312,1307,1307,1307,1307,1302,1302,1302,1297,1297,1292,1292,1292,1292,1288,1288,1288,1283,1283,1283,1278,1273,1273,1273,1273,1273,1268,1268,1268,1268,1268,1268,1264,1264,1259,1255,1255,1255,1250,1250,1250,1250,1250,1245,1241,1241,1236,1236,1236,1236,1232,1232,1232,1227,1227,1223,1223,1219,1219,1214,1214,1214,1214,1214,1214,1214,1210,1210,1206,1206,1202,1202,1197,1197,1197,1193,1193,1193,1189,1189,1189,1185,1185,1185,1185,1181,1181,1177,1177,1173,1169,1169,1169,1169,1169,1169,1165,1165,1165,1165,1161,1161,1157,1153,1153,1153,1153,1153,1149,1149,1149,1145,1145,1141,1141,1138,1138,1138,1134,1134,1134,1130,1130,1126,1126,1126,1123,1123,1123,1123,1119,1119,1119,1119,1119,1115,1112,1112,1112,1108,1108,1108,1108,1108,1105,1105,1105,1101,1101,1097,1097,1094,1094,1094,1094,1094,1090,1090,1090,1087,1087,1087,1084,1080,1080,1080,1080,1080,1080,1077,1077,1077,1077,1073,1070,1070,1067,1067,1067,1067,1067,1063,1063,1063,1060,1060,0,0,0,0,0,0,0,0,0,0,0,0,0,0,0,0,0,0,0,0,0,0,0,0,0,0,0,0,0,0,0
0,0,0,0,0,0,0,0,0,0,0,0,1624,1624,1624,1624,1624,1624,1624,1624,1624,1624,1624,1624,1624,1624,1624,1624,1624,1624,1616,1616,1616,1616,1616,1616,1616,1616,1616,1616,1616,1616,1616,1609,1609,1616,1616,1609,1609,1616,1616,1616,1616,1616,1616,1616,1616,1624,1624,1624,1624,1632,1632,1632,1639,1639,1647,1647,1794,1794,1785,1776,1776,1776,1776,1776,1766,1766,1766,1766,1757,1757,1748,1748,1748,1731,1713,1663,1655,1639,1632,1632,1632,1632,1632,1632,1639,1639,1647,1647,1647,1655,1655,1655,1655,1663,1663,1663,1663,1671,1671,1680,1680,1688,1688,1688,1688,1688,1696,1696,1696,1696,1705,1705,1713,1722,1722,1722,1722,1731,1731,1739,1739,1748,1748,1748,1757,1757,1757,1757,1757,1766,1766,1766,1766,1776,1785,1785,1785,1785,1785,1785,1766,1766,1766,0,0,1080,1080,1087,1087,1084,1080,1080,1080,1080,1077,1077,1077,1077,1077,1077,1080,1080,1084,1084,1087,1087,1090,1094,1097,1097,1097,1101,1101,1105,0,0,0,0,1873,1873,1873,1863,1863,1863,1853,1843,1843,1843,1833,1833,1833,1833,1833,1833,1823,1823,1823,1823,1813,1813,1804,1804,1804,1794,1794,1794,1794,1785,1785,1776,1776,1766,1766,1766,1757,1757,1757,1748,1748,1748,1748,1739,1739,1739,1731,1731,1731,1722,1722,1722,1713,1705,1705,1705,1705,1696,1696,1696,1696,1688,1688,1688,1680,1680,1671,1671,1663,1663,1663,1663,1663,1663,1663,0,0,0,0,0,0,901,901,901,901,901,901,898,896,896,894,891,891,889,889,889,889,889,889,889,891,894,896,898,901,901,903,906,906,906,903,903,0,0,0,0,0,0,1543,1536,1536,1536,1529,1529,1529,1523,1523,1523,1516,1516,1516,1516,1516,1509,1509,1509,1509,1503,1503,1496,1496,1496,1489,1489,1489,1483,1477,1470,1470,1470,1470,1464,1464,1464,1464,1458,1458,1452,1452,1445,1445,1445,1445,1439,1439,1439,1439,1439,1433,1433,1427,1421,1421,1421,1415,1415,1415,1415,1415,1410,1410,1404,1404,1404,1398,1398,1398,1392,1392,1392,1392,1392,1387,1387,1381,1376,1376,1376,1376,1370,1370,1370,1370,1365,1365,1359,1359,1359,1354,1354,1354,1354,1354,1349,1349,1349,1343,1338,1338,1333,1333,1333,1328,1328,1328,1328,1322,1322,1322,1317,1317,1312,1312,1312,1312,1307,1307,1307,1302,1302,1302,1297,1297,1297,1292,1292,1292,1288,1288,1288,1288,1283,1283,1283,1278,1273,1273,1273,1273,1273,1273,1268,1268,1268,1268,1264,1264,1259,1255,1255,1255,1250,1250,1250,1250,1250,1245,1245,1241,1241,1236,1236,1236,1236,1232,1232,1232,1227,1223,1223,1219,1219,1214,1214,1214,1214,1214,1214,1214,1210,1210,1206,1206,1202,1202,1197,1197,1197,1193,1193,1193,1193,1189,1189,1185,1185,1185,1185,1181,1181,1177,1177,1173,1173,1169,1169,1169,1169,1169,1165,1165,1165,1165,1161,1161,1157,1153,1153,1153,1153,1153,1149,1149,1149,1145,1145,1141,1141,1138,1138,1138,1134,1134,1134,1134,1130,1130,1126,1126,1123,1123,1123,1123,1119,1119,1119,1119,1119,1115,1112,1112,1112,1108,1108,1108,1108,1108,1105,1105,1105,1101,1101,1101,1097,1094,1094,1094,1094,1094,1090,1090,1090,1090,1087,1087,1084,1084,1084,1084,1080,1080,1080,1080,1077,1077,1077,1073,1070,1070,1067,1067,1067,1067,1067,1063,1063,1063,1063,1063,0,0,0,0,0,0,0,0,0,0,0,0,0,0,0,0,0,0,0,0,0,0,0,0,0,0,0,0,0,0,0
0,0,0,0,0,0,0,0,0,0,0,0,1624,1624,1624,1624,1624,1624,1624,1624,1624,1624,1624,1624,1624,1624,1624,1624,1624,1624,1616,1616,1616,1616,1624,1616,1616,1616,1624,1624,1616,1616,1616,1616,1616,1616,1616,1609,1609,1616,1616,1616,1616,1616,1616,1616,1616,1624,1624,1624,1624,1632,1632,1632,1639,1647,1647,1647,1655,1785,1785,1776,1776,1776,1766,1766,1766,1766,1766,1766,1757,1757,1748,1748,1748,1731,1713,1663,1655,1647,1639,1639,1632,1632,1632,1632,1639,1639,1647,1655,1655,1655,1655,1655,1655,1663,1663,1663,1663,1671,1671,1680,1688,1688,1688,1688,1688,1696,1696,1696,1696,1705,1705,1705,1713,1713,1722,1722,1731,1731,1731,1739,1739,1748,1748,1748,1757,1757,1757,1757,1757,1766,1766,1766,1766,1776,1785,1785,1785,1785,1785,1785,1776,1776,1776,0,0,1080,1080,1087,1087,1084,1080,1080,1080,1080,1077,1077,1077,1077,1077,1077,1080,1080,1084,1084,1087,1087,1090,1094,1097,1097,1101,1101,1105,1105,0,0,0,0,1873,1873,1873,1863,1863,1863,1853,1843,1843,1843,1843,1833,1833,1833,1833,1833,1833,1823,1823,1823,1823,1813,1804,1804,1804,1804,1794,1794,1794,1794,1785,1785,1776,1776,1766,1766,1757,1757,1757,1757,1757,1748,1748,1748,1739,1739,1739,1731,1731,1731,1722,1722,1713,1713,1713,1705,1705,1696,1696,1696,1696,1696,1696,1688,1680,1680,1680,1671,1671,1663,1663,1663,1663,1663,1663,0,0,0,0,0,0,901,901,903,903,901,901,898,896,896,894,891,891,889,889,889,889,889,889,891,891,894,896,898,901,903,903,906,906,906,906,906,0,0,0,0,0,0,1543,1536,1536,1536,1529,1529,1529,1529,1523,1523,1516,1516,1516,1516,1516,1516,1509,1509,1503,1503,1496,1496,1496,1496,1489,1489,1489,1483,1477,1477,1470,1470,1470,1470,1464,1464,1464,1464,1458,1452,1452,1445,1445,1445,1445,1439,1439,1439,1439,1439,1433,1433,1427,1421,1421,1421,1415,1415,1415,1415,1415,1415,1410,1410,1410,1404,1398,1398,1398,1398,1392,1392,1392,1392,1387,1387,1381,1381,1376,1376,1376,1376,1370,1370,1370,1365,1365,1359,1359,1359,1354,1354,1354,1354,1354,1354,1349,1349,1343,1338,1338,1333,1333,1333,1333,1328,1328,1328,1322,1322,1322,1317,1317,1312,1312,1312,1312,1307,1307,1307,1307,1302,1302,1302,1297,1297,1292,1292,1292,1288,1288,1288,1288,1288,1288,1283,1278,1278,1273,1273,1273,1273,1268,1268,1268,1268,1268,1264,1264,1259,1255,1255,1255,1250,1250,1250,1250,1250,1245,1245,1241,1241,1236,1236,1236,1236,1232,1232,1232,1227,1223,1223,1219,1219,1214,1214,1214,1214,1214,1214,1214,1214,1210,1210,1206,1206,1202,1202,1197,1197,1197,1197,1193,1193,1193,1189,1185,1185,1185,1185,1181,1181,1177,1177,1173,1173,1169,1169,1169,1169,1169,1165,1165,1165,1165,1161,1157,1157,1153,1153,1153,1153,1153,1149,1149,1149,1145,1145,1141,1141,1141,1138,1138,1138,1134,1134,1134,1130,1130,1130,1126,1126,1123,1123,1123,1123,1119,1119,1119,1119,1115,1115,1115,1112,1112,1108,1108,1108,1108,1105,1105,1105,1105,1101,1101,1097,1097,1097,1094,1094,1094,1090,1090,1090,1090,1087,1087,1084,1084,1084,1084,1080,1080,1080,1080,1077,1077,1077,1077,1073,1073,1070,1070,1067,1067,1067,1067,1063,1063,1063,1063,0,0,0,0,0,0,0,0,0,0,0,0,0,0,0,0,0,0,0,0,0,0,0,0,0,0,0,0,0,0,0
0,0,0,0,0,0,0,0,0,0,0,0,1624,1624,1624,1624,1624,1624,1624,1624,1624,1624,1624,1624,1624,1624,1624,1624,1624,1624,1624,1624,1624,1624,1624,1616,1616,1624,1624,1624,1624,1616,1616,1616,1616,1616,1616,1616,1616,1616,1616,1616,1616,1616,1616,1616,1616,1624,1624,1624,1624,1632,1632,1632,1647,1647,1647,1655,1655,1776,1776,1766,1766,1766,1766,1766,1766,1766,1766,1766,1766,1766,1748,1748,1748,1739,1731,1671,1655,1639,1639,1639,1639,1639,1639,1639,1647,1647,1655,1655,1655,1655,1655,1655,1655,1663,1663,1663,1663,1671,1680,1680,1688,1688,1688,1688,1688,1696,1696,1696,1696,1705,1705,1705,1713,1713,1722,1722,1731,1731,1731,1739,1748,1748,1748,1748,1757,1757,1757,1757,1766,1766,1766,1766,1776,1776,1785,1785,1785,1785,1785,1794,1785,1785,0,0,0,0,1087,1087,1087,1084,1080,1080,1080,1080,1077,1077,1077,1077,1077,1080,1080,1080,1084,1087,1087,1090,1090,1094,1097,1097,1101,1101,1105,1105,0,0,0,0,1873,1873,1873,1873,1863,1863,1863,1853,1843,1843,1843,1843,1833,1833,1833,1833,1833,1833,1823,1823,1823,1823,1813,1804,1804,1804,1804,1804,1794,1794,1785,1785,1785,1776,1766,1766,1766,1757,1757,1757,1757,1748,1748,1748,1739,1739,1739,1731,1731,1731,1722,1722,1713,1713,1713,1705,1705,1705,1696,1696,1696,1696,1696,1688,1680,1680,1671,1671,1671,1663,1663,1663,1663,1663,1663,0,0,0,0,0,0,901,901,903,903,901,901,898,898,896,896,891,891,891,889,889,889,889,889,891,894,894,896,898,901,903,906,906,908,906,906,906,0,0,0,0,0,1543,1536,1536,1536,1536,1529,1529,1529,1529,1523,1523,1523,1516,1516,1516,1516,1516,1509,1509,1503,1503,1496,1496,1496,1496,1489,1489,1489,1483,1483,1477,1470,1470,1470,1470,1470,1464,1464,1464,1464,1452,1452,1445,1445,1445,1445,1445,1439,1439,1439,1439,1433,1433,1427,1427,1421,1421,1415,1415,1415,1415,1415,1415,1410,1410,1410,1404,1404,1398,1398,1398,1392,1392,1392,1392,1387,1387,1387,1381,1376,1376,1376,1376,1376,1370,1370,1365,1365,1359,1359,1359,1354,1354,1354,1354,1354,1354,1349,1349,1343,1343,1338,1338,1333,1333,1333,1333,1328,1328,1328,1328,1322,1322,1317,1317,1312,1312,1312,1312,1307,1307,1307,1307,1302,1302,1302,1302,1297,1292,1292,1292,1288,1288,1288,1288,1288,1283,1283,1278,1278,1273,1273,1273,1268,1268,1268,1268,1268,1264,1264,1259,1255,1255,1255,1255,1250,1250,1250,1250,1245,1245,1241,1241,1236,1236,1236,1236,1232,1232,1232,1227,1227,1223,1219,1219,1219,1219,1214,1214,1214,1214,1214,1214,1214,1210,1206,1206,1202,1202,1202,1197,1197,1197,1197,1193,1193,1189,1185,1185,1185,1185,1181,1181,1181,1177,1177,1173,1173,1173,1169,1169,1169,1165,1165,1165,1165,1161,1157,1157,1153,1153,1153,1153,1153,1149,1149,1149,1149,1145,1141,1141,1141,1138,1138,1138,1138,1134,1134,1134,1130,1130,1126,1126,1126,1123,1123,1123,1119,1119,1119,1119,1119,1115,1115,1112,1112,1112,1108,1108,1108,1108,1105,1105,1105,1105,1101,1097,1097,1097,1094,1094,1094,1090,1090,1090,1090,1090,1087,1087,1084,1084,1084,1080,1080,1080,1080,1077,1077,1077,1077,1073,1073,1070,1070,1070,1067,1067,1067,1067,1063,1063,1063,0,0,0,0,0,0,0,0,0,0,0,0,0,0,0,0,0,0,0,0,0,0,0,0,0,0,0,0,0,0,0
0,0,0,0,0,0,0,0,0,0,0,0,1624,1624,1624,1624,1624,1624,1624,1624,1624,1632,1632,1632,1632,1632,1632,1624,1624,1624,1624,1624,1624,1624,1624,1624,1624,1624,1624,1624,1624,1616,1616,1616,1616,1616,1616,1616,1616,1616,1616,1616,1616,1616,1616,1616,1616,1624,1624,1624,1632,1632,1639,1639,1647,1647,1647,1655,1655,1766,1766,1766,1766,1766,1766,1766,1766,1766,1766,1766,1766,1766,1748,1748,1748,1739,1731,1671,1655,1639,1639,1639,1639,1639,1639,1639,1639,1647,1655,1655,1655,1655,1655,1655,1655,1663,1663,1663,1663,1671,1680,1688,1688,1688,1688,1688,1688,1696,1696,1696,1696,1705,1705,1705,1713,1713,1722,1722,1731,1731,1731,1739,1748,1748,1748,1748,1757,1757,1757,1757,1766,1766,1766,1766,1776,1776,1785,1785,1785,1785,1794,1794,1804,0,0,0,0,0,1087,1087,1087,1084,1084,1080,1080,1080,1077,1077,1077,1077,1077,1080,1080,1080,1084,1087,1087,1090,1090,1094,1097,1097,1101,1101,1105,0,0,0,0,0,1873,1873,1873,1873,1873,1873,1863,1853,1843,1843,1843,1843,1833,1833,1833,1833,1833,1833,1823,1823,1823,1823,1813,1804,1804,1804,1804,1804,1794,1794,1785,1785,1785,1785,1776,1776,1766,1766,1757,1757,1757,1757,1748,1748,1739,1739,1739,1731,1731,1731,1722,1722,1713,1713,1713,1713,1713,1705,1705,1696,1696,1696,1696,1688,1680,1680,1671,1671,1671,1663,1663,1663,1663,1663,0,0,0,0,0,0,0,901,901,901,903,901,901,901,898,896,896,891,891,891,889,889,889,889,891,891,894,896,896,898,903,903,906,906,908,908,910,0,0,0,0,0,0,1543,1536,1536,1536,1536,1529,1529,1536,1529,1529,1523,1523,1523,1516,1516,1516,1516,1509,1509,1509,1503,1503,1496,1496,1496,1489,1489,1489,1483,1483,1477,1477,1470,1470,1470,1470,1470,1464,1464,1464,1458,1452,1452,1445,1445,1445,1445,1445,1439,1439,1439,1439,1433,1433,1427,1427,1421,1415,1415,1415,1415,1415,1415,1410,1410,1410,1404,1404,1398,1398,1398,1392,1392,1392,1392,1392,1387,1387,1381,1381,1376,1376,1376,1376,1370,1370,1365,1365,1359,1359,1359,1354,1354,1354,1354,1354,1354,1349,1349,1343,1343,1338,1338,1338,1333,1333,1333,1328,1328,1328,1328,1322,1322,1317,1317,1312,1312,1312,1312,1307,1307,1307,1307,1307,1302,1302,1302,1297,1292,1292,1292,1292,1288,1288,1288,1288,1288,1283,1278,1278,1278,1273,1273,1273,1268,1268,1268,1268,1264,1264,1259,1255,1255,1255,1255,1250,1250,1250,1250,1245,1245,1241,1241,1236,1236,1236,1236,1236,1232,1232,1227,1227,1223,1219,1219,1219,1219,1219,1214,1214,1214,1214,1214,1214,1210,1206,1206,1202,1202,1202,1197,1197,1197,1197,1193,1193,1189,1185,1185,1185,1185,1181,1181,1181,1181,1177,1177,1173,1173,1173,1169,1169,1165,1165,1165,1165,1161,1157,1157,1153,1153,1153,1153,1153,1153,1149,1149,1149,1145,1145,1141,1141,1141,1138,1138,1138,1138,1134,1134,1134,1130,1130,1130,1126,1126,1126,1123,1123,1123,1119,1119,1119,1115,1115,1112,1112,1112,1112,1108,1108,1108,1105,1105,1105,1105,1101,1097,1097,1097,1094,1094,1094,1094,1090,1090,1090,1090,1087,1087,1087,1087,1084,1084,1080,1080,1080,1077,1077,1077,1077,1073,1073,1073,1070,1070,1067,1067,1067,1067,1063,1063,1063,0,0,0,0,0,0,0,0,0,0,0,0,0,0,0,0,0,0,0,0,0,0,0,0,0,0,0,0,0,0,0
0,0,0,0,0,0,0,0,0,0,0,0,1624,1624,1624,1624,1632,1632,1632,1632,1632,1632,1632,1632,1632,1632,1632,1632,1624,1624,1624,1624,1624,1624,1624,1624,1624,1624,1624,1624,1624,1624,1624,1624,1624,1624,1624,1616,1616,1616,1616,1616,1616,1616,1616,1624,1624,1624,1624,1632,1632,1632,1647,1647,1655,1655,1655,1663,1671,1757,1766,1766,1766,1766,1766,1766,1766,1766,1766,1766,1766,1766,1757,1757,1748,1748,1739,1671,1655,1639,1639,1639,1639,1639,1639,1639,1639,1647,1655,1655,1655,1655,1655,1655,1655,1663,1663,1663,1663,1671,1680,1680,1688,1688,1688,1688,1688,1696,1696,1696,1696,1705,1713,1713,1713,1713,1722,1722,1731,1731,1731,1739,1748,1748,1748,1748,1757,1757,1757,1757,1766,1766,1766,1766,1776,1776,1785,1785,1785,1785,1794,1794,1804,0,0,0,0,0,0,1087,1087,1084,1084,1080,1080,1080,1077,1077,1077,1077,1080,1080,1084,1084,1084,1087,1087,1090,1094,1097,1097,1101,1101,1101,1105,0,0,0,0,0,1873,1873,1873,1873,1873,1873,1863,1853,1853,1843,1843,1843,1833,1833,1833,1833,1833,1833,1833,1823,1823,1823,1813,1804,1804,1804,1804,1804,1794,1794,1785,1785,1785,1785,1776,1776,1766,1766,1766,1757,1757,1757,1757,1757,1748,1748,1739,1739,1731,1731,1722,1722,1722,1713,1713,1713,1713,1713,1705,1705,1705,1696,1696,1688,1688,1680,1680,1671,1671,1671,1663,1663,1663,1663,0,0,0,0,0,0,0,0,901,901,903,901,901,901,898,896,896,891,891,891,889,889,889,889,891,891,894,896,896,898,903,903,906,906,908,908,910,915,0,0,0,0,0,1543,1536,1536,1536,1536,1536,1536,1536,1536,1529,1529,1523,1523,1523,1516,1516,1516,1509,1509,1509,1503,1503,1503,1496,1496,1489,1489,1489,1489,1489,1483,1477,1477,1470,1470,1470,1470,1464,1464,1464,1458,1452,1452,1445,1445,1445,1445,1445,1445,1439,1439,1439,1433,1433,1427,1427,1421,1421,1415,1415,1415,1415,1415,1410,1410,1410,1404,1404,1398,1398,1398,1398,1392,1392,1392,1392,1392,1387,1381,1381,1376,1376,1376,1376,1370,1370,1370,1365,1365,1359,1359,1354,1354,1354,1354,1354,1354,1349,1349,1343,1343,1338,1338,1338,1333,1333,1333,1333,1333,1328,1328,1328,1322,1322,1317,1312,1312,1312,1312,1312,1307,1307,1307,1307,1307,1302,1302,1302,1297,1292,1292,1292,1292,1288,1288,1288,1288,1288,1283,1283,1278,1278,1273,1273,1273,1268,1268,1268,1264,1264,1259,1255,1255,1255,1255,1250,1250,1250,1250,1245,1245,1241,1241,1236,1236,1236,1236,1236,1232,1232,1232,1227,1227,1223,1219,1219,1219,1219,1214,1214,1214,1214,1214,1214,1210,1210,1206,1202,1202,1202,1197,1197,1197,1197,1193,1193,1189,1185,1185,1185,1185,1181,1181,1181,1181,1177,1177,1177,1173,1173,1169,1169,1165,1165,1165,1165,1161,1161,1157,1157,1153,1153,1153,1153,1153,1149,1149,1149,1145,1145,1141,1141,1141,1138,1138,1138,1138,1134,1134,1134,1134,1130,1130,1130,1126,1126,1123,1123,1123,1119,1119,1119,1119,1115,1115,1112,1112,1112,1108,1108,1108,1108,1105,1105,1105,1101,1097,1094,1094,1094,1094,1094,1094,1094,1094,1090,1090,1090,1090,1087,1087,1087,1084,1080,1080,1080,1080,1077,1077,1077,1077,1073,1073,1070,1070,1070,1067,1067,1067,1063,1063,1063,0,0,0,0,0,0,0,0,0,0,0,0,0,0,0,0,0,0,0,0,0,0,0,0,0,0,0,0,0,0,0
0,0,0,0,0,0,0,0,0,0,0,0,1624,1624,1624,1624,1632,1632,1632,1632,1632,1632,1632,1632,1632,1632,1632,1632,1624,1624,1624,1624,1624,1624,1624,1624,1624,1624,1624,1624,1624,1624,1624,1624,1624,1624,1624,1616,1616,1616,1616,1616,1616,1616,1616,1624,1624,1624,1632,1632,1632,1632,1647,1647,1655,1655,1663,1663,1680,1757,1766,1766,1766,1766,1766,1766,1766,1766,1766,1766,1766,1766,1766,1757,1748,1748,1739,1722,1663,1647,1639,1639,1647,1647,1647,1639,1639,1647,1655,1655,1655,1655,1655,1655,1663,1663,1663,1663,1663,1671,1680,1680,1688,1688,1688,1688,1688,1696,1696,1696,1696,1705,1705,1713,1713,1713,1722,1731,1731,1731,1731,1739,1748,1748,1748,1748,1757,1757,1757,1766,1766,1766,1766,1766,1776,1776,1785,1785,1785,1794,1794,1804,1804,0,0,0,0,0,0,1087,1087,1087,1084,1084,1084,1080,1080,1077,1077,1077,1080,1080,1084,1084,1084,1087,1090,1090,1094,1097,1101,1101,1101,1101,1105,0,0,0,0,0,1873,1873,1873,1873,1873,1873,1863,1853,1853,1853,1843,1843,1843,1843,1833,1833,1833,1833,1833,1823,1823,1823,1813,1813,1804,1804,1804,1804,1804,1794,1794,1794,1785,1785,1776,1776,1766,1766,1766,1766,1757,1757,1757,1757,1748,1748,1739,1739,1739,1731,1722,1722,1722,1722,1722,1713,1713,1713,1705,1705,1705,1696,1696,1688,1688,1680,1680,1680,1671,1671,1671,1663,1663,0,0,0,0,0,0,0,0,0,0,903,903,903,903,903,901,898,896,896,891,891,889,889,889,889,891,891,894,896,898,901,903,903,906,906,908,910,913,915,0,0,0,0,0,0,1536,1536,1536,1536,1536,1536,1543,1536,1536,1529,1529,1523,1523,1516,1516,1516,1516,1509,1509,1509,1503,1503,1496,1496,1496,1496,1489,1489,1489,1483,1477,1477,1470,1470,1470,1470,1464,1464,1464,1464,1458,1452,1452,1445,1445,1445,1445,1445,1439,1439,1439,1439,1433,1427,1427,1427,1421,1421,1421,1415,1415,1415,1415,1410,1410,1404,1404,1398,1398,1398,1398,1392,1392,1392,1392,1392,1387,1381,1381,1381,1376,1376,1376,1370,1370,1370,1365,1365,1359,1359,1354,1354,1354,1354,1354,1354,1349,1349,1349,1343,1343,1338,1338,1333,1333,1333,1333,1333,1333,1333,1328,1322,1322,1317,1317,1312,1312,1312,1312,1312,1307,1307,1307,1307,1302,1302,1302,1297,1292,1292,1292,1292,1292,1288,1288,1288,1288,1288,1283,1283,1278,1273,1273,1273,1268,1268,1268,1268,1264,1259,1255,1255,1255,1255,1250,1250,1250,1250,1250,1245,1241,1241,1236,1236,1236,1236,1236,1232,1232,1232,1227,1227,1223,1223,1219,1219,1219,1219,1214,1214,1214,1214,1214,1210,1210,1206,1202,1202,1202,1202,1197,1197,1197,1197,1193,1189,1189,1185,1185,1185,1181,1181,1181,1181,1181,1177,1177,1173,1173,1169,1169,1169,1169,1165,1165,1161,1161,1157,1157,1153,1153,1153,1153,1153,1149,1149,1149,1145,1145,1145,1141,1141,1138,1138,1138,1138,1138,1134,1134,1134,1130,1130,1130,1126,1126,1123,1123,1123,1119,1119,1119,1119,1115,1115,1115,1112,1112,1108,1108,1108,1108,1105,1105,1105,1101,1097,1094,1094,1097,1094,1094,1094,1094,1094,1090,1090,1090,1090,1087,1087,1087,1084,1084,1080,1080,1080,1077,1077,1077,1077,1077,1073,1073,1070,1070,1067,1067,1067,1067,1063,1063,0,0,0,0,0,0,0,0,0,0,0,0,0,0,0,0,0,0,0,0,0,0,0,0,0,0,0,0,0,0,0
0,0,0,0,0,0,0,0,0,0,0,0,1624,1624,1624,1624,1632,1632,1632,1632,1632,1632,1632,1632,1632,1632,1632,1632,1624,1624,1624,1624,1624,1624,1624,1624,1624,1624,1624,1624,1624,1624,1624,1624,1624,1624,1624,1616,1616,1616,1616,1616,1616,1616,1616,1624,1624,1624,1624,1632,1632,1632,1647,1647,1655,1655,1663,1663,1757,1757,1766,1766,1766,1766,1766,1766,1766,1776,1766,1766,1766,1766,1766,1757,1757,1748,1748,1722,1671,1647,1647,1647,1647,1647,1647,1639,1639,1639,1647,1655,1655,1655,1655,1655,1663,1663,1663,1663,1663,1680,1680,1680,1688,1688,1688,1688,1688,1696,1696,1696,1696,1705,1705,1713,1713,1713,1722,1722,1731,1731,1739,1739,1748,1748,1748,1748,1757,1757,1757,1766,1766,1766,1766,1776,1776,1785,1794,1794,1794,1794,1794,1804,1804,0,0,0,0,0,0,1087,1087,1087,1084,1084,1084,1080,1080,1080,1080,1080,1080,1080,1084,1084,1087,1087,1090,1090,1094,1097,1101,1101,1101,1101,1105,0,0,0,0,0,1873,1873,1883,1873,1873,1873,1863,1853,1853,1853,1843,1843,1843,1843,1843,1833,1833,1833,1833,1823,1823,1823,1813,1813,1813,1813,1804,1804,1804,1794,1794,1794,1794,1785,1776,1776,1766,1766,1766,1766,1757,1757,1757,1757,1748,1748,1739,1739,1739,1731,1722,1722,1722,1722,1722,1713,1713,1713,1705,1705,1705,1696,1696,1688,1688,1688,1680,1680,1680,1671,1671,1671,1671,0,0,0,0,0,0,0,0,0,0,903,903,903,903,903,901,898,896,896,894,894,891,891,891,891,891,894,896,896,896,901,901,903,906,906,908,910,913,915,0,0,0,0,0,1536,1536,1536,1536,1536,1536,1536,1543,1543,1536,1536,1529,1529,1523,1516,1516,1516,1516,1516,1509,1509,1503,1503,1496,1496,1496,1496,1489,1489,1489,1483,1477,1477,1470,1470,1470,1470,1464,1464,1464,1464,1458,1452,1452,1445,1445,1445,1445,1445,1445,1439,1439,1439,1433,1433,1427,1427,1421,1421,1421,1415,1415,1415,1415,1410,1410,1404,1404,1404,1398,1398,1398,1392,1392,1392,1392,1392,1387,1381,1381,1381,1376,1376,1376,1376,1370,1370,1370,1365,1365,1359,1359,1359,1354,1354,1354,1354,1349,1349,1349,1343,1343,1338,1338,1338,1333,1333,1333,1333,1333,1333,1328,1328,1328,1322,1317,1317,1312,1312,1312,1312,1312,1312,1307,1307,1307,1307,1302,1297,1292,1292,1292,1292,1292,1288,1288,1288,1288,1288,1283,1283,1278,1273,1273,1273,1268,1268,1268,1268,1264,1259,1259,1255,1255,1255,1255,1250,1250,1250,1250,1245,1245,1241,1241,1236,1236,1236,1236,1232,1232,1232,1232,1227,1223,1223,1223,1219,1219,1219,1219,1214,1214,1214,1214,1214,1210,1206,1206,1202,1202,1202,1197,1197,1197,1197,1197,1193,1189,1185,1185,1185,1181,1181,1181,1181,1181,1177,1177,1173,1173,1169,1169,1169,1169,1165,1165,1161,1161,1157,1157,1157,1153,1153,1153,1153,1153,1149,1149,1149,1145,1145,1145,1141,1141,1138,1138,1138,1138,1134,1134,1134,1130,1130,1130,1130,1126,1126,1123,1123,1123,1123,1119,1119,1119,1115,1115,1115,1115,1112,1108,1108,1108,1105,1105,1105,1101,1097,1097,1097,1097,1094,1094,1094,1094,1094,1090,1090,1090,1090,1090,1087,1087,1084,1084,1080,1080,1080,1077,1077,1077,1077,1077,1077,1073,1073,1070,1067,1067,1067,1067,1063,1063,0,0,0,0,0,0,0,0,0,0,0,0,0,0,0,0,0,0,0,0,0,0,0,0,0,0,0,0,0,0,0
0,0,0,0,0,0,0,0,0,0,0,0,1632,1632,1624,1624,1632,1632,1632,1632,1632,1632,1632,1632,1632,1632,1632,1632,1624,1624,1624,1624,1624,1624,1624,1624,1624,1624,1624,1624,1624,1624,1624,1624,1624,1624,1624,1616,1616,1616,1616,1616,1616,1616,1616,1624,1624,1624,1624,1632,1632,1632,1639,1647,1655,1655,1663,1663,1757,1757,1766,1766,1766,1766,1766,1766,1766,1776,1776,1776,1776,1776,1766,1757,1757,1757,1748,1731,1671,1663,1647,1647,1647,1647,1647,1639,1639,1639,1647,1655,1655,1655,1655,1655,1663,1663,1663,1663,1671,1680,1680,1680,1688,1688,1688,1688,1688,1696,1696,1696,1696,1705,1713,1713,1713,1713,1722,1722,1731,1731,1739,1739,1748,1748,1748,1748,1757,1757,1757,1766,1766,1766,1766,1776,1776,1785,1794,1794,1794,1794,1794,1804,1804,0,0,0,0,0,0,1090,1090,1087,1087,1084,1084,1084,1080,1080,1080,1080,1080,1084,1084,1084,1087,1087,1090,1090,1094,1097,1101,1101,1101,1105,1105,0,0,0,0,0,1873,1873,1883,1873,1873,1873,1863,1853,1853,1853,1843,1843,1843,1843,1843,1843,1833,1833,1833,1833,1823,1823,1823,1813,1813,1813,1804,1804,1804,1804,1794,1794,1794,1794,1785,1785,1776,1766,1766,1766,1757,1757,1757,1757,1748,1748,1739,1739,1739,1731,1731,1722,1722,1722,1722,1713,1713,1713,1713,1705,1705,1705,1696,1688,1688,1688,1680,1680,1680,1671,1671,1671,0,0,0,0,0,0,0,0,0,0,0,903,903,903,903,903,901,898,896,896,894,894,891,891,891,891,891,894,896,896,896,901,901,903,906,908,910,913,913,915,915,0,0,0,0,1536,1536,1536,1536,1536,1536,1536,1543,1543,1536,1536,1529,1529,1523,1523,1516,1516,1516,1509,1509,1509,1503,1503,1503,1496,1496,1496,1489,1489,1489,1483,1483,1477,1477,1470,1470,1470,1470,1464,1464,1464,1464,1452,1452,1445,1445,1445,1445,1445,1445,1439,1439,1439,1439,1433,1433,1427,1421,1421,1421,1421,1415,1415,1415,1415,1410,1404,1404,1404,1398,1398,1398,1392,1392,1392,1392,1392,1392,1387,1381,1381,1376,1376,1376,1376,1370,1370,1370,1365,1365,1359,1359,1359,1359,1354,1354,1354,1349,1349,1349,1343,1343,1338,1338,1338,1338,1333,1333,1333,1333,1333,1328,1328,1328,1322,1322,1317,1317,1312,1312,1312,1312,1312,1307,1307,1307,1307,1307,1302,1297,1292,1292,1292,1292,1288,1288,1288,1288,1288,1283,1283,1278,1273,1273,1273,1268,1268,1268,1268,1264,1259,1259,1255,1255,1255,1255,1255,1250,1250,1250,1245,1245,1245,1241,1241,1236,1236,1236,1236,1232,1232,1232,1227,1227,1223,1223,1219,1219,1219,1219,1214,1214,1214,1214,1214,1210,1210,1206,1206,1202,1202,1202,1202,1197,1197,1197,1193,1189,1189,1185,1185,1181,1181,1181,1181,1181,1177,1177,1173,1173,1169,1169,1169,1169,1169,1165,1165,1165,1161,1161,1157,1157,1153,1153,1153,1153,1149,1149,1149,1145,1145,1145,1141,1141,1141,1141,1138,1138,1134,1134,1134,1130,1130,1130,1130,1130,1126,1126,1123,1123,1123,1119,1119,1119,1119,1115,1115,1115,1112,1108,1108,1108,1108,1105,1105,1105,1097,1097,1097,1097,1094,1094,1094,1094,1094,1094,1094,1094,1090,1090,1090,1087,1084,1084,1080,1080,1080,1080,1080,1077,1077,1077,1077,1073,1073,1070,1067,1067,1067,1067,1063,1063,0,0,0,0,0,0,0,0,0,0,0,0,0,0,0,0,0,0,0,0,0,0,0,0,0,0,0,0,0,0,0
