0,0,0,0,0,0,0,0,0,0,0,0,1398,1398,1398,1398,1398,1398,1404,1398,1398,1404,1404,1404,1392,1392,1404,1404,1404,1398,1398,1398,1398,1398,1398,1392,1392,1398,1404,1404,1404,1404,1404,1404,1404,1404,1410,1404,1404,1404,1404,1404,1404,1398,1398,1398,1398,1398,1398,1398,1398,1404,1404,1404,1398,1398,1392,1392,1392,0,0,0,0,0,1044,1041,1038,1038,1038,1041,1041,1041,1044,1044,1047,1047,1050,1050,1050,1050,1050,1050,1050,0,0,0,0,0,0,0,0,0,713,711,710,706,704,704,703,703,703,703,704,704,706,706,707,708,708,708,708,710,711,711,714,714,716,716,716,716,717,717,0,0,0,0,0,0,1112,1112,1112,1115,1115,1115,1115,1119,1119,1119,1119,1123,1123,1126,1126,1126,1126,1130,1130,1130,1130,1134,1134,1134,1134,1134,1138,1138,1138,1138,1141,1145,1145,1149,1149,1149,1149,1370,1370,1370,1370,1365,1365,1365,1365,1365,1365,1105,1105,1105,1105,1105,1105,1101,1101,1097,1097,1094,1090,1087,1087,1080,1080,1084,1084,1080,1077,1077,1365,1365,1359,1359,1365,1365,1365,1365,1365,1365,1365,1365,1365,1365,1365,1365,1365,1365,1365,1365,1365,1365,1365,1365,1365,1365,1365,1365,1365,1359,1359,1359,1359,1365,1365,1365,1365,1365,1365,1365,1365,1359,1359,1359,1359,1359,1359,1359,1354,1354,1354,1349,1349,1288,1283,1278,1278,1278,1278,1273,1273,1273,1273,1278,1278,1278,1283,1283,1283,1283,1354,1354,1349,1349,1349,1343,1343,1349,1349,1349,1349,1349,1343,1343,1343,1343,1343,1343,1343,1343,1343,1343,1343,1343,1343,1343,1343,1343,1343,1338,1338,1343,1343,1343,1343,1338,1338,1338,1338,1338,1338,1333,1333,1333,1328,1328,992,989,987,984,981,978,975,973,973,970,970,970,970,970,970,970,973,975,975,978,978,981,981,981,981,981,981,1333,1333,1333,1333,1328,1328,1322,1322,1322,1322,1328,1328,1328,1328,1328,1322,1322,1322,1322,1322,1322,1322,1317,1317,1322,1322,1322,1317,1317,1317,1317,1317,1312,1312,1312,1312,1312,1312,1312,1317,1317,1317,1317,1312,1312,1312,1312,1312,1312,1312,1312,1312,1307,1307,1307,1307,1307,1307,1307,1307,1307,1307,1307,1307,1307,1307,1307,1307,1307,1307,1307,1307,1307,1307,1312,1312,1307,1307,1307,1307,1307,1307,1307,1307,1307,1307,1307,1307,1307,1307,1307,1307,1307,1307,1307,1307,1302,1302,1302,1302,1302,1302,1302,1302,1302,1302,1302,1302,1302,1302,1302,1302,1302,1302,1297,1297,1297,1297,1297,1297,1292,1292,1292,1292,1292,1292,1297,1297,1297,1297,1297,1297,1297,1297,1292,1292,1288,1288,1288,1288,1288,1288,1292,1292,1292,1292,1288,1288,1288,1288,1283,1283,1283,1283,1283,1278,1273,1273,1273,1273,1268,1268,1268,1268,1264,1259,1259,1255,1255,1250,1241,1241,1236,1236,1236,1236,1232,1232,1232,1227,1227,1223,1219,1214,1214,1210,1210,1206,1206,1202,1202,1202,1197,1197,1193,1189,1185,1185,1181,1181,1181,1177,1173,1169,1169,1165,1165,1165,1165,1161,1157,1157,1153,1153,1149,1149,1145,1145,1141,1138,1138,1134,1134,1134,1130,1126,1123,1123,1123,1123,1119,1119,1119,1115,1112,1108,1108,1108,1105,1105,1101,1097,1094,1094,1090,1090,1087,1087,1087,1080,1080,1080,946,943,940,930,930,0,0,0,0,0,0,0,0,0,0,0,0,0,0,0,0,0,0,0,0,0,0,0,0,0,0,0,0,0,0,0,0,0,0
0,0,0,0,0,0,0,0,0,0,0,0,1398,1398,1398,1398,1398,1398,1398,1398,1398,1398,1398,1404,1392,1392,1404,1398,1398,1398,1392,1392,1392,1392,1392,1392,1392,1392,1392,1392,1392,1392,1398,1398,1404,1404,1404,1404,1404,1404,1404,1398,1398,1392,1392,1392,1392,1392,1392,1392,1392,1398,1398,1398,1398,1392,1392,1387,1387,1387,0,0,0,0,1044,1044,1041,1041,1041,1041,1044,1044,1044,1044,1047,1047,1050,1050,1050,1050,1050,1050,1050,1050,0,0,0,0,0,0,0,0,713,710,710,707,706,704,703,703,703,703,704,704,706,707,707,708,708,710,710,710,711,713,714,714,716,716,716,716,717,717,719,719,0,0,0,0,1112,1112,1115,1115,1115,1115,1115,1119,1119,1119,1119,1123,1126,1126,1126,1126,1126,1130,1130,1130,1130,1134,1134,1134,1134,1134,1134,1134,1134,1134,1141,1149,1149,1149,1149,1370,1370,1370,1370,1365,1365,1365,1365,1365,1365,1365,1365,1105,1105,1105,1105,1105,1101,1101,1097,1097,1094,1090,1087,1084,1080,1080,1080,1080,1080,1077,1077,1077,1077,1359,1359,1359,1359,1359,1359,1359,1359,1359,1359,1359,1359,1359,1359,1359,1359,1359,1365,1365,1365,1365,1365,1359,1359,1359,1359,1359,1359,1359,1359,1359,1359,1359,1359,1359,1359,1359,1354,1354,1359,1354,1354,1354,1354,1359,1359,1354,1354,1354,1349,1349,1349,1288,1283,1283,1283,1278,1278,1278,1278,1278,1278,1278,1283,1283,1283,1283,1283,1283,1349,1349,1349,1343,1343,1343,1343,1343,1343,1343,1343,1343,1338,1338,1338,1338,1338,1333,1333,1338,1338,1338,1338,1338,1338,1338,1338,1338,1338,1333,1333,1338,1338,1338,1338,1338,1333,1333,1333,1333,1333,1333,1328,1322,1317,1317,992,989,987,984,981,978,978,973,973,973,970,970,970,970,970,973,973,975,975,978,978,981,981,981,981,981,981,984,1328,1328,1328,1322,1322,1317,1317,1317,1317,1317,1317,1317,1322,1322,1322,1322,1317,1317,1317,1317,1317,1317,1317,1317,1317,1317,1317,1317,1312,1312,1312,1312,1312,1312,1312,1312,1312,1312,1312,1312,1312,1312,1312,1312,1312,1312,1307,1307,1307,1307,1307,1307,1307,1307,1307,1307,1307,1302,1302,1302,1302,1302,1302,1302,1302,1302,1307,1302,1302,1307,1307,1307,1307,1302,1302,1302,1297,1297,1302,1302,1302,1302,1302,1302,1302,1302,1302,1302,1302,1302,1302,1302,1302,1302,1302,1302,1302,1302,1302,1302,1297,1297,1297,1297,1297,1297,1297,1297,1297,1297,1297,1292,1292,1292,1292,1292,1292,1292,1292,1292,1292,1292,1292,1288,1288,1292,1292,1292,1292,1292,1292,1292,1292,1292,1288,1288,1288,1288,1283,1283,1283,1283,1283,1283,1288,1288,1283,1278,1278,1278,1278,1278,1278,1278,1278,1273,1273,1273,1273,1268,1268,1268,1268,1264,1259,1259,1255,1255,1250,1245,1241,1241,1236,1236,1236,1232,1232,1227,1227,1227,1223,1219,1214,1214,1210,1210,1206,1206,1202,1202,1202,1197,1197,1193,1189,1185,1185,1181,1181,1181,1181,1177,1173,1169,1169,1165,1165,1165,1165,1161,1157,1153,1153,1149,1149,1145,1145,1141,1138,1138,1134,1134,1134,1130,1126,1123,1123,1123,1123,1123,1119,1119,1115,1112,1112,1108,1108,1105,1105,1105,1097,1094,1094,1090,1090,1087,1084,1084,1080,948,946,946,943,940,933,933,0,0,0,0,0,0,0,0,0,0,0,0,0,0,0,0,0,0,0,0,0,0,0,0,0,0,0,0,0,0,0,0,0,0
0,0,0,0,0,0,0,0,0,0,0,0,1398,1398,1398,1398,1392,1392,1392,1392,1392,1392,1392,1392,1392,1398,1392,1392,1398,1392,1392,1392,1392,1392,1392,1387,1387,1387,1387,1392,1387,1387,1387,1392,1392,1398,1404,1398,1398,1398,1398,1392,1392,1392,1392,1392,1392,1392,1392,1392,1392,1398,1398,1392,1392,1392,1387,1381,1376,1376,0,0,0,0,1047,1044,1041,1041,1041,1041,1041,1044,1047,1047,1050,1050,1050,1050,1050,1050,1050,1050,1050,1050,1050,0,0,0,0,0,0,0,713,710,710,707,707,706,704,703,703,703,704,706,706,708,708,708,708,710,710,711,711,713,714,714,716,716,717,717,717,717,719,719,0,0,0,0,0,0,1115,1115,1115,1115,1119,1119,1119,1119,1119,1123,1126,1126,1126,1126,1126,1130,1130,1130,1130,1130,1130,1130,1130,1134,1134,1134,1134,1134,1149,1149,1149,1149,1365,1365,1365,1365,1365,1365,1365,1359,1359,1359,1365,1365,1365,1105,1105,1105,1105,1105,1101,1101,1097,1097,1094,1087,1084,1080,1080,1077,1077,1077,1077,1077,1077,1077,1077,1077,1359,1354,1354,1354,1354,1359,1354,1354,1354,1354,1354,1354,1354,1354,1354,1354,1354,1359,1359,1359,1359,1359,1359,1354,1354,1354,1354,1354,1354,1354,1354,1354,1354,1354,1354,1354,1354,1354,1354,1354,1354,1354,1354,1354,1354,1354,1349,1349,1349,1343,1343,1288,1288,1283,1283,1283,1278,1278,1278,1278,1278,1278,1283,1283,1283,1283,1283,1283,1288,1343,1343,1338,1338,1338,1338,1338,1338,1338,1338,1338,1338,1338,1338,1338,1333,1333,1333,1333,1328,1328,1328,1328,1328,1333,1333,1333,1333,1333,1333,1333,1333,1333,1333,1333,1328,1328,1328,1328,1333,1328,1322,1317,1317,1312,1312,1312,989,987,984,981,978,975,975,973,973,970,970,970,970,973,973,975,978,978,981,981,981,981,981,981,984,0,1328,1328,1317,1317,1317,1312,1312,1312,1312,1312,1312,1312,1312,1312,1312,1312,1317,1317,1317,1317,1312,1312,1312,1312,1312,1312,1312,1312,1312,1312,1312,1312,1307,1307,1307,1307,1307,1307,1307,1307,1307,1307,1307,1307,1307,1307,1307,1307,1302,1302,1302,1302,1302,1302,1302,1302,1302,1302,1297,1297,1302,1302,1302,1297,1297,1297,1302,1302,1302,1297,1297,1297,1297,1297,1297,1297,1297,1292,1292,1292,1292,1297,1297,1297,1297,1297,1297,1297,1297,1297,1297,1297,1297,1297,1297,1297,1297,1297,1292,1292,1292,1292,1292,1292,1292,1292,1292,1292,1292,1292,1292,1292,1292,1288,1288,1288,1288,1288,1288,1288,1288,1288,1288,1288,1288,1288,1288,1288,1288,1292,1292,1292,1288,1288,1288,1288,1283,1283,1283,1278,1278,1278,1278,1273,1273,1273,1273,1273,1278,1278,1278,1278,1278,1278,1273,1273,1273,1273,1268,1268,1268,1268,1268,1264,1259,1259,1255,1255,1250,1245,1241,1241,1241,1236,1236,1232,1232,1227,1227,1227,1223,1219,1214,1214,1210,1210,1206,1206,1202,1202,1202,1197,1197,1193,1193,1185,1185,1185,1181,1181,1181,1177,1177,1173,1169,1165,1165,1165,1165,1161,1157,1153,1153,1149,1149,1145,1145,1141,1138,1138,1138,1134,1134,1134,1130,1123,1123,1123,1123,1123,1119,1119,1115,1115,1112,1108,1108,1105,1105,1105,1097,1097,1094,1090,1090,1087,1084,1084,943,943,946,946,943,933,928,928,0,0,0,0,0,0,0,0,0,0,0,0,0,0,0,0,0,0,0,0,0,0,0,0,0,0,0,0,0,0,0,0,0,0
0,0,0,0,0,0,0,0,0,0,0,0,1404,1398,1398,1392,1392,1392,1392,1387,1387,1387,1387,1387,1392,1392,1392,1392,1392,1392,1387,1387,1387,1387,1387,1387,1387,1387,1387,1387,1381,1381,1381,1381,1381,1381,1381,1381,1381,1392,1392,1392,1387,1387,1387,1387,1387,1387,1387,1392,1392,1392,1392,1392,1387,1387,1381,1381,1370,1370,1370,1370,0,1047,1047,1041,1041,1041,1041,1041,1041,1044,1047,1050,1050,1050,1050,1050,1050,1050,1054,1054,1050,1050,1050,0,0,0,0,0,0,0,0,711,710,707,707,706,704,704,704,704,704,706,708,708,708,710,710,710,710,711,713,713,714,714,716,716,717,717,717,717,719,720,0,0,0,0,0,0,1115,1115,1115,1115,1119,1119,1119,1123,1123,1123,1126,1126,1130,1130,1130,1130,1126,1126,1130,1130,1130,1130,1130,1134,1359,1354,1354,1359,1359,1359,1359,1359,1359,1359,1359,1359,1359,1359,1359,1359,1359,1354,1354,1359,1359,1354,1112,1112,1112,1105,1105,1101,1101,1094,1090,1084,1084,1080,1077,1077,1077,1077,1077,1073,1073,1073,1073,1073,1354,1354,1354,1354,1354,1354,1354,1349,1349,1349,1349,1349,1349,1349,1349,1349,1349,1349,1354,1354,1354,1354,1354,1349,1349,1349,1349,1349,1349,1349,1349,1349,1349,1349,1349,1349,1349,1349,1349,1349,1349,1349,1349,1349,1349,1349,1349,1349,1343,1343,1343,1307,1292,1288,1288,1283,1283,1283,1283,1278,1278,1283,1283,1283,1283,1283,1283,1288,1288,1338,1338,1333,1333,1333,1333,1333,1333,1333,1333,1333,1333,1333,1333,1333,1328,1328,1328,1328,1328,1328,1328,1328,1328,1328,1328,1328,1328,1328,1328,1328,1328,1328,1328,1328,1328,1328,1328,1328,1328,1322,1317,1312,1312,1312,1312,1312,989,989,984,981,981,978,978,975,973,973,973,973,973,973,975,978,978,981,981,981,981,981,981,981,984,984,1317,1317,1317,1317,1312,1312,1312,1312,1312,1312,1312,1307,1307,1307,1307,1307,1307,1307,1307,1307,1312,1312,1307,1307,1307,1307,1307,1307,1307,1307,1307,1307,1307,1307,1307,1307,1302,1302,1302,1307,1307,1307,1307,1307,1307,1302,1302,1302,1302,1302,1297,1297,1297,1297,1297,1297,1297,1292,1292,1297,1297,1297,1297,1297,1292,1292,1297,1297,1297,1297,1297,1297,1297,1292,1292,1292,1292,1292,1292,1292,1292,1292,1292,1292,1292,1292,1292,1292,1292,1292,1292,1292,1292,1292,1292,1292,1292,1292,1292,1288,1288,1288,1288,1288,1292,1292,1292,1292,1292,1288,1288,1288,1288,1288,1283,1283,1283,1283,1288,1283,1283,1283,1283,1283,1283,1283,1283,1288,1288,1288,1288,1288,1288,1283,1283,1283,1278,1278,1278,1273,1273,1273,1273,1273,1273,1268,1268,1268,1268,1268,1273,1273,1273,1273,1273,1273,1273,1268,1268,1268,1268,1268,1268,1264,1259,1255,1255,1255,1250,1245,1245,1245,1241,1241,1236,1236,1232,1232,1227,1227,1223,1219,1214,1214,1214,1210,1210,1206,1206,1202,1202,1197,1197,1193,1193,1189,1185,1185,1181,1181,1181,1177,1177,1173,1169,1169,1165,1165,1165,1161,1161,1153,1153,1153,1149,1149,1145,1141,1138,1138,1138,1134,1134,1134,1130,1130,1123,1123,1123,1123,1119,1119,1115,1115,1112,1108,1108,1105,1105,1105,1101,1097,1094,1094,1090,1087,1087,948,943,943,946,943,938,928,925,925,0,0,0,0,0,0,0,0,0,0,0,0,0,0,0,0,0,0,0,0,0,0,0,0,0,0,0,0,0,0,0,0,0,0
0,0,0,0,0,0,0,0,0,0,0,0,0,1392,1392,1387,1387,1387,1387,1387,1381,1381,1381,1381,1381,1387,1387,1387,1387,1387,1387,1387,1387,1387,1387,1387,1387,1381,1381,1381,1381,1376,1376,1376,1381,1381,1376,1376,1376,1381,1381,1381,1387,1387,1387,1387,1387,1387,1387,1387,1387,1387,1387,1387,1387,1381,1381,1376,1370,1370,1365,1365,1365,1365,1041,1041,1041,1041,1041,1044,1044,1047,1050,1050,1050,1050,1050,1050,1054,1054,1054,1054,1057,1057,1060,1063,0,0,0,0,0,0,0,0,0,0,707,706,704,704,704,704,706,707,708,708,708,710,710,710,710,711,713,714,714,716,716,716,717,717,717,719,720,720,0,0,0,0,0,0,1115,1115,1115,1115,1119,1119,1119,1123,1123,1126,1126,1130,1130,1130,1130,1130,1126,1126,1130,1354,1354,1354,1359,1359,1359,1354,1354,1359,1359,1359,1359,1359,1359,1354,1354,1354,1349,1349,1349,1349,1354,1354,1354,1354,1354,1354,1354,1097,1097,1097,1101,1101,1101,1094,1090,1084,1080,1077,1077,1073,1073,1073,1073,1070,1070,1070,1070,1070,1070,1354,1354,1354,1354,1354,1354,1349,1349,1349,1349,1343,1343,1343,1343,1343,1343,1343,1349,1349,1349,1349,1349,1349,1349,1349,1343,1343,1349,1349,1349,1343,1343,1343,1343,1343,1349,1349,1349,1343,1343,1343,1343,1343,1343,1343,1343,1343,1343,1338,1338,1307,1292,1288,1288,1288,1283,1283,1283,1283,1283,1283,1283,1283,1283,1283,1283,1288,1292,1322,1328,1328,1328,1328,1328,1328,1328,1328,1328,1328,1328,1328,1328,1328,1328,1322,1322,1322,1322,1322,1322,1322,1322,1322,1322,1322,1322,1322,1322,1322,1322,1328,1328,1328,1322,1322,1322,1322,1322,1317,1317,1312,1312,1312,1312,1312,992,989,987,984,981,978,978,978,975,975,975,975,975,975,978,978,981,981,981,984,984,984,984,984,987,987,0,1312,1312,1312,1312,1307,1307,1307,1307,1307,1307,1302,1302,1307,1302,1302,1302,1302,1302,1307,1302,1302,1302,1302,1302,1302,1302,1302,1302,1302,1307,1307,1307,1302,1302,1302,1302,1297,1297,1302,1302,1302,1297,1297,1302,1302,1297,1297,1297,1297,1292,1292,1292,1292,1292,1292,1292,1292,1292,1292,1292,1292,1292,1292,1292,1292,1292,1292,1292,1292,1292,1292,1292,1292,1292,1292,1292,1288,1288,1288,1288,1288,1288,1288,1288,1288,1288,1288,1288,1292,1292,1292,1292,1292,1292,1292,1292,1288,1288,1288,1288,1288,1288,1288,1288,1288,1288,1288,1288,1283,1283,1278,1278,1278,1278,1278,1278,1283,1283,1283,1278,1278,1278,1278,1278,1278,1278,1278,1278,1283,1283,1283,1283,1283,1278,1278,1278,1273,1273,1273,1273,1273,1268,1268,1268,1268,1268,1268,1268,1268,1268,1268,1268,1268,1268,1268,1268,1268,1268,1268,1268,1268,1268,1264,1259,1255,1255,1255,1250,1250,1245,1245,1241,1241,1236,1236,1232,1232,1227,1227,1223,1219,1219,1214,1214,1214,1210,1210,1206,1202,1202,1197,1197,1193,1189,1189,1185,1185,1181,1181,1181,1177,1177,1173,1173,1169,1169,1165,1165,1165,1161,1157,1153,1153,1149,1149,1149,1145,1141,1141,1138,1134,1134,1134,1130,1130,1123,1123,1123,1123,1119,1119,1119,1115,1112,1108,1108,1108,1105,1105,1101,1101,1097,1094,1090,1090,948,946,943,943,946,943,930,923,920,920,0,0,0,0,0,0,0,0,0,0,0,0,0,0,0,0,0,0,0,0,0,0,0,0,0,0,0,0,0,0,0,0,0,0
0,0,0,0,0,0,0,0,0,0,0,0,0,1387,1387,1387,1381,1381,1387,1381,1381,1381,1381,1381,1381,1381,1381,1381,1387,1387,1387,1387,1387,1387,1387,1381,1381,1381,1381,1381,1376,1376,1376,1376,1376,1376,1376,1376,1376,1376,1376,1376,1376,1381,1381,1381,1381,1381,1381,1381,1381,1381,1381,1381,1376,1376,1370,1370,1365,1365,1365,1365,1365,1365,1041,1041,1041,1041,1041,1044,1047,1047,1050,1050,1050,1050,1050,1050,1054,1057,1057,1057,1057,1060,1060,1060,0,0,0,0,0,0,0,0,0,0,706,704,704,704,704,706,707,708,708,708,710,710,710,710,710,711,713,714,714,716,716,717,717,719,719,720,720,720,720,0,0,0,0,0,1115,1115,1115,1115,1119,1119,1119,1123,1123,1126,1130,1130,1130,1130,1130,1130,1130,1349,1349,1349,1349,1349,1349,1349,1354,1349,1349,1354,1354,1354,1354,1354,1354,1354,1349,1349,1349,1349,1349,1349,1349,1349,1349,1349,1349,1349,1349,1349,1097,1097,1097,1101,1101,1101,1090,1084,1080,1077,1077,1073,1073,1073,1070,1070,1070,1070,1067,1067,1067,1067,1354,1354,1354,1354,1349,1349,1343,1343,1343,1343,1338,1338,1343,1338,1338,1343,1343,1343,1343,1343,1343,1343,1343,1343,1343,1343,1343,1343,1343,1343,1338,1338,1338,1333,1333,1333,1333,1338,1338,1338,1338,1338,1338,1338,1338,1338,1338,1333,1322,1317,1297,1292,1288,1288,1288,1283,1283,1283,1283,1283,1283,1283,1283,1283,1288,1288,1297,1312,1317,1328,1328,1328,1328,1328,1328,1328,1328,1328,1328,1328,1322,1322,1322,1322,1322,1322,1322,1317,1317,1322,1322,1322,1322,1317,1317,1317,1317,1317,1317,1317,1317,1317,1317,1322,1317,1317,1322,1317,1312,1312,1312,1312,1312,1312,1312,989,987,984,984,981,978,978,978,975,975,975,975,978,978,978,981,981,981,984,984,987,987,987,989,989,0,1312,1312,1307,1307,1307,1302,1302,1302,1302,1302,1297,1297,1302,1297,1297,1302,1302,1302,1302,1302,1302,1297,1297,1292,1292,1292,1297,1297,1297,1302,1302,1302,1297,1297,1297,1297,1292,1292,1292,1297,1292,1292,1292,1297,1297,1292,1292,1292,1292,1292,1292,1288,1288,1292,1292,1292,1288,1288,1292,1292,1292,1292,1292,1288,1288,1288,1288,1288,1288,1288,1288,1288,1288,1288,1288,1288,1288,1288,1283,1283,1283,1283,1283,1283,1283,1288,1288,1283,1283,1283,1288,1288,1288,1288,1288,1288,1288,1283,1283,1283,1283,1283,1283,1283,1283,1283,1283,1283,1278,1278,1278,1278,1273,1273,1273,1273,1278,1278,1278,1278,1273,1273,1273,1273,1273,1273,1273,1273,1273,1278,1278,1278,1278,1273,1273,1273,1273,1268,1268,1268,1268,1268,1268,1268,1268,1268,1268,1268,1268,1268,1268,1268,1268,1264,1264,1268,1264,1264,1268,1268,1264,1264,1259,1259,1255,1255,1255,1250,1250,1245,1245,1241,1241,1236,1236,1232,1232,1232,1227,1227,1223,1219,1214,1214,1214,1214,1210,1210,1206,1202,1202,1197,1193,1189,1189,1185,1185,1181,1181,1181,1181,1177,1173,1173,1169,1169,1165,1165,1165,1157,1157,1153,1153,1153,1149,1149,1145,1141,1141,1138,1138,1134,1134,1134,1130,1130,1126,1123,1123,1119,1119,1119,1115,1112,1108,1108,1108,1108,1105,1105,1105,1101,1097,1097,948,948,946,943,943,943,940,928,923,918,918,0,0,0,0,0,0,0,0,0,0,0,0,0,0,0,0,0,0,0,0,0,0,0,0,0,0,0,0,0,0,0,0,0,0
0,0,0,0,0,0,0,0,0,0,0,0,1381,1381,1381,1381,1381,1381,1376,1376,1376,1376,1376,1376,1376,1376,1381,1381,1381,1381,1381,1381,1381,1381,1381,1381,1381,1376,1376,1376,1376,1376,1376,1376,1376,1376,1370,1370,1370,1370,1370,1376,1376,1376,1376,1376,1376,1370,1370,1370,1381,1376,1376,1376,1370,1370,1370,1365,1365,1365,1365,1365,1365,1365,1365,1047,1047,1047,1047,1050,1050,1050,1050,1050,1050,1050,1050,1050,1054,1057,1057,1057,1060,1060,1060,1060,0,0,0,0,0,0,0,0,0,0,706,704,704,704,706,706,708,708,708,710,710,710,710,711,711,714,714,714,716,716,716,717,719,719,720,720,720,720,720,720,0,0,0,0,0,1115,1115,1115,1115,1119,1119,1119,1123,1130,1130,1134,1134,1134,1349,1343,1343,1349,1349,1343,1343,1349,1349,1349,1349,1343,1343,1349,1349,1349,1349,1349,1349,1349,1343,1343,1343,1343,1343,1349,1349,1349,1349,1343,1343,1349,1343,1343,1097,1097,1097,1101,1101,1097,1090,1084,1080,1077,1077,1073,1073,1070,1070,1070,1070,1067,1063,1063,1063,1063,1354,1354,1354,1354,1349,1343,1343,1343,1338,1338,1338,1338,1338,1338,1333,1333,1338,1338,1338,1338,1338,1338,1338,1338,1338,1338,1338,1338,1338,1333,1333,1333,1333,1328,1328,1328,1328,1328,1328,1328,1328,1328,1333,1333,1333,1333,1333,1328,1322,1317,1307,1297,1292,1292,1288,1288,1283,1283,1283,1283,1283,1283,1288,1288,1288,1292,1302,1307,1312,1322,1322,1322,1322,1322,1322,1322,1322,1322,1322,1322,1322,1322,1317,1317,1317,1317,1317,1317,1317,1317,1317,1317,1317,1317,1312,1312,1312,1312,1312,1312,1312,1312,1312,1312,1312,1312,1312,1312,1312,1312,1312,1312,1312,1312,1312,992,989,987,984,981,981,978,978,978,978,978,978,978,978,981,981,981,984,987,987,989,989,989,992,992,0,1307,1307,1307,1302,1302,1297,1297,1297,1297,1297,1297,1297,1297,1297,1297,1297,1297,1297,1297,1297,1292,1292,1292,1292,1292,1292,1292,1292,1292,1292,1292,1297,1292,1292,1292,1292,1292,1292,1292,1292,1292,1292,1292,1292,1292,1288,1288,1288,1288,1288,1288,1288,1288,1288,1288,1288,1288,1288,1288,1288,1288,1288,1288,1288,1288,1283,1283,1283,1283,1288,1288,1288,1288,1288,1288,1283,1283,1283,1278,1278,1283,1283,1283,1283,1283,1283,1283,1283,1283,1283,1283,1283,1283,1283,1283,1283,1283,1278,1278,1278,1278,1278,1278,1283,1283,1283,1283,1278,1278,1273,1273,1273,1273,1273,1273,1273,1273,1273,1273,1273,1273,1273,1273,1273,1273,1268,1268,1268,1273,1273,1273,1273,1273,1273,1273,1273,1268,1268,1268,1268,1268,1268,1268,1268,1268,1264,1264,1264,1264,1264,1264,1264,1264,1264,1264,1264,1259,1259,1259,1259,1259,1259,1259,1255,1255,1255,1255,1250,1250,1245,1245,1245,1241,1236,1236,1232,1232,1232,1227,1227,1223,1219,1214,1214,1214,1214,1214,1210,1206,1202,1202,1197,1197,1193,1189,1185,1185,1181,1181,1181,1181,1177,1173,1173,1169,1169,1165,1165,1165,1157,1157,1157,1153,1153,1149,1149,1145,1141,1141,1141,1138,1134,1134,1134,1134,1130,1126,1123,1123,1123,1119,1119,1115,1112,1112,1108,1108,1108,1108,1105,1105,1105,1105,1105,948,948,948,946,946,943,933,925,920,915,915,0,0,0,0,0,0,0,0,0,0,0,0,0,0,0,0,0,0,0,0,0,0,0,0,0,0,0,0,0,0,0,0,0,0
0,0,0,0,0,0,0,0,0,0,0,1376,1376,1376,1376,1376,1376,1376,1376,1376,1376,1376,1370,1370,1370,1370,1376,1376,1381,1381,1381,1381,1370,1365,1365,1376,1376,1376,1376,1376,1376,1376,1370,1370,1370,1370,1370,1370,1365,1365,1370,1370,1370,1370,1370,1370,1370,1365,1365,1365,1365,1370,1365,1365,1370,1370,1365,1365,1365,1365,1365,1359,1338,1333,1322,1317,1317,1054,1050,1050,1054,1054,1054,1054,1054,1054,1054,1054,1057,1057,1060,1060,1060,1060,1060,1060,1060,0,0,0,0,0,0,0,0,0,0,708,706,706,706,707,708,708,710,710,710,710,711,713,713,714,714,714,716,716,717,717,719,720,720,720,722,720,720,720,0,0,0,0,0,0,1112,1112,1115,1119,1119,1119,1134,1134,1134,1338,1343,1343,1343,1343,1343,1343,1343,1343,1343,1343,1343,1343,1343,1338,1338,1343,1343,1343,1338,1338,1338,1343,1343,1343,1343,1343,1343,1343,1343,1343,1343,1343,1343,1343,1343,1338,1328,1328,1101,1101,1101,1097,1090,1087,1084,1077,1077,1073,1073,1070,1067,1067,1067,1063,1063,1063,1060,1060,1060,1060,1354,1354,1343,1343,1343,1338,1338,1338,1338,1338,1338,1333,1333,1333,1333,1328,1328,1328,1333,1333,1333,1333,1333,1328,1328,1328,1328,1328,1328,1328,1328,1328,1328,1328,1328,1328,1328,1328,1328,1328,1328,1328,1328,1328,1328,1322,1317,1312,1307,1302,1297,1292,1292,1288,1288,1283,1283,1283,1283,1288,1288,1288,1288,1292,1302,1307,1307,1317,1317,1317,1322,1322,1317,1317,1317,1317,1322,1322,1317,1317,1317,1312,1312,1312,1312,1312,1312,1312,1312,1312,1312,1312,1312,1312,1307,1307,1307,1307,1307,1307,1307,1307,1307,1307,1312,1312,1312,1312,1312,1307,1307,1312,1312,992,992,989,987,984,984,981,981,978,978,978,978,978,981,981,981,984,987,989,989,989,989,992,992,992,0,1302,1302,1302,1297,1297,1297,1297,1297,1297,1292,1292,1292,1292,1292,1292,1292,1292,1292,1292,1292,1288,1288,1288,1288,1288,1288,1288,1288,1288,1288,1288,1288,1288,1288,1292,1292,1292,1288,1288,1288,1288,1288,1288,1288,1288,1288,1288,1288,1288,1288,1288,1283,1283,1288,1288,1288,1283,1283,1288,1288,1283,1283,1283,1283,1283,1278,1278,1278,1278,1283,1283,1283,1283,1283,1283,1283,1283,1283,1278,1278,1278,1278,1278,1278,1278,1278,1278,1278,1278,1273,1273,1273,1273,1273,1273,1273,1273,1273,1273,1273,1273,1273,1273,1278,1278,1278,1278,1273,1273,1273,1273,1273,1273,1273,1268,1268,1273,1273,1268,1268,1268,1268,1268,1268,1268,1268,1264,1264,1268,1268,1268,1268,1268,1268,1268,1268,1264,1264,1264,1264,1264,1264,1264,1264,1264,1264,1264,1259,1259,1259,1259,1259,1259,1259,1259,1259,1259,1255,1255,1255,1255,1255,1255,1250,1250,1250,1250,1250,1245,1245,1245,1245,1241,1236,1236,1232,1232,1232,1227,1227,1223,1223,1219,1214,1214,1214,1214,1210,1206,1206,1202,1197,1197,1193,1189,1185,1185,1181,1181,1181,1181,1177,1173,1173,1173,1169,1169,1165,1165,1161,1157,1157,1153,1153,1153,1149,1149,1141,1141,1141,1138,1138,1134,1134,1134,1130,1130,1126,1123,1119,1119,1119,1115,1112,1112,1108,1108,1108,1108,1108,1108,1108,1108,951,951,948,948,946,946,928,925,920,918,915,915,0,0,0,0,0,0,0,0,0,0,0,0,0,0,0,0,0,0,0,0,0,0,0,0,0,0,0,0,0,0,0,0,0,0
0,0,0,0,0,0,0,0,0,0,0,1376,1376,1376,1376,1376,1370,1370,1370,1370,1370,1370,1370,1370,1370,1370,1370,1376,1376,1376,1370,1370,1370,1365,1365,1370,1370,1370,1370,1370,1370,1370,1370,1370,1370,1365,1365,1365,1365,1365,1365,1365,1359,1359,1365,1365,1365,1365,1365,1365,1365,1365,1359,1354,1354,1354,1354,1359,1359,1359,1359,1359,1338,1333,1322,1317,1317,1054,1054,1054,1054,1054,1050,1050,1054,1054,1054,1054,1057,1057,1060,1060,1060,1060,1060,1060,1060,0,0,0,0,0,0,0,0,0,0,0,710,708,708,710,710,710,710,710,710,711,713,713,714,714,714,716,716,716,717,719,719,720,720,722,722,722,722,722,0,0,0,0,0,1105,1105,1105,1115,1115,1119,1343,1343,1338,1338,1338,1343,1343,1343,1343,1343,1343,1338,1338,1338,1338,1338,1338,1338,1338,1338,1338,1338,1338,1338,1338,1338,1338,1338,1338,1338,1338,1338,1343,1343,1343,1343,1343,1343,1343,1338,1338,1328,1328,1328,1105,1105,1101,1094,1090,1084,1077,1073,1073,1070,1067,1063,1063,1063,1060,1060,1060,1057,1057,1054,1054,1050,1050,1343,1343,1338,1338,1338,1338,1333,1333,1333,1328,1328,1328,1328,1328,1328,1328,1328,1328,1328,1328,1328,1322,1322,1322,1322,1322,1322,1322,1322,1328,1328,1328,1328,1322,1322,1322,1322,1322,1322,1322,1322,1322,1317,1317,1317,1312,1307,1302,1302,1297,1292,1288,1288,1288,1288,1288,1288,1288,1288,1288,1292,1297,1302,1307,1307,1312,1312,1312,1317,1317,1317,1317,1312,1312,1317,1317,1312,1312,1312,1312,1307,1307,1307,1307,1307,1307,1307,1307,1307,1307,1307,1307,1307,1307,1307,1307,1307,1302,1302,1302,1302,1302,1307,1307,1307,1307,1307,1307,1302,1302,1302,992,992,989,989,987,987,984,981,981,978,978,981,981,981,981,981,984,987,989,989,992,992,992,995,995,0,1302,1302,1302,1292,1292,1292,1292,1292,1292,1292,1288,1288,1288,1288,1288,1288,1288,1288,1288,1288,1288,1288,1288,1288,1288,1283,1283,1283,1283,1283,1283,1283,1283,1283,1283,1283,1283,1283,1283,1283,1283,1283,1283,1283,1283,1278,1278,1283,1283,1283,1283,1278,1278,1283,1283,1283,1283,1283,1283,1283,1278,1278,1278,1278,1278,1278,1278,1278,1278,1278,1278,1278,1278,1278,1278,1278,1278,1278,1273,1273,1273,1273,1273,1273,1273,1273,1273,1273,1268,1268,1268,1268,1268,1264,1264,1268,1268,1268,1268,1268,1268,1268,1268,1273,1273,1273,1273,1273,1273,1273,1273,1268,1268,1268,1268,1268,1268,1268,1268,1264,1264,1264,1264,1264,1264,1264,1264,1264,1264,1264,1264,1264,1264,1264,1264,1264,1259,1259,1259,1259,1259,1259,1259,1259,1259,1259,1259,1255,1255,1255,1255,1255,1255,1255,1255,1255,1255,1255,1255,1255,1255,1255,1255,1250,1250,1245,1245,1245,1245,1241,1241,1241,1241,1236,1236,1236,1232,1232,1227,1227,1223,1223,1219,1214,1214,1214,1214,1210,1206,1206,1202,1197,1197,1197,1189,1189,1185,1185,1185,1181,1181,1181,1177,1177,1173,1169,1169,1169,1165,1161,1157,1157,1157,1153,1153,1153,1149,1145,1145,1141,1141,1138,1138,1134,1134,1130,1130,1126,1123,1119,1119,1119,1115,1112,1112,1108,1108,1108,1108,1108,1108,1108,1108,951,951,948,946,943,928,928,923,920,918,915,915,0,0,0,0,0,0,0,0,0,0,0,0,0,0,0,0,0,0,0,0,0,0,0,0,0,0,0,0,0,0,0,0,0,0
0,0,0,0,0,0,0,0,0,0,1365,1365,1370,1370,1370,1370,1370,1370,1365,1365,1365,1365,1365,1365,1365,1365,1365,1370,1370,1370,1365,1365,1370,1370,1370,1365,1365,1365,1365,1365,1365,1365,1365,1365,1365,1365,1365,1365,1359,1359,1359,1354,1354,1354,1359,1359,1359,1359,1359,1359,1359,1354,1354,1349,1349,1349,1349,1354,1354,1354,1354,1359,1343,1338,1322,1322,1322,1057,1057,1054,1054,1054,1050,1050,1054,1054,1057,1057,1057,1057,1060,1060,1060,1060,1060,1060,1063,0,0,0,0,0,0,0,0,0,0,0,0,711,710,710,710,711,711,713,711,711,713,714,714,716,716,716,716,716,717,719,720,720,722,722,722,722,722,723,0,0,0,0,0,1105,1105,1105,1108,1108,1119,1333,1333,1333,1333,1333,1338,1338,1338,1338,1338,1338,1338,1338,1338,1338,1333,1333,1333,1333,1333,1338,1338,1333,1333,1333,1333,1333,1333,1338,1338,1338,1338,1338,1338,1338,1338,1338,1338,1338,1338,1333,1328,1328,1322,1322,1105,1101,1094,1090,1084,1077,1073,1073,1067,1067,1063,1063,1063,1060,1060,1057,1054,1054,1054,1050,1047,1047,1047,1338,1338,1338,1338,1333,1333,1333,1328,1328,1328,1328,1328,1328,1328,1328,1328,1328,1328,1322,1322,1322,1322,1322,1322,1322,1322,1322,1322,1322,1322,1322,1322,1322,1322,1322,1322,1322,1322,1322,1322,1317,1317,1317,1312,1312,1307,1307,1302,1297,1292,1288,1288,1288,1288,1288,1288,1288,1288,1288,1292,1297,1302,1302,1307,1307,1312,1312,1312,1312,1312,1312,1312,1312,1312,1312,1307,1307,1307,1307,1307,1307,1307,1307,1307,1307,1307,1302,1302,1302,1302,1302,1302,1302,1302,1302,1302,1302,1297,1297,1302,1302,1302,1302,1302,1302,1302,1302,1302,1302,1312,998,998,992,989,989,987,984,981,981,981,981,981,981,981,981,984,984,989,989,992,992,992,995,998,998,0,1292,1292,1292,1292,1288,1288,1288,1288,1288,1288,1288,1288,1288,1288,1288,1288,1288,1288,1288,1288,1283,1283,1283,1283,1283,1283,1283,1278,1278,1278,1278,1278,1278,1278,1278,1278,1278,1278,1278,1278,1278,1283,1278,1278,1278,1278,1278,1278,1278,1278,1278,1278,1278,1278,1278,1278,1278,1278,1278,1278,1278,1278,1278,1273,1273,1273,1273,1273,1273,1273,1273,1273,1273,1273,1273,1273,1273,1268,1268,1268,1268,1268,1268,1268,1268,1268,1268,1268,1268,1264,1264,1268,1264,1259,1259,1264,1264,1264,1264,1264,1264,1268,1264,1264,1268,1268,1268,1268,1268,1268,1268,1268,1268,1268,1264,1264,1264,1264,1264,1264,1259,1259,1259,1259,1259,1255,1255,1255,1255,1259,1259,1259,1259,1259,1264,1259,1259,1259,1255,1255,1255,1255,1255,1255,1255,1255,1255,1255,1255,1255,1255,1255,1250,1250,1255,1255,1255,1255,1250,1250,1250,1250,1250,1250,1245,1241,1241,1241,1241,1236,1236,1236,1236,1236,1236,1236,1232,1232,1232,1227,1223,1219,1219,1214,1214,1214,1214,1210,1210,1206,1202,1202,1197,1197,1193,1189,1185,1185,1185,1181,1181,1181,1177,1177,1177,1173,1169,1169,1165,1161,1161,1157,1157,1153,1153,1153,1149,1145,1145,1141,1141,1138,1138,1134,1134,1130,1130,1126,1123,1119,1119,1119,1115,1112,1112,1108,1108,1108,1105,1105,1108,1108,948,948,948,946,946,928,925,923,920,918,915,915,915,0,0,0,0,0,0,0,0,0,0,0,0,0,0,0,0,0,0,0,0,0,0,0,0,0,0,0,0,0,0,0,0,0,0
0,0,0,0,0,0,0,0,0,0,1365,1365,1365,1365,1365,1365,1365,1365,1365,1359,1359,1359,1359,1359,1365,1365,1365,1365,1365,1365,1359,1359,1359,1359,1359,1359,1365,1359,1359,1359,1365,1365,1365,1365,1359,1359,1359,1354,1354,1354,1349,1349,1349,1349,1349,1354,1354,1354,1354,1354,1354,1349,1349,1349,1349,1349,1349,1349,1349,1349,1349,1349,1343,1333,1322,1322,1322,1060,1060,1054,1054,1054,1054,1054,1057,1057,1057,1060,1060,1060,1060,1060,1060,1060,1060,1060,1063,0,0,0,0,0,0,0,0,0,0,0,0,711,711,711,711,711,711,713,713,713,714,714,716,716,716,716,717,717,719,719,720,722,722,723,723,723,725,725,0,0,0,0,0,1105,1105,1105,1108,1108,1333,1333,1333,1333,1333,1333,1333,1333,1338,1333,1333,1333,1328,1328,1333,1328,1328,1328,1328,1328,1328,1333,1333,1328,1328,1328,1333,1333,1333,1333,1333,1333,1333,1333,1333,1333,1333,1333,1333,1333,1333,1328,1328,1322,1322,1317,1317,1101,1097,1090,1087,1080,1077,1073,1067,1067,1063,1060,1060,1060,1057,1057,1054,1054,1050,1050,1047,1047,1047,1047,1338,1338,1338,1333,1333,1333,1328,1328,1322,1322,1322,1322,1322,1322,1322,1322,1322,1322,1322,1317,1317,1317,1317,1317,1317,1317,1317,1317,1317,1317,1317,1317,1317,1317,1317,1317,1317,1317,1317,1312,1312,1312,1312,1307,1307,1302,1302,1302,1297,1292,1288,1288,1288,1288,1288,1288,1288,1288,1292,1297,1302,1302,1307,1307,1307,1307,1307,1307,1307,1307,1307,1307,1307,1307,1307,1307,1307,1307,1307,1302,1302,1302,1302,1302,1302,1302,1302,1302,1302,1302,1302,1297,1297,1297,1297,1297,1297,1297,1297,1297,1302,1302,1302,1302,1302,1297,1292,1292,1292,998,998,992,992,989,989,987,984,981,981,981,981,981,984,984,984,987,989,989,992,992,995,995,998,998,1288,1292,1292,1288,1288,1288,1288,1288,1288,1283,1283,1283,1283,1283,1283,1283,1283,1283,1283,1278,1278,1278,1278,1278,1278,1278,1278,1278,1278,1278,1278,1273,1273,1273,1273,1273,1273,1273,1273,1273,1273,1273,1273,1273,1273,1273,1273,1273,1273,1273,1273,1273,1273,1273,1273,1273,1273,1273,1273,1273,1273,1273,1273,1273,1273,1273,1273,1273,1273,1273,1273,1273,1273,1268,1268,1268,1268,1268,1264,1264,1264,1264,1264,1264,1264,1264,1264,1264,1264,1264,1264,1264,1264,1264,1259,1259,1259,1259,1259,1259,1259,1259,1259,1259,1259,1264,1264,1264,1264,1264,1264,1268,1268,1264,1264,1264,1259,1259,1259,1259,1255,1255,1259,1255,1255,1255,1255,1255,1255,1255,1255,1255,1255,1255,1255,1259,1255,1255,1255,1255,1250,1250,1250,1250,1250,1250,1250,1250,1250,1250,1250,1250,1250,1250,1250,1250,1250,1250,1250,1250,1250,1250,1245,1245,1241,1241,1236,1236,1236,1236,1236,1236,1236,1236,1236,1232,1232,1232,1232,1227,1227,1223,1219,1219,1214,1214,1214,1214,1210,1210,1206,1206,1202,1197,1197,1193,1189,1189,1185,1185,1185,1181,1181,1177,1177,1177,1173,1169,1169,1165,1165,1161,1161,1157,1157,1153,1153,1149,1149,1149,1145,1141,1141,1138,1138,1138,1134,1130,1126,1123,1119,1119,1119,1115,1115,1112,1112,1108,1108,1105,1105,1108,1108,948,948,948,946,943,925,923,918,918,915,913,910,910,0,0,0,0,0,0,0,0,0,0,0,0,0,0,0,0,0,0,0,0,0,0,0,0,0,0,0,0,0,0,0,0,0,0
0,0,0,0,0,0,0,0,0,0,1359,1359,1365,1365,1365,1365,1365,1359,1359,1354,1354,1354,1354,1359,1359,1359,1359,1359,1354,1354,1354,1354,1354,1354,1354,1354,1354,1354,1354,1354,1354,1349,1349,1354,1354,1354,1354,1354,1349,1349,1349,1349,1349,1349,1349,1349,1349,1349,1349,1349,1349,1349,1349,1349,1349,1349,1349,1349,1349,1349,1349,1349,1349,1333,1322,1322,1322,1322,1054,1054,1054,1054,1054,1054,1057,1057,1060,1060,1060,1060,1060,1060,1063,1063,1063,1063,1063,1070,0,0,0,0,0,0,0,0,0,0,0,0,711,711,711,711,711,713,713,713,714,714,716,716,716,716,717,717,720,722,722,723,725,725,725,725,727,728,731,731,0,0,0,0,0,1108,1108,1328,1328,1328,1328,1328,1328,1328,1333,1333,1333,1328,1328,1328,1328,1328,1328,1328,1328,1328,1328,1328,1328,1328,1328,1328,1328,1328,1328,1328,1328,1328,1328,1328,1328,1328,1328,1328,1328,1328,1328,1328,1328,1322,1322,1322,1322,1317,1317,1317,1090,1090,1087,1080,1077,1073,1067,1063,1060,1060,1060,1057,1057,1054,1050,1050,1050,1050,1047,1047,1044,1044,1044,1044,1338,1338,1333,1333,1322,1322,1322,1322,1322,1322,1322,1322,1322,1322,1322,1317,1317,1317,1312,1312,1312,1312,1312,1312,1312,1317,1317,1317,1317,1317,1312,1312,1312,1312,1312,1312,1312,1312,1307,1307,1307,1307,1302,1302,1302,1297,1297,1292,1292,1288,1288,1288,1288,1292,1292,1292,1297,1297,1302,1302,1302,1302,1302,1302,1302,1307,1307,1307,1302,1302,1302,1307,1302,1302,1302,1302,1302,1302,1297,1297,1297,1297,1297,1297,1297,1297,1297,1297,1297,1297,1297,1292,1292,1292,1292,1292,1297,1297,1297,1297,1297,1297,1292,1292,1292,1292,1292,998,998,995,992,992,989,989,987,984,984,984,984,984,984,987,987,989,989,992,992,992,995,995,995,995,1288,1288,1288,1288,1288,1283,1283,1283,1283,1278,1278,1278,1278,1278,1278,1273,1273,1273,1273,1273,1273,1273,1273,1273,1273,1273,1273,1273,1273,1273,1273,1273,1273,1273,1273,1273,1273,1273,1273,1273,1268,1268,1268,1268,1268,1268,1268,1268,1268,1268,1273,1268,1268,1268,1268,1268,1268,1268,1268,1268,1273,1273,1273,1273,1268,1268,1268,1268,1268,1268,1268,1268,1268,1268,1264,1264,1259,1259,1259,1259,1259,1259,1259,1259,1259,1259,1259,1264,1264,1264,1264,1264,1264,1259,1259,1259,1259,1255,1255,1255,1255,1255,1259,1255,1255,1259,1259,1259,1259,1259,1259,1259,1259,1255,1255,1259,1259,1255,1255,1255,1255,1255,1255,1255,1255,1255,1250,1250,1250,1250,1250,1250,1250,1255,1255,1255,1255,1250,1250,1250,1250,1250,1250,1245,1245,1245,1245,1250,1250,1250,1250,1250,1245,1245,1245,1245,1245,1245,1245,1245,1245,1241,1241,1241,1236,1236,1236,1236,1236,1236,1236,1236,1236,1232,1232,1232,1232,1227,1227,1227,1227,1223,1219,1219,1219,1219,1214,1214,1210,1210,1206,1206,1202,1197,1197,1197,1193,1189,1189,1185,1185,1181,1181,1181,1177,1177,1173,1169,1169,1165,1165,1161,1161,1157,1157,1153,1153,1153,1149,1149,1145,1141,1141,1138,1138,1134,1134,1130,1126,1123,1119,1119,1119,1115,1115,1112,1112,1108,1108,1105,1105,954,954,951,948,948,946,940,920,920,918,915,915,913,910,910,0,0,0,0,0,0,0,0,0,0,0,0,0,0,0,0,0,0,0,0,0,0,0,0,0,0,0,0,0,0,0,0,0,0
0,0,0,0,0,0,0,0,0,0,1354,1354,1359,1354,1354,1354,1354,1354,1354,1354,1354,1354,1354,1354,1349,1349,1349,1349,1349,1349,1349,1349,1349,1349,1349,1349,1349,1349,1349,1349,1349,1343,1343,1349,1349,1349,1349,1349,1349,1349,1343,1343,1343,1343,1343,1349,1349,1349,1349,1349,1349,1343,1343,1343,1343,1343,1343,1343,1343,1349,1349,1343,1343,1343,1322,1322,1328,1328,1054,1054,1054,1054,1054,1054,1057,1060,1060,1060,1060,1060,1060,1063,1063,1063,1063,1063,1067,1070,0,0,0,0,0,0,0,0,0,0,0,0,711,711,711,711,711,713,713,714,714,714,716,717,717,717,719,719,720,722,723,725,725,725,725,727,727,728,731,731,0,0,0,0,0,0,0,1328,1328,1328,1328,1328,1328,1328,1328,1328,1328,1328,1328,1322,1322,1322,1322,1322,1322,1328,1328,1328,1328,1328,1328,1322,1322,1322,1322,1322,1322,1322,1322,1322,1322,1322,1322,1328,1322,1322,1328,1322,1322,1322,1317,1317,1317,1312,1312,1312,1307,1307,1090,1087,1080,1077,1070,1063,1060,1060,1057,1057,1054,1054,1050,1050,1050,1047,1047,1047,1044,1041,1041,1044,1044,1333,1333,1322,1322,1322,1322,1322,1317,1317,1317,1317,1317,1317,1317,1317,1312,1312,1312,1312,1312,1312,1312,1312,1312,1312,1312,1312,1312,1307,1307,1307,1307,1307,1307,1312,1312,1307,1307,1307,1307,1302,1302,1302,1297,1297,1292,1292,1292,1288,1288,1292,1292,1292,1292,1292,1297,1297,1302,1302,1302,1302,1302,1302,1302,1302,1302,1302,1302,1302,1302,1302,1302,1302,1297,1297,1302,1297,1297,1292,1292,1292,1292,1292,1292,1292,1292,1292,1292,1292,1292,1292,1288,1288,1288,1288,1292,1292,1292,1292,1292,1292,1288,1288,1288,1288,1004,1004,1004,1001,995,995,992,989,987,987,987,987,987,987,987,987,987,989,989,992,992,995,995,995,995,995,1288,1288,1288,1283,1283,1283,1278,1278,1278,1273,1273,1273,1273,1273,1273,1273,1273,1273,1273,1273,1273,1273,1273,1273,1273,1273,1273,1273,1273,1273,1273,1268,1268,1268,1268,1268,1268,1268,1268,1268,1268,1264,1264,1268,1268,1268,1268,1268,1268,1268,1268,1268,1268,1268,1264,1264,1264,1264,1264,1264,1268,1268,1268,1268,1268,1268,1268,1268,1268,1268,1268,1268,1264,1264,1259,1259,1259,1259,1255,1255,1255,1255,1255,1255,1255,1259,1259,1259,1259,1259,1259,1259,1259,1259,1255,1255,1255,1255,1255,1255,1255,1255,1255,1255,1255,1255,1255,1255,1255,1255,1255,1255,1255,1255,1255,1255,1250,1250,1255,1255,1255,1255,1255,1255,1255,1250,1250,1250,1250,1245,1245,1250,1250,1250,1250,1250,1250,1250,1250,1245,1245,1245,1241,1241,1241,1241,1245,1245,1245,1245,1245,1245,1245,1241,1241,1241,1241,1241,1245,1245,1241,1241,1241,1236,1236,1236,1236,1236,1232,1232,1236,1232,1232,1232,1232,1232,1232,1227,1223,1223,1223,1219,1219,1219,1214,1214,1214,1214,1210,1206,1206,1202,1202,1197,1197,1197,1197,1193,1189,1189,1185,1185,1181,1181,1177,1177,1173,1173,1169,1165,1165,1161,1161,1161,1157,1157,1153,1153,1149,1149,1145,1141,1141,1138,1138,1134,1134,1130,1126,1123,1123,1123,1119,1119,1119,1115,1112,1112,1108,1108,954,954,951,948,948,946,946,930,920,920,918,915,913,910,908,908,0,0,0,0,0,0,0,0,0,0,0,0,0,0,0,0,0,0,0,0,0,0,0,0,0,0,0,0,0,0,0,0,0,0
0,0,0,0,0,0,0,0,0,0,1349,1349,1349,1349,1354,1354,1349,1349,1349,1349,1349,1349,1349,1349,1349,1349,1349,1349,1349,1349,1349,1349,1349,1349,1349,1349,1349,1349,1349,1343,1338,1338,1343,1338,1338,1343,1343,1343,1343,1343,1343,1343,1343,1343,1343,1343,1343,1343,1343,1343,1343,1343,1343,1343,1343,1343,1343,1343,1343,1343,1343,1338,1338,1338,1338,1338,1338,1338,1054,1054,1054,1054,1057,1057,1057,1060,1060,1063,1063,1060,1060,1063,1063,1063,1067,1067,1070,1073,1077,0,0,0,0,0,0,0,0,0,0,0,713,713,711,711,713,714,714,714,714,717,717,717,719,719,720,720,722,722,725,725,725,727,727,727,727,728,728,730,733,0,0,0,0,0,0,1328,1328,1322,1322,1322,1322,1322,1322,1322,1322,1322,1322,1322,1322,1322,1322,1322,1322,1322,1322,1322,1322,1322,1322,1322,1322,1322,1317,1317,1317,1322,1322,1317,1317,1317,1317,1322,1322,1322,1322,1317,1317,1317,1317,1317,1312,1312,1312,1312,1307,1307,1307,1307,1080,1073,1070,1063,1060,1060,1057,1054,1050,1047,1044,1044,1044,1044,1044,1044,1041,1038,1038,1038,1038,1038,1322,1322,1322,1322,1317,1317,1317,1317,1317,1312,1312,1312,1312,1312,1312,1307,1307,1307,1307,1307,1307,1307,1307,1307,1307,1307,1307,1307,1307,1307,1307,1307,1307,1307,1307,1307,1302,1302,1302,1302,1297,1297,1292,1292,1288,1288,1288,1288,1288,1292,1292,1292,1292,1292,1292,1292,1292,1292,1297,1302,1302,1302,1302,1302,1302,1302,1297,1297,1297,1297,1297,1292,1292,1292,1297,1292,1292,1288,1288,1288,1288,1288,1288,1288,1288,1288,1288,1288,1288,1288,1288,1288,1288,1288,1288,1288,1288,1288,1288,1288,1283,1283,1283,1283,0,1004,1004,1004,1001,998,995,992,989,989,989,987,987,987,987,987,989,989,992,992,995,995,995,995,995,995,1288,1288,1283,1283,1278,1278,1273,1273,1273,1273,1273,1268,1268,1268,1268,1268,1268,1268,1268,1273,1273,1268,1268,1273,1273,1268,1268,1268,1268,1268,1268,1268,1268,1268,1264,1264,1264,1264,1264,1264,1264,1264,1264,1264,1264,1264,1259,1259,1264,1264,1264,1264,1259,1259,1259,1255,1255,1259,1259,1259,1264,1264,1264,1264,1264,1264,1264,1264,1264,1264,1264,1264,1264,1259,1259,1255,1255,1255,1255,1255,1255,1255,1255,1255,1255,1255,1255,1255,1255,1255,1255,1255,1255,1255,1255,1255,1255,1250,1250,1255,1250,1250,1250,1250,1250,1250,1250,1250,1250,1250,1250,1250,1250,1250,1250,1250,1250,1250,1250,1250,1250,1250,1250,1250,1250,1245,1245,1245,1245,1241,1241,1241,1245,1245,1245,1241,1241,1245,1245,1241,1241,1241,1241,1236,1236,1236,1241,1241,1245,1241,1241,1241,1241,1236,1236,1236,1236,1236,1236,1241,1236,1236,1236,1236,1232,1232,1232,1232,1232,1232,1232,1232,1232,1232,1227,1227,1227,1223,1223,1223,1219,1219,1219,1219,1214,1214,1214,1214,1210,1206,1206,1202,1202,1202,1197,1197,1197,1193,1193,1189,1189,1185,1181,1181,1177,1177,1173,1173,1169,1169,1165,1165,1161,1161,1157,1157,1153,1153,1149,1149,1149,1145,1141,1138,1138,1134,1134,1130,1130,1126,1123,1123,1119,1119,1119,1115,1115,1112,1112,956,954,951,951,948,948,946,943,923,920,918,915,915,913,910,908,908,0,0,0,0,0,0,0,0,0,0,0,0,0,0,0,0,0,0,0,0,0,0,0,0,0,0,0,0,0,0,0,0,0,0
0,0,0,0,0,0,0,0,0,0,1349,1349,1349,1349,1349,1349,1349,1343,1343,1343,1343,1343,1343,1343,1349,1349,1349,1343,1343,1343,1343,1343,1343,1343,1343,1343,1343,1343,1343,1343,1338,1333,1333,1338,1338,1338,1338,1343,1343,1343,1338,1338,1338,1338,1338,1338,1338,1338,1338,1338,1338,1338,1338,1338,1338,1338,1338,1338,1338,1338,1338,1338,1338,1333,1333,1333,1333,1333,1054,1054,1054,1054,1057,1060,1060,1060,1063,1063,1063,1063,1063,1063,1063,1067,1070,1070,1073,1073,1077,0,0,0,0,0,0,0,0,0,0,0,713,713,713,713,713,714,714,714,716,717,717,719,719,720,722,722,723,725,725,727,727,727,727,728,728,728,728,730,733,0,0,0,0,0,0,0,1312,1312,1317,1317,1317,1317,1322,1322,1322,1322,1322,1317,1317,1317,1317,1317,1322,1322,1322,1322,1322,1322,1322,1317,1317,1317,1317,1317,1317,1317,1317,1312,1312,1312,1312,1312,1312,1312,1312,1312,1312,1312,1312,1312,1312,1312,1307,1307,1307,1307,1307,1307,1307,1073,1070,1063,1060,1060,1057,1054,1050,1047,1044,1041,1041,1041,1038,1034,1034,1034,1034,1034,1034,1034,1034,1317,1317,1317,1317,1317,1317,1312,1312,1307,1307,1307,1307,1307,1307,1307,1307,1307,1307,1302,1302,1302,1302,1302,1302,1302,1302,1302,1302,1302,1302,1302,1302,1302,1302,1302,1302,1302,1297,1297,1297,1292,1292,1292,1288,1288,1288,1288,1288,1288,1288,1292,1292,1292,1292,1292,1288,1288,1288,1288,1288,1288,1288,1297,1297,1297,1297,1292,1292,1292,1292,1292,1288,1288,1288,1288,1288,1288,1288,1288,1288,1288,1288,1283,1283,1283,1283,1283,1283,1283,1283,1283,1283,1283,1283,1283,1288,1283,1283,1283,1283,1278,1278,1278,0,1010,1010,1007,1004,1001,995,992,992,989,989,989,989,989,989,989,989,992,992,992,995,995,995,998,998,998,1288,1288,1278,1273,1273,1273,1273,1268,1268,1268,1268,1268,1268,1268,1268,1268,1268,1268,1268,1268,1268,1268,1268,1268,1268,1268,1268,1268,1268,1268,1268,1264,1264,1264,1264,1264,1259,1259,1259,1259,1259,1259,1259,1255,1255,1259,1259,1259,1259,1259,1264,1259,1259,1259,1259,1255,1255,1255,1255,1255,1255,1259,1259,1259,1259,1259,1259,1259,1259,1259,1259,1259,1259,1259,1255,1255,1255,1255,1250,1250,1250,1250,1250,1250,1255,1255,1255,1255,1255,1255,1250,1250,1250,1250,1255,1255,1255,1250,1250,1250,1250,1250,1245,1245,1245,1245,1245,1245,1245,1245,1245,1245,1245,1245,1245,1245,1245,1245,1245,1245,1245,1245,1245,1245,1241,1241,1241,1241,1241,1241,1236,1236,1241,1241,1241,1241,1241,1241,1241,1241,1236,1236,1236,1236,1236,1236,1236,1236,1236,1236,1236,1236,1236,1232,1232,1236,1236,1236,1236,1236,1236,1232,1232,1232,1232,1232,1232,1232,1232,1232,1232,1232,1232,1232,1227,1227,1227,1223,1219,1219,1219,1219,1219,1219,1214,1214,1214,1210,1210,1206,1206,1206,1202,1202,1202,1197,1197,1197,1193,1193,1189,1185,1181,1181,1177,1177,1173,1173,1169,1169,1165,1165,1165,1161,1161,1157,1157,1153,1153,1149,1149,1145,1141,1141,1138,1134,1134,1130,1130,1126,1123,1123,1123,1119,1119,1115,1115,1115,956,954,954,951,948,948,946,943,933,920,918,915,913,913,910,908,906,906,0,0,0,0,0,0,0,0,0,0,0,0,0,0,0,0,0,0,0,0,0,0,0,0,0,0,0,0,0,0,0,0,0,0
0,0,0,0,0,0,0,0,0,0,1349,1343,1343,1343,1343,1343,1343,1343,1338,1338,1338,1338,1343,1343,1343,1343,1338,1338,1343,1338,1338,1338,1343,1343,1343,1343,1343,1343,1343,1338,1338,1333,1333,1333,1333,1333,1333,1338,1338,1338,1338,1338,1338,1338,1338,1338,1338,1338,1333,1333,1333,1333,1333,1333,1333,1333,1333,1333,1333,1333,1333,1328,1328,1328,1328,1322,1322,1322,1060,1060,1057,1057,1057,1060,1060,1060,1063,1063,1063,1063,1063,1063,1067,1070,1070,1073,1073,1073,1073,1073,0,0,0,0,0,0,0,0,0,0,713,713,713,713,714,714,716,716,717,717,717,719,720,720,722,723,723,725,725,727,727,727,728,728,728,728,730,730,0,0,0,0,0,0,0,1307,1307,1307,1312,1312,1312,1317,1317,1312,1312,1312,1312,1317,1317,1317,1317,1317,1317,1317,1317,1317,1317,1317,1317,1317,1312,1312,1312,1312,1312,1312,1312,1307,1307,1307,1307,1307,1307,1307,1307,1307,1307,1307,1307,1312,1307,1307,1307,1307,1307,1307,1302,1302,1302,1073,1070,1063,1063,1060,1054,1050,1050,1044,1041,1041,1038,1038,1034,1034,1031,1031,1031,1031,1031,1031,1031,1312,1312,1312,1312,1312,1312,1312,1307,1307,1302,1302,1302,1302,1302,1302,1302,1302,1302,1302,1302,1297,1297,1297,1297,1297,1297,1297,1297,1297,1297,1297,1297,1297,1297,1297,1297,1297,1292,1292,1292,1292,1288,1288,1288,1288,1288,1288,1288,1288,1288,1288,1288,1288,1288,1288,1288,1288,1283,1283,1288,1288,1288,1288,1288,1288,1292,1288,1288,1288,1288,1288,1288,1288,1288,1288,1288,1288,1283,1283,1283,1283,1283,1283,1283,1283,1283,1283,1283,1283,1283,1283,1278,1278,1278,1278,1283,1278,1278,1278,1278,1273,1273,1273,0,1013,1013,1007,1007,1004,1001,995,992,992,989,989,989,989,989,989,992,992,992,995,995,998,998,998,998,998,998,1273,1273,1273,1268,1268,1268,1268,1264,1264,1268,1264,1264,1264,1264,1264,1264,1264,1264,1268,1268,1264,1264,1264,1264,1264,1264,1264,1264,1264,1264,1264,1264,1259,1259,1259,1259,1255,1255,1255,1255,1255,1250,1250,1250,1255,1255,1255,1255,1255,1255,1259,1255,1255,1255,1255,1255,1255,1255,1250,1250,1250,1250,1250,1250,1255,1255,1255,1255,1255,1255,1255,1255,1255,1255,1255,1250,1250,1250,1250,1250,1250,1250,1250,1250,1250,1250,1250,1250,1250,1250,1250,1250,1250,1250,1250,1250,1250,1245,1245,1245,1241,1241,1241,1241,1241,1245,1245,1245,1245,1245,1241,1241,1245,1245,1241,1241,1245,1245,1241,1241,1241,1241,1241,1236,1236,1236,1236,1236,1236,1236,1236,1236,1236,1236,1236,1236,1236,1236,1236,1232,1232,1232,1232,1232,1232,1232,1232,1236,1232,1232,1232,1232,1232,1232,1232,1232,1232,1232,1232,1232,1227,1227,1227,1227,1227,1227,1227,1227,1227,1227,1227,1227,1227,1227,1223,1223,1219,1219,1219,1219,1219,1219,1214,1214,1214,1214,1210,1210,1206,1202,1202,1202,1202,1202,1202,1197,1197,1197,1193,1189,1185,1185,1181,1181,1181,1177,1177,1169,1169,1169,1165,1165,1165,1161,1161,1157,1153,1153,1149,1149,1145,1141,1141,1138,1134,1134,1130,1130,1126,1123,1123,1123,1119,1119,1119,959,956,954,954,951,948,948,946,943,940,920,918,918,915,913,910,908,908,906,906,0,0,0,0,0,0,0,0,0,0,0,0,0,0,0,0,0,0,0,0,0,0,0,0,0,0,0,0,0,0,0,0,0,0
0,0,0,0,0,0,0,0,0,0,0,1343,1343,1343,1343,1338,1338,1333,1328,1328,1328,1328,1338,1338,1338,1338,1333,1333,1333,1333,1333,1333,1333,1333,1333,1338,1338,1338,1338,1338,1333,1333,1333,1333,1333,1333,1333,1333,1333,1333,1333,1333,1333,1333,1333,1333,1333,1333,1328,1328,1328,1333,1328,1328,1328,1328,1333,1333,1333,1328,1328,1328,1328,1322,1322,1322,1322,1322,1060,1060,1057,1057,1060,1060,1060,1060,1063,1063,1063,1063,1063,1067,1067,1070,1073,1073,1073,1073,1073,1073,0,0,0,0,0,0,0,0,0,0,713,713,713,713,714,714,716,716,719,719,719,720,720,722,722,723,723,725,727,727,727,727,728,728,728,730,730,0,0,0,0,0,0,0,0,1302,1302,1307,1307,1307,1307,1307,1307,1307,1307,1307,1307,1307,1307,1307,1307,1307,1312,1317,1317,1312,1312,1312,1312,1312,1307,1307,1307,1307,1307,1307,1307,1307,1307,1307,1307,1302,1302,1307,1307,1307,1307,1307,1307,1307,1307,1307,1307,1307,1307,1302,1302,1302,1302,1302,1073,1063,1060,1057,1054,1050,1047,1044,1041,1041,1038,1034,1034,1031,1031,1028,1028,1028,1028,1025,1025,1025,1025,1312,1312,1312,1312,1307,1307,1302,1297,1297,1297,1297,1297,1297,1297,1297,1297,1297,1297,1292,1292,1292,1292,1292,1292,1292,1292,1292,1292,1292,1292,1292,1292,1292,1288,1288,1288,1288,1288,1288,1288,1288,1288,1288,1288,1288,1288,1288,1288,1288,1288,1288,1288,1283,1283,1283,1283,1283,1283,1283,1283,1283,1283,1283,1283,1283,1283,1283,1283,1283,1283,1283,1283,1283,1283,1283,1283,1283,1283,1278,1278,1278,1278,1278,1278,1278,1278,1278,1278,1278,1278,1278,1273,1273,1278,1278,1273,1273,1273,1273,1273,1273,0,0,1013,1007,1007,1007,1001,998,995,992,992,989,989,989,989,992,992,992,995,995,995,998,1001,1001,1001,1001,1001,1268,1268,1268,1264,1264,1264,1259,1259,1259,1259,1259,1259,1259,1259,1259,1259,1259,1259,1264,1264,1259,1259,1259,1259,1259,1259,1259,1259,1255,1255,1255,1255,1255,1255,1255,1255,1255,1255,1255,1255,1250,1250,1250,1250,1250,1250,1250,1250,1250,1250,1255,1250,1250,1250,1250,1250,1250,1250,1250,1250,1245,1245,1245,1250,1245,1245,1245,1245,1250,1250,1255,1255,1255,1250,1250,1250,1250,1250,1250,1250,1250,1250,1250,1250,1250,1245,1245,1245,1245,1245,1245,1250,1250,1250,1250,1250,1245,1245,1241,1241,1236,1236,1236,1241,1241,1241,1241,1241,1241,1241,1241,1241,1241,1241,1236,1236,1236,1236,1236,1236,1236,1236,1232,1232,1232,1232,1232,1232,1232,1232,1232,1232,1236,1236,1232,1232,1232,1232,1232,1232,1232,1232,1232,1232,1232,1232,1232,1232,1232,1232,1232,1232,1227,1227,1227,1227,1227,1227,1227,1223,1223,1223,1223,1223,1223,1223,1223,1223,1223,1223,1223,1219,1219,1219,1219,1219,1214,1214,1219,1219,1219,1214,1214,1214,1214,1210,1210,1206,1206,1202,1202,1202,1202,1202,1202,1197,1197,1197,1197,1193,1185,1185,1181,1181,1181,1177,1177,1169,1169,1169,1165,1165,1165,1161,1161,1157,1153,1153,1149,1149,1145,1141,1141,1138,1134,1134,1134,1130,1130,1126,1123,1123,1123,1123,1119,956,956,951,951,951,948,948,946,943,923,920,918,915,915,913,910,908,908,906,906,0,0,0,0,0,0,0,0,0,0,0,0,0,0,0,0,0,0,0,0,0,0,0,0,0,0,0,0,0,0,0,0,0,0
0,0,0,0,0,0,0,0,0,0,0,1338,1338,1338,1338,1333,1328,1322,1322,1322,1322,1328,1328,1333,1333,1333,1333,1333,1328,1328,1328,1328,1328,1328,1328,1328,1333,1333,1333,1333,1333,1328,1328,1328,1328,1328,1328,1328,1328,1328,1333,1333,1333,1333,1333,1333,1333,1328,1328,1322,1322,1328,1328,1328,1322,1322,1328,1328,1328,1328,1322,1322,1322,1322,1322,1322,1322,1322,1063,1063,1060,1060,1063,1063,1063,1063,1063,1063,1063,1063,1063,1067,1067,1073,1073,1073,1073,1073,1073,1073,0,0,0,0,0,0,0,0,0,0,0,714,714,714,714,714,717,719,719,719,720,720,722,722,723,725,725,725,727,727,727,727,728,728,730,730,730,0,0,0,0,0,0,0,0,1302,1302,1302,1302,1307,1302,1302,1302,1302,1302,1302,1302,1302,1302,1302,1302,1302,1302,1307,1307,1312,1307,1307,1307,1307,1307,1307,1307,1307,1307,1307,1307,1307,1307,1307,1302,1302,1302,1307,1307,1302,1302,1302,1302,1307,1302,1302,1302,1302,1302,1302,1302,1297,1297,1283,1283,1063,1060,1057,1054,1050,1047,1044,1041,1038,1038,1034,1031,1031,1028,1025,1025,1025,1025,1025,1025,1022,1022,1019,1019,1019,1307,1307,1297,1292,1292,1292,1292,1292,1292,1292,1292,1292,1292,1292,1292,1292,1288,1288,1292,1292,1292,1288,1288,1288,1288,1288,1288,1288,1288,1288,1288,1288,1288,1283,1283,1283,1283,1283,1283,1283,1283,1283,1283,1283,1283,1283,1283,1283,1283,1283,1283,1283,1283,1283,1283,1278,1278,1278,1278,1283,1278,1278,1278,1278,1273,1273,1273,1273,1283,1278,1278,1283,1278,1278,1278,1278,1278,1273,1273,1273,1273,1273,1273,1268,1268,1268,1268,1268,1268,1273,1273,1273,1273,1268,1268,1273,1273,1273,1010,1010,1010,1007,1007,1007,1004,998,995,992,992,992,992,992,992,992,995,995,995,998,1001,1001,1001,1001,1001,1001,1001,1264,1264,1264,1259,1259,1259,1259,1259,1259,1259,1255,1255,1255,1255,1259,1259,1259,1259,1259,1259,1259,1259,1255,1255,1255,1255,1255,1250,1250,1250,1250,1250,1250,1250,1250,1250,1250,1250,1250,1250,1250,1250,1245,1245,1245,1245,1245,1245,1245,1245,1250,1245,1245,1245,1245,1245,1245,1245,1245,1245,1245,1241,1241,1241,1241,1241,1241,1241,1241,1241,1241,1245,1250,1250,1250,1245,1245,1245,1245,1245,1245,1245,1245,1245,1245,1245,1245,1241,1241,1241,1245,1241,1241,1245,1245,1245,1241,1241,1241,1236,1236,1236,1236,1236,1236,1236,1236,1236,1236,1236,1236,1236,1236,1236,1236,1236,1232,1232,1227,1227,1227,1227,1227,1227,1227,1227,1227,1232,1232,1232,1227,1227,1227,1232,1227,1227,1232,1232,1232,1232,1232,1232,1227,1227,1232,1227,1227,1227,1227,1227,1227,1227,1227,1227,1227,1227,1223,1223,1223,1223,1219,1219,1219,1219,1219,1219,1219,1219,1219,1219,1219,1219,1219,1219,1219,1214,1214,1214,1214,1214,1214,1214,1214,1214,1210,1210,1206,1206,1206,1202,1202,1202,1202,1202,1202,1197,1197,1197,1193,1193,1185,1185,1185,1181,1181,1181,1181,1177,1169,1169,1165,1165,1165,1161,1161,1157,1153,1153,1149,1149,1145,1145,1141,1138,1138,1134,1134,1134,1130,1130,1126,1126,1123,1123,1123,956,956,951,951,948,948,946,943,933,920,920,918,915,910,910,910,910,0,0,0,0,0,0,0,0,0,0,0,0,0,0,0,0,0,0,0,0,0,0,0,0,0,0,0,0,0,0,0,0,0,0,0,0,0
0,0,0,0,0,0,0,0,0,0,0,1338,1333,1333,1328,1322,1322,1317,1317,1317,1317,1322,1322,1322,1322,1328,1328,1328,1322,1322,1328,1328,1328,1328,1328,1328,1328,1328,1328,1328,1328,1328,1328,1328,1328,1328,1328,1328,1328,1328,1328,1328,1328,1328,1328,1328,1322,1322,1322,1317,1317,1317,1317,1317,1322,1322,1322,1322,1322,1322,1322,1317,1317,1312,1312,1312,1307,1307,1063,1063,1060,1060,1060,1060,1063,1063,1063,1067,1067,1067,1070,1070,1073,1073,1073,1073,1073,1073,1077,1077,0,0,0,0,0,0,0,0,0,0,0,0,716,716,717,717,719,719,719,720,720,722,723,723,725,725,725,727,727,727,727,728,728,730,730,730,731,731,0,0,0,0,0,0,0,1302,1297,1297,1302,1302,1302,1302,1302,1302,1302,1302,1302,1302,1302,1297,1297,1297,1297,1302,1302,1302,1307,1302,1302,1302,1302,1302,1302,1302,1302,1302,1302,1302,1302,1302,1297,1297,1297,1297,1302,1302,1297,1297,1297,1302,1297,1297,1302,1297,1297,1297,1297,1297,1292,1283,1283,1063,1060,1057,1054,1050,1047,1044,1041,1038,1038,1034,1031,1028,1028,1025,1025,1025,1025,1022,1022,1022,1022,1019,1019,1019,1307,1307,1288,1288,1288,1288,1288,1292,1288,1288,1288,1288,1288,1288,1288,1288,1288,1288,1288,1288,1288,1288,1288,1288,1283,1283,1283,1283,1283,1283,1283,1283,1283,1283,1283,1283,1283,1283,1283,1278,1278,1278,1278,1278,1278,1278,1278,1278,1278,1278,1278,1278,1278,1278,1278,1278,1278,1273,1273,1278,1273,1273,1273,1273,1268,1268,1268,1268,1268,1268,1273,1273,1278,1278,1278,1278,1273,1273,1273,1273,1268,1268,1268,1268,1268,1268,1268,1268,1268,1273,1273,1273,1273,1268,1268,1268,1268,1007,1010,1010,1010,1007,1007,1007,1004,1001,995,992,992,992,992,992,992,992,995,995,998,998,1001,1001,1001,1001,1004,1004,1007,1264,1264,1259,1255,1255,1255,1255,1255,1255,1255,1255,1255,1255,1255,1255,1255,1255,1255,1255,1255,1255,1255,1255,1250,1250,1250,1250,1245,1245,1245,1245,1245,1250,1250,1250,1250,1250,1245,1245,1245,1245,1245,1241,1241,1245,1241,1241,1241,1241,1241,1241,1241,1241,1241,1241,1241,1241,1241,1241,1241,1241,1241,1241,1236,1236,1236,1236,1236,1236,1236,1236,1236,1236,1236,1241,1245,1245,1245,1245,1245,1241,1241,1241,1241,1245,1241,1241,1241,1241,1241,1241,1241,1236,1236,1241,1241,1236,1236,1236,1236,1236,1236,1232,1232,1236,1236,1236,1236,1236,1236,1236,1236,1232,1232,1232,1232,1232,1227,1223,1223,1223,1223,1223,1223,1227,1227,1227,1227,1227,1227,1227,1223,1223,1227,1223,1223,1223,1223,1223,1227,1227,1227,1227,1227,1227,1227,1223,1223,1223,1223,1223,1223,1223,1223,1223,1223,1223,1219,1219,1219,1219,1219,1219,1219,1219,1219,1219,1219,1219,1219,1219,1219,1219,1214,1214,1214,1214,1214,1214,1214,1214,1210,1210,1210,1210,1206,1206,1202,1202,1202,1202,1202,1202,1202,1197,1197,1197,1197,1193,1189,1185,1185,1185,1181,1181,1181,1181,1177,1169,1169,1165,1165,1165,1161,1161,1157,1153,1153,1149,1149,1149,1145,1141,1138,1138,1134,1134,1134,1130,1130,1126,1126,1126,1123,1123,956,956,951,948,948,946,943,933,928,920,920,918,915,910,910,910,910,0,0,0,0,0,0,0,0,0,0,0,0,0,0,0,0,0,0,0,0,0,0,0,0,0,0,0,0,0,0,0,0,0,0,0,0,0
0,0,0,0,0,0,0,0,0,0,0,0,1333,1322,1322,1322,1317,1317,1317,1317,1317,1317,1317,1317,1317,1317,1322,1322,1317,1317,1322,1322,1322,1322,1322,1322,1322,1328,1322,1322,1322,1322,1322,1328,1328,1322,1322,1328,1328,1328,1322,1322,1328,1328,1328,1322,1322,1317,1317,1312,1312,1312,1312,1312,1317,1317,1317,1317,1317,1317,1317,1317,1312,1312,1312,1312,1307,1307,1302,1302,1054,1054,1057,1060,1063,1063,1063,1067,1067,1067,1070,1070,1073,1073,1073,1073,1073,1073,1073,1077,0,0,0,0,0,0,0,0,0,0,0,0,0,719,719,719,720,720,720,720,720,722,723,723,725,725,725,727,727,727,728,728,730,730,730,731,731,731,0,0,0,0,0,0,0,1302,1297,1297,1297,1297,1297,1292,1292,1297,1297,1297,1297,1292,1292,1292,1292,1292,1297,1297,1297,1302,1302,1302,1302,1302,1297,1297,1297,1297,1297,1297,1297,1297,1297,1297,1297,1297,1297,1297,1292,1292,1292,1292,1292,1292,1292,1292,1292,1292,1292,1292,1292,1292,1288,1283,1283,1283,1063,1060,1057,1050,1047,1044,1041,1038,1038,1034,1028,1025,1025,1022,1022,1022,1022,1022,1022,1022,1019,1019,1016,1013,1013,1288,1288,1288,1288,1288,1288,1283,1283,1283,1283,1288,1288,1283,1283,1283,1283,1283,1283,1283,1283,1283,1283,1283,1283,1283,1283,1283,1283,1283,1283,1283,1283,1283,1283,1283,1283,1278,1278,1278,1273,1273,1273,1273,1273,1273,1273,1273,1273,1278,1278,1273,1273,1273,1273,1273,1273,1273,1273,1273,1273,1268,1268,1268,1268,1268,1264,1264,1264,1264,1264,1268,1268,1264,1264,1268,1268,1268,1268,1268,1268,1268,1264,1264,1264,1264,1264,1268,1268,1273,1273,1273,1268,1268,1268,1268,1001,1007,1007,1007,1007,1004,1004,1004,1001,998,995,995,992,992,992,992,992,995,995,998,998,1001,1001,1001,1004,1004,1004,1007,1007,1007,1255,1255,1255,1255,1250,1250,1250,1250,1250,1250,1250,1250,1250,1250,1250,1250,1250,1250,1250,1250,1250,1250,1250,1241,1241,1241,1241,1241,1241,1241,1245,1245,1245,1245,1245,1245,1245,1245,1245,1245,1245,1241,1241,1241,1236,1236,1236,1236,1236,1241,1236,1236,1236,1241,1236,1236,1236,1236,1236,1236,1236,1236,1236,1236,1236,1236,1236,1236,1236,1236,1236,1236,1236,1236,1236,1232,1232,1232,1236,1236,1236,1236,1236,1241,1236,1236,1236,1236,1236,1236,1236,1232,1232,1232,1232,1232,1232,1232,1232,1232,1232,1232,1232,1232,1232,1232,1232,1232,1232,1232,1232,1232,1227,1227,1227,1227,1223,1223,1223,1223,1223,1223,1223,1223,1223,1223,1223,1223,1223,1223,1219,1219,1223,1219,1219,1223,1219,1219,1219,1219,1219,1219,1223,1223,1223,1223,1219,1219,1219,1219,1219,1219,1219,1219,1219,1219,1219,1219,1214,1214,1214,1214,1214,1214,1214,1214,1214,1214,1214,1214,1214,1214,1214,1214,1210,1210,1210,1210,1210,1210,1206,1206,1206,1206,1206,1202,1202,1202,1202,1202,1202,1202,1202,1197,1197,1197,1193,1193,1189,1185,1185,1185,1181,1181,1181,1181,1177,1177,1169,1169,1165,1165,1161,1161,1157,1157,1153,1153,1149,1149,1145,1141,1138,1138,1134,1134,1134,1130,1130,1126,1126,1126,1126,956,956,954,948,946,943,933,928,928,928,923,920,918,915,910,910,0,0,0,0,0,0,0,0,0,0,0,0,0,0,0,0,0,0,0,0,0,0,0,0,0,0,0,0,0,0,0,0,0,0,0,0,0,0,0
0,0,0,0,0,0,0,0,0,0,0,0,0,1322,1322,1322,1317,1312,1312,1312,1312,1317,1312,1312,1312,1312,1317,1317,1317,1317,1317,1317,1317,1317,1317,1322,1322,1322,1317,1317,1317,1317,1317,1322,1317,1317,1317,1322,1322,1322,1322,1322,1322,1322,1322,1322,1317,1317,1312,1312,1312,1312,1312,1312,1312,1312,1312,1312,1312,1312,1312,1312,1312,1307,1307,1307,1307,1307,1302,1302,1054,1054,1057,1063,1067,1067,1067,1067,1070,1070,1070,1070,1073,1073,1073,1073,1073,1073,1073,1077,0,0,0,0,0,0,0,0,0,0,0,0,722,719,719,719,720,720,720,720,722,722,723,723,725,725,727,727,728,728,728,730,730,731,731,733,733,733,0,0,0,0,0,0,0,1302,1297,1297,1297,1297,1292,1292,1292,1292,1292,1292,1292,1292,1292,1292,1288,1288,1292,1292,1297,1297,1297,1297,1297,1297,1292,1292,1292,1292,1288,1288,1288,1292,1292,1292,1292,1292,1292,1292,1292,1292,1292,1288,1288,1288,1288,1288,1288,1288,1288,1288,1288,1288,1288,1283,1283,1278,1278,1278,1050,1050,1047,1044,1044,1041,1038,1034,1028,1025,1025,1022,1022,1022,1022,1022,1019,1019,1019,1016,1013,1013,1013,1013,1288,1288,1288,1283,1283,1283,1283,1278,1278,1278,1278,1278,1278,1283,1283,1283,1283,1278,1278,1278,1278,1278,1278,1278,1278,1278,1278,1278,1278,1278,1278,1278,1278,1278,1278,1278,1278,1273,1273,1273,1268,1268,1268,1268,1273,1273,1273,1273,1273,1273,1273,1268,1268,1268,1268,1268,1268,1268,1268,1268,1264,1264,1264,1264,1264,1264,1264,1259,1259,1264,1264,1264,1264,1264,1264,1264,1264,1264,1264,1264,1264,1259,1259,1264,1264,1264,1264,1268,1268,1273,1268,1268,1268,1001,1001,1001,1004,1004,1004,1004,1001,1001,1001,998,995,995,992,992,992,995,995,995,995,998,1001,1001,1001,1004,1004,1004,1004,1007,1007,1007,1250,1250,1250,1250,1250,1250,1250,1250,1250,1245,1245,1245,1245,1245,1245,1245,1250,1250,1250,1250,1250,1250,1245,1241,1241,1241,1241,1241,1241,1241,1241,1245,1241,1241,1245,1245,1241,1241,1236,1236,1241,1236,1236,1236,1236,1236,1236,1236,1236,1236,1236,1236,1236,1236,1236,1236,1236,1236,1236,1236,1236,1236,1232,1232,1232,1232,1232,1232,1232,1232,1232,1232,1232,1232,1232,1227,1227,1223,1223,1223,1227,1232,1232,1232,1232,1232,1232,1232,1232,1232,1232,1227,1227,1232,1232,1232,1227,1227,1227,1227,1227,1227,1227,1227,1227,1227,1227,1227,1227,1227,1227,1227,1227,1223,1223,1223,1223,1219,1219,1219,1219,1219,1219,1219,1219,1219,1219,1219,1219,1219,1219,1219,1219,1219,1219,1219,1219,1219,1219,1219,1219,1214,1214,1214,1214,1219,1219,1219,1219,1219,1214,1214,1214,1214,1214,1214,1214,1214,1214,1214,1214,1214,1214,1214,1214,1214,1214,1214,1214,1210,1210,1210,1210,1210,1206,1206,1206,1206,1206,1206,1206,1202,1202,1202,1202,1202,1202,1202,1202,1202,1202,1202,1197,1197,1197,1197,1193,1189,1189,1185,1185,1185,1185,1181,1181,1181,1181,1177,1173,1169,1169,1165,1161,1161,1161,1157,1153,1153,1153,1149,1149,1141,1141,1138,1138,1134,1134,1134,1130,1130,1130,1130,1130,933,954,954,943,930,930,930,928,928,925,923,920,918,915,915,915,0,0,0,0,0,0,0,0,0,0,0,0,0,0,0,0,0,0,0,0,0,0,0,0,0,0,0,0,0,0,0,0,0,0,0,0,0,0,0
0,0,0,0,0,0,0,0,0,0,0,0,0,1312,1312,1312,1312,1312,1312,1312,1312,1312,1312,1312,1312,1312,1312,1312,1312,1312,1317,1317,1317,1317,1317,1317,1312,1312,1312,1312,1307,1307,1312,1312,1312,1312,1312,1307,1307,1312,1317,1317,1317,1317,1317,1317,1317,1312,1307,1307,1307,1307,1307,1307,1307,1307,1307,1307,1307,1307,1307,1307,1307,1307,1307,1307,1307,1302,1302,1302,1060,1060,1060,1063,1067,1067,1070,1070,1070,1070,1070,1073,1073,1073,1073,1073,1077,1077,1077,1077,0,0,0,0,0,0,0,0,0,0,0,0,722,719,719,719,720,720,720,722,722,722,723,723,725,725,727,727,728,728,728,730,730,733,733,733,733,733,0,0,0,0,0,0,0,0,1292,1292,1292,1292,1292,1288,1288,1292,1292,1292,1288,1288,1288,1288,1288,1288,1288,1288,1292,1292,1292,1292,1288,1288,1288,1288,1288,1288,1288,1283,1283,1283,1288,1288,1288,1288,1288,1288,1288,1288,1288,1288,1288,1288,1288,1288,1288,1288,1288,1288,1288,1283,1283,1283,1283,1278,1278,1278,1050,1050,1047,1047,1044,1041,1038,1031,1028,1025,1022,1022,1022,1019,1019,1019,1019,1016,1016,1013,1013,1013,1013,1013,1013,1288,1288,1283,1283,1283,1278,1278,1273,1273,1273,1273,1273,1273,1273,1273,1273,1278,1273,1273,1273,1273,1273,1273,1273,1273,1273,1273,1273,1273,1273,1273,1273,1273,1273,1273,1273,1273,1268,1268,1268,1268,1268,1268,1268,1268,1268,1268,1268,1268,1268,1268,1268,1268,1268,1268,1268,1264,1264,1264,1264,1259,1259,1259,1259,1259,1259,1259,1259,1259,1259,1259,1259,1259,1259,1259,1255,1255,1255,1255,1255,1259,1259,1259,1264,1264,1264,1268,1268,1273,1268,1268,998,998,998,998,998,998,1001,1001,1001,998,998,998,995,995,995,992,992,995,995,995,998,1001,1001,1001,1004,1004,1004,1004,1007,1007,1010,1010,1245,1245,1245,1245,1245,1245,1245,1241,1241,1241,1241,1241,1241,1241,1241,1241,1241,1241,1241,1236,1236,1245,1241,1241,1241,1241,1241,1236,1236,1236,1241,1241,1236,1236,1241,1236,1236,1236,1236,1236,1236,1236,1236,1236,1232,1232,1232,1236,1236,1236,1236,1236,1236,1236,1236,1232,1232,1232,1232,1232,1232,1232,1232,1232,1232,1232,1227,1227,1227,1227,1227,1227,1227,1227,1227,1223,1223,1223,1223,1223,1223,1223,1223,1223,1227,1227,1227,1227,1227,1227,1223,1223,1223,1223,1223,1223,1223,1223,1227,1227,1227,1223,1223,1223,1223,1223,1223,1223,1223,1223,1223,1223,1223,1219,1219,1219,1219,1219,1219,1219,1219,1219,1219,1219,1219,1219,1219,1219,1219,1219,1219,1214,1214,1214,1214,1214,1214,1214,1214,1214,1214,1214,1210,1210,1210,1210,1210,1210,1210,1210,1214,1214,1214,1214,1214,1214,1214,1214,1210,1210,1210,1210,1210,1210,1210,1210,1210,1210,1210,1206,1206,1206,1206,1206,1202,1202,1202,1202,1202,1202,1202,1202,1202,1202,1202,1202,1202,1197,1197,1197,1197,1197,1197,1193,1193,1193,1193,1189,1189,1185,1185,1185,1185,1181,1181,1181,1181,1177,1173,1169,1169,1165,1161,1161,1161,1157,1157,1153,1153,1149,1149,1145,1141,1141,1138,1134,1134,1134,1130,1130,1130,1130,933,933,933,933,938,930,930,930,928,928,925,923,920,920,918,918,0,0,0,0,0,0,0,0,0,0,0,0,0,0,0,0,0,0,0,0,0,0,0,0,0,0,0,0,0,0,0,0,0,0,0,0,0,0,0,0
0,0,0,0,0,0,0,0,0,0,0,0,1312,1312,1312,1312,1312,1312,1312,1307,1307,1307,1307,1307,1307,1307,1307,1307,1312,1312,1312,1312,1312,1312,1312,1312,1312,1312,1312,1312,1307,1307,1307,1307,1307,1307,1307,1307,1307,1307,1307,1307,1302,1302,1302,1312,1312,1312,1307,1307,1302,1302,1307,1307,1307,1307,1307,1307,1307,1307,1307,1307,1307,1307,1307,1307,1302,1302,1302,1302,1302,1070,1070,1070,1070,1070,1070,1070,1073,1073,1073,1073,1073,1073,1073,1077,1077,1077,1077,1077,0,0,0,0,0,0,0,0,0,0,0,0,723,720,720,720,720,720,722,722,722,722,723,723,725,725,727,727,728,728,730,731,731,733,734,734,734,734,734,0,0,0,0,0,0,0,1292,1292,1292,1292,1288,1288,1288,1288,1288,1288,1288,1288,1288,1283,1283,1288,1283,1283,1288,1288,1288,1288,1283,1283,1283,1283,1283,1283,1283,1283,1283,1283,1283,1283,1283,1283,1283,1283,1283,1283,1283,1283,1283,1283,1283,1283,1283,1283,1283,1283,1283,1278,1278,1283,1278,1273,1273,1268,1268,1047,1047,1047,1047,1044,1041,1031,1028,1025,1022,1019,1019,1019,1016,1016,1013,1013,1013,1010,1010,1010,1010,1010,1010,1010,1283,1283,1283,1283,1278,1273,1273,1268,1268,1268,1268,1268,1268,1268,1268,1268,1268,1268,1268,1268,1268,1268,1268,1268,1268,1268,1268,1268,1268,1268,1268,1268,1273,1268,1268,1268,1268,1268,1268,1264,1264,1264,1264,1264,1264,1264,1264,1264,1264,1264,1264,1264,1264,1264,1264,1259,1259,1259,1259,1259,1259,1255,1255,1259,1259,1255,1255,1255,1255,1255,1255,1255,1255,1255,1255,1255,1255,1255,1255,1250,1250,1250,1255,1264,989,989,989,989,992,992,992,992,995,995,995,995,998,998,998,998,998,998,998,995,995,995,995,995,995,998,998,1001,1001,1004,1004,1004,1004,1004,1010,1010,1013,1013,1241,1241,1241,1241,1241,1241,1241,1236,1236,1236,1236,1236,1236,1236,1236,1236,1236,1236,1236,1236,1236,1236,1236,1236,1236,1236,1236,1236,1236,1236,1236,1236,1232,1232,1236,1236,1236,1236,1232,1232,1232,1232,1232,1232,1232,1232,1232,1232,1232,1232,1232,1232,1232,1232,1232,1232,1232,1232,1232,1232,1232,1227,1227,1227,1227,1227,1227,1227,1227,1227,1227,1227,1227,1223,1223,1223,1219,1219,1219,1219,1223,1219,1219,1223,1223,1223,1223,1219,1219,1223,1219,1219,1219,1219,1219,1219,1219,1219,1223,1223,1223,1223,1223,1223,1219,1219,1219,1219,1219,1219,1219,1219,1219,1219,1219,1219,1219,1214,1214,1214,1214,1214,1214,1214,1214,1214,1214,1214,1214,1214,1214,1214,1214,1214,1214,1214,1210,1210,1210,1210,1210,1210,1206,1206,1206,1210,1210,1206,1206,1206,1206,1206,1210,1206,1206,1206,1206,1206,1206,1206,1206,1206,1210,1206,1206,1206,1206,1206,1206,1202,1202,1202,1202,1202,1202,1202,1202,1202,1202,1202,1197,1197,1197,1197,1197,1197,1197,1197,1197,1197,1197,1197,1197,1193,1193,1193,1189,1189,1185,1185,1185,1185,1181,1181,1181,1181,1181,1181,1177,1169,1169,1165,1165,1165,1161,1161,1157,1153,1153,1153,1149,1145,1145,1141,1138,1138,1138,1134,1134,1134,1134,1134,940,933,933,933,935,930,930,930,928,928,925,923,923,920,918,918,752,752,0,0,0,0,0,0,0,0,0,0,0,0,0,0,0,0,0,0,0,0,0,0,0,0,0,0,0,0,0,0,0,0,0,0,0,0,0,0
0,0,0,0,0,0,0,0,0,0,0,0,1312,1312,1307,1307,1312,1312,1307,1307,1307,1307,1307,1307,1307,1302,1302,1307,1307,1307,1307,1307,1307,1307,1307,1307,1307,1307,1307,1307,1302,1302,1302,1302,1302,1302,1302,1302,1302,1307,1302,1302,1302,1297,1297,1307,1307,1307,1307,1302,1302,1302,1307,1302,1302,1302,1302,1302,1302,1302,1302,1302,1307,1307,1302,1302,1302,1302,1297,1297,1297,1070,1070,1070,1070,1073,1073,1073,1073,1073,1073,1073,1073,1073,1077,1077,1077,1077,1080,1080,1084,0,0,0,0,0,0,0,0,0,0,0,722,720,720,720,720,720,722,722,722,723,723,723,725,727,727,728,728,730,731,733,733,734,734,734,734,734,734,0,0,0,0,0,0,0,0,1288,1288,1288,1288,1283,1283,1288,1288,1288,1288,1283,1283,1283,1283,1283,1283,1283,1283,1283,1283,1283,1278,1278,1278,1278,1278,1283,1278,1278,1273,1273,1273,1273,1273,1273,1273,1273,1278,1278,1278,1278,1283,1283,1283,1283,1283,1283,1283,1283,1278,1278,1278,1278,1273,1273,1268,1268,1268,1268,1047,1047,1047,1044,1041,1034,1028,1025,1022,1019,1016,1016,1013,1013,1013,1013,1010,1010,1010,1010,1007,1007,1004,1004,1283,1283,1283,1278,1273,1273,1268,1268,1268,1268,1268,1268,1268,1268,1268,1268,1264,1264,1264,1264,1264,1264,1268,1268,1268,1268,1268,1268,1268,1268,1268,1268,1268,1268,1264,1264,1268,1264,1264,1264,1264,1264,1264,1264,1264,1259,1259,1259,1255,1255,1255,1255,1255,1255,1255,1255,1255,1255,1255,1255,1255,1250,1250,1255,1255,1250,1250,1250,1255,1255,1255,1255,1255,1255,1255,1250,1250,1250,1250,1250,984,984,987,989,989,989,989,989,989,989,992,992,992,992,992,992,995,995,995,995,995,998,998,998,995,995,998,998,998,1001,1001,1001,1001,1004,1004,1007,1007,1007,1010,1013,1016,1019,1241,1241,1236,1236,1236,1236,1236,1236,1236,1236,1236,1236,1236,1236,1236,1236,1236,1236,1236,1232,1232,1232,1232,1232,1232,1232,1232,1232,1232,1232,1232,1232,1232,1232,1232,1232,1232,1232,1232,1227,1227,1232,1232,1232,1232,1232,1232,1232,1227,1227,1227,1227,1227,1232,1232,1227,1227,1227,1227,1227,1227,1227,1227,1223,1223,1223,1223,1223,1227,1223,1223,1223,1223,1223,1219,1219,1219,1219,1219,1219,1219,1219,1219,1219,1219,1219,1219,1219,1219,1219,1219,1214,1214,1219,1219,1219,1219,1219,1219,1219,1219,1219,1219,1219,1219,1219,1219,1219,1219,1219,1219,1219,1214,1214,1214,1214,1214,1214,1214,1214,1214,1214,1214,1214,1214,1214,1214,1214,1214,1210,1210,1210,1210,1210,1210,1210,1206,1206,1206,1210,1210,1206,1206,1202,1202,1206,1206,1206,1206,1202,1202,1202,1202,1202,1202,1202,1206,1206,1202,1202,1202,1202,1206,1202,1202,1202,1202,1202,1202,1202,1197,1197,1197,1202,1202,1197,1197,1197,1197,1197,1197,1193,1193,1197,1197,1197,1197,1197,1197,1197,1197,1197,1193,1189,1189,1189,1189,1185,1185,1185,1181,1181,1181,1181,1181,1181,1181,1177,1173,1173,1169,1169,1165,1165,1165,1161,1157,1157,1153,1153,1149,1145,1145,1141,1141,1138,1138,1138,1134,1134,1134,946,940,940,938,938,935,933,933,930,928,928,928,925,923,920,920,750,750,752,0,0,0,0,0,0,0,0,0,0,0,0,0,0,0,0,0,0,0,0,0,0,0,0,0,0,0,0,0,0,0,0,0,0,0,0,0,0
0,0,0,0,0,0,0,0,0,0,0,0,1307,1307,1307,1307,1307,1307,1307,1307,1307,1307,1307,1302,1302,1302,1302,1302,1302,1302,1302,1302,1302,1302,1307,1307,1307,1307,1302,1302,1302,1302,1302,1302,1302,1302,1297,1297,1297,1302,1302,1302,1302,1297,1297,1302,1302,1302,1302,1302,1302,1302,1302,1302,1302,1302,1302,1302,1302,1302,1302,1302,1302,1302,1302,1297,1297,1297,1292,1292,1297,1297,1070,1070,1070,1073,1073,1073,1073,1073,1073,1073,1073,1073,1077,1077,1077,1077,1080,1080,1084,0,0,0,0,0,0,0,0,0,0,0,722,722,720,720,720,720,722,722,722,723,723,725,727,727,727,728,728,730,731,733,733,734,736,736,736,738,738,739,739,0,0,0,0,0,0,1288,1288,1288,1283,1283,1283,1283,1283,1283,1283,1283,1283,1283,1283,1283,1278,1278,1278,1278,1278,1278,1273,1273,1273,1273,1273,1278,1273,1273,1273,1273,1273,1268,1268,1268,1268,1273,1273,1273,1273,1273,1273,1273,1273,1273,1278,1278,1278,1278,1273,1273,1273,1273,1273,1268,1268,1268,1268,1264,1264,1047,1047,1047,1044,1034,1028,1025,1022,1019,1016,1016,1013,1013,1010,1010,1010,1007,1007,1007,1004,1004,1001,1001,1001,1283,1283,1273,1268,1268,1268,1268,1268,1264,1264,1264,1264,1264,1264,1264,1264,1264,1264,1259,1259,1259,1255,1255,1255,1259,1264,1264,1264,1264,1264,1264,1264,1264,1264,1264,1264,1264,1264,1264,1264,1264,1264,1259,1259,1255,1255,1255,1250,1250,1255,1255,1250,1250,1255,1250,1250,1250,1250,1250,1250,1250,1250,1250,1250,1245,1245,1245,1250,1250,1250,1250,1250,1250,1250,1250,1250,1250,1250,1250,984,984,987,987,987,987,987,989,989,989,989,989,992,992,992,992,992,995,995,995,995,998,998,998,998,998,998,1001,1001,1001,1001,1001,1004,1004,1007,1007,1007,1010,1013,1016,1016,1019,1019,1232,1232,1232,1232,1232,1232,1232,1232,1232,1232,1232,1232,1232,1232,1232,1232,1232,1232,1232,1232,1227,1227,1227,1227,1227,1227,1227,1227,1227,1227,1227,1227,1227,1227,1227,1223,1223,1223,1223,1223,1227,1227,1227,1227,1227,1227,1227,1227,1223,1223,1223,1223,1223,1223,1223,1223,1227,1227,1223,1223,1223,1223,1223,1219,1219,1219,1219,1219,1223,1223,1223,1219,1219,1219,1214,1214,1214,1214,1214,1214,1214,1214,1219,1219,1219,1214,1214,1214,1214,1214,1214,1210,1210,1210,1210,1214,1219,1214,1214,1219,1219,1219,1219,1219,1219,1219,1219,1219,1214,1214,1214,1214,1214,1214,1214,1214,1210,1210,1210,1210,1210,1210,1210,1210,1210,1210,1210,1210,1210,1206,1206,1206,1210,1210,1210,1206,1206,1206,1206,1202,1202,1202,1202,1202,1202,1202,1202,1202,1202,1202,1202,1202,1197,1197,1197,1197,1197,1197,1197,1197,1197,1202,1202,1202,1197,1197,1202,1197,1197,1197,1197,1197,1197,1197,1197,1197,1197,1197,1193,1193,1193,1193,1193,1193,1193,1193,1193,1193,1193,1193,1193,1189,1189,1185,1185,1185,1185,1185,1185,1181,1181,1181,1181,1181,1181,1181,1177,1173,1173,1169,1169,1165,1165,1165,1161,1157,1157,1153,1153,1149,1149,1149,1145,1141,1141,1141,1138,1138,1138,948,946,943,940,938,938,935,933,933,930,930,928,928,925,925,923,752,750,750,752,0,0,0,0,0,0,0,0,0,0,0,0,0,0,0,0,0,0,0,0,0,0,0,0,0,0,0,0,0,0,0,0,0,0,0,0,0,0
0,0,0,0,0,0,0,0,0,0,0,0,1302,1302,1307,1307,1307,1307,1307,1302,1302,1302,1302,1302,1302,1297,1297,1297,1302,1302,1297,1297,1302,1302,1302,1302,1302,1302,1302,1302,1302,1297,1297,1297,1297,1297,1292,1292,1297,1297,1297,1288,1288,1288,1288,1302,1297,1297,1297,1297,1297,1297,1297,1292,1292,1297,1297,1297,1297,1297,1297,1297,1297,1297,1297,1297,1297,1292,1292,1292,1292,1292,1073,1073,1073,1073,1073,1073,1073,1073,1073,1073,1077,1077,1077,1077,1077,1080,1080,1087,1087,0,0,0,0,0,0,0,0,0,0,0,722,722,722,722,722,722,722,722,723,723,723,725,727,727,728,728,730,730,733,733,733,734,736,736,738,738,738,739,739,0,0,0,0,0,0,0,1288,1283,1283,1283,1283,1278,1278,1278,1278,1278,1278,1278,1278,1278,1278,1273,1273,1273,1273,1273,1268,1268,1268,1268,1273,1273,1268,1268,1268,1268,1268,1268,1268,1264,1264,1268,1268,1268,1268,1268,1268,1268,1268,1268,1268,1268,1268,1273,1268,1268,1268,1268,1268,1268,1264,1264,1264,1259,1250,1250,1047,1047,1041,1034,1028,1025,1019,1016,1016,1016,1013,1010,1010,1007,1007,1004,1004,1004,1001,1001,1001,998,998,998,1273,1273,1268,1268,1268,1264,1264,1264,1264,1264,1264,1264,1264,1259,1259,1259,1259,1259,1255,1255,1255,1255,1255,1255,1255,1255,1255,1259,1259,1259,1259,1259,1255,1255,1259,1259,1259,1259,1259,1259,1259,1255,1255,1250,1250,1250,1250,1250,1250,1250,1250,1250,1250,1250,1250,1245,1245,1245,1245,1245,1245,1245,1245,1245,1245,1245,1245,1245,1245,1245,1250,1250,1250,1250,1245,984,984,981,981,984,987,987,987,987,987,987,987,989,989,989,989,989,992,992,992,992,995,995,995,998,998,998,998,998,1001,1001,1001,1001,1004,1004,1004,1004,1007,1010,1010,1013,1013,1016,1019,1019,1232,1232,1227,1227,1232,1227,1227,1227,1227,1227,1227,1227,1227,1227,1227,1227,1232,1227,1227,1227,1227,1227,1227,1223,1223,1223,1223,1223,1223,1223,1223,1223,1223,1223,1223,1223,1223,1223,1223,1219,1219,1223,1223,1223,1223,1219,1219,1219,1219,1219,1219,1219,1219,1219,1219,1219,1219,1219,1219,1219,1219,1219,1219,1219,1219,1214,1214,1214,1214,1214,1219,1219,1219,1214,1214,1214,1214,1214,1214,1214,1214,1214,1214,1214,1214,1214,1214,1214,1210,1210,1210,1210,1210,1206,1206,1206,1210,1210,1210,1210,1210,1210,1214,1214,1214,1214,1214,1214,1214,1214,1214,1214,1210,1210,1210,1210,1210,1206,1206,1206,1206,1206,1206,1206,1206,1206,1206,1206,1206,1206,1202,1202,1202,1206,1206,1206,1202,1202,1202,1202,1197,1197,1197,1197,1197,1197,1197,1197,1197,1197,1197,1197,1197,1197,1197,1197,1197,1197,1197,1193,1193,1193,1193,1193,1197,1193,1193,1193,1193,1193,1193,1193,1193,1193,1193,1193,1193,1193,1189,1189,1189,1189,1189,1189,1189,1189,1189,1189,1189,1189,1189,1189,1189,1185,1185,1185,1185,1185,1185,1181,1181,1181,1181,1181,1181,1177,1177,1177,1173,1169,1169,1169,1169,1169,1165,1165,1161,1157,1153,1153,1153,1149,1149,1149,1145,1145,1145,1141,948,948,948,946,943,940,940,938,938,935,935,933,930,930,930,928,928,925,752,752,752,752,0,0,0,0,0,0,0,0,0,0,0,0,0,0,0,0,0,0,0,0,0,0,0,0,0,0,0,0,0,0,0,0,0,0,0,0,0,0
0,0,0,0,0,0,0,0,0,0,0,1297,1297,1302,1302,1302,1302,1302,1302,1302,1302,1297,1297,1297,1297,1292,1292,1292,1297,1292,1292,1292,1292,1297,1297,1297,1297,1297,1302,1302,1297,1297,1297,1297,1297,1292,1288,1288,1292,1292,1292,1288,1288,1288,1288,1288,1288,1292,1292,1292,1292,1292,1288,1288,1288,1288,1288,1288,1292,1292,1292,1292,1292,1292,1292,1292,1292,1292,1288,1288,1288,1070,1070,1070,1073,1073,1073,1073,1073,1073,1073,1077,1077,1077,1077,1077,1080,1080,1080,1080,1087,0,0,0,0,0,0,0,0,0,0,0,723,722,722,722,722,722,722,722,723,723,723,725,727,728,728,728,730,730,733,733,734,736,736,738,738,739,739,739,739,0,0,0,0,0,0,0,1283,1283,1278,1278,1278,1273,1273,1273,1273,1273,1273,1273,1273,1273,1273,1268,1268,1268,1268,1268,1268,1268,1268,1268,1268,1268,1268,1268,1264,1264,1264,1264,1264,1264,1264,1264,1264,1264,1264,1264,1264,1264,1264,1264,1264,1264,1264,1264,1264,1264,1264,1268,1268,1268,1264,1264,1264,1259,1250,1250,1250,1041,1041,1034,1028,1025,1019,1016,1016,1016,1013,1010,1007,1007,1004,1004,1001,1001,1001,1001,998,998,998,992,992,1268,1268,1268,1264,1264,1264,1259,1259,1259,1259,1259,1259,1255,1255,1255,1255,1255,1255,1250,1250,1250,1250,1250,1250,1250,1250,1250,1250,1250,1250,1250,1250,1250,1255,1255,1255,1255,1255,1255,1255,1250,1250,1250,1250,1250,1250,1250,1250,1245,1245,1245,1245,1245,1245,1245,1245,1245,1241,1241,1241,1241,1236,1236,1236,1241,1241,1241,1241,1245,1245,1250,1250,1250,984,984,984,981,981,981,984,984,984,984,984,984,987,987,987,987,989,989,989,989,992,992,992,995,995,998,998,998,998,1001,1001,1001,1004,1004,1004,1004,1007,1007,1007,1010,1013,1013,1016,1016,1019,1022,1232,1232,1223,1223,1227,1227,1223,1223,1223,1223,1223,1223,1223,1223,1223,1223,1223,1223,1223,1223,1223,1219,1219,1219,1219,1219,1219,1219,1219,1219,1219,1219,1219,1219,1219,1219,1219,1219,1219,1219,1219,1219,1219,1219,1219,1219,1219,1214,1214,1219,1214,1214,1214,1214,1214,1214,1214,1219,1219,1219,1219,1219,1214,1214,1214,1214,1214,1210,1210,1214,1214,1214,1214,1214,1214,1214,1214,1210,1210,1210,1210,1210,1210,1210,1210,1210,1210,1210,1210,1206,1206,1206,1206,1202,1202,1202,1206,1206,1206,1206,1206,1206,1206,1214,1210,1210,1214,1214,1214,1210,1210,1210,1210,1210,1206,1206,1206,1202,1202,1202,1202,1202,1202,1202,1202,1202,1202,1202,1202,1202,1202,1202,1202,1202,1202,1202,1197,1197,1197,1193,1193,1193,1193,1193,1193,1193,1193,1197,1197,1193,1193,1193,1193,1193,1193,1193,1193,1193,1193,1193,1193,1193,1189,1189,1189,1189,1193,1189,1189,1189,1189,1189,1189,1189,1189,1189,1189,1185,1185,1185,1185,1185,1185,1185,1185,1185,1185,1185,1185,1185,1185,1185,1185,1185,1185,1181,1181,1181,1181,1181,1181,1181,1177,1177,1177,1177,1177,1173,1169,1169,1169,1169,1165,1165,1165,1165,1161,1157,1153,1153,1153,1153,1149,1149,1149,1149,1149,1149,948,948,948,946,943,943,940,938,938,935,935,933,933,930,930,928,928,754,752,752,752,752,0,0,0,0,0,0,0,0,0,0,0,0,0,0,0,0,0,0,0,0,0,0,0,0,0,0,0,0,0,0,0,0,0,0,0,0,0,0
0,0,0,0,0,0,0,0,0,0,0,1292,1292,1297,1302,1302,1302,1302,1302,1297,1297,1297,1297,1297,1292,1292,1292,1292,1292,1292,1292,1292,1292,1292,1292,1297,1297,1297,1297,1297,1297,1292,1292,1297,1297,1292,1288,1288,1283,1283,1283,1283,1283,1283,1288,1288,1288,1288,1288,1292,1292,1288,1288,1288,1288,1288,1288,1288,1288,1288,1288,1288,1288,1288,1288,1288,1288,1288,1283,1283,1278,1278,1070,1070,1073,1073,1073,1073,1073,1073,1077,1077,1077,1077,1077,1077,1080,1080,1080,1080,0,0,0,0,0,0,0,0,0,0,0,0,725,723,723,723,723,723,723,727,727,727,727,728,728,728,728,728,730,731,733,734,734,738,738,738,739,739,739,739,739,0,0,0,0,0,0,0,1278,1278,1268,1268,1268,1268,1268,1268,1268,1268,1268,1268,1268,1273,1268,1268,1268,1268,1264,1264,1264,1264,1264,1264,1264,1264,1268,1264,1264,1264,1264,1264,1264,1264,1259,1259,1259,1259,1259,1259,1259,1259,1259,1264,1264,1264,1264,1259,1259,1259,1259,1259,1259,1259,1264,1264,1259,1259,1255,1255,1250,1250,1250,1245,1025,1025,1022,1019,1016,1016,1010,1010,1007,1004,1004,1001,1001,1001,1001,998,998,995,995,992,989,989,989,1264,1264,1264,1259,1259,1255,1255,1255,1255,1259,1255,1255,1255,1255,1255,1250,1250,1250,1245,1245,1245,1245,1245,1245,1245,1245,1245,1245,1245,1245,1245,1245,1245,1245,1250,1245,1245,1245,1245,1245,1245,1245,1245,1245,1245,1245,1245,1245,1245,1245,1245,1241,1241,1241,1241,1236,1236,1236,1236,1236,1236,1236,1236,1241,1241,1241,1245,1245,1250,1250,978,978,981,981,981,981,981,984,984,984,984,984,984,984,987,984,984,987,987,989,989,989,992,992,995,998,998,998,1001,1001,1001,1001,1004,1004,1004,1004,1004,1007,1007,1010,1013,1013,1016,1016,1016,1019,1022,1022,1219,1219,1219,1223,1223,1219,1219,1223,1223,1223,1219,1219,1223,1219,1219,1219,1219,1219,1219,1219,1219,1219,1219,1219,1214,1214,1219,1219,1219,1219,1219,1219,1219,1214,1214,1214,1214,1214,1214,1214,1214,1214,1214,1214,1214,1214,1214,1214,1214,1214,1214,1214,1214,1214,1214,1214,1214,1214,1214,1214,1214,1210,1210,1210,1210,1210,1206,1206,1210,1210,1210,1210,1210,1210,1210,1210,1206,1206,1206,1206,1206,1206,1206,1206,1206,1206,1206,1206,1206,1202,1202,1202,1202,1202,1202,1202,1202,1202,1202,1202,1202,1202,1202,1202,1202,1206,1210,1210,1210,1210,1210,1206,1206,1202,1202,1202,1197,1197,1197,1197,1197,1197,1197,1197,1197,1197,1197,1197,1197,1197,1197,1197,1197,1197,1197,1193,1193,1193,1189,1189,1189,1189,1189,1189,1189,1189,1193,1189,1189,1189,1189,1189,1193,1193,1193,1193,1193,1193,1193,1189,1189,1189,1189,1185,1185,1185,1185,1185,1185,1189,1185,1185,1185,1185,1185,1185,1185,1181,1181,1181,1181,1181,1181,1181,1181,1181,1181,1181,1181,1181,1181,1181,1181,1181,1177,1177,1177,1181,1177,1177,1177,1177,1177,1177,1177,1177,1173,1169,1169,1169,1169,1165,1165,1165,1165,1161,1157,1153,1153,1153,1153,1149,1149,1149,1149,1149,954,948,948,948,946,943,943,940,938,938,935,935,933,933,930,930,933,933,754,752,752,752,752,0,0,0,0,0,0,0,0,0,0,0,0,0,0,0,0,0,0,0,0,0,0,0,0,0,0,0,0,0,0,0,0,0,0,0,0,0,0
0,0,0,0,0,0,0,0,0,0,1292,1292,1292,1297,1297,1297,1297,1297,1297,1297,1292,1292,1292,1292,1292,1288,1288,1288,1288,1288,1288,1288,1288,1288,1288,1292,1292,1292,1292,1288,1288,1292,1292,1292,1292,1288,1288,1288,1283,1283,1283,1283,1283,1283,1283,1283,1283,1283,1283,1283,1288,1288,1283,1283,1283,1283,1283,1283,1283,1283,1283,1283,1283,1278,1278,1278,1283,1283,1278,1278,1268,1268,1268,1073,1073,1073,1073,1073,1073,1077,1077,1077,1077,1080,1080,1080,1084,1084,1084,1084,1087,0,0,0,0,0,0,0,0,0,0,0,728,725,725,725,725,725,727,727,727,727,728,728,730,730,730,730,731,733,734,734,736,738,738,738,739,739,739,739,741,0,0,0,0,0,0,0,1278,1273,1268,1264,1264,1264,1264,1264,1264,1264,1264,1268,1268,1268,1268,1268,1268,1264,1264,1264,1264,1264,1264,1264,1264,1264,1264,1264,1264,1259,1259,1259,1259,1259,1255,1255,1255,1255,1255,1255,1255,1255,1255,1259,1259,1259,1255,1255,1255,1255,1259,1255,1255,1259,1259,1255,1255,1255,1255,1250,1250,1245,1245,1245,1245,1022,1022,1022,1016,1016,1010,1010,1004,1004,1001,998,998,998,998,995,995,992,992,992,989,989,989,989,981,1259,1259,1255,1250,1250,1250,1250,1255,1250,1250,1250,1250,1250,1250,1245,1245,1245,1241,1241,1241,1241,1241,1241,1241,1241,1241,1241,1241,1241,1241,1241,1236,1236,1241,1241,1241,1241,1241,1241,1241,1245,1245,1245,1245,1245,1241,1241,1241,1241,1236,1236,1236,1236,1232,1232,1232,1232,1232,1232,1232,1236,1236,1241,1241,1245,1245,975,975,975,975,978,978,978,978,978,981,981,981,981,981,981,981,984,984,984,987,987,989,989,989,992,992,995,998,998,998,1001,1001,1001,1004,1004,1004,1004,1004,1007,1010,1010,1013,1013,1016,1016,1019,1019,1022,1022,1022,1219,1219,1219,1219,1219,1219,1219,1219,1219,1219,1219,1219,1219,1219,1219,1214,1214,1214,1214,1214,1214,1214,1214,1214,1214,1214,1214,1214,1214,1214,1214,1214,1214,1210,1210,1210,1210,1210,1210,1210,1210,1210,1210,1210,1210,1210,1210,1210,1210,1210,1210,1210,1210,1210,1210,1210,1210,1210,1210,1210,1210,1206,1206,1206,1206,1206,1202,1202,1206,1206,1206,1206,1206,1206,1206,1206,1206,1202,1202,1202,1202,1202,1202,1202,1202,1202,1206,1202,1202,1202,1202,1197,1197,1197,1197,1197,1197,1197,1197,1197,1197,1197,1197,1197,1197,1197,1197,1197,1197,1206,1206,1202,1202,1202,1197,1197,1197,1197,1197,1197,1193,1193,1193,1193,1193,1193,1197,1193,1193,1193,1193,1197,1193,1193,1193,1193,1193,1189,1189,1189,1189,1185,1185,1185,1189,1189,1189,1189,1189,1189,1189,1189,1185,1185,1189,1189,1189,1189,1189,1189,1189,1185,1185,1185,1185,1181,1181,1181,1181,1181,1181,1181,1181,1181,1181,1181,1181,1181,1181,1181,1177,1177,1177,1181,1181,1177,1177,1177,1177,1173,1173,1173,1173,1177,1173,1173,1173,1173,1173,1173,1173,1173,1173,1177,1177,1173,1169,1169,1169,1169,1169,1165,1165,1165,1161,1161,1157,1153,1153,1153,1153,1149,1149,1149,1153,954,954,951,951,948,948,946,943,943,940,938,938,935,935,933,930,930,930,754,754,754,754,752,752,0,0,0,0,0,0,0,0,0,0,0,0,0,0,0,0,0,0,0,0,0,0,0,0,0,0,0,0,0,0,0,0,0,0,0,0,0,0
0,0,0,0,0,0,0,0,0,0,1288,1288,1288,1288,1292,1292,1292,1292,1292,1292,1288,1288,1288,1288,1288,1288,1283,1283,1288,1288,1288,1288,1283,1283,1283,1288,1288,1288,1288,1288,1288,1288,1288,1288,1288,1288,1288,1288,1288,1283,1283,1283,1283,1278,1278,1283,1283,1283,1283,1283,1283,1283,1283,1283,1283,1283,1283,1283,1283,1283,1283,1278,1278,1273,1273,1273,1278,1273,1273,1273,1268,1264,1264,1073,1073,1073,1077,1077,1077,1077,1077,1077,1080,1080,1080,1080,1084,1084,1084,1087,1087,1087,1087,0,0,0,0,0,0,0,0,0,0,727,727,725,725,725,727,727,727,728,730,730,730,731,731,731,733,733,734,736,736,738,738,739,739,739,739,739,739,0,0,0,0,0,0,0,0,1268,1268,1264,1264,1264,1259,1259,1259,1259,1259,1259,1259,1264,1264,1264,1264,1264,1259,1259,1259,1259,1259,1259,1259,1259,1259,1259,1259,1259,1259,1259,1259,1255,1255,1255,1255,1255,1250,1250,1250,1255,1255,1255,1255,1255,1250,1250,1250,1250,1250,1250,1250,1255,1255,1255,1250,1250,1250,1245,1245,1245,1245,1245,1245,1025,1025,1022,1019,1016,1010,1010,1004,1001,998,998,995,995,995,995,992,992,989,989,989,987,984,981,981,1259,1259,1250,1250,1250,1250,1250,1250,1250,1245,1245,1245,1245,1245,1241,1241,1241,1241,1241,1236,1236,1236,1236,1236,1236,1236,1236,1236,1236,1236,1236,1232,1232,1232,1232,1232,1232,1241,1241,1241,1241,1241,1241,1241,1241,1241,1241,1236,1236,1232,1232,1232,1232,1232,1232,1232,1232,1232,1232,1232,1232,1232,964,964,967,970,970,970,973,973,975,978,978,978,978,981,981,981,978,978,981,981,981,984,984,987,987,989,989,992,992,995,995,998,998,1001,1001,1001,1004,1004,1004,1004,1004,1007,1010,1010,1013,1013,1013,1016,1016,1019,1019,1022,1022,1022,1219,1219,1219,1219,1219,1219,1219,1219,1219,1214,1214,1214,1214,1214,1214,1210,1210,1210,1210,1210,1210,1210,1210,1210,1210,1210,1210,1210,1210,1210,1210,1206,1206,1206,1206,1206,1206,1210,1210,1206,1206,1210,1210,1206,1206,1206,1206,1206,1206,1206,1206,1206,1206,1206,1210,1206,1206,1206,1206,1206,1206,1202,1202,1206,1202,1202,1202,1202,1202,1202,1202,1202,1202,1202,1202,1202,1202,1202,1197,1197,1202,1197,1197,1197,1197,1202,1202,1202,1197,1197,1197,1193,1193,1193,1193,1193,1197,1197,1197,1197,1197,1197,1197,1193,1193,1193,1193,1193,1193,1189,1189,1193,1193,1197,1197,1197,1197,1197,1193,1193,1193,1189,1189,1189,1189,1189,1189,1193,1193,1193,1193,1193,1189,1189,1189,1189,1189,1185,1185,1185,1185,1185,1185,1185,1185,1185,1185,1185,1185,1185,1185,1185,1185,1185,1185,1185,1185,1185,1185,1185,1185,1185,1185,1185,1181,1181,1181,1181,1177,1177,1177,1177,1177,1177,1173,1173,1177,1177,1177,1177,1177,1177,1177,1177,1177,1173,1173,1173,1173,1173,1173,1169,1169,1173,1173,1169,1169,1169,1169,1169,1169,1169,1173,1173,1173,1169,1169,1169,1165,1165,1165,1165,1165,1165,1161,1161,1161,1157,1153,1153,1153,1153,1153,1153,956,956,954,954,951,948,948,946,946,946,943,940,940,938,935,933,933,933,754,754,754,754,754,752,752,0,0,0,0,0,0,0,0,0,0,0,0,0,0,0,0,0,0,0,0,0,0,0,0,0,0,0,0,0,0,0,0,0,0,0,0,0,0
0,0,0,0,0,0,0,0,0,0,1288,1283,1283,1283,1288,1288,1288,1288,1288,1288,1288,1288,1283,1283,1283,1283,1283,1283,1283,1283,1283,1283,1283,1283,1283,1283,1283,1283,1283,1283,1283,1283,1288,1283,1283,1283,1283,1283,1288,1283,1283,1283,1283,1278,1278,1283,1278,1278,1278,1278,1278,1278,1278,1278,1278,1278,1278,1278,1278,1278,1278,1278,1278,1273,1273,1273,1273,1268,1268,1268,1268,1264,1255,1250,1077,1077,1077,1077,1077,1077,1080,1080,1080,1084,1084,1084,1084,1084,1084,1087,1087,1087,1087,0,0,0,0,0,0,0,0,0,0,0,727,727,727,727,727,727,728,728,730,730,731,733,733,734,734,736,736,738,738,738,738,739,739,739,739,739,739,739,0,0,0,0,0,0,0,1268,1259,1259,1259,1259,1255,1255,1255,1255,1255,1255,1255,1255,1259,1259,1259,1259,1255,1255,1255,1259,1255,1255,1259,1259,1259,1259,1259,1255,1255,1255,1255,1255,1255,1250,1250,1250,1250,1250,1250,1250,1250,1250,1250,1250,1250,1250,1250,1250,1250,1250,1250,1250,1250,1250,1250,1250,1250,1245,1245,1245,1241,1236,1236,1236,1025,1025,1019,1016,1016,1010,1004,1001,998,995,995,992,992,992,989,989,989,987,987,984,984,981,981,981,1250,1250,1245,1245,1245,1245,1245,1245,1245,1241,1241,1241,1241,1241,1236,1236,1236,1236,1236,1236,1232,1232,1232,1232,1232,1236,1236,1232,1232,1232,1232,1232,1232,1232,1232,1232,1232,1232,1232,1232,1236,1236,1241,1236,1236,1236,1232,1232,1232,1232,1232,1232,1232,1232,1232,1232,1232,1232,1232,967,967,964,964,967,967,967,967,970,970,973,973,973,975,975,978,978,978,978,978,981,981,981,984,984,987,989,989,989,992,992,995,998,998,1001,1001,1001,1004,1004,1004,1007,1007,1007,1007,1010,1010,1013,1013,1016,1016,1019,1019,1022,1022,1025,1214,1214,1214,1214,1214,1214,1214,1214,1214,1214,1214,1214,1210,1210,1210,1210,1210,1210,1210,1210,1210,1210,1210,1210,1210,1206,1206,1206,1206,1206,1206,1206,1202,1202,1202,1202,1202,1202,1202,1206,1202,1202,1202,1202,1202,1202,1202,1202,1202,1202,1202,1202,1202,1202,1202,1206,1202,1202,1202,1202,1202,1202,1202,1202,1202,1202,1202,1197,1197,1197,1197,1197,1202,1202,1202,1202,1202,1202,1197,1197,1197,1197,1197,1197,1197,1197,1197,1197,1197,1197,1197,1193,1189,1189,1189,1189,1189,1189,1193,1193,1193,1193,1193,1193,1189,1189,1189,1189,1189,1189,1185,1185,1189,1189,1189,1189,1189,1193,1193,1189,1189,1189,1189,1189,1185,1185,1189,1189,1189,1189,1185,1185,1189,1185,1185,1185,1185,1185,1185,1185,1185,1185,1185,1185,1185,1185,1181,1181,1181,1181,1185,1181,1181,1181,1181,1181,1181,1181,1181,1181,1181,1185,1185,1181,1181,1181,1177,1177,1173,1173,1173,1173,1173,1173,1173,1169,1169,1169,1169,1169,1173,1173,1173,1173,1173,1173,1169,1169,1169,1169,1169,1169,1169,1169,1169,1169,1169,1169,1165,1165,1165,1169,1169,1169,1169,1169,1169,1169,1169,1165,1165,1165,1165,1165,1165,1161,1161,1161,1157,1157,1157,1153,1153,1153,1153,956,956,956,954,954,951,951,948,948,946,946,943,940,938,935,935,935,754,754,754,754,754,754,754,754,0,0,0,0,0,0,0,0,0,0,0,0,0,0,0,0,0,0,0,0,0,0,0,0,0,0,0,0,0,0,0,0,0,0,0,0,0,0
0,0,0,0,0,0,0,0,0,0,0,1283,1283,1283,1283,1283,1283,1283,1283,1283,1283,1283,1283,1283,1278,1278,1278,1278,1278,1278,1283,1283,1278,1278,1278,1283,1283,1278,1278,1278,1278,1278,1283,1283,1278,1278,1278,1283,1283,1283,1283,1283,1283,1283,1278,1278,1273,1273,1273,1273,1273,1273,1273,1273,1273,1273,1273,1273,1273,1273,1273,1273,1273,1268,1268,1268,1268,1268,1264,1264,1264,1259,1255,1250,1077,1077,1080,1080,1080,1080,1080,1080,1084,1084,1084,1084,1087,1087,1087,1087,1087,1090,0,0,0,0,0,0,0,0,0,0,0,0,727,727,727,727,727,728,728,728,730,731,733,733,733,734,734,736,738,738,738,738,739,739,739,739,739,739,739,739,0,0,0,0,0,0,0,0,1255,1255,1255,1255,1255,1255,1255,1250,1250,1250,1250,1255,1255,1255,1255,1255,1250,1250,1255,1255,1250,1250,1255,1255,1250,1250,1255,1255,1255,1255,1250,1250,1250,1250,1250,1250,1250,1250,1250,1250,1250,1250,1250,1250,1245,1245,1245,1245,1245,1245,1245,1245,1245,1245,1245,1245,1245,1245,1245,1241,1241,1236,1236,1236,1025,1025,1022,1019,1016,1007,1004,1001,998,995,992,992,992,989,989,987,987,987,987,984,984,981,981,978,978,1250,1245,1245,1241,1241,1241,1241,1241,1236,1236,1236,1236,1236,1236,1236,1236,1232,1232,1232,1232,1232,1232,1232,1232,1232,1232,1232,1232,1232,1232,1232,1227,1227,1227,1227,1227,1227,1227,1227,1227,1227,1227,1227,1227,1227,1227,1227,1232,1232,1232,1232,1232,1232,1232,1232,1232,1232,967,967,967,964,964,967,967,967,967,970,970,970,970,970,970,973,975,978,978,978,978,981,981,981,984,984,987,989,989,992,992,995,998,998,1001,1004,1004,1004,1004,1004,1004,1007,1007,1007,1007,1010,1013,1013,1013,1016,1016,1019,1022,1022,1022,1025,1028,1214,1210,1210,1214,1214,1210,1210,1214,1214,1210,1210,1210,1210,1206,1206,1206,1206,1206,1206,1206,1206,1206,1206,1206,1206,1206,1202,1202,1202,1202,1202,1202,1202,1202,1202,1202,1202,1202,1202,1202,1202,1202,1202,1197,1197,1197,1197,1197,1197,1197,1197,1197,1197,1197,1197,1197,1197,1197,1197,1197,1202,1197,1197,1197,1197,1197,1197,1197,1197,1197,1197,1197,1197,1197,1197,1197,1197,1197,1197,1197,1197,1197,1197,1197,1197,1197,1197,1193,1193,1193,1189,1189,1189,1189,1189,1189,1189,1189,1189,1189,1189,1189,1189,1185,1185,1185,1185,1185,1185,1185,1185,1185,1185,1185,1185,1185,1185,1189,1189,1189,1185,1185,1185,1185,1185,1185,1185,1185,1185,1185,1185,1185,1185,1185,1185,1181,1181,1181,1181,1181,1181,1181,1181,1181,1181,1181,1181,1181,1181,1181,1181,1177,1177,1177,1177,1177,1177,1177,1181,1181,1181,1181,1177,1177,1173,1173,1173,1169,1169,1169,1169,1169,1169,1169,1169,1169,1169,1169,1169,1169,1169,1169,1169,1169,1169,1165,1165,1165,1165,1165,1165,1165,1165,1165,1165,1169,1165,1165,1165,1165,1165,1169,1169,1169,1169,1169,1169,1165,1165,1165,1165,1161,1161,1161,1157,1157,1157,1157,1157,1157,1153,1153,1153,967,967,959,959,959,956,956,956,951,951,948,948,943,943,938,938,754,754,754,754,754,754,755,754,754,754,0,0,0,0,0,0,0,0,0,0,0,0,0,0,0,0,0,0,0,0,0,0,0,0,0,0,0,0,0,0,0,0,0,0,0,0,0,0
