0,0,0,0,0,1119,1119,1119,1119,1119,1119,1119,1119,1123,1123,1123,1119,1119,1123,1119,1119,1119,1119,1119,1119,1119,1119,1119,1119,1119,1115,1115,1115,1115,1115,1115,1115,1115,1115,1115,1115,1115,1115,1115,1115,1115,1115,1115,1115,1115,1115,1115,1115,1115,1115,1115,1115,1115,1115,1115,1115,1115,1115,1115,1115,1115,1115,1115,1115,1115,1115,1115,1115,1115,1115,1115,1115,1115,1115,1115,1119,1119,1119,1119,1119,1115,1115,1119,1119,1119,1119,1119,1119,1119,1119,1119,1119,1119,1119,1119,1119,1119,1119,1119,1123,1123,1119,1119,1119,1119,1119,1119,1115,1019,1016,1016,1013,1010,1010,1007,1007,1007,1007,1007,1007,1007,1010,1010,1013,1016,1016,1019,1019,1022,1022,1123,1123,1123,1123,1126,1123,1123,1123,1123,1123,1123,1123,1123,1123,1123,1123,1123,1123,1126,1126,1126,1126,1126,1123,1123,1123,1123,1126,1126,1126,1126,1126,1126,1126,1123,1123,1123,1123,1123,1123,1123,1126,1126,1126,1126,1126,1126,1126,1126,1126,1126,1126,1126,1126,1126,1123,1123,1126,1126,1126,1126,1126,1126,1126,1123,1123,1123,1123,1123,1123,1123,1123,1123,1123,1123,1123,1123,1123,1123,1126,1126,1126,1126,1126,1126,1126,1126,1123,1123,1123,1123,1123,1123,0,0,0,0,0,0,0,742,741,734,734,734,734,734,733,731,730,728,725,723,723,722,722,722,722,722,722,723,728,730,733,733,733,734,736,738,739,741,0,0,0,0,0,0,1130,1130,1130,1126,1126,1126,1123,1123,1123,1123,1126,1126,1126,1126,1126,1126,1126,1126,1126,1126,1126,1126,1130,1130,1126,1126,1126,1126,1126,1123,1123,1126,1126,1126,1126,1126,1130,1130,956,956,956,903,898,898,901,906,908,908,908,908,910,908,908,910,910,910,913,913,913,915,918,920,920,923,923,928,933,935,938,943,946,946,946,948,1126,1126,1126,1130,1134,1134,1134,1138,1138,1138,1138,1138,1134,1134,1134,1134,1134,1134,1134,1134,1134,1134,1134,1134,1134,1134,1134,1134,1126,1126,1123,1123,1119,1115,1112,1108,1108,1108,1108,1108,1108,1108,1108,1108,1112,1115,1119,1123,1126,1130,1134,1134,1134,1134,1134,1134,1134,1134,1134,1134,1134,1134,1134,1134,1134,1134,1134,1134,1134,1134,1138,1134,1134,1134,1134,1134,1134,1134,1134,1134,1134,1134,1134,1134,1134,1130,1130,1134,1134,1134,1134,1134,1134,1134,1134,1134,1134,1130,1130,1130,1134,1134,1130,1130,1134,1134,1134,1134,1130,1130,1130,1130,1126,1126,1126,1126,1126,1130,1130,1130,1134,1134,1134,1134,1134,1134,1134,1134,1134,1134,1134,1134,1134,1134,1134,1134,1134,1134,1134,1134,1134,1134,1134,1130,1130,1130,1126,1126,1126,1126,1126,1130,1130,1130,1130,1130,1130,1126,1126,1126,1126,1126,1126,1126,1126,1130,1126,1126,1130,1130,1130,1130,1130,1130,1130,1130,1130,1130,1130,1130,1130,1130,1130,1130,1130,1130,1130,1130,1130,1134,1130,1130,1134,1134,1134,1134,1134,1134,1134,1134,1134,1134,1134,1134,1134,1130,1130,1130,1130,1130,1130,1130,1134,1134,1134,1134,1134,1134,1134,1134,1134,1134,1134,1134,1138,1138,1134,1134,1134,1134,1134,1134,1134,1134,1134,1134,1138,1038,1038,1038,1034,1031,1031,1028,1025,946,943,943,946,946,948,948,906,906,908,908,908,908,0,0,0,0,0,0,0,0,0,0,0,0,0,0,0,0,0,0,0,0,0,0,0,0,0,0,0,0,0,0,0,0,0,0,0,0
0,0,0,0,0,1119,1119,1119,1119,1119,1119,1119,1119,1119,1119,1119,1119,1119,1119,1119,1119,1115,1115,1115,1115,1115,1115,1115,1115,1115,1115,1115,1115,1115,1115,1115,1115,1115,1115,1115,1115,1115,1115,1115,1115,1115,1115,1115,1115,1115,1115,1115,1115,1115,1115,1115,1115,1115,1115,1115,1115,1115,1112,1112,1112,1112,1112,1112,1112,1112,1112,1112,1112,1112,1112,1112,1112,1115,1115,1115,1115,1115,1115,1115,1115,1115,1115,1115,1115,1115,1115,1115,1119,1119,1119,1119,1115,1115,1115,1115,1115,1115,1115,1115,1119,1119,1119,1119,1119,1115,1115,1115,1115,1019,1016,1016,1013,1010,1010,1007,1007,1007,1007,1007,1007,1010,1010,1013,1013,1016,1016,1019,1019,1022,1022,1022,1123,1119,1119,1123,1123,1119,1119,1119,1119,1119,1119,1119,1119,1119,1119,1119,1119,1119,1119,1119,1119,1119,1119,1119,1119,1119,1119,1119,1119,1123,1123,1123,1123,1123,1123,1123,1123,1123,1123,1123,1123,1123,1123,1123,1123,1123,1123,1123,1123,1123,1123,1123,1123,1123,1119,1119,1123,1123,1123,1123,1123,1123,1123,1119,1119,1119,1119,1119,1119,1119,1119,1119,1119,1119,1119,1123,1119,1119,1123,1123,1123,1123,1123,1123,1126,1123,1123,1123,1123,1119,1119,0,0,0,0,0,0,0,0,742,742,736,736,736,734,734,733,733,730,728,727,725,723,722,722,722,722,722,723,725,730,731,733,733,734,734,736,738,739,741,0,0,0,0,0,0,1130,1130,1126,1126,1123,1123,1123,1119,1119,1123,1123,1123,1123,1123,1123,1123,1123,1123,1123,1123,1123,1123,1123,1123,1123,1126,1126,1126,1126,1123,1123,1126,1126,1126,1126,1126,1126,1126,1126,901,901,901,898,898,901,901,906,906,906,906,906,906,906,908,908,908,910,910,913,913,918,918,920,920,923,928,935,935,938,943,946,946,946,1119,1119,1123,1126,1126,1130,1130,1130,1134,1134,1130,1130,1134,1134,1134,1130,1130,1130,1130,1130,1130,1130,1130,1130,1130,1130,1130,1134,1130,1126,1126,1123,1123,1119,1119,1115,1112,1112,1108,1108,1108,1108,1108,1108,1112,1115,1115,1119,1123,1123,1126,1130,1130,1130,1130,1130,1130,1130,1130,1130,1130,1130,1130,1130,1130,1130,1130,1130,1130,1134,1134,1134,1134,1134,1134,1130,1130,1130,1130,1130,1130,1130,1130,1130,1130,1130,1130,1130,1130,1130,1130,1130,1130,1130,1130,1130,1130,1130,1126,1126,1130,1130,1130,1130,1130,1130,1130,1130,1130,1126,1126,1126,1126,1126,1126,1126,1126,1126,1130,1130,1130,1130,1130,1130,1134,1130,1130,1130,1130,1130,1130,1130,1130,1130,1130,1130,1130,1130,1130,1130,1130,1130,1130,1130,1130,1126,1126,1123,1123,1123,1123,1123,1126,1126,1126,1126,1126,1126,1123,1123,1123,1123,1123,1123,1123,1123,1126,1126,1126,1126,1126,1126,1126,1126,1126,1126,1126,1130,1126,1126,1126,1126,1123,1123,1123,1123,1123,1130,1126,1126,1126,1126,1126,1126,1126,1126,1123,1123,1130,1130,1130,1130,1130,1130,1130,1130,1130,1126,1126,1126,1130,1126,1126,1130,1130,1130,1130,1134,1134,1130,1130,1130,1130,1134,1134,1134,1134,1134,1134,1134,1134,1134,1130,1130,1130,1130,1134,1134,1038,1038,1038,1034,1031,1031,1028,1022,946,943,943,946,946,948,908,906,906,908,908,908,908,0,0,0,0,0,0,0,0,0,0,0,0,0,0,0,0,0,0,0,0,0,0,0,0,0,0,0,0,0,0,0,0,0,0,0,0
0,0,0,0,0,1115,1115,1115,1115,1115,1115,1115,1115,1115,1115,1115,1119,1119,1119,1119,1119,1115,1112,1112,1112,1112,1112,1112,1112,1112,1112,1112,1112,1112,1112,1112,1112,1112,1112,1112,1112,1112,1112,1115,1115,1115,1115,1115,1115,1115,1115,1115,1115,1115,1115,1115,1115,1112,1112,1112,1112,1112,1112,1112,1108,1108,1108,1108,1108,1108,1108,1108,1108,1112,1108,1108,1112,1112,1112,1115,1112,1112,1112,1112,1112,1112,1112,1112,1112,1112,1112,1112,1115,1115,1115,1115,1115,1115,1115,1115,1115,1115,1115,1115,1115,1115,1115,1115,1115,1115,1115,1115,1115,1115,1019,1019,1013,1013,1010,1007,1007,1007,1007,1007,1007,1010,1010,1013,1013,1016,1016,1019,1019,1022,1022,1022,1119,1119,1119,1119,1119,1115,1115,1115,1115,1115,1115,1115,1115,1115,1115,1115,1115,1115,1115,1115,1115,1115,1115,1115,1115,1115,1115,1115,1115,1115,1115,1115,1115,1119,1119,1119,1119,1119,1119,1119,1119,1119,1119,1119,1119,1119,1119,1119,1119,1119,1119,1119,1119,1119,1119,1119,1119,1119,1119,1119,1119,1119,1119,1119,1119,1119,1115,1115,1119,1119,1115,1115,1115,1115,1119,1119,1115,1115,1119,1119,1119,1119,1119,1119,1119,1119,1119,1119,1115,1115,1115,0,0,0,0,0,0,0,0,746,744,738,736,736,736,734,733,733,731,730,727,727,723,723,723,723,723,723,723,725,730,731,733,733,734,736,736,738,739,741,0,0,0,0,0,0,1130,1126,1123,1123,1119,1119,1119,1119,1119,1119,1119,1119,1119,1119,1119,1119,1119,1119,1119,1119,1119,1119,1119,1119,1119,1119,1119,1119,1123,1119,1119,1123,1126,1126,1123,1123,1126,1126,1130,901,901,901,898,898,901,901,903,903,903,903,903,903,903,906,906,908,908,910,913,913,918,918,920,920,925,930,935,935,938,943,946,1115,1115,1115,1119,1123,1123,1126,1126,1126,1130,1130,1130,1126,1126,1126,1126,1126,1130,1130,1130,1126,1126,1126,1126,1126,1130,1126,1126,1126,1130,1126,1123,1123,1123,1123,1119,1119,1115,1112,1112,1108,1108,1108,1108,1108,1108,1112,1115,1119,1119,1123,1123,1123,1126,1126,1130,1126,1126,1130,1130,1126,1126,1126,1126,1126,1126,1126,1126,1126,1126,1126,1126,1126,1126,1130,1130,1130,1130,1130,1130,1130,1130,1126,1126,1126,1126,1126,1126,1126,1126,1130,1130,1126,1126,1126,1126,1126,1126,1126,1126,1123,1123,1126,1130,1130,1130,1130,1130,1130,1130,1126,1126,1123,1123,1123,1123,1123,1123,1123,1123,1126,1126,1126,1126,1126,1126,1126,1126,1126,1126,1126,1126,1126,1126,1123,1123,1123,1123,1123,1123,1126,1126,1130,1130,1126,1126,1126,1126,1123,1123,1123,1123,1123,1123,1123,1123,1123,1123,1123,1123,1123,1123,1119,1119,1119,1123,1123,1123,1123,1123,1123,1123,1123,1123,1123,1123,1123,1123,1123,1123,1123,1123,1123,1123,1123,1123,1123,1123,1123,1123,1123,1123,1123,1123,1119,1119,1123,1123,1119,1119,1119,1126,1123,1123,1123,1123,1123,1126,1126,1126,1126,1126,1126,1126,1126,1126,1126,1126,1126,1126,1123,1123,1123,1123,1126,1126,1130,1130,1130,1130,1130,1130,1130,1130,1126,1126,1126,1126,1126,1130,1130,1034,1034,1034,1034,1028,1028,1022,946,946,946,946,948,908,908,908,908,908,908,908,908,0,0,0,0,0,0,0,0,0,0,0,0,0,0,0,0,0,0,0,0,0,0,0,0,0,0,0,0,0,0,0,0,0,0,0,0
0,0,0,0,0,1112,1112,1115,1115,1115,1115,1115,1115,1115,1115,1115,1115,1115,1115,1112,1112,1112,1112,1112,1108,1108,1108,1108,1108,1108,1108,1108,1108,1108,1108,1112,1112,1112,1112,1112,1112,1112,1112,1112,1112,1112,1112,1112,1112,1112,1112,1112,1112,1112,1112,1112,1112,1112,1112,1112,1112,1112,1112,1108,1108,1108,1105,1105,1105,1105,1105,1105,1105,1108,1108,1108,1108,1112,1112,1112,1112,1112,1112,1108,1108,1105,1105,1108,1108,1108,1108,1108,1112,1112,1112,1112,1112,1112,1112,1112,1112,1112,1112,1112,1112,1115,1115,1115,1115,1112,1112,1112,1112,1019,1019,1019,1016,1013,1010,1010,1007,1007,1007,1007,1007,1010,1010,1013,1016,1016,1016,1016,1019,1022,1022,1022,1119,1119,1119,1115,1115,1115,1112,1112,1115,1115,1115,1115,1115,1115,1115,1115,1112,1112,1112,1112,1112,1112,1115,1112,1112,1112,1112,1112,1112,1112,1112,1112,1112,1115,1115,1115,1115,1115,1115,1115,1115,1115,1115,1115,1115,1115,1115,1115,1115,1115,1115,1115,1115,1115,1115,1115,1115,1115,1115,1115,1115,1115,1115,1115,1115,1115,1115,1115,1115,1115,1115,1115,1115,1115,1115,1115,1115,1115,1115,1115,1115,1115,1115,1115,1115,1115,1115,1112,1112,1112,1112,0,0,0,0,0,0,0,746,746,744,738,736,736,736,734,734,733,731,730,728,727,725,723,723,723,723,723,723,727,730,731,733,733,734,736,736,738,739,741,0,0,0,0,0,0,0,1123,1119,1119,1119,1119,1119,1119,1119,1119,1119,1119,1115,1115,1119,1119,1119,1119,1119,1119,1119,1115,1115,1115,1112,1112,1115,1115,1115,1115,1115,1119,1123,1126,1123,1123,1126,1126,898,898,898,898,898,898,901,901,901,901,901,901,901,901,901,903,906,906,908,910,913,915,918,920,920,923,928,930,933,935,935,935,1115,1115,1115,1115,1119,1119,1123,1123,1123,1123,1126,1126,1126,1123,1123,1123,1123,1123,1123,1123,1123,1126,1123,1123,1123,1123,1126,1123,1123,1126,1126,1123,1123,1123,1123,1123,1119,1119,1115,1115,1112,1108,1108,1108,1108,1108,1108,1112,1115,1119,1119,1123,1123,1123,1123,1123,1126,1123,1123,1126,1126,1123,1123,1123,1123,1123,1123,1123,1123,1123,1123,1123,1123,1123,1123,1123,1123,1123,1126,1126,1126,1126,1126,1126,1126,1126,1126,1126,1126,1126,1126,1126,1126,1126,1123,1123,1123,1123,1123,1123,1123,1123,1123,1123,1126,1126,1126,1126,1126,1126,1126,1126,1123,1123,1123,1123,1119,1119,1119,1123,1123,1123,1123,1123,1123,1123,1123,1123,1123,1123,1123,1123,1123,1123,1123,1123,1123,1123,1123,1123,1123,1123,1123,1123,1123,1123,1123,1123,1123,1123,1119,1119,1119,1119,1119,1119,1119,1119,1119,1119,1119,1119,1119,1115,1115,1119,1119,1119,1119,1119,1119,1119,1123,1123,1123,1123,1123,1123,1123,1123,1119,1119,1119,1119,1119,1119,1119,1123,1119,1119,1119,1119,1119,1119,1119,1119,1119,1123,1123,1119,1119,1119,1123,1119,1119,1119,1119,1123,1123,1123,1123,1123,1123,1123,1123,1123,1123,1123,1123,1123,1123,1123,1123,1123,1123,1123,1123,1126,1126,1126,1126,1123,1123,1123,1123,1123,1119,1119,1123,1123,1123,1123,1034,1034,1034,1034,1028,1025,1019,946,946,946,946,908,908,908,908,908,908,908,908,908,0,0,0,0,0,0,0,0,0,0,0,0,0,0,0,0,0,0,0,0,0,0,0,0,0,0,0,0,0,0,0,0,0,0,0,0
0,0,0,0,0,1112,1112,1112,1112,1112,1112,1112,1112,1112,1112,1112,1112,1112,1108,1108,1108,1105,1105,1105,1108,1108,1105,1105,1105,1105,1105,1105,1105,1105,1105,1105,1105,1108,1108,1112,1112,1112,1112,1112,1112,1108,1108,1108,1108,1108,1108,1108,1108,1108,1108,1108,1108,1108,1108,1108,1108,1108,1108,1108,1105,1105,1105,1101,1101,1101,1105,1105,1105,1105,1105,1105,1108,1108,1108,1108,1108,1108,1105,1105,1105,1105,1105,1105,1105,1108,1108,1108,1108,1108,1108,1108,1108,1108,1105,1105,1105,1105,1105,1108,1112,1112,1112,1112,1112,1112,1112,1108,1108,1019,1019,1019,1019,1016,1013,1010,1010,1010,1010,1010,1010,1010,1013,1013,1016,1016,1016,1016,1019,1022,1022,1022,1119,1115,1115,1115,1112,1112,1112,1112,1112,1112,1112,1112,1115,1112,1112,1112,1108,1108,1108,1108,1108,1108,1108,1108,1108,1108,1108,1108,1108,1108,1108,1108,1108,1112,1112,1112,1108,1108,1108,1108,1112,1112,1112,1112,1112,1112,1112,1115,1115,1115,1115,1115,1115,1115,1115,1115,1115,1115,1115,1115,1115,1115,1115,1115,1112,1112,1112,1112,1112,1112,1112,1112,1115,1115,1115,1115,1112,1112,1112,1112,1108,1108,1108,1108,1108,1112,1112,1108,1108,1112,1112,0,0,0,0,0,0,0,746,746,746,744,741,738,736,736,734,734,733,731,728,727,725,723,723,723,723,723,723,727,731,731,733,733,734,736,736,739,741,746,746,0,0,0,0,0,0,1119,1115,1115,1115,1115,1115,1115,1115,1115,1115,1115,1115,1115,1115,1115,1115,1115,1115,1115,1115,1115,1112,1112,1112,1112,1108,1108,1108,1112,1108,1108,1123,1123,1123,1123,896,896,896,898,898,898,898,898,898,898,898,898,898,898,898,901,901,901,906,906,908,910,913,915,918,920,920,923,928,930,930,935,935,1105,1105,1115,1115,1115,1119,1119,1123,1123,1123,1123,1123,1123,1123,1123,1123,1123,1123,1123,1123,1119,1119,1119,1119,1119,1123,1123,1123,1123,1123,1123,1123,1123,1123,1123,1123,1123,1119,1119,1115,1115,1115,1112,1108,1108,1108,1112,1112,1115,1119,1119,1119,1119,1119,1119,1123,1123,1123,1123,1123,1123,1123,1123,1123,1123,1123,1123,1123,1123,1123,1123,1123,1123,1119,1119,1119,1119,1119,1119,1119,1119,1119,1123,1123,1123,1123,1123,1123,1123,1123,1123,1123,1123,1123,1123,1123,1123,1123,1123,1123,1123,1123,1119,1119,1123,1123,1123,1123,1123,1123,1126,1123,1123,1119,1119,1119,1119,1119,1119,1119,1119,1119,1119,1119,1119,1119,1119,1119,1119,1119,1119,1119,1119,1119,1119,1119,1119,1119,1119,1119,1119,1119,1119,1119,1119,1119,1119,1119,1119,1119,1119,1119,1119,1119,1119,1119,1119,1119,1115,1115,1115,1115,1115,1115,1115,1115,1115,1115,1115,1115,1119,1119,1119,1119,1119,1119,1119,1119,1119,1119,1119,1119,1119,1119,1115,1115,1115,1119,1119,1119,1119,1119,1119,1119,1119,1119,1119,1119,1119,1119,1119,1119,1119,1119,1115,1115,1115,1119,1119,1123,1119,1119,1119,1119,1123,1123,1119,1119,1123,1123,1123,1119,1119,1119,1119,1119,1119,1119,1119,1123,1123,1123,1123,1123,1123,1119,1119,1119,1119,1119,1119,1119,1119,1119,956,956,1028,1028,1025,1019,948,948,948,948,908,908,908,908,908,908,908,908,908,0,0,0,0,0,0,0,0,0,0,0,0,0,0,0,0,0,0,0,0,0,0,0,0,0,0,0,0,0,0,0,0,0,0,0,0
0,0,0,0,0,1112,1112,1112,1112,1112,1112,1108,1108,1108,1112,1108,1108,1108,1105,1105,1105,1105,1105,1101,1101,1101,1101,1101,1105,1105,1105,1105,1105,1101,1101,1105,1105,1105,1108,1108,1108,1105,1105,1105,1105,1105,1105,1105,1105,1105,1105,1105,1105,1101,1101,1105,1105,1105,1105,1108,1105,1105,1105,1105,1101,1101,1101,1101,1101,1101,1101,1101,1101,1101,1105,1105,1105,1105,1105,1105,1105,1101,1101,1101,1101,1101,1101,1105,1105,1105,1105,1105,1105,1105,1105,1105,1105,1105,1101,1101,1101,1105,1105,1105,1105,1105,1105,1108,1108,1108,1108,1105,1105,1019,1019,1022,1019,1016,1013,1010,1010,1010,1010,1010,1010,1010,1010,1013,1016,1016,1019,1019,1022,1022,1022,1022,1115,1112,1112,1108,1108,1108,1108,1108,1108,1112,1112,1112,1112,1108,1108,1108,1105,1105,1108,1108,1108,1108,1108,1108,1108,1105,1105,1105,1105,1105,1105,1105,1105,1108,1108,1105,1105,1105,1105,1105,1105,1105,1108,1108,1108,1108,1108,1112,1112,1112,1112,1112,1112,1112,1112,1112,1112,1112,1112,1112,1108,1108,1108,1112,1108,1108,1108,1108,1108,1108,1108,1108,1108,1112,1112,1112,1108,1108,1108,1108,1108,1108,1108,1108,1108,1108,1105,1105,1105,1105,1105,0,0,0,0,0,0,0,746,746,746,744,744,741,738,736,734,734,733,731,728,727,725,723,723,723,725,725,725,730,733,733,733,734,734,736,736,739,742,746,746,0,0,0,0,0,0,1115,1112,1112,1112,1112,1112,1112,1112,1112,1112,1112,1112,1112,1112,1112,1115,1115,1115,1115,1115,1112,1112,1108,1108,1108,1108,1108,1108,1108,1108,1108,1123,1123,1126,896,896,896,896,896,896,896,896,896,896,896,896,896,896,896,896,898,898,901,903,906,908,910,913,918,918,920,920,923,928,930,930,930,1105,1105,1105,1115,1115,1115,1119,1119,1119,1119,1119,1119,1119,1119,1119,1119,1119,1119,1119,1119,1119,1119,1119,1119,1119,1119,1119,1119,1119,1119,1119,1119,1119,1119,1119,1119,1119,1119,1119,1119,1115,1115,1115,1112,1108,1108,1108,1112,1112,1115,1115,1115,1119,1119,1119,1119,1119,1119,1119,1119,1115,1115,1119,1119,1119,1119,1119,1119,1119,1119,1119,1119,1119,1119,1119,1119,1115,1115,1115,1115,1115,1115,1115,1115,1119,1119,1119,1119,1119,1123,1119,1119,1119,1119,1119,1119,1123,1119,1119,1119,1119,1119,1119,1119,1119,1119,1119,1119,1119,1119,1119,1119,1119,1119,1119,1119,1119,1119,1115,1115,1119,1119,1119,1119,1119,1119,1115,1115,1115,1115,1115,1115,1115,1119,1119,1119,1119,1115,1115,1115,1119,1115,1115,1119,1119,1119,1119,1119,1119,1119,1119,1119,1115,1115,1115,1115,1115,1115,1119,1115,1112,1112,1112,1112,1112,1112,1112,1115,1115,1112,1112,1115,1115,1115,1115,1115,1115,1115,1115,1115,1115,1115,1112,1112,1115,1112,1112,1112,1112,1115,1115,1119,1119,1115,1115,1115,1115,1115,1115,1119,1119,1119,1119,1119,1112,1112,1112,1112,1112,1115,1119,1119,1119,1119,1119,1119,1119,1115,1115,1119,1119,1119,1119,1119,1119,1119,1115,1112,1112,1112,1119,1119,1119,1119,1119,1119,1119,1115,1115,1115,1115,1119,1119,1119,954,956,956,956,956,954,954,948,948,948,948,908,908,908,908,908,908,908,908,908,0,0,0,0,0,0,0,0,0,0,0,0,0,0,0,0,0,0,0,0,0,0,0,0,0,0,0,0,0,0,0,0,0,0,0,0
0,0,0,0,0,1105,1105,1108,1108,1105,1105,1105,1105,1105,1101,1101,1101,1101,1101,1101,1101,1101,1101,1101,1101,1097,1097,1101,1101,1101,1101,1101,1101,1101,1101,1101,1101,1101,1101,1105,1105,1101,1101,1101,1101,1105,1101,1101,1101,1101,1101,1101,1101,1101,1101,1101,1101,1101,1101,1105,1105,1101,1101,1101,1101,1101,1097,1097,1097,1097,1097,1097,1097,1101,1101,1101,1101,1101,1101,1101,1101,1101,1097,1097,1101,1101,1101,1101,1101,1101,1101,1105,1101,1101,1101,1101,1101,1101,1101,1101,1101,1101,1101,1101,1101,1101,1101,1105,1105,1105,1101,1101,1105,1022,1022,1022,1019,1016,1013,1010,1010,1010,1010,1010,1010,1010,1010,1013,1016,1016,1019,1019,1022,1022,1022,1022,1025,1108,1108,1105,1105,1105,1105,1105,1108,1108,1108,1108,1105,1105,1105,1105,1105,1105,1105,1105,1105,1105,1105,1105,1105,1105,1105,1105,1105,1105,1105,1105,1105,1101,1101,1101,1101,1101,1101,1105,1101,1101,1105,1105,1105,1105,1105,1108,1112,1112,1108,1108,1108,1112,1108,1108,1108,1108,1108,1108,1105,1105,1105,1105,1105,1105,1105,1105,1105,1105,1105,1105,1108,1108,1108,1108,1108,1108,1108,1108,1105,1105,1105,1105,1105,1105,1101,1101,1105,1101,1101,0,0,0,0,0,0,0,746,746,746,746,744,742,739,738,736,734,733,731,728,727,727,725,725,725,725,727,727,730,733,733,734,734,736,738,738,741,742,746,747,747,0,0,0,0,0,1115,1112,1108,1108,1108,1108,1108,1108,1108,1108,1108,1108,1108,1108,1108,1112,1112,1112,1112,1108,1105,1105,1105,1105,1105,1105,1105,1105,1105,1105,1105,1105,889,889,889,889,891,894,894,894,894,894,894,894,894,894,896,896,896,896,898,898,898,903,908,908,910,915,918,918,920,920,925,930,930,930,1105,1108,1108,1112,1112,1115,1115,1115,1119,1119,1119,1115,1115,1115,1115,1119,1115,1115,1115,1115,1115,1115,1112,1112,1115,1115,1115,1115,1115,1115,1115,1115,1119,1119,1119,1119,1119,1119,1119,1119,1119,1115,1112,1112,1108,1108,1108,1108,1108,1112,1112,1112,1112,1115,1119,1119,1119,1115,1115,1115,1115,1112,1112,1112,1115,1115,1115,1115,1115,1119,1119,1119,1115,1115,1115,1115,1115,1112,1112,1115,1115,1112,1112,1112,1112,1115,1115,1115,1115,1119,1119,1119,1119,1119,1119,1119,1119,1119,1119,1119,1119,1119,1119,1119,1115,1112,1112,1112,1112,1112,1112,1112,1115,1115,1115,1115,1115,1115,1115,1115,1115,1115,1119,1119,1119,1115,1115,1115,1112,1112,1112,1112,1112,1112,1115,1115,1115,1115,1112,1112,1112,1112,1112,1115,1115,1115,1115,1115,1115,1115,1115,1115,1115,1112,1112,1112,1112,1112,1112,1112,1112,1112,1108,1108,1108,1108,1108,1108,1112,1108,1108,1108,1112,1112,1112,1112,1112,1112,1112,1112,1112,1112,1112,1112,1112,1108,1108,1108,1108,1108,1108,1112,1112,1112,1112,1112,1112,1115,1112,1112,1115,1115,1115,1115,1115,1112,1112,1112,1112,1112,1112,1115,1115,1115,1115,1115,1115,1115,1115,1115,1119,1119,1119,1115,1115,1115,1115,1112,1112,1108,1108,1115,1115,1115,1115,1119,1119,1115,956,954,951,951,951,951,954,954,956,956,956,954,954,954,951,951,948,948,908,908,908,908,906,906,906,906,906,0,0,0,0,0,0,0,0,0,0,0,0,0,0,0,0,0,0,0,0,0,0,0,0,0,0,0,0,0,0,0,0,0,0,0,0
0,0,0,0,0,1105,1105,1105,1105,1105,1105,1101,1101,1094,1094,1097,1097,1097,1097,1097,1097,1101,1101,1097,1097,1097,1097,1097,1097,1097,1097,1094,1094,1097,1097,1097,1097,1097,1097,1101,1101,1097,1094,1094,1094,1097,1097,1097,1097,1097,1097,1097,1097,1097,1097,1097,1097,1097,1101,1101,1101,1101,1101,1101,1097,1097,1097,1094,1094,1094,1094,1094,1094,1097,1097,1097,1097,1097,1097,1097,1097,1097,1097,1097,1097,1097,1097,1101,1101,1101,1101,1101,1101,1097,1097,1097,1097,1097,1097,1097,1097,1097,1097,1097,1097,1097,1101,1101,1101,1101,1101,1101,1101,1105,1022,1022,1019,1016,1013,1013,1013,1013,1010,1010,1010,1013,1013,1013,1016,1016,1019,1022,1022,1025,1025,1025,1025,1105,1105,1105,1105,1105,1105,1105,1105,1105,1105,1105,1101,1101,1101,1101,1101,1101,1105,1105,1105,1105,1105,1105,1105,1105,1105,1101,1101,1105,1101,1101,1101,1101,1101,1101,1101,1101,1101,1101,1101,1101,1101,1101,1101,1101,1101,1101,1105,1105,1108,1108,1108,1108,1108,1105,1105,1105,1105,1105,1105,1105,1105,1105,1105,1105,1101,1101,1105,1101,1101,1101,1105,1105,1105,1105,1105,1105,1105,1105,1105,1105,1105,1105,1101,1101,1101,1101,1101,1101,1097,1097,0,0,0,0,0,0,0,746,746,746,744,744,741,739,736,734,733,731,730,728,727,727,727,727,727,727,728,730,733,733,734,736,738,739,739,742,744,746,747,747,0,0,0,0,0,0,1108,1105,1105,1108,1105,1105,1105,1105,1105,1105,1105,1105,1105,1105,1105,1108,1105,1105,1105,1105,1105,1101,1101,1101,1101,1101,1101,1101,1105,1105,1105,0,887,887,887,889,889,889,891,891,891,891,891,891,891,891,894,894,896,896,898,898,903,908,908,910,915,918,918,920,920,928,1105,1105,1105,1105,1105,1108,1108,1112,1112,1112,1115,1115,1115,1115,1115,1115,1115,1115,1115,1112,1112,1112,1112,1112,1112,1112,1108,1108,1108,1112,1112,1112,1112,1112,1112,1112,1112,1112,1112,1115,1115,1115,1115,1115,1112,1112,1112,1108,1108,1108,1108,1108,1108,1112,1112,1112,1115,1115,1115,1115,1115,1112,1112,1112,1108,1108,1112,1112,1112,1115,1112,1112,1115,1115,1115,1112,1112,1115,1115,1112,1112,1112,1112,1112,1112,1112,1108,1108,1112,1112,1112,1112,1112,1112,1112,1115,1115,1119,1115,1115,1119,1119,1119,1115,1112,1112,1112,1108,1108,1108,1108,1108,1108,1108,1108,1108,1112,1112,1112,1112,1112,1112,1112,1112,1112,1115,1115,1115,1115,1112,1112,1108,1108,1108,1108,1108,1108,1108,1108,1108,1108,1108,1108,1108,1108,1108,1108,1108,1108,1112,1115,1112,1112,1112,1112,1112,1108,1108,1108,1108,1108,1108,1108,1108,1108,1108,1108,1108,1108,1108,1108,1108,1108,1108,1108,1108,1108,1108,1108,1112,1112,1112,1112,1108,1108,1108,1108,1108,1108,1108,1108,1108,1108,1108,1108,1108,1108,1108,1105,1105,1108,1108,1108,1108,1108,1108,1108,1112,1112,1108,1108,1112,1112,1112,1112,1112,1112,1112,1112,1112,1112,1112,1112,1115,1115,1115,1112,1112,1112,1112,1112,1108,1108,1108,1112,1112,1115,1115,1115,1115,956,956,954,951,951,951,951,951,954,956,956,956,954,954,954,951,951,948,948,908,908,908,908,906,906,906,906,906,0,0,0,0,0,0,0,0,0,0,0,0,0,0,0,0,0,0,0,0,0,0,0,0,0,0,0,0,0,0,0,0,0,0,0,0
0,0,0,0,0,1105,1101,1101,1101,1101,1101,1101,1097,1094,1094,1094,1094,1094,1094,1094,1094,1097,1097,1090,1090,1090,1090,1090,1094,1090,1090,1094,1094,1094,1094,1094,1094,1090,1090,1094,1090,1090,1090,1090,1090,1090,1094,1094,1094,1094,1097,1097,1097,1097,1097,1094,1094,1094,1097,1097,1097,1097,1097,1097,1094,1094,1094,1094,1094,1094,1090,1090,1094,1094,1094,1097,1097,1094,1094,1094,1094,1094,1094,1094,1094,1097,1097,1097,1097,1097,1097,1097,1094,1094,1094,1094,1094,1094,1094,1094,1094,1094,1094,1094,1094,1097,1097,1101,1101,1101,1097,1097,1097,1101,1022,1022,1019,1016,1013,1013,1013,1013,1013,1010,1010,1013,1013,1016,1016,1019,1019,1022,1025,1025,1025,1025,1025,1105,1105,1101,1101,1101,1101,1101,1101,1101,1101,1101,1101,1101,1101,1101,1101,1101,1101,1101,1101,1101,1101,1101,1101,1101,1101,1101,1101,1101,1101,1101,1101,1101,1101,1097,1097,1101,1101,1101,1101,1101,1101,1101,1101,1097,1097,1097,1101,1101,1101,1101,1101,1101,1105,1105,1105,1105,1105,1105,1101,1101,1101,1101,1101,1101,1101,1101,1101,1101,1101,1101,1101,1101,1101,1101,1101,1101,1105,1105,1105,1105,1105,1101,1101,1101,1101,1101,1101,1101,1097,1097,1097,0,0,0,0,0,0,0,746,746,746,742,741,741,738,736,734,733,730,728,728,727,727,727,727,728,728,731,733,733,734,736,738,739,741,742,744,746,747,747,0,0,0,0,0,1105,1105,1101,1101,1105,1105,1105,1105,1105,1105,1105,1105,1105,1101,1101,1105,1101,1101,1101,1101,1101,1101,1101,1101,1101,1101,1101,1101,1101,1101,880,880,880,885,885,885,887,887,887,887,887,887,887,889,889,889,889,894,894,896,896,898,901,903,906,908,910,915,918,918,920,920,1101,1101,1101,1105,1105,1105,1105,1108,1108,1108,1108,1112,1112,1112,1112,1112,1112,1112,1112,1112,1112,1112,1108,1108,1108,1108,1108,1108,1108,1108,1108,1108,1108,1108,1108,1108,1108,1108,1108,1108,1108,1112,1112,1112,1112,1108,1108,1108,1108,1108,1108,1108,1108,1108,1108,1108,1108,1112,1112,1112,1112,1112,1112,1108,1108,1108,1108,1108,1108,1108,1112,1112,1112,1112,1112,1108,1108,1112,1112,1112,1112,1108,1108,1108,1108,1108,1108,1108,1108,1108,1108,1108,1108,1108,1108,1108,1108,1108,1108,1112,1112,1115,1115,1115,1112,1108,1108,1108,1108,1108,1108,1108,1108,1108,1108,1108,1108,1108,1108,1108,1108,1108,1108,1108,1108,1108,1112,1112,1112,1112,1108,1108,1108,1108,1108,1105,1105,1105,1105,1108,1105,1105,1108,1105,1105,1108,1108,1108,1108,1108,1108,1108,1112,1112,1112,1108,1108,1108,1108,1108,1108,1108,1108,1105,1105,1105,1105,1105,1105,1105,1105,1105,1105,1105,1105,1105,1105,1105,1105,1108,1108,1108,1108,1108,1108,1108,1108,1108,1108,1108,1105,1105,1108,1105,1105,1105,1105,1105,1105,1105,1105,1105,1105,1105,1105,1105,1105,1105,1108,1108,1108,1108,1108,1108,1108,1108,1108,1108,1108,1108,1108,1108,1108,1108,1112,1112,1108,1108,1108,1108,1108,1108,1108,1108,1108,1108,1112,1112,1112,1115,959,956,956,954,954,954,951,951,951,954,956,956,956,956,956,956,954,954,1019,908,908,908,908,908,906,906,906,906,906,0,0,0,0,0,0,0,0,0,0,0,0,0,0,0,0,0,0,0,0,0,0,0,0,0,0,0,0,0,0,0,0,0,0,0,0
0,0,0,0,0,1097,1097,1097,1097,1097,1097,1097,1094,1094,1094,1094,1094,1090,1090,1090,1090,1090,1090,1087,1087,1087,1087,1087,1090,1090,1090,1090,1090,1090,1090,1090,1090,1087,1087,1090,1090,1090,1087,1087,1090,1090,1090,1090,1090,1090,1094,1094,1094,1094,1094,1094,1094,1094,1094,1094,1094,1094,1094,1094,1094,1090,1090,1090,1090,1090,1090,1090,1090,1090,1094,1094,1094,1094,1094,1094,1094,1094,1090,1090,1094,1094,1097,1094,1094,1094,1094,1094,1090,1090,1090,1090,1090,1090,1090,1090,1090,1090,1090,1090,1090,1090,1094,1094,1094,1094,1094,1094,1094,1094,1025,1022,1022,1019,1016,1013,1013,1013,1013,1013,1013,1013,1013,1016,1016,1019,1022,1022,1025,1025,1025,1025,1025,1101,1101,1101,1101,1101,1097,1097,1101,1097,1094,1094,1094,1097,1097,1097,1101,1101,1101,1101,1101,1101,1101,1101,1101,1101,1101,1101,1101,1101,1097,1097,1097,1097,1097,1097,1097,1097,1097,1097,1097,1097,1097,1097,1097,1097,1094,1094,1097,1097,1097,1097,1097,1097,1097,1097,1097,1097,1101,1101,1101,1101,1101,1101,1101,1101,1101,1101,1101,1097,1097,1097,1097,1097,1097,1097,1097,1101,1101,1101,1101,1101,1101,1101,1101,1101,1101,1097,1097,1097,1097,1097,1097,0,0,0,0,0,0,0,746,746,746,742,741,741,739,738,736,734,731,730,728,728,728,728,728,728,730,731,733,734,734,736,738,741,741,744,746,747,747,749,0,0,0,0,0,1101,1101,1101,1101,1101,1101,1101,1101,1101,1101,1101,1101,1101,1101,1101,1101,1097,1097,1097,1097,1101,1101,1101,1101,1101,1101,1101,1101,1101,880,880,880,880,880,882,882,882,885,885,885,885,885,885,887,887,887,889,891,894,894,896,898,901,906,906,908,910,915,918,918,920,920,1101,1101,1101,1105,1105,1105,1105,1105,1108,1108,1108,1108,1108,1108,1108,1108,1108,1108,1108,1108,1108,1108,1108,1108,1108,1108,1105,1105,1105,1108,1108,1105,1105,1105,1105,1105,1108,1108,1108,1108,1108,1108,1108,1108,1108,1108,1108,1108,1105,1105,1108,1108,1108,1108,1108,1108,1108,1108,1108,1108,1108,1108,1108,1108,1108,1105,1105,1108,1108,1108,1108,1108,1108,1108,1108,1108,1108,1108,1108,1108,1108,1108,1108,1108,1105,1105,1105,1105,1108,1108,1108,1108,1108,1105,1105,1105,1105,1105,1105,1105,1105,1108,1108,1108,1108,1105,1105,1108,1105,1105,1105,1105,1105,1105,1105,1105,1105,1105,1105,1105,1105,1105,1105,1105,1108,1108,1108,1108,1112,1112,1108,1108,1108,1105,1105,1105,1105,1105,1105,1105,1105,1101,1101,1105,1105,1105,1105,1105,1108,1108,1105,1105,1108,1108,1108,1108,1108,1108,1108,1105,1105,1105,1105,1105,1105,1105,1105,1105,1105,1105,1105,1105,1105,1105,1105,1105,1105,1105,1105,1105,1108,1108,1108,1108,1108,1105,1105,1105,1105,1105,1105,1105,1105,1105,1105,1105,1105,1101,1101,1101,1101,1101,1101,1097,1097,1097,1105,1105,1105,1105,1108,1108,1108,1108,1108,1105,1105,1105,1105,1105,1105,1105,1105,1105,1108,1108,1108,1108,1105,1105,1105,1105,1105,1108,1108,1108,1108,1108,1108,1112,956,956,956,954,954,954,954,954,956,956,956,956,959,956,956,956,956,956,908,908,908,908,908,908,906,906,906,906,906,0,0,0,0,0,0,0,0,0,0,0,0,0,0,0,0,0,0,0,0,0,0,0,0,0,0,0,0,0,0,0,0,0,0,0,0
0,0,0,0,0,1094,1094,1094,1094,1094,1094,1094,1090,1090,1090,1090,1090,1090,1090,1090,1090,1090,1090,1087,1087,1087,1087,1087,1087,1087,1087,1087,1087,1087,1087,1087,1087,1087,1087,1087,1087,1087,1087,1087,1087,1087,1087,1087,1087,1090,1090,1090,1090,1090,1090,1090,1090,1090,1090,1090,1090,1090,1090,1090,1090,1090,1090,1090,1090,1090,1090,1090,1090,1090,1090,1090,1090,1090,1090,1090,1090,1090,1090,1090,1090,1090,1094,1090,1090,1090,1090,1090,1090,1087,1087,1087,1087,1087,1087,1087,1087,1087,1090,1090,1090,1090,1090,1090,1090,1090,1090,1090,1090,1090,1090,1022,1019,1019,1016,1013,1013,1013,1013,1013,1013,1013,1013,1016,1016,1019,1022,1022,1025,1025,1028,1025,1025,1097,1097,1097,1097,1097,1097,1097,1097,1094,1094,1094,1094,1094,1094,1094,1097,1097,1097,1097,1097,1097,1097,1097,1097,1097,1097,1097,1097,1097,1097,1094,1094,1094,1094,1094,1094,1094,1094,1094,1094,1094,1094,1094,1094,1094,1094,1094,1094,1094,1094,1094,1094,1094,1094,1094,1094,1094,1094,1094,1094,1097,1097,1097,1097,1097,1097,1097,1097,1094,1094,1094,1094,1094,1094,1094,1094,1097,1097,1101,1101,1101,1101,1097,1097,1097,1097,1097,1094,1094,1094,1094,1094,1094,0,0,0,0,0,0,747,747,746,744,742,741,739,738,736,734,733,731,728,728,728,728,728,728,730,731,733,734,734,736,739,741,742,746,747,747,749,749,750,0,0,0,0,1101,1097,1097,1097,1097,1101,1101,1101,1101,1101,1101,1101,1097,1097,1097,1094,1094,1094,1094,1094,1097,1097,1097,1097,1097,1097,1101,1101,878,878,878,878,878,878,882,882,882,882,882,882,885,885,885,885,885,887,887,889,894,894,896,898,903,906,906,908,913,918,918,920,920,920,1101,1101,1101,1105,1101,1101,1105,1105,1105,1105,1105,1105,1105,1105,1105,1105,1105,1105,1105,1108,1105,1105,1105,1105,1105,1105,1105,1101,1101,1105,1105,1105,1101,1101,1101,1105,1105,1105,1105,1105,1105,1108,1108,1108,1108,1105,1105,1105,1105,1105,1105,1105,1105,1105,1105,1105,1105,1105,1105,1105,1105,1105,1105,1105,1105,1105,1105,1105,1105,1105,1105,1105,1105,1105,1105,1105,1105,1105,1105,1105,1105,1105,1105,1105,1105,1105,1105,1105,1105,1105,1105,1105,1105,1105,1105,1105,1101,1101,1101,1101,1097,1097,1101,1101,1105,1101,1101,1105,1105,1105,1105,1105,1105,1105,1105,1105,1105,1105,1105,1105,1105,1105,1105,1105,1105,1105,1105,1105,1105,1105,1105,1105,1105,1105,1105,1101,1101,1101,1101,1101,1101,1097,1097,1101,1097,1097,1101,1105,1105,1105,1105,1105,1105,1105,1105,1105,1105,1105,1105,1105,1105,1105,1105,1101,1101,1101,1101,1101,1101,1097,1097,1105,1101,1097,1097,1097,1101,1101,1101,1101,1105,1105,1105,1105,1105,1105,1105,1101,1101,1101,1101,1101,1101,1101,1097,1097,1101,1097,1097,1097,1097,1097,1097,1097,1097,1097,1097,1097,1105,1105,1105,1105,1105,1105,1105,1105,1105,1101,1101,1101,1101,1101,1101,1101,1101,1101,1101,1105,1105,1105,1105,1105,1105,1105,1105,1105,1105,1105,1105,1105,956,956,956,954,954,954,954,956,956,959,956,956,959,956,956,959,959,959,908,908,908,908,908,906,906,906,903,903,903,0,0,0,0,0,0,0,0,0,0,0,0,0,0,0,0,0,0,0,0,0,0,0,0,0,0,0,0,0,0,0,0,0,0,0,0
0,0,0,0,0,1090,1090,1090,1090,1090,1090,1090,1090,1090,1087,1087,1090,1087,1087,1087,1087,1090,1087,1087,1087,1087,1087,1087,1087,1087,1087,1087,1087,1087,1084,1084,1084,1080,1080,1080,1080,1080,1084,1084,1084,1084,1084,1084,1084,1084,1084,1084,1087,1087,1090,1090,1087,1087,1087,1087,1087,1087,1087,1087,1087,1087,1087,1087,1087,1087,1087,1087,1087,1087,1087,1087,1087,1087,1087,1087,1087,1090,1087,1087,1087,1087,1090,1087,1087,1087,1087,1087,1087,1087,1087,1087,1087,1087,1087,1087,1087,1087,1087,1087,1087,1087,1087,1087,1087,1087,1087,1087,1087,1087,1087,1022,1019,1019,1016,1016,1016,1013,1013,1013,1013,1013,1013,1016,1016,1019,1022,1025,1025,1028,1028,1025,1025,1097,1094,1094,1094,1097,1094,1094,1094,1090,1090,1090,1090,1090,1090,1094,1094,1094,1094,1094,1094,1094,1094,1094,1094,1094,1094,1094,1094,1094,1090,1090,1090,1090,1090,1090,1090,1090,1090,1090,1094,1094,1094,1094,1094,1094,1090,1090,1094,1094,1094,1094,1094,1094,1090,1090,1094,1094,1090,1090,1090,1090,1090,1090,1090,1094,1094,1094,1094,1094,1090,1090,1090,1094,1094,1094,1094,1094,1094,1097,1097,1097,1097,1094,1094,1094,1094,1094,1094,1094,1090,1090,1094,1090,1090,0,0,0,0,0,747,747,746,744,742,742,741,739,738,736,733,731,731,730,728,728,728,730,730,730,733,734,736,736,739,741,744,746,747,749,749,750,750,0,0,0,0,0,1094,1094,1094,1094,1097,1097,1097,1097,1097,1097,1097,1097,1094,1094,1090,1090,1094,1090,1090,1094,1094,1097,1094,1094,1097,875,875,875,875,878,878,878,878,880,880,880,880,880,880,880,882,882,885,885,887,887,889,894,894,898,898,903,906,906,908,915,918,920,920,920,1097,1097,1097,1097,1101,1101,1101,1101,1101,1101,1101,1101,1101,1101,1101,1105,1101,1101,1101,1101,1105,1101,1101,1101,1101,1097,1097,1101,1097,1097,1101,1101,1101,1101,1097,1097,1101,1101,1101,1101,1101,1101,1105,1105,1105,1105,1105,1105,1105,1101,1101,1105,1101,1101,1101,1101,1101,1101,1105,1105,1101,1101,1101,1101,1101,1101,1101,1101,1101,1101,1105,1105,1105,1101,1101,1101,1101,1101,1101,1101,1101,1101,1101,1105,1105,1101,1101,1101,1101,1105,1105,1105,1105,1105,1101,1101,1101,1097,1097,1097,1097,1097,1097,1097,1097,1097,1097,1101,1101,1101,1101,1101,1101,1101,1101,1101,1101,1101,1101,1101,1101,1101,1101,1101,1097,1097,1097,1101,1101,1101,1101,1101,1101,1101,1101,1101,1101,1101,1101,1101,1097,1097,1094,1094,1097,1094,1094,1097,1097,1097,1097,1101,1101,1101,1101,1101,1101,1101,1105,1101,1101,1101,1097,1097,1097,1097,1097,1097,1097,1097,1094,1094,1094,1094,1094,1094,1094,1097,1097,1097,1097,1097,1097,1101,1094,1094,1094,1094,1094,1094,1097,1097,1097,1097,1097,1094,1094,1097,1097,1097,1097,1097,1097,1097,1094,1094,1094,1094,1094,1094,1094,1101,1097,1097,1097,1097,1097,1097,1101,1101,1101,1097,1097,1101,1101,1101,1101,1101,1101,1101,1097,1097,1097,1105,1105,1105,1105,1105,1105,1105,959,956,956,956,956,956,956,956,959,959,959,959,962,959,959,959,959,959,959,908,908,908,906,906,906,906,903,903,903,903,0,0,0,0,0,0,0,0,0,0,0,0,0,0,0,0,0,0,0,0,0,0,0,0,0,0,0,0,0,0,0,0,0,0,0,0
0,0,0,0,0,1087,1087,1087,1087,1087,1087,1087,1087,1087,1087,1087,1087,1087,1087,1087,1084,1084,1084,1080,1080,1084,1080,1080,1080,1080,1080,1080,1080,1080,1077,1077,1077,1077,1077,1077,1077,1077,1077,1080,1080,1080,1080,1080,1080,1080,1080,1080,1080,1080,1080,1084,1084,1084,1084,1084,1084,1084,1084,1084,1084,1084,1084,1087,1087,1087,1084,1084,1087,1084,1084,1084,1084,1084,1084,1087,1087,1087,1087,1084,1084,1087,1087,1084,1084,1084,1084,1084,1087,1084,1084,1084,1084,1084,1084,1084,1084,1084,1087,1087,1087,1084,1084,1084,1084,1087,1084,1084,1087,1087,1087,1087,1022,1019,1019,1016,1016,1016,1013,1013,1013,1013,1013,1016,1019,1019,1025,1025,1028,1028,1031,1028,1028,1094,1094,1094,1094,1094,1094,1094,1094,1090,1090,1090,1090,1090,1090,1090,1090,1090,1090,1090,1090,1090,1090,1090,1090,1090,1090,1090,1090,1090,1090,1087,1087,1087,1087,1087,1087,1087,1090,1090,1090,1090,1090,1090,1090,1090,1090,1090,1090,1090,1090,1090,1090,1090,1090,1090,1090,1090,1090,1090,1090,1090,1090,1090,1090,1090,1090,1090,1090,1090,1090,1090,1090,1090,1090,1090,1090,1090,1090,1090,1090,1090,1090,1090,1090,1090,1090,1090,1090,1090,1090,1090,1090,1090,1090,0,0,0,0,0,747,747,746,744,742,742,741,739,738,736,734,733,731,730,728,728,728,730,730,730,733,734,736,738,739,742,744,746,747,749,749,750,750,0,0,0,0,1090,1090,1090,1090,1094,1094,1094,1094,1094,1094,1094,1094,1094,1094,1090,1090,1090,1090,1090,1090,1090,1090,1094,1094,1094,875,875,875,875,875,875,875,875,875,878,878,878,878,878,880,880,880,882,882,885,885,889,889,894,894,898,903,906,906,906,908,915,918,920,920,920,1090,1090,1094,1094,1094,1097,1097,1097,1097,1097,1097,1097,1097,1097,1097,1097,1097,1097,1097,1097,1101,1101,1097,1097,1097,1097,1097,1097,1094,1094,1097,1097,1097,1097,1097,1097,1097,1097,1097,1097,1097,1097,1097,1101,1101,1101,1101,1101,1101,1097,1097,1097,1097,1097,1097,1097,1097,1101,1101,1101,1097,1097,1097,1097,1097,1097,1101,1101,1101,1101,1101,1101,1101,1101,1101,1101,1101,1097,1097,1097,1097,1097,1097,1101,1101,1101,1101,1101,1101,1101,1101,1101,1101,1101,1101,1097,1097,1097,1097,1097,1094,1094,1094,1094,1094,1097,1094,1094,1094,1097,1097,1097,1097,1097,1097,1097,1097,1101,1101,1097,1097,1097,1097,1097,1094,1094,1094,1094,1094,1094,1094,1097,1097,1097,1097,1097,1094,1094,1097,1097,1097,1097,1094,1094,1094,1094,1094,1094,1094,1094,1094,1097,1097,1097,1097,1097,1097,1101,1101,1097,1097,1094,1094,1097,1094,1094,1094,1094,1094,1094,1094,1094,1094,1094,1094,1094,1094,1094,1094,1094,1094,1094,1094,1094,1090,1090,1090,1094,1094,1094,1094,1094,1094,1094,1094,1090,1090,1094,1094,1094,1094,1094,1094,1094,1094,1094,1094,1090,1090,1090,1090,1090,1090,1090,1094,1094,1094,1094,1094,1097,1097,1094,1094,1097,1097,1097,1097,1097,1094,1094,1094,1094,1097,1097,1097,1101,1101,1105,1101,964,959,959,959,959,959,959,959,959,962,962,962,962,962,962,962,959,959,959,959,906,906,906,906,906,906,906,903,903,901,901,0,0,0,0,0,0,0,0,0,0,0,0,0,0,0,0,0,0,0,0,0,0,0,0,0,0,0,0,0,0,0,0,0,0,0,0
0,0,0,0,0,1087,1087,1087,1087,1087,1087,1087,1087,1087,1084,1084,1084,1084,1084,1084,1080,1080,1080,1080,1080,1080,1080,1080,1077,1077,1077,1077,1077,1077,1077,1077,1077,1077,1077,1077,1077,1077,1077,1077,1080,1080,1080,1077,1077,1077,1077,1077,1077,1077,1077,1080,1077,1077,1077,1077,1080,1080,1080,1080,1080,1084,1084,1084,1084,1084,1084,1080,1080,1080,1080,1080,1080,1080,1080,1080,1080,1080,1080,1080,1080,1080,1080,1080,1080,1080,1080,1084,1084,1084,1084,1084,1084,1084,1084,1080,1080,1084,1084,1084,1084,1080,1080,1080,1080,1084,1084,1084,1084,1084,1084,1084,1022,1019,1019,1016,1016,1016,1016,1013,1013,1016,1016,1019,1019,1022,1025,1025,1028,1031,1031,1028,1028,1090,1090,1090,1090,1090,1090,1090,1090,1090,1090,1087,1087,1087,1087,1087,1087,1090,1087,1087,1087,1087,1087,1087,1087,1087,1087,1087,1087,1087,1087,1087,1087,1087,1087,1087,1087,1087,1087,1087,1087,1087,1087,1090,1090,1090,1090,1090,1090,1087,1087,1087,1087,1087,1087,1087,1087,1087,1087,1087,1087,1087,1087,1087,1087,1087,1090,1090,1090,1090,1090,1090,1090,1090,1090,1090,1090,1087,1087,1087,1087,1087,1087,1087,1087,1087,1087,1090,1090,1090,1090,1090,1090,0,0,0,0,0,0,0,747,747,746,746,744,742,741,739,738,738,734,733,731,730,728,728,730,730,730,731,733,736,738,739,741,742,744,746,747,749,750,752,0,0,0,0,0,1087,1087,1087,1087,1087,1090,1090,1090,1090,1090,1090,1090,1090,1090,1090,1087,1087,1090,1090,1090,1090,1090,1094,1094,1094,875,875,875,875,875,875,875,875,875,878,878,878,878,878,878,878,880,880,882,885,885,889,891,894,894,901,906,906,906,908,908,915,918,923,923,1090,1090,1090,1094,1094,1094,1094,1094,1094,1094,1094,1094,1094,1094,1094,1097,1094,1094,1094,1094,1094,1094,1094,1094,1094,1094,1094,1094,1094,1094,1094,1094,1094,1094,1094,1094,1094,1094,1094,1097,1097,1097,1097,1097,1097,1097,1097,1097,1097,1097,1094,1094,1094,1094,1094,1094,1094,1094,1094,1097,1097,1094,1094,1094,1094,1094,1094,1094,1097,1097,1097,1097,1097,1097,1097,1097,1097,1097,1097,1094,1094,1097,1094,1094,1097,1097,1097,1094,1094,1097,1097,1097,1097,1097,1101,1097,1097,1097,1094,1094,1094,1094,1094,1094,1094,1094,1094,1094,1094,1094,1094,1094,1094,1094,1094,1094,1094,1094,1097,1097,1097,1097,1097,1097,1094,1094,1094,1094,1094,1090,1090,1090,1094,1094,1094,1094,1094,1094,1094,1094,1094,1094,1094,1094,1094,1094,1090,1090,1094,1094,1094,1094,1094,1094,1094,1094,1094,1094,1094,1094,1094,1094,1094,1094,1090,1090,1094,1090,1090,1090,1094,1090,1090,1090,1090,1090,1094,1094,1090,1090,1090,1090,1090,1090,1090,1090,1090,1090,1090,1090,1090,1090,1090,1090,1090,1090,1090,1090,1094,1094,1094,1094,1094,1094,1094,1090,1090,1090,1090,1090,1090,1090,1090,1090,1090,1090,1090,1094,1094,1094,1094,1094,1094,1094,1094,1094,1094,1094,1094,1094,1094,1094,1094,1101,1094,1094,1101,1101,970,967,964,964,964,964,962,962,962,962,964,964,964,964,964,964,967,967,967,970,970,906,906,906,906,906,906,906,903,903,903,901,901,0,0,0,0,0,0,0,0,0,0,0,0,0,0,0,0,0,0,0,0,0,0,0,0,0,0,0,0,0,0,0,0,0,0,0,0
0,0,0,0,0,1087,1084,1084,1084,1084,1087,1087,1087,1084,1084,1084,1084,1084,1080,1080,1080,1080,1080,1077,1077,1077,1077,1077,1077,1077,1077,1077,1077,1077,1073,1073,1073,1073,1073,1073,1073,1073,1073,1077,1077,1077,1077,1077,1077,1077,1077,1077,1077,1077,1077,1077,1077,1077,1077,1077,1077,1077,1077,1077,1077,1080,1080,1080,1080,1080,1077,1077,1077,1077,1077,1077,1077,1077,1077,1077,1077,1077,1077,1077,1077,1077,1077,1077,1077,1077,1080,1080,1080,1080,1080,1080,1080,1080,1080,1080,1080,1080,1080,1080,1080,1077,1077,1077,1077,1080,1080,1080,1080,1080,1080,1084,1084,1022,1022,1019,1019,1016,1016,1016,1016,1016,1016,1019,1019,1022,1025,1028,1031,1031,1031,1031,1031,1031,1077,1077,1077,1087,1087,1087,1087,1087,1087,1087,1087,1087,1087,1087,1087,1087,1087,1087,1084,1084,1087,1087,1087,1087,1084,1084,1084,1084,1087,1087,1087,1087,1087,1084,1084,1087,1084,1084,1084,1087,1087,1087,1087,1087,1087,1087,1087,1087,1087,1087,1087,1087,1087,1087,1087,1087,1087,1087,1087,1087,1087,1087,1087,1087,1087,1087,1087,1087,1087,1087,1087,1087,1087,1087,1087,1087,1087,1084,1084,1084,1080,1080,1084,1084,1084,1087,1087,1087,1087,1087,1090,0,0,0,0,0,0,0,749,747,746,746,744,742,741,739,738,738,736,734,733,731,730,730,730,730,731,731,734,738,739,741,742,744,746,746,747,749,750,752,0,0,0,0,0,1084,1084,1084,1087,1087,1087,1090,1090,1090,1090,1090,1090,1090,1087,1087,1087,1087,1087,1087,1087,1090,860,860,860,864,867,869,873,873,873,873,873,873,873,875,875,875,878,878,878,878,880,880,880,882,882,889,891,896,896,901,906,906,908,908,918,920,920,1090,1090,1090,1087,1087,1090,1090,1090,1090,1090,1090,1090,1094,1094,1094,1094,1094,1094,1094,1094,1094,1094,1094,1094,1094,1094,1094,1094,1090,1090,1090,1090,1090,1090,1090,1090,1090,1094,1094,1094,1094,1094,1094,1094,1094,1094,1094,1094,1094,1094,1094,1094,1090,1090,1094,1090,1090,1094,1090,1090,1090,1094,1090,1090,1094,1094,1094,1094,1094,1094,1094,1094,1094,1094,1094,1094,1094,1094,1094,1094,1094,1094,1094,1094,1094,1094,1094,1094,1094,1094,1094,1094,1094,1094,1094,1094,1094,1094,1094,1094,1094,1094,1094,1094,1094,1094,1094,1094,1094,1090,1090,1090,1090,1090,1090,1090,1090,1090,1094,1094,1094,1094,1094,1094,1094,1094,1094,1090,1090,1090,1090,1090,1090,1090,1090,1094,1090,1090,1094,1090,1090,1094,1094,1094,1094,1094,1094,1090,1090,1090,1090,1090,1090,1090,1090,1090,1090,1090,1090,1090,1090,1090,1090,1090,1090,1090,1087,1087,1090,1087,1087,1090,1090,1090,1090,1090,1090,1090,1090,1090,1090,1090,1090,1090,1087,1087,1087,1090,1090,1090,1090,1090,1090,1090,1090,1090,1090,1090,1087,1087,1090,1090,1090,1090,1090,1090,1090,1090,1090,1087,1087,1087,1090,1090,1090,1090,1090,1090,1090,1090,1090,1090,1090,1094,1090,1090,1090,1090,1094,1094,1090,1090,1090,1090,1090,1094,1094,1094,975,970,970,967,967,967,967,964,964,964,967,967,967,967,967,967,967,967,967,973,973,973,901,906,906,906,906,906,906,906,903,903,901,901,901,0,0,0,0,0,0,0,0,0,0,0,0,0,0,0,0,0,0,0,0,0,0,0,0,0,0,0,0,0,0,0,0,0,0,0,0
0,0,0,0,0,1084,1084,1084,1084,1084,1084,1084,1084,1080,1080,1080,1080,1080,1077,1077,1077,1077,1077,1077,1077,1077,1077,1077,1073,1073,1073,1073,1073,1073,1073,1073,1073,1073,1073,1073,1073,1073,1073,1073,1073,1073,1077,1077,1077,1073,1073,1073,1077,1077,1077,1077,1073,1073,1077,1077,1077,1077,1077,1077,1077,1077,1077,1077,1077,1077,1077,1077,1073,1073,1073,1073,1073,1073,1073,1077,1077,1077,1077,1077,1077,1077,1077,1077,1077,1077,1077,1077,1077,1077,1077,1077,1077,1077,1077,1077,1077,1077,1077,1077,1077,1077,1077,1077,1077,1077,1077,1077,1077,1077,1080,1080,1084,1025,1022,1022,1019,1019,1019,1019,1016,1016,1019,1019,1022,1022,1025,1028,1031,1031,1034,1031,1031,1031,1073,1073,1073,1073,1077,1077,1084,1087,1087,1087,1084,1084,1084,1084,1084,1084,1084,1084,1080,1080,1080,1084,1084,1084,1080,1080,1080,1080,1084,1084,1080,1080,1080,1080,1080,1084,1080,1080,1084,1084,1084,1084,1084,1084,1087,1084,1084,1084,1084,1084,1084,1084,1084,1084,1084,1084,1084,1084,1084,1084,1084,1084,1084,1087,1087,1087,1087,1087,1087,1084,1084,1084,1084,1080,1080,1080,1080,1080,1080,1080,1080,1080,1080,1080,1080,1080,1080,1080,1080,1080,0,0,0,0,0,0,0,0,749,747,747,746,744,744,741,741,739,738,738,734,734,733,731,731,731,731,733,733,736,739,739,741,742,744,746,747,749,750,750,752,0,0,0,0,1080,1080,1080,1084,1084,1084,1084,1087,1087,1087,1087,1087,1087,1087,1084,1084,1084,1084,1087,1087,1087,858,858,860,860,862,862,869,869,873,873,871,871,871,871,873,873,875,875,875,878,878,880,880,880,882,882,894,894,896,898,906,906,906,906,908,1090,1090,1090,1090,1087,1087,1087,1087,1087,1090,1090,1090,1090,1090,1090,1090,1090,1090,1090,1090,1090,1090,1090,1090,1090,1090,1090,1090,1090,1090,1090,1090,1090,1090,1090,1090,1087,1087,1087,1087,1087,1090,1090,1090,1090,1094,1090,1090,1090,1090,1090,1090,1090,1090,1090,1090,1090,1090,1090,1090,1090,1090,1090,1090,1090,1090,1090,1090,1087,1087,1090,1090,1090,1090,1090,1090,1094,1094,1094,1094,1090,1090,1090,1090,1090,1090,1090,1090,1090,1090,1090,1090,1090,1090,1090,1090,1090,1090,1090,1090,1094,1090,1090,1090,1090,1090,1090,1090,1090,1090,1090,1090,1090,1090,1087,1087,1087,1087,1087,1087,1090,1090,1090,1090,1090,1090,1094,1094,1090,1090,1090,1090,1090,1090,1087,1087,1087,1090,1090,1090,1090,1090,1090,1090,1090,1090,1090,1090,1090,1090,1090,1090,1090,1087,1087,1087,1087,1090,1090,1090,1087,1087,1087,1087,1084,1084,1087,1087,1087,1084,1084,1087,1087,1084,1084,1087,1090,1090,1087,1087,1090,1090,1087,1087,1087,1084,1084,1084,1084,1087,1087,1087,1087,1087,1090,1090,1090,1087,1087,1087,1087,1087,1087,1090,1090,1090,1090,1087,1087,1087,1087,1084,1084,1084,1084,1084,1087,1084,1084,1084,1090,1090,1090,1090,1090,1090,1090,1090,1090,1090,1090,1090,1090,1090,1090,1090,1087,1087,1087,1090,978,975,970,970,970,967,967,967,967,967,967,967,967,967,970,967,967,967,967,967,967,967,901,901,901,901,903,903,903,903,903,903,903,898,898,898,0,0,0,0,0,0,0,0,0,0,0,0,0,0,0,0,0,0,0,0,0,0,0,0,0,0,0,0,0,0,0,0,0,0,0,0
0,0,0,0,0,1084,1084,1080,1080,1080,1080,1080,1080,1077,1077,1077,1077,1077,1077,1077,1073,1073,1073,1073,1073,1073,1073,1077,1073,1073,1073,1073,1073,1073,1073,1073,1073,1070,1070,1070,1070,1070,1070,1070,1070,1070,1073,1073,1073,1073,1073,1073,1073,1073,1073,1073,1073,1073,1073,1073,1073,1073,1073,1073,1073,1073,1073,1073,1073,1073,1073,1073,1073,1073,1070,1070,1073,1073,1073,1073,1073,1073,1073,1073,1073,1073,1073,1073,1073,1073,1073,1073,1073,1073,1073,1073,1077,1077,1077,1077,1077,1077,1077,1077,1077,1077,1077,1073,1073,1077,1077,1077,1077,1077,1077,1077,1077,1025,1025,1022,1022,1019,1019,1019,1019,1019,1019,1019,1022,1025,1028,1031,1031,1034,1034,1038,1038,1038,1070,1070,1070,1070,1077,1077,1077,1077,1080,1080,1080,1080,1080,1080,1080,1080,1080,1080,1077,1077,1077,1077,1077,1080,1077,1077,1077,1077,1080,1080,1080,1077,1077,1077,1077,1080,1080,1080,1077,1077,1077,1080,1077,1077,1080,1084,1080,1080,1080,1080,1080,1080,1080,1080,1080,1080,1080,1080,1080,1080,1077,1077,1077,1080,1080,1084,1084,1084,1084,1084,1080,1080,1077,1077,1077,1077,1077,1077,1077,1077,1077,1077,1077,1077,1077,1077,1077,1077,1077,1073,1073,0,0,0,0,0,0,0,749,747,747,746,746,744,741,741,739,738,738,736,734,733,731,731,731,733,733,734,738,739,739,741,742,744,746,747,750,750,752,0,0,0,0,0,1080,1080,1080,1084,1084,1084,1084,1084,1084,1084,1087,1087,1087,1084,1084,1084,1084,1084,1087,1087,860,858,858,860,860,862,862,864,867,869,869,869,869,867,867,871,871,871,873,873,875,878,880,880,880,882,889,894,894,896,898,906,906,906,906,908,1087,1087,1087,1087,1087,1087,1087,1087,1087,1087,1087,1087,1087,1087,1087,1087,1087,1087,1087,1087,1090,1087,1087,1087,1087,1087,1087,1090,1090,1090,1090,1090,1090,1087,1087,1087,1087,1084,1084,1084,1084,1087,1087,1087,1087,1090,1090,1090,1090,1087,1087,1087,1087,1087,1087,1087,1087,1087,1087,1087,1087,1087,1087,1087,1087,1087,1087,1087,1084,1084,1084,1084,1087,1087,1087,1087,1090,1090,1090,1090,1087,1087,1087,1087,1087,1087,1087,1087,1087,1087,1087,1087,1087,1087,1087,1087,1087,1087,1087,1087,1090,1090,1087,1087,1090,1090,1087,1087,1087,1087,1087,1087,1087,1087,1087,1087,1087,1087,1084,1084,1087,1087,1087,1087,1087,1087,1087,1090,1090,1087,1087,1087,1087,1087,1084,1084,1087,1087,1087,1087,1084,1084,1087,1087,1087,1087,1087,1087,1090,1090,1087,1087,1087,1087,1087,1084,1084,1084,1084,1080,1080,1080,1080,1080,1084,1084,1084,1084,1084,1084,1084,1084,1084,1084,1084,1084,1084,1084,1087,1087,1087,1087,1084,1084,1080,1080,1080,1080,1080,1084,1084,1084,1084,1084,1087,1087,1087,1084,1084,1084,1084,1084,1084,1084,1084,1087,1084,1084,1084,1084,1084,1080,1080,1080,1080,1084,1084,1080,1080,1080,1087,1087,1087,1087,1084,1084,1087,1084,1084,1087,1087,1087,1087,1090,1090,1084,1084,1084,1084,981,978,975,973,970,970,970,970,970,970,967,967,967,970,970,970,967,967,967,967,967,0,0,906,901,901,901,901,903,903,903,903,901,898,898,898,898,0,0,0,0,0,0,0,0,0,0,0,0,0,0,0,0,0,0,0,0,0,0,0,0,0,0,0,0,0,0,0,0,0,0,0,0
0,0,0,0,0,1080,1080,1077,1077,1077,1077,1077,1077,1077,1077,1077,1077,1077,1073,1073,1073,1073,1073,1073,1073,1073,1073,1073,1070,1070,1070,1070,1070,1070,1070,1070,1070,1070,1067,1067,1067,1067,1067,1067,1067,1067,1067,1070,1070,1070,1070,1070,1070,1070,1070,1070,1070,1070,1070,1070,1070,1070,1070,1073,1073,1073,1073,1070,1070,1070,1070,1070,1070,1067,1067,1067,1070,1073,1070,1070,1070,1070,1073,1070,1070,1070,1070,1070,1070,1070,1070,1070,1073,1073,1073,1073,1073,1073,1073,1073,1073,1073,1073,1073,1073,1073,1073,1073,1073,1073,1073,1073,1073,1073,1073,1073,1034,1028,1025,1025,1022,1022,1022,1019,1019,1019,1019,1022,1022,1025,1028,1031,1031,1034,1034,1038,1038,1041,1050,1063,1067,1067,1073,1073,1073,1073,1073,1077,1077,1077,1077,1077,1077,1077,1077,1077,1077,1077,1073,1073,1077,1077,1077,1077,1077,1077,1077,1077,1077,1077,1077,1077,1077,1077,1077,1077,1073,1073,1077,1073,1073,1073,1077,1077,1077,1077,1077,1080,1080,1080,1080,1080,1080,1080,1077,1077,1077,1077,1077,1077,1077,1077,1077,1077,1077,1077,1077,1077,1077,1077,1077,1077,1073,1073,1073,1073,1073,1073,1073,1073,1073,1077,1077,1077,1077,1077,1073,1073,1073,0,0,0,0,0,0,0,749,749,747,747,746,744,742,741,739,739,738,736,734,733,731,731,733,733,734,738,739,741,741,741,742,746,746,749,750,752,752,0,0,0,0,0,1080,1080,1080,1080,1080,1080,1080,1080,1080,1080,1080,1080,1080,1084,1080,1080,1080,1080,1087,860,860,860,860,860,860,860,862,862,862,864,867,864,864,864,864,869,869,869,871,871,875,878,880,880,880,882,889,894,894,896,898,906,906,906,908,908,1084,1084,1084,1084,1084,1084,1084,1084,1084,1084,1084,1084,1084,1084,1084,1080,1080,1084,1084,1084,1087,1084,1084,1084,1084,1087,1087,1087,1087,1087,1087,1087,1087,1087,1087,1084,1084,1084,1084,1084,1084,1084,1084,1087,1087,1087,1087,1087,1087,1087,1084,1084,1084,1084,1084,1084,1084,1084,1087,1087,1087,1087,1087,1087,1084,1084,1084,1084,1084,1084,1084,1080,1080,1080,1080,1084,1087,1087,1087,1087,1087,1084,1084,1084,1084,1084,1084,1084,1084,1084,1084,1084,1084,1084,1084,1084,1084,1084,1084,1084,1084,1084,1084,1084,1084,1084,1084,1084,1084,1084,1084,1084,1084,1084,1080,1080,1080,1080,1080,1080,1080,1084,1084,1084,1084,1084,1087,1084,1084,1084,1084,1084,1084,1084,1084,1084,1084,1084,1084,1084,1084,1084,1084,1084,1084,1084,1084,1087,1084,1084,1084,1084,1084,1087,1084,1080,1080,1080,1080,1080,1077,1077,1077,1077,1080,1080,1080,1080,1080,1080,1080,1080,1080,1080,1080,1080,1080,1080,1080,1080,1080,1084,1084,1080,1080,1080,1080,1080,1080,1080,1080,1084,1084,1084,1087,1084,1084,1084,1080,1080,1080,1080,1080,1080,1080,1080,1080,1080,1080,1080,1080,1080,1077,1077,1080,1080,1080,1080,1080,1080,1080,1080,1084,1080,1080,1080,1084,1084,1084,1084,1084,1087,1087,1087,1087,1080,1080,1080,981,981,978,978,975,973,973,970,970,970,970,970,970,970,970,970,970,970,967,967,967,967,967,959,906,906,901,901,901,903,903,901,901,898,898,898,898,898,0,0,0,0,0,0,0,0,0,0,0,0,0,0,0,0,0,0,0,0,0,0,0,0,0,0,0,0,0,0,0,0,0,0,0,0
0,0,0,0,1077,1077,1077,1077,1073,1073,1073,1073,1073,1077,1077,1077,1077,1073,1073,1073,1070,1070,1067,1067,1070,1070,1070,1070,1067,1067,1067,1067,1067,1070,1067,1067,1067,1067,1067,1067,1063,1063,1063,1063,1063,1063,1063,1067,1067,1067,1067,1067,1067,1067,1067,1067,1067,1067,1067,1063,1063,1063,1067,1067,1067,1070,1070,1070,1070,1070,1067,1067,1067,1067,1063,1063,1067,1067,1067,1067,1067,1067,1070,1070,1067,1067,1067,1070,1067,1067,1067,1067,1070,1070,1070,1070,1070,1070,1073,1073,1073,1073,1073,1073,1070,1070,1070,1070,1070,1070,1070,1070,1070,1070,1067,1057,1034,1028,1028,1025,1025,1022,1022,1022,1019,1019,1019,1022,1022,1025,1028,1031,1034,1034,1034,1038,1041,1041,1050,1054,1063,1067,1070,1070,1070,1070,1070,1073,1073,1073,1073,1073,1073,1073,1073,1073,1073,1073,1073,1073,1073,1073,1073,1073,1077,1077,1077,1077,1077,1077,1077,1073,1073,1077,1073,1073,1073,1073,1073,1073,1070,1070,1073,1077,1073,1073,1073,1073,1073,1077,1077,1077,1077,1077,1077,1077,1077,1073,1073,1073,1073,1073,1073,1077,1077,1077,1077,1077,1077,1077,1073,1073,1073,1073,1073,1073,1073,1070,1070,1073,1073,1073,1073,1073,1073,1073,1073,1070,1070,1070,1070,0,0,0,0,0,750,750,749,749,749,747,742,741,741,739,739,738,736,734,733,733,733,733,734,736,739,741,741,741,744,746,747,750,752,752,752,752,0,0,0,0,1080,1080,1077,1077,1077,1077,1077,1077,1077,1077,1077,1077,1077,1077,1077,1077,1077,1080,858,858,858,858,858,858,860,860,860,860,862,862,862,862,862,862,862,867,867,869,871,871,875,878,880,880,880,882,891,896,896,896,901,906,906,906,908,1080,1080,1080,1080,1080,1080,1080,1080,1080,1080,1080,1080,1080,1080,1080,1080,1080,1077,1077,1077,1080,1080,1080,1080,1080,1080,1084,1084,1084,1084,1084,1084,1084,1084,1084,1084,1084,1080,1080,1080,1080,1080,1080,1084,1084,1084,1087,1084,1084,1084,1084,1084,1084,1084,1084,1084,1084,1084,1084,1084,1084,1084,1084,1084,1084,1080,1080,1080,1080,1080,1080,1080,1080,1080,1080,1080,1080,1080,1084,1080,1080,1084,1084,1084,1080,1080,1080,1080,1080,1080,1080,1080,1080,1084,1084,1084,1084,1084,1084,1080,1080,1080,1080,1080,1080,1080,1080,1080,1080,1080,1080,1080,1080,1080,1080,1080,1080,1080,1080,1080,1080,1080,1080,1080,1080,1080,1080,1080,1080,1080,1080,1080,1080,1080,1080,1080,1080,1080,1080,1080,1080,1080,1080,1080,1080,1080,1080,1080,1084,1084,1084,1084,1084,1084,1080,1080,1080,1080,1077,1077,1077,1077,1077,1077,1077,1077,1077,1077,1077,1077,1080,1077,1077,1077,1080,1080,1080,1077,1077,1077,1077,1077,1077,1077,1077,1077,1077,1077,1077,1077,1080,1080,1080,1080,1084,1084,1084,1084,1080,1080,1080,1080,1080,1080,1080,1080,1080,1080,1077,1077,1080,1080,1080,1077,1077,1080,1080,1080,1077,1077,1077,1080,1080,1080,1080,1080,1080,1080,1080,1080,1080,1080,1080,1080,1080,1080,1080,1077,1077,981,981,978,978,975,975,973,973,973,973,973,973,970,970,973,970,970,970,967,967,967,959,959,959,0,906,901,901,903,901,901,901,901,898,898,898,898,898,0,0,0,0,0,0,0,0,0,0,0,0,0,0,0,0,0,0,0,0,0,0,0,0,0,0,0,0,0,0,0,0,0,0,0,0
0,0,0,0,1073,1073,1073,1073,1070,1070,1070,1070,1073,1073,1073,1073,1073,1073,1070,1070,1070,1063,1063,1067,1067,1067,1067,1067,1063,1063,1067,1067,1067,1067,1067,1067,1067,1067,1063,1063,1060,1060,1063,1063,1063,1063,1063,1063,1063,1063,1063,1063,1063,1063,1063,1063,1063,1063,1063,1060,1060,1060,1063,1063,1063,1063,1063,1067,1067,1063,1063,1063,1063,1063,1063,1063,1063,1063,1063,1060,1060,1063,1063,1070,1063,1063,1063,1067,1063,1063,1063,1063,1067,1067,1067,1067,1067,1070,1070,1070,1070,1070,1070,1070,1070,1067,1067,1067,1067,1067,1067,1067,1067,1067,1063,1057,1038,1031,1028,1028,1025,1025,1022,1022,1022,1022,1022,1022,1025,1025,1028,1031,1034,1034,1038,1038,1041,1044,1050,1054,1060,1063,1067,1067,1067,1067,1067,1070,1070,1070,1073,1073,1070,1070,1070,1070,1070,1070,1070,1070,1070,1073,1073,1073,1073,1073,1073,1073,1073,1073,1073,1073,1073,1073,1073,1070,1070,1070,1070,1070,1067,1067,1070,1073,1073,1073,1073,1073,1073,1073,1073,1073,1073,1073,1073,1073,1073,1073,1070,1070,1070,1070,1073,1073,1073,1073,1073,1073,1073,1073,1073,1073,1073,1073,1073,1070,1070,1070,1070,1070,1070,1070,1070,1073,1073,1073,1070,1070,1070,1070,1070,0,0,0,0,0,0,0,750,750,750,749,746,742,741,741,739,738,736,734,733,733,733,734,734,736,739,741,741,741,746,747,749,750,752,752,752,752,0,0,0,0,0,1080,1077,1073,1073,1073,1070,1070,1070,1073,1073,1073,1073,1073,1077,1077,1077,858,858,858,858,858,858,858,858,858,858,860,860,860,860,860,860,860,860,864,867,867,871,871,875,878,880,880,882,885,891,896,896,898,903,906,906,906,1077,1077,1080,1077,1077,1077,1077,1077,1077,1077,1077,1080,1080,1077,1077,1077,1077,1077,1077,1077,1077,1077,1077,1077,1077,1077,1080,1080,1080,1080,1080,1080,1080,1080,1080,1080,1080,1080,1080,1080,1077,1077,1080,1080,1080,1080,1080,1080,1080,1080,1080,1080,1080,1080,1080,1080,1080,1080,1080,1080,1080,1080,1080,1080,1080,1080,1080,1080,1080,1080,1080,1080,1077,1077,1077,1077,1077,1077,1077,1077,1077,1077,1080,1080,1080,1080,1080,1080,1080,1080,1080,1080,1080,1080,1080,1080,1080,1080,1080,1080,1080,1077,1077,1077,1077,1077,1077,1077,1077,1077,1077,1077,1077,1077,1077,1080,1080,1077,1077,1077,1077,1077,1077,1077,1077,1077,1077,1077,1077,1077,1077,1077,1077,1077,1073,1073,1077,1077,1077,1080,1080,1080,1080,1080,1077,1077,1077,1077,1080,1080,1080,1080,1080,1080,1077,1077,1077,1073,1073,1077,1077,1077,1077,1073,1073,1073,1077,1077,1077,1077,1077,1077,1077,1077,1077,1077,1077,1077,1077,1077,1073,1073,1077,1077,1077,1077,1077,1077,1077,1077,1077,1077,1077,1080,1080,1080,1080,1080,1080,1077,1077,1077,1077,1077,1077,1077,1077,1077,1077,1077,1077,1077,1077,1077,1077,1077,1077,1077,1077,1077,1077,1077,1080,1080,1080,1080,1080,1080,1080,1080,1080,1080,1080,1080,1077,1077,1077,1077,1073,1073,981,981,978,978,975,975,973,973,973,973,973,973,973,973,973,973,970,970,967,967,967,959,959,0,0,906,906,906,903,898,898,898,898,898,898,898,898,898,0,0,0,0,0,0,0,0,0,0,0,0,0,0,0,0,0,0,0,0,0,0,0,0,0,0,0,0,0,0,0,0,0,0,0,0
0,0,0,0,1070,1070,1070,1070,1067,1067,1067,1070,1070,1070,1070,1070,1070,1070,1070,1067,1063,1063,1063,1063,1060,1060,1060,1063,1063,1063,1063,1063,1063,1063,1063,1063,1063,1063,1063,1063,1060,1060,1063,1063,1063,1063,1060,1060,1060,1060,1060,1060,1060,1060,1060,1060,1060,1060,1060,1057,1057,1060,1060,1060,1060,1063,1063,1063,1063,1063,1063,1060,1060,1060,1060,1060,1060,1060,1060,1060,1060,1060,1060,1060,1060,1060,1060,1063,1063,1063,1063,1063,1063,1063,1063,1063,1067,1067,1067,1067,1067,1067,1067,1067,1067,1067,1063,1063,1063,1063,1063,1063,1063,1063,1060,1047,1038,1034,1031,1028,1025,1025,1025,1022,1022,1022,1022,1025,1025,1028,1031,1031,1034,1034,1038,1041,1041,1044,1047,1050,1057,1060,1063,1067,1067,1067,1067,1067,1067,1067,1070,1070,1070,1070,1070,1070,1067,1067,1067,1067,1067,1067,1070,1070,1073,1070,1070,1073,1073,1073,1070,1070,1070,1070,1070,1070,1067,1067,1067,1067,1067,1067,1070,1073,1070,1070,1070,1070,1070,1070,1070,1073,1073,1073,1073,1073,1073,1070,1070,1070,1070,1070,1070,1070,1070,1070,1073,1073,1073,1073,1073,1073,1073,1070,1070,1070,1070,1067,1067,1067,1067,1070,1070,1070,1070,1070,1070,1067,1067,1070,1070,0,0,0,0,0,0,0,752,752,752,749,747,746,742,742,741,739,736,734,734,734,734,734,734,736,739,741,741,741,744,747,750,752,752,754,754,754,754,0,0,0,0,1080,1070,1067,1067,1067,1067,1067,1067,1070,1070,1070,1073,1073,1077,1077,851,851,851,856,856,856,856,856,858,858,858,858,858,858,858,860,860,860,860,864,867,867,871,871,875,878,880,880,882,889,891,896,896,898,903,906,906,1077,1077,1077,1077,1077,1077,1077,1077,1077,1077,1077,1077,1077,1077,1077,1077,1073,1073,1077,1077,1077,1073,1073,1073,1077,1077,1077,1073,1073,1073,1080,1080,1080,1080,1080,1080,1077,1077,1077,1077,1077,1077,1077,1077,1077,1077,1077,1077,1077,1077,1077,1077,1077,1077,1077,1077,1077,1077,1077,1077,1077,1077,1077,1077,1077,1077,1080,1080,1077,1077,1077,1077,1077,1077,1077,1077,1077,1077,1077,1077,1077,1077,1077,1077,1077,1077,1077,1077,1077,1077,1077,1077,1077,1077,1077,1077,1077,1077,1080,1077,1077,1077,1077,1077,1077,1073,1073,1073,1073,1073,1073,1073,1073,1073,1073,1073,1077,1073,1073,1073,1073,1077,1073,1073,1073,1073,1073,1073,1073,1073,1073,1073,1073,1073,1070,1070,1070,1070,1070,1073,1077,1077,1077,1077,1073,1073,1073,1073,1073,1073,1077,1077,1073,1073,1073,1077,1077,1073,1073,1073,1073,1073,1073,1073,1073,1073,1073,1073,1073,1073,1073,1073,1077,1077,1077,1077,1077,1077,1077,1073,1070,1070,1070,1073,1073,1073,1073,1073,1073,1073,1073,1077,1073,1073,1080,1080,1070,1070,1070,1073,1073,1073,1073,1073,1073,1073,1073,1073,1073,1073,1073,1073,1073,1073,1077,1077,1077,1077,1077,1077,1073,1073,1077,1077,1077,1077,1077,1077,1077,1077,1077,1077,1077,1077,1077,1077,1077,1077,1077,1073,1073,981,981,978,978,975,975,975,975,975,975,975,973,973,973,973,973,970,970,967,967,967,964,964,964,0,0,898,898,898,898,898,898,898,898,898,898,898,898,0,0,0,0,0,0,0,0,0,0,0,0,0,0,0,0,0,0,0,0,0,0,0,0,0,0,0,0,0,0,0,0,0,0,0,0
0,0,0,0,1067,1067,1067,1067,1067,1063,1063,1060,1060,1060,1060,1060,1063,1063,1063,1060,1060,1060,1057,1057,1057,1057,1057,1057,1060,1060,1060,1060,1060,1060,1060,1060,1060,1060,1060,1060,1060,1060,1060,1060,1060,1060,1060,1060,1060,1057,1057,1057,1057,1057,1057,1057,1060,1060,1057,1057,1057,1057,1057,1057,1060,1060,1060,1060,1063,1060,1060,1057,1057,1057,1057,1057,1057,1057,1057,1057,1057,1057,1057,1060,1060,1060,1060,1060,1060,1060,1060,1060,1060,1063,1063,1063,1063,1063,1063,1063,1063,1063,1063,1063,1063,1063,1063,1063,1063,1063,1063,1063,1063,1060,1057,1044,1041,1034,1034,1031,1028,1025,1025,1025,1025,1025,1025,1025,1028,1028,1031,1034,1034,1034,1038,1041,1041,1044,1047,1050,1054,1057,1060,1063,1063,1063,1063,1063,1063,1063,1063,1067,1067,1067,1067,1067,1067,1067,1067,1067,1067,1067,1067,1067,1067,1067,1067,1070,1070,1070,1070,1067,1067,1070,1067,1067,1067,1067,1067,1067,1067,1067,1067,1070,1067,1067,1070,1070,1070,1070,1070,1070,1070,1070,1070,1070,1070,1067,1067,1067,1067,1067,1067,1067,1067,1067,1070,1070,1070,1070,1070,1070,1070,1070,1070,1070,1067,1067,1067,1067,1067,1063,1063,1067,1067,1067,1063,1063,1067,1063,1060,1060,0,0,0,0,0,754,754,752,752,750,747,747,744,742,741,739,738,734,734,734,734,734,734,736,739,741,741,741,744,747,750,752,754,754,754,754,754,0,0,0,0,0,1067,1063,1063,1063,1063,1067,1067,1067,1067,1067,1073,1073,1073,851,851,851,851,851,851,854,854,854,856,856,858,858,858,858,858,858,858,860,860,862,864,867,871,871,878,880,880,882,882,889,891,896,896,901,906,906,1070,1070,1070,1070,1070,1070,1070,1073,1073,1073,1073,1073,1073,1073,1073,1073,1073,1070,1070,1073,1073,1073,1073,1073,1073,1073,1073,1073,1073,1073,1073,1073,1073,1077,1077,1077,1077,1077,1073,1073,1073,1073,1073,1073,1073,1073,1073,1073,1073,1073,1073,1073,1073,1073,1073,1077,1077,1077,1077,1077,1073,1073,1073,1073,1073,1073,1073,1073,1073,1077,1077,1073,1073,1073,1073,1073,1073,1073,1073,1073,1073,1073,1073,1073,1073,1073,1073,1077,1077,1077,1077,1077,1077,1077,1077,1077,1077,1077,1077,1077,1077,1077,1077,1073,1073,1073,1070,1070,1070,1070,1070,1070,1070,1070,1070,1070,1070,1070,1070,1070,1070,1070,1073,1070,1070,1070,1070,1070,1073,1073,1073,1073,1073,1073,1070,1070,1067,1067,1067,1070,1070,1070,1070,1073,1073,1073,1073,1073,1073,1073,1073,1073,1073,1070,1070,1070,1073,1073,1070,1070,1070,1070,1070,1070,1070,1067,1067,1067,1070,1070,1070,1070,1070,1077,1073,1073,1073,1073,1073,1073,1073,1070,1070,1070,1070,1070,1070,1070,1070,1070,1070,1070,1070,1070,1070,1070,1070,1067,1067,1067,1067,1067,1070,1070,1070,1070,1070,1070,1070,1073,1073,1073,1073,1073,1073,1077,1077,1073,1073,1073,1073,1070,1070,1073,1073,1070,1070,1070,1073,1073,1073,1073,1073,1073,1073,1073,1073,1073,1073,1073,1073,995,984,981,981,978,978,978,978,978,978,978,978,975,975,975,973,973,970,970,967,967,967,964,964,964,0,0,898,898,898,898,898,898,898,898,898,898,898,898,0,0,0,0,0,0,0,0,0,0,0,0,0,0,0,0,0,0,0,0,0,0,0,0,0,0,0,0,0,0,0,0,0,0,0,0
0,0,0,0,1063,1063,1063,1063,1063,1063,1063,1057,1057,1057,1060,1060,1060,1060,1060,1060,1060,1057,1057,1057,1057,1057,1054,1054,1057,1057,1057,1057,1057,1057,1057,1057,1057,1057,1057,1057,1057,1057,1060,1060,1060,1060,1060,1057,1057,1057,1057,1057,1054,1054,1054,1054,1054,1054,1054,1054,1054,1054,1054,1054,1057,1054,1054,1057,1057,1054,1054,1054,1054,1054,1054,1054,1054,1057,1057,1054,1054,1054,1054,1057,1057,1057,1060,1060,1057,1057,1060,1060,1060,1060,1060,1060,1060,1060,1060,1060,1060,1060,1060,1060,1060,1060,1060,1060,1060,1060,1060,1060,1060,1057,1054,1044,1041,1038,1038,1034,1031,1028,1025,1025,1025,1025,1025,1025,1028,1028,1031,1034,1034,1034,1038,1041,1044,1044,1047,1050,1054,1054,1057,1060,1060,1060,1060,1060,1060,1063,1063,1063,1063,1063,1063,1063,1063,1063,1063,1063,1063,1063,1063,1063,1063,1063,1063,1063,1063,1063,1067,1067,1067,1067,1063,1063,1063,1063,1063,1063,1063,1063,1063,1067,1063,1063,1063,1063,1063,1067,1067,1067,1067,1067,1067,1067,1067,1063,1063,1063,1063,1063,1067,1063,1063,1063,1067,1067,1067,1067,1070,1067,1067,1067,1067,1067,1063,1063,1063,1063,1063,1063,1063,1063,1063,1063,1063,1063,1063,1060,1060,1060,0,0,0,0,755,754,754,754,752,752,749,747,746,744,742,741,739,736,736,734,734,736,736,738,739,741,741,742,746,749,750,752,754,754,755,755,755,0,0,0,0,0,1060,1060,1060,1063,1063,1063,1063,1063,1063,1063,1063,1063,845,849,849,849,849,849,849,851,851,851,851,854,856,856,856,856,858,858,858,858,860,862,864,867,871,871,878,880,880,882,885,889,891,896,896,901,1067,1067,1070,1070,1070,1070,1070,1067,1067,1067,1067,1070,1070,1070,1070,1070,1070,1070,1070,1070,1070,1070,1070,1070,1070,1070,1070,1070,1073,1070,1070,1070,1070,1070,1070,1070,1070,1070,1073,1073,1070,1070,1070,1070,1070,1070,1073,1073,1070,1070,1070,1073,1070,1070,1070,1073,1073,1073,1073,1073,1073,1073,1070,1070,1070,1070,1070,1070,1070,1073,1073,1073,1073,1073,1073,1070,1070,1070,1070,1070,1070,1070,1070,1070,1070,1070,1070,1070,1070,1073,1073,1073,1073,1073,1073,1073,1073,1073,1073,1073,1073,1073,1073,1073,1073,1073,1070,1070,1067,1067,1070,1067,1067,1067,1067,1067,1067,1067,1067,1067,1067,1067,1070,1070,1070,1070,1067,1067,1067,1067,1070,1070,1070,1070,1070,1070,1070,1067,1067,1067,1067,1067,1067,1067,1067,1067,1067,1067,1070,1070,1070,1070,1070,1070,1070,1070,1070,1070,1070,1070,1070,1070,1070,1070,1070,1070,1067,1067,1063,1063,1063,1063,1067,1067,1067,1070,1073,1070,1070,1070,1070,1073,1070,1070,1067,1067,1067,1067,1067,1067,1067,1070,1070,1067,1067,1067,1067,1067,1067,1067,1067,1067,1067,1067,1067,1067,1067,1067,1067,1067,1067,1067,1067,1070,1070,1070,1070,1070,1070,1067,1067,1070,1067,1067,1067,1067,1070,1070,1070,1070,1070,1070,1070,1073,1070,1070,1070,1070,1067,1067,1067,1067,1063,995,981,981,981,978,978,978,978,978,978,978,978,978,975,975,973,973,970,970,970,970,967,964,964,964,0,0,898,898,898,898,898,898,898,898,898,898,898,898,0,0,0,0,0,0,0,0,0,0,0,0,0,0,0,0,0,0,0,0,0,0,0,0,0,0,0,0,0,0,0,0,0,0,0,0
0,0,0,0,1063,1063,1063,1063,1063,1060,1060,1057,1054,1054,1057,1054,1054,1057,1057,1054,1054,1054,1054,1054,1054,1054,1050,1050,1050,1054,1054,1054,1050,1050,1054,1054,1054,1054,1054,1054,1054,1054,1057,1057,1057,1057,1054,1054,1054,1054,1054,1054,1054,1054,1050,1050,1050,1050,1050,1050,1050,1050,1050,1050,1054,1054,1054,1054,1054,1050,1050,1050,1050,1050,1050,1050,1054,1054,1054,1054,1054,1054,1054,1054,1054,1054,1054,1054,1057,1057,1057,1057,1057,1057,1057,1057,1057,1057,1057,1057,1057,1057,1057,1057,1060,1060,1060,1060,1060,1060,1057,1057,1060,1057,1054,1047,1041,1038,1038,1038,1034,1031,1028,1025,1025,1025,1025,1025,1028,1031,1031,1034,1034,1038,1038,1041,1044,1047,1047,1047,1054,1054,1054,1057,1057,1057,1060,1060,1060,1060,1060,1060,1060,1060,1060,1060,1060,1063,1060,1060,1063,1060,1060,1060,1060,1063,1063,1060,1060,1060,1060,1060,1063,1063,1063,1060,1060,1063,1063,1060,1060,1060,1060,1060,1060,1060,1060,1060,1060,1063,1063,1063,1063,1063,1063,1063,1063,1060,1060,1060,1063,1063,1063,1063,1063,1063,1063,1063,1067,1067,1067,1067,1063,1063,1063,1063,1063,1060,1060,1060,1060,1060,1060,1060,1060,1060,1060,1060,1060,1057,1057,0,0,0,0,0,755,754,754,754,752,752,750,749,747,746,744,741,739,736,736,734,734,736,736,738,741,741,742,742,747,749,750,754,754,755,755,757,757,0,0,0,0,0,1060,1060,1060,1060,1060,1063,1063,1063,1063,1063,1063,843,845,845,845,847,849,849,849,849,849,849,849,849,849,849,854,854,856,856,858,858,860,864,867,867,871,873,878,880,880,885,885,889,891,896,896,1063,1063,1067,1067,1067,1067,1067,1067,1067,1067,1063,1063,1067,1067,1067,1067,1067,1067,1067,1067,1067,1067,1067,1067,1067,1067,1067,1067,1067,1070,1067,1067,1067,1067,1067,1067,1067,1067,1067,1067,1067,1067,1070,1070,1067,1067,1070,1070,1070,1070,1070,1070,1070,1067,1067,1070,1070,1070,1070,1067,1067,1070,1070,1070,1070,1070,1070,1070,1070,1070,1070,1070,1070,1070,1070,1070,1070,1067,1067,1067,1067,1070,1070,1067,1067,1067,1067,1070,1070,1070,1070,1070,1070,1070,1070,1070,1070,1070,1070,1070,1070,1070,1070,1070,1070,1070,1070,1070,1067,1067,1067,1067,1067,1067,1067,1067,1067,1067,1067,1067,1067,1067,1067,1067,1067,1067,1067,1067,1067,1067,1067,1067,1067,1067,1067,1067,1067,1067,1067,1067,1067,1067,1063,1063,1063,1063,1063,1063,1063,1063,1063,1067,1067,1067,1067,1070,1070,1067,1067,1070,1067,1067,1067,1067,1067,1067,1063,1063,1060,1057,1057,1060,1060,1060,1063,1063,1067,1067,1067,1067,1067,1067,1070,1067,1067,1067,1067,1067,1067,1067,1067,1067,1067,1067,1067,1067,1067,1063,1063,1063,1063,1063,1067,1067,1067,1067,1067,1063,1063,1063,1063,1067,1067,1067,1067,1067,1067,1067,1067,1067,1067,1067,1067,1067,1067,1067,1067,1067,1067,1067,1067,1067,1067,1067,1067,1067,1067,1067,1067,1067,1067,1063,1063,1063,998,978,978,978,978,978,978,978,978,978,978,1067,1067,1067,1067,1067,1067,1067,973,970,970,970,967,967,967,1067,0,898,898,898,898,898,898,898,898,898,898,898,898,0,0,0,0,0,0,0,0,0,0,0,0,0,0,0,0,0,0,0,0,0,0,0,0,0,0,0,0,0,0,0,0,0,0,0,0
0,0,0,0,1063,1060,1060,1063,1063,1060,1060,1050,1050,1050,1054,1050,1050,1050,1050,1050,1054,1054,1050,1050,1050,1050,1050,1050,1050,1050,1050,1050,1050,1050,1050,1050,1050,1050,1050,1054,1054,1054,1054,1054,1054,1054,1054,1050,1050,1050,1050,1054,1050,1050,1050,1050,1050,1050,1050,1050,1050,1050,1050,1050,1050,1050,1050,1050,1050,1050,1050,1050,1050,1050,1050,1050,1050,1050,1050,1050,1050,1050,1050,1050,1050,1050,1050,1050,1050,1050,1050,1054,1054,1054,1054,1054,1054,1054,1054,1054,1054,1054,1057,1057,1057,1057,1057,1057,1057,1057,1057,1057,1057,1057,1054,1047,1041,1041,1041,1038,1038,1034,1031,1025,1025,1025,1025,1028,1028,1031,1031,1034,1034,1038,1038,1041,1044,1044,1047,1047,1050,1050,1054,1054,1054,1057,1057,1057,1057,1057,1057,1057,1057,1057,1057,1057,1060,1060,1060,1060,1060,1060,1060,1060,1060,1060,1060,1060,1060,1057,1054,1054,1054,1054,1057,1057,1060,1060,1060,1060,1060,1057,1057,1057,1057,1057,1057,1057,1060,1060,1060,1060,1060,1060,1060,1060,1060,1060,1060,1060,1060,1060,1060,1060,1060,1060,1063,1063,1063,1063,1063,1063,1063,1060,1060,1060,1060,1060,1057,1057,1057,1057,1057,1057,1057,1057,1057,1057,1057,1057,1057,0,0,0,0,0,755,754,754,754,752,752,750,749,747,746,746,742,741,738,738,736,736,736,736,738,741,741,744,746,747,749,750,754,755,755,755,757,757,0,0,0,0,0,1060,1060,1060,1060,1060,1060,1060,1060,1063,1063,841,843,843,843,843,845,847,847,847,847,847,847,845,845,847,849,849,851,854,854,858,858,860,864,869,869,871,873,878,880,880,885,889,889,891,1054,1054,1054,1060,1063,1067,1067,1067,1067,1063,1063,1063,1063,1063,1063,1063,1063,1063,1067,1067,1063,1063,1063,1063,1063,1063,1063,1063,1063,1063,1063,1063,1063,1063,1067,1067,1067,1067,1067,1067,1067,1063,1063,1063,1063,1063,1063,1067,1067,1067,1067,1067,1067,1067,1067,1067,1067,1067,1067,1067,1067,1067,1067,1067,1067,1067,1067,1067,1067,1067,1067,1067,1067,1067,1067,1067,1067,1067,1067,1067,1067,1063,1063,1067,1067,1063,1063,1063,1063,1067,1063,1063,1067,1067,1067,1067,1067,1067,1067,1067,1067,1067,1067,1067,1067,1067,1067,1067,1067,1067,1067,1063,1063,1063,1063,1063,1063,1063,1063,1063,1063,1063,1063,1063,1067,1067,1067,1067,1067,1067,1067,1067,1063,1063,1063,1063,1067,1067,1067,1067,1067,1067,1063,1063,1060,1060,1063,1063,1060,1060,1060,1060,1063,1063,1063,1063,1067,1067,1067,1067,1067,1067,1067,1067,1063,1063,1063,1063,1060,1060,1057,1057,1057,1057,1057,1057,1060,1060,1060,1063,1063,1063,1063,1067,1067,1067,1063,1063,1063,1063,1063,1063,1063,1063,1063,1063,1063,1063,1063,1063,1063,1063,1063,1063,1063,1063,1063,1063,1063,1063,1063,1063,1063,1063,1063,1063,1067,1067,1067,1067,1067,1067,1067,1063,1063,1067,1067,1067,1067,1067,1063,1063,1067,1063,1063,1063,1063,1063,1063,1063,1063,1063,1063,1063,1063,1063,998,975,975,978,978,978,978,978,978,978,1060,1067,1067,1063,1063,1067,1067,1063,1063,1057,1057,1063,1067,1067,1067,1067,1067,896,896,896,896,896,896,896,896,896,898,898,898,0,0,0,0,0,0,0,0,0,0,0,0,0,0,0,0,0,0,0,0,0,0,0,0,0,0,0,0,0,0,0,0,0,0,0,0
0,0,0,0,1060,1060,1060,1060,1060,1057,1054,1050,1050,1050,1050,1050,1050,1050,1050,1050,1047,1047,1050,1050,1050,1050,1050,1050,1050,1050,1050,1050,1050,1050,1050,1050,1050,1050,1050,1054,1050,1050,1050,1050,1050,1050,1047,1047,1050,1047,1047,1050,1047,1047,1047,1047,1047,1047,1047,1047,1047,1047,1047,1047,1047,1047,1050,1050,1050,1047,1047,1047,1047,1047,1047,1047,1047,1050,1050,1050,1050,1050,1050,1050,1050,1050,1050,1050,1047,1047,1047,1050,1050,1050,1050,1050,1050,1050,1050,1050,1050,1050,1050,1050,1054,1054,1054,1054,1054,1057,1054,1054,1054,1054,1050,1047,1041,1041,1041,1041,1038,1034,1031,1025,1025,1025,1028,1028,1028,1031,1034,1034,1034,1038,1038,1041,1044,1044,1047,1047,1050,1050,1050,1054,1054,1054,1054,1054,1054,1054,1054,1054,1054,1054,1054,1054,1054,1057,1057,1057,1057,1057,1057,1057,1057,1057,1057,1057,1057,1054,1054,1054,1050,1050,1054,1054,1054,1054,1054,1054,1057,1054,1054,1054,1057,1057,1054,1054,1057,1057,1057,1057,1057,1057,1054,1054,1057,1054,1054,1054,1057,1057,1057,1057,1057,1057,1057,1057,1057,1057,1057,1057,1057,1057,1057,1057,1057,1057,1054,1054,1057,1057,1057,1054,1054,1054,1054,1054,1054,1054,1054,0,0,0,0,0,0,754,754,754,752,752,750,749,747,746,746,744,742,739,738,736,736,738,738,738,741,741,744,746,747,749,750,754,755,755,757,757,757,0,0,0,0,0,1057,1057,1057,1057,1060,1060,1060,1060,1060,841,841,841,841,843,843,843,845,845,845,845,845,845,845,845,845,847,849,851,854,854,858,858,860,864,871,871,871,873,880,880,880,882,889,889,1054,1054,1054,1054,1060,1063,1063,1063,1063,1063,1063,1060,1060,1060,1060,1060,1060,1060,1063,1063,1063,1063,1063,1063,1063,1063,1063,1063,1063,1063,1060,1060,1063,1063,1063,1063,1063,1063,1063,1063,1063,1063,1063,1063,1063,1063,1063,1063,1063,1063,1063,1063,1063,1063,1067,1063,1063,1063,1063,1063,1063,1063,1063,1063,1063,1067,1067,1067,1067,1067,1067,1067,1067,1067,1067,1067,1063,1063,1063,1063,1063,1063,1063,1063,1060,1060,1060,1060,1060,1060,1063,1063,1063,1063,1063,1063,1063,1063,1063,1063,1063,1063,1063,1063,1063,1063,1063,1063,1067,1067,1067,1063,1063,1063,1063,1060,1060,1063,1063,1063,1063,1063,1063,1063,1063,1063,1063,1063,1063,1063,1063,1063,1063,1060,1060,1060,1060,1063,1063,1063,1063,1063,1063,1063,1063,1060,1060,1060,1060,1060,1060,1060,1060,1060,1063,1060,1060,1063,1063,1063,1063,1063,1063,1063,1063,1063,1063,1060,1060,1057,1057,1057,1057,1057,1057,1057,1057,1057,1057,1057,1057,1060,1060,1060,1060,1063,1063,1063,1063,1063,1063,1063,1063,1060,1060,1060,1060,1060,1060,1060,1060,1060,1060,1060,1060,1060,1060,1060,1063,1063,1063,1063,1063,1063,1063,1063,1063,1063,1063,1063,1063,1063,1063,1063,1063,1063,1063,1063,1063,1063,1063,1063,1063,1063,1060,1060,1063,1063,1063,1063,1063,1063,1063,1063,1060,1060,1060,975,975,975,978,978,978,978,978,978,1057,1060,1063,1063,1063,1060,1060,1063,1060,1060,1057,1057,1063,1063,1067,1067,1067,1067,894,894,894,894,896,896,896,896,896,896,896,896,0,0,0,0,0,0,0,0,0,0,0,0,0,0,0,0,0,0,0,0,0,0,0,0,0,0,0,0,0,0,0,0,0,0,0,0
0,0,0,0,1057,1057,1054,1054,1057,1054,1054,1050,1050,1050,1047,1047,1047,1047,1047,1047,1047,1047,1047,1047,1047,1050,1047,1047,1047,1050,1050,1047,1047,1047,1047,1047,1047,1047,1047,1047,1050,1050,1050,1050,1047,1047,1044,1044,1044,1041,1041,1044,1044,1044,1044,1044,1044,1047,1047,1047,1047,1047,1047,1047,1047,1047,1047,1047,1047,1047,1047,1047,1047,1047,1047,1047,1047,1047,1047,1047,1047,1047,1047,1047,1047,1047,1047,1047,1044,1044,1044,1044,1047,1047,1050,1050,1050,1050,1050,1050,1050,1050,1050,1050,1050,1050,1050,1050,1050,1050,1050,1050,1050,1050,1047,1047,1041,1041,1041,1041,1038,1034,1031,1028,1028,1028,1028,1028,1031,1031,1034,1034,1034,1038,1038,1041,1044,1047,1047,1047,1047,1047,1050,1050,1050,1050,1050,1050,1050,1050,1050,1050,1050,1050,1050,1050,1050,1054,1054,1054,1054,1054,1054,1054,1054,1054,1054,1054,1057,1050,1050,1050,1050,1050,1050,1050,1050,1050,1050,1054,1054,1050,1050,1054,1054,1054,1054,1054,1054,1054,1054,1054,1054,1054,1050,1050,1050,1050,1050,1050,1050,1054,1054,1054,1054,1054,1054,1054,1054,1054,1054,1054,1054,1054,1054,1054,1054,1054,1050,1050,1054,1054,1054,1050,1050,1050,1050,1050,1050,1050,1047,1041,1041,0,0,0,0,754,754,754,752,752,750,749,747,746,746,744,742,741,739,738,738,738,739,739,741,742,744,746,747,749,750,754,755,755,757,757,759,0,0,0,0,0,1057,1057,1057,1057,1057,1060,1060,839,843,843,841,841,841,843,843,843,843,843,843,843,843,845,843,843,843,845,845,851,854,856,858,858,860,864,867,871,873,878,880,880,880,882,889,889,1054,1054,1054,1054,1057,1060,1060,1060,1060,1060,1060,1057,1057,1057,1057,1057,1060,1060,1060,1060,1060,1060,1060,1060,1060,1060,1060,1060,1060,1060,1060,1060,1060,1060,1060,1060,1060,1060,1063,1063,1063,1063,1063,1060,1060,1060,1060,1060,1060,1060,1060,1060,1060,1063,1063,1063,1060,1060,1060,1060,1060,1060,1060,1060,1063,1063,1063,1063,1063,1063,1063,1063,1063,1063,1063,1063,1063,1063,1063,1060,1060,1060,1060,1060,1060,1060,1060,1060,1057,1057,1060,1060,1057,1057,1057,1057,1057,1060,1060,1060,1060,1060,1060,1060,1060,1057,1057,1057,1063,1063,1063,1063,1060,1060,1060,1060,1060,1060,1060,1060,1060,1063,1060,1060,1063,1063,1060,1060,1060,1060,1060,1060,1060,1057,1057,1057,1057,1060,1060,1060,1063,1063,1060,1060,1060,1057,1057,1057,1057,1057,1057,1057,1057,1060,1060,1060,1060,1060,1060,1060,1060,1063,1063,1060,1060,1060,1060,1057,1057,1057,1057,1054,1054,1054,1054,1054,1054,1057,1054,1054,1054,1057,1057,1057,1057,1054,1054,1054,1057,1057,1057,1060,1063,1057,1057,1057,1057,1057,1057,1057,1057,1057,1057,1060,1060,1060,1060,1057,1057,1057,1057,1060,1060,1060,1060,1063,1063,1063,1063,1060,1060,1060,1060,1060,1060,1060,1060,1060,1063,1060,1060,1060,1060,1057,1057,1057,1060,1060,1060,1063,1060,1060,1060,1060,1057,1057,1060,975,975,975,978,978,978,978,978,978,1057,1057,1057,1060,1060,1057,1057,1057,1060,1057,1057,1057,1060,1060,1067,1063,1063,1070,894,894,894,894,896,896,896,896,896,896,896,896,0,0,0,0,0,0,0,0,0,0,0,0,0,0,0,0,0,0,0,0,0,0,0,0,0,0,0,0,0,0,0,0,0,0,0,0
0,0,0,0,1057,1054,1050,1050,1054,1050,1047,1047,1047,1047,1047,1047,1047,1047,1047,1047,1047,1047,1047,1047,1047,1047,1047,1047,1047,1047,1047,1047,1047,1047,1047,1044,1044,1047,1047,1044,1044,1047,1047,1047,1041,1041,1041,1041,1041,1034,1034,1041,1041,1041,1041,1044,1044,1044,1044,1044,1044,1044,1044,1044,1044,1044,1044,1044,1044,1044,1044,1044,1044,1044,1044,1044,1044,1044,1044,1044,1044,1044,1044,1044,1044,1044,1044,1044,1041,1041,1041,1041,1044,1044,1044,1044,1044,1044,1044,1047,1047,1047,1047,1047,1050,1047,1047,1047,1047,1047,1047,1047,1047,1047,1047,1044,1041,1041,1041,1038,1038,1034,1034,1028,1028,1028,1028,1028,1031,1031,1034,1034,1034,1038,1038,1041,1044,1044,1047,1047,1047,1047,1047,1047,1047,1047,1050,1050,1050,1050,1050,1050,1047,1047,1047,1047,1050,1050,1050,1050,1050,1050,1050,1050,1050,1050,1050,1050,1050,1050,1050,1050,1050,1050,1050,1047,1047,1050,1050,1050,1050,1050,1050,1050,1050,1050,1050,1050,1050,1054,1050,1050,1050,1050,1050,1050,1050,1050,1050,1050,1050,1050,1050,1050,1050,1050,1050,1050,1050,1050,1050,1050,1050,1050,1050,1050,1050,1050,1050,1050,1050,1050,1050,1050,1050,1050,1050,1050,1050,1047,1047,1041,1038,1038,0,0,0,0,755,754,752,752,750,749,747,747,746,744,742,741,739,739,739,739,739,741,742,742,744,746,747,749,750,754,755,757,757,759,759,0,0,0,0,0,1054,1054,1057,1057,1057,1057,837,839,839,839,841,841,841,843,843,843,843,841,841,841,841,841,841,843,843,843,845,854,854,856,858,858,864,867,867,871,873,878,880,880,880,882,889,1054,1054,1054,1054,1054,1057,1057,1057,1057,1057,1057,1057,1054,1054,1054,1057,1057,1057,1057,1057,1057,1057,1057,1057,1057,1057,1057,1057,1057,1057,1057,1057,1057,1057,1057,1057,1057,1057,1057,1060,1060,1060,1060,1060,1060,1060,1060,1057,1057,1057,1057,1057,1054,1054,1054,1054,1057,1060,1060,1060,1060,1060,1060,1060,1060,1060,1060,1060,1060,1060,1060,1060,1060,1060,1060,1060,1057,1057,1060,1057,1057,1057,1057,1057,1057,1057,1057,1057,1057,1057,1057,1057,1057,1057,1057,1054,1054,1057,1057,1057,1057,1057,1057,1057,1057,1057,1054,1054,1054,1054,1054,1054,1057,1057,1057,1057,1057,1057,1060,1060,1060,1060,1060,1060,1060,1060,1060,1060,1057,1057,1057,1057,1057,1057,1054,1054,1054,1054,1057,1057,1057,1057,1057,1057,1057,1054,1054,1054,1054,1054,1054,1054,1054,1054,1057,1057,1057,1057,1054,1054,1054,1050,1050,1054,1054,1054,1054,1057,1054,1054,1054,1054,1054,1054,1054,1054,1054,1054,1054,1054,1054,1054,1054,1054,1054,1054,1054,1054,1054,1054,1054,1054,1054,1054,1054,1054,1054,1054,1054,1054,1054,1054,1054,1054,1054,1054,1054,1057,1054,1054,1054,1054,1054,1054,1054,1057,1057,1057,1057,1057,1054,1054,1057,1057,1057,1057,1057,1057,1060,1057,1057,1057,1057,1057,1057,1057,1057,1060,1057,1057,1060,1060,1060,1057,1057,1054,1054,975,975,975,978,978,978,978,978,978,1054,1054,1054,1054,1057,1057,1057,1057,1057,1057,1057,1054,1054,1057,1057,1057,1057,1057,1063,894,894,894,894,894,894,896,896,896,896,896,896,0,0,0,0,0,0,0,0,0,0,0,0,0,0,0,0,0,0,0,0,0,0,0,0,0,0,0,0,0,0,0,0,0,0,0,0
0,0,0,0,1054,1050,1050,1050,1050,1050,1047,1047,1047,1047,1044,1044,1044,1044,1044,1044,1044,1044,1044,1044,1044,1044,1047,1047,1047,1047,1044,1044,1041,1041,1041,1041,1041,1044,1041,1041,1041,1044,1044,1044,1041,1041,1038,1038,1038,1034,1034,1038,1038,1038,1038,1041,1041,1041,1041,1041,1041,1041,1041,1041,1041,1041,1041,1041,1041,1041,1041,1041,1041,1041,1044,1041,1041,1041,1041,1041,1041,1041,1041,1041,1041,1041,1041,1041,1041,1041,1041,1041,1041,1041,1041,1041,1041,1041,1041,1041,1044,1047,1047,1047,1047,1047,1047,1044,1044,1041,1041,1044,1044,1044,1044,1044,1041,1041,1041,1038,1038,1034,1034,1031,1028,1028,1028,1028,1031,1034,1034,1034,1034,1038,1038,1041,1041,1044,1044,1047,1047,1047,1047,1047,1047,1047,1047,1047,1047,1047,1047,1047,1047,1047,1047,1047,1047,1047,1047,1047,1047,1047,1047,1047,1047,1050,1050,1050,1050,1047,1047,1047,1047,1047,1047,1047,1047,1047,1047,1047,1047,1047,1047,1050,1050,1050,1047,1047,1047,1050,1050,1050,1050,1050,1047,1047,1047,1047,1047,1047,1047,1047,1050,1050,1050,1050,1050,1050,1047,1047,1050,1050,1050,1050,1050,1050,1050,1047,1047,1047,1047,1047,1047,1047,1047,1047,1047,1047,1047,1044,1044,1041,1038,1038,0,0,0,0,755,754,754,752,752,750,747,747,746,744,742,741,741,739,739,739,741,741,742,744,746,747,747,749,752,755,757,757,759,759,759,761,0,0,0,0,1054,1054,1057,1057,1057,835,837,837,837,837,839,839,839,841,841,841,841,841,841,841,841,841,841,843,843,843,845,854,854,856,858,858,867,867,869,871,873,878,880,880,880,885,1054,1054,1054,1054,1054,1054,1054,1054,1054,1054,1054,1054,1054,1054,1054,1054,1054,1054,1054,1054,1057,1057,1057,1054,1054,1054,1054,1054,1054,1054,1054,1054,1054,1054,1054,1054,1054,1054,1054,1057,1057,1057,1057,1057,1057,1057,1057,1057,1054,1054,1054,1050,1050,1050,1050,1050,1050,1054,1054,1054,1054,1054,1054,1054,1054,1054,1054,1057,1057,1057,1054,1054,1054,1054,1054,1054,1054,1054,1054,1057,1057,1057,1057,1057,1054,1054,1054,1054,1054,1054,1054,1054,1054,1054,1054,1054,1054,1054,1054,1057,1057,1057,1057,1054,1054,1057,1054,1054,1054,1054,1054,1050,1050,1050,1050,1054,1054,1054,1054,1057,1057,1057,1057,1057,1057,1057,1057,1057,1057,1054,1054,1054,1054,1054,1054,1054,1054,1050,1050,1054,1054,1054,1054,1054,1054,1054,1054,1054,1054,1054,1054,1054,1054,1054,1054,1054,1054,1054,1050,1050,1050,1047,1047,1050,1054,1054,1050,1050,1054,1054,1054,1054,1054,1054,1054,1054,1050,1050,1054,1054,1054,1050,1050,1054,1054,1054,1050,1050,1050,1050,1054,1050,1050,1050,1054,1054,1054,1054,1054,1054,1054,1054,1050,1050,1050,1054,1050,1050,1054,1054,1054,1054,1054,1054,1054,1050,1050,1054,1054,1054,1054,1054,1054,1054,1054,1054,1054,1054,1054,1057,1057,1057,1054,1054,1054,1054,1054,1054,1054,1054,1054,1057,1057,1057,1057,1054,1054,1054,975,975,975,978,981,978,978,978,978,1054,1054,1054,1054,1054,1054,1054,1050,1050,1054,1054,1054,1054,1050,1050,1054,1054,1054,1057,1057,880,880,894,894,894,896,896,896,896,896,896,0,0,0,0,0,0,0,0,0,0,0,0,0,0,0,0,0,0,0,0,0,0,0,0,0,0,0,0,0,0,0,0,0,0,0,0
0,0,0,0,1050,1050,1047,1047,1047,1047,1047,1047,1047,1044,1044,1044,1044,1044,1041,1041,1041,1041,1041,1041,1041,1041,1041,1044,1044,1044,1044,1044,1041,1038,1038,1038,1038,1038,1034,1034,1034,1041,1041,1041,1038,1038,1038,1038,1034,1034,1034,1034,1038,1038,1038,1038,1038,1041,1038,1038,1041,1041,1038,1038,1038,1038,1038,1038,1038,1038,1038,1038,1038,1038,1038,1038,1038,1038,1038,1038,1038,1038,1038,1038,1038,1038,1038,1041,1038,1038,1038,1038,1038,1038,1038,1038,1038,1038,1038,1038,1041,1041,1044,1041,1041,1041,1041,1041,1038,1038,1038,1041,1041,1041,1041,1041,1041,1038,1038,1038,1038,1034,1031,1031,1028,1028,1028,1028,1031,1034,1034,1034,1034,1038,1038,1041,1041,1041,1041,1044,1047,1044,1044,1044,1044,1044,1047,1044,1044,1044,1044,1044,1044,1044,1044,1044,1044,1044,1044,1044,1044,1044,1044,1044,1044,1047,1047,1047,1047,1047,1047,1047,1044,1044,1044,1044,1044,1044,1044,1047,1047,1047,1047,1047,1047,1047,1044,1044,1044,1044,1044,1044,1044,1047,1047,1047,1047,1047,1047,1044,1044,1047,1047,1047,1047,1047,1047,1047,1047,1047,1047,1047,1047,1047,1047,1050,1050,1047,1047,1047,1047,1047,1047,1047,1044,1044,1044,1044,1044,1044,1041,1041,1041,1041,0,0,0,754,754,754,754,754,752,750,749,747,746,744,744,741,741,741,739,739,741,741,744,744,746,747,749,750,752,755,755,757,759,761,761,761,0,0,0,0,0,1057,1057,1057,1057,835,835,835,835,835,839,839,839,839,837,837,839,839,839,839,839,839,841,843,843,843,845,854,854,856,858,858,867,867,867,871,873,878,880,880,880,1050,1050,1050,1050,1050,1050,1054,1054,1054,1054,1054,1054,1050,1050,1050,1050,1050,1054,1054,1054,1054,1054,1054,1054,1054,1054,1054,1054,1054,1054,1054,1050,1050,1050,1050,1050,1050,1050,1050,1054,1054,1054,1054,1054,1054,1054,1054,1054,1054,1054,1050,1050,1050,1050,1050,1047,1047,1050,1050,1050,1050,1050,1050,1050,1054,1050,1050,1050,1050,1050,1054,1050,1050,1050,1050,1050,1050,1050,1054,1054,1054,1054,1054,1054,1054,1054,1054,1054,1054,1054,1054,1054,1054,1054,1050,1050,1050,1054,1054,1054,1054,1054,1054,1054,1054,1054,1054,1050,1050,1050,1050,1050,1050,1050,1050,1050,1050,1050,1050,1054,1054,1054,1054,1054,1054,1054,1054,1054,1054,1054,1054,1054,1054,1050,1050,1050,1050,1050,1050,1050,1050,1050,1050,1050,1050,1050,1050,1050,1050,1050,1050,1050,1054,1054,1050,1050,1054,1050,1050,1050,1047,1047,1044,1044,1044,1044,1047,1047,1047,1047,1050,1050,1050,1050,1050,1050,1050,1050,1050,1050,1050,1050,1050,1050,1050,1050,1050,1050,1050,1050,1050,1050,1050,1050,1050,1050,1054,1050,1050,1054,1050,1050,1050,1050,1050,1050,1050,1050,1050,1050,1050,1050,1050,1050,1050,1050,1047,1047,1050,1050,1050,1050,1054,1054,1054,1054,1054,1054,1054,1054,1054,1054,1054,1054,1054,1054,1054,1054,1054,1054,1054,1054,1054,1054,1054,1054,1050,1050,1050,975,975,978,981,981,978,978,978,978,1050,1050,1050,1050,1050,1050,1050,1050,1050,1050,1050,1050,1050,1050,1050,1050,1050,1047,887,882,880,880,882,889,891,894,894,896,896,896,896,0,0,0,0,0,0,0,0,0,0,0,0,0,0,0,0,0,0,0,0,0,0,0,0,0,0,0,0,0,0,0,0,0,0,0,0
0,0,0,0,1047,1047,1047,1047,1044,1044,1041,1041,1044,1041,1041,1041,1041,1041,1041,1041,1038,1038,1038,1038,1038,1038,1038,1038,1038,1044,1041,1041,1038,1038,1034,1034,1034,1034,1034,1034,1034,1034,1034,1034,1038,1038,1038,1038,1034,1034,1034,1034,1034,1034,1034,1034,1038,1038,1038,1038,1038,1038,1038,1034,1034,1034,1034,1038,1038,1038,1038,1038,1038,1038,1038,1038,1038,1034,1034,1038,1038,1038,1038,1038,1038,1038,1038,1038,1038,1038,1038,1038,1038,1038,1038,1038,1034,1034,1038,1038,1038,1041,1041,1038,1038,1038,1038,1038,1038,1038,1038,1038,1038,1038,1041,1038,1038,1038,1038,1034,1034,1034,1031,1031,1031,1031,1031,1031,1031,1034,1034,1034,1034,1038,1038,1038,1041,1041,1038,1038,1041,1041,1041,1041,1041,1041,1041,1041,1041,1041,1041,1041,1041,1041,1041,1041,1041,1041,1041,1041,1044,1044,1044,1044,1044,1044,1044,1044,1044,1044,1041,1041,1044,1041,1041,1041,1041,1044,1044,1044,1044,1044,1044,1044,1044,1041,1041,1041,1041,1041,1044,1044,1044,1044,1044,1044,1044,1044,1044,1044,1044,1044,1044,1044,1047,1047,1047,1047,1047,1047,1047,1047,1047,1047,1047,1047,1047,1044,1044,1044,1044,1044,1044,1044,1044,1044,1044,1044,1044,1041,1041,1041,1041,1041,0,0,0,0,754,754,754,754,752,752,750,749,747,746,744,742,741,741,741,741,741,741,744,744,746,749,749,750,754,755,755,757,759,761,761,761,766,0,0,0,0,0,0,831,831,831,831,833,835,835,835,835,835,837,835,835,837,837,837,837,839,839,841,843,843,843,845,854,854,856,858,862,867,867,867,871,873,1041,1041,1044,1047,1047,1047,1047,1047,1047,1047,1047,1047,1047,1050,1050,1047,1047,1047,1047,1047,1047,1050,1050,1050,1050,1050,1054,1054,1054,1054,1054,1054,1054,1054,1054,1050,1050,1050,1050,1050,1050,1050,1050,1050,1050,1050,1050,1050,1050,1050,1050,1050,1050,1047,1047,1047,1047,1047,1047,1047,1047,1047,1047,1047,1047,1047,1047,1047,1044,1044,1047,1047,1047,1050,1050,1050,1050,1050,1050,1050,1050,1050,1050,1050,1050,1054,1054,1054,1054,1050,1050,1050,1050,1050,1050,1050,1050,1050,1050,1050,1050,1050,1050,1050,1050,1050,1050,1050,1050,1050,1050,1050,1047,1047,1047,1047,1047,1047,1047,1050,1050,1050,1050,1050,1050,1050,1050,1050,1050,1050,1050,1050,1050,1050,1050,1050,1050,1050,1050,1050,1047,1047,1047,1047,1047,1050,1050,1050,1050,1050,1050,1047,1047,1047,1050,1050,1050,1050,1050,1050,1050,1050,1050,1047,1047,1047,1044,1044,1044,1044,1044,1044,1044,1044,1047,1044,1044,1047,1050,1050,1050,1047,1047,1047,1050,1047,1047,1047,1047,1050,1047,1047,1047,1047,1047,1044,1044,1044,1044,1047,1047,1047,1047,1050,1050,1050,1047,1047,1047,1047,1047,1047,1047,1047,1050,1047,1047,1047,1044,1044,1044,1044,1044,1047,1047,1047,1050,1050,1050,1050,1050,1050,1050,1050,1050,1050,1050,1054,1054,1054,1050,1050,1050,1054,1050,1050,1050,1050,1050,1050,1047,1044,1044,978,978,978,981,981,981,978,978,978,1050,1050,1050,1050,1050,1050,1050,1050,1050,1047,1047,1047,1047,1047,1050,1050,1050,1047,887,882,882,882,882,889,889,891,891,894,896,894,894,0,0,0,0,0,0,0,0,0,0,0,0,0,0,0,0,0,0,0,0,0,0,0,0,0,0,0,0,0,0,0,0,0,0,0,0
0,0,0,0,1047,1044,1044,1044,1041,1041,1041,1041,1041,1041,1038,1038,1038,1038,1038,1038,1038,1038,1038,1038,1034,1034,1038,1038,1038,1038,1038,1038,1038,1034,1034,1031,1031,1031,1031,1031,1031,1031,1031,1031,1034,1034,1034,1034,1034,1034,1034,1034,1034,1034,1034,1034,1034,1034,1034,1034,1034,1034,1034,1031,1031,1031,1034,1034,1034,1034,1034,1034,1034,1034,1034,1034,1034,1034,1034,1034,1034,1034,1034,1034,1034,1034,1034,1038,1038,1038,1038,1034,1034,1034,1034,1034,1034,1034,1034,1034,1034,1038,1034,1034,1034,1038,1038,1038,1038,1038,1038,1038,1038,1038,1038,1038,1038,1038,1038,1034,1034,1034,1031,1031,1031,1031,1031,1031,1031,1034,1034,1034,1034,1034,1038,1038,1038,1038,1038,1038,1038,1038,1038,1038,1038,1038,1041,1038,1038,1038,1038,1038,1038,1038,1038,1038,1038,1038,1038,1041,1041,1041,1041,1041,1041,1041,1041,1038,1038,1038,1038,1038,1038,1038,1038,1038,1038,1038,1038,1041,1041,1041,1038,1038,1038,1038,1038,1038,1038,1038,1041,1041,1041,1041,1041,1044,1041,1041,1041,1041,1041,1041,1041,1044,1044,1044,1044,1044,1044,1044,1041,1041,1041,1041,1041,1044,1044,1041,1041,1041,1041,1041,1041,1041,1041,1041,1041,1041,1041,1041,1038,1038,1038,1041,0,0,0,755,755,755,755,754,754,752,750,749,747,746,746,744,744,742,741,741,742,742,744,746,747,749,750,752,754,755,757,759,761,762,762,762,766,0,0,0,0,0,0,829,829,831,831,833,833,833,833,833,833,835,833,833,833,835,835,835,837,839,841,843,843,843,849,854,854,856,858,862,867,867,867,873,1041,1041,1041,1041,1044,1044,1044,1044,1044,1041,1041,1041,1041,1041,1044,1044,1047,1047,1047,1044,1044,1044,1047,1047,1047,1047,1050,1050,1050,1050,1050,1050,1050,1050,1050,1047,1047,1047,1047,1047,1047,1047,1047,1047,1047,1050,1047,1047,1047,1047,1047,1047,1047,1047,1047,1044,1044,1044,1044,1044,1044,1044,1044,1044,1044,1044,1044,1044,1044,1044,1044,1044,1044,1044,1044,1047,1047,1047,1047,1047,1047,1047,1047,1047,1047,1047,1050,1050,1050,1050,1050,1050,1050,1050,1047,1047,1047,1050,1050,1050,1047,1047,1047,1047,1047,1047,1047,1047,1047,1047,1050,1047,1047,1047,1047,1047,1047,1047,1047,1047,1047,1047,1047,1047,1047,1047,1044,1044,1047,1047,1047,1047,1047,1047,1050,1050,1050,1047,1047,1047,1047,1044,1044,1044,1044,1044,1047,1047,1047,1047,1047,1047,1047,1047,1044,1044,1047,1047,1047,1047,1047,1047,1047,1047,1044,1044,1044,1041,1041,1041,1041,1041,1041,1041,1044,1044,1044,1044,1041,1041,1044,1047,1047,1047,1047,1047,1044,1044,1041,1041,1044,1044,1044,1044,1044,1044,1044,1044,1044,1044,1044,1044,1044,1044,1047,1047,1047,1044,1044,1044,1044,1044,1044,1044,1044,1044,1044,1044,1041,1041,1041,1044,1044,1044,1044,1044,1047,1047,1047,1047,1047,1047,1047,1047,1047,1047,1050,1050,1050,1050,1050,1050,1050,1050,1050,1050,1050,1050,1050,1050,1047,1047,1044,1041,981,981,981,981,981,981,981,978,978,1050,1047,1047,1047,1047,1047,1047,1047,1047,1047,1047,1047,1044,1044,1047,1047,1047,1047,1047,1054,1054,1050,1050,889,889,889,891,894,894,894,894,0,0,0,0,0,0,0,0,0,0,0,0,0,0,0,0,0,0,0,0,0,0,0,0,0,0,0,0,0,0,0,0,0,0,0,0
