0,0,0,0,0,0,0,0,0,0,1433,1433,1433,1433,1433,1427,1427,1427,1427,1433,1427,1427,1427,1433,1433,1433,1433,1433,1433,1433,1427,1427,1427,1427,1427,1427,1427,1427,1421,1421,1421,1421,1421,1421,1421,1433,1433,1433,1433,1433,1433,1427,1427,1427,1427,1427,1427,1427,1427,1433,1433,1433,1433,1433,1433,1439,1439,1439,1439,1439,1445,1439,1439,1433,1433,1439,1439,1439,1439,1433,1433,1439,1439,1433,1433,1433,1433,1433,1433,1433,1433,1433,1433,1433,1433,1433,1445,0,0,0,0,0,956,956,954,954,948,948,946,946,946,946,946,946,946,946,948,951,951,954,954,956,956,956,956,956,956,956,0,0,1445,1445,1439,1433,1433,1433,1433,1433,1433,1433,1433,1433,1433,1433,1433,1433,1433,1433,1433,1439,1433,1433,1433,1433,1439,1433,1433,1439,1439,1439,1439,1439,1439,1439,1439,1439,1439,1439,1433,1433,1433,1433,1433,1433,1433,1433,1433,1433,1433,1433,1433,1433,1433,1433,1433,1433,1439,1433,1433,1433,1433,1433,1433,1433,1433,1433,1433,1433,1433,1433,1439,1439,1439,1439,1433,1433,1439,1433,1433,1439,1439,1439,1157,1153,1153,1153,1153,1149,1145,1145,0,0,0,0,0,0,0,0,0,0,0,0,0,696,696,696,694,693,693,691,690,688,687,687,686,684,682,680,680,680,680,680,682,684,686,687,687,688,690,691,694,696,697,697,698,698,698,0,0,0,0,0,0,0,0,0,1264,1264,1264,1264,1264,1264,1264,1268,1268,1268,1273,1273,1433,1433,1433,1433,1433,1433,1433,1427,1427,1427,1427,1427,1427,1427,1427,1427,1427,1427,1427,1427,1427,1427,1427,1427,1427,1427,1427,1433,1433,1427,1427,1427,1427,1433,1433,1433,1433,1427,1427,1427,1433,1433,1433,1433,1433,1439,1433,1433,1433,1433,1433,1433,1427,1427,1427,1427,1427,1427,1427,1427,1427,1427,1427,1427,1427,1427,1427,1427,1427,1427,1427,1427,1427,1427,1427,1427,1421,1421,1421,1421,1421,0,0,0,0,0,1044,1041,1038,1038,1034,1031,1031,1028,1028,1028,1025,1025,1025,1025,1025,1025,1028,1031,1031,1034,1038,1038,1038,1041,1041,1415,1415,1415,1415,1415,1415,1421,1421,1421,1421,1421,1421,1421,1421,1421,1421,1421,1421,1421,1421,1421,1421,1421,1421,1421,1421,1421,1421,1421,1421,1421,1421,1421,1415,1415,1421,1421,1421,1421,1421,1421,1421,1421,1421,1421,1421,1421,1421,1421,1421,1415,1415,1421,1421,1421,1421,1421,1421,1421,1421,1421,1421,1421,1421,1421,1421,1421,1421,1421,1421,1415,1415,1415,1415,1415,1415,1415,1415,1415,1415,1415,1415,1415,1415,1415,1415,1415,1415,1415,1415,1415,1410,1410,1410,1410,1410,1410,1410,1410,1410,1410,1404,1404,1404,1404,1404,1404,1404,1398,1398,1398,1398,1392,1392,1392,1392,1392,1387,1387,1381,1381,1381,1381,1376,1376,1376,1376,1376,1370,1370,1365,1365,1359,1359,1359,1354,1354,1354,1354,1349,1349,1343,1338,1338,1338,1338,1338,1333,1333,1328,1328,1328,1328,1328,1328,1322,1322,1317,1312,1312,1312,1312,1312,1307,1307,1307,1307,1302,1302,1297,1297,1292,1292,1292,1288,1288,1288,1288,1288,1283,1278,1278,1273,1273,1268,1268,1268,1145,1141,1141,1138,1134,1126,1123,1119,1115,1115,1112,1108,1101,1097,1094,1094,1090,1087,1087,1084,1080,1080,0,0,0,0,0,0,0,0,0,0,0,0,0,0,0,0,0,0,0,0,0,0,0,0,0,0,0,0,0,0,0,0
0,0,0,0,0,0,0,0,0,0,1433,1433,1427,1427,1427,1427,1427,1427,1427,1427,1427,1427,1427,1433,1433,1433,1433,1433,1433,1427,1427,1427,1427,1421,1421,1421,1421,1427,1415,1415,1415,1415,1415,1421,1415,1415,1427,1427,1427,1421,1421,1421,1421,1421,1427,1427,1427,1427,1427,1427,1427,1427,1427,1427,1427,1427,1427,1433,1433,1439,1439,1439,1433,1433,1433,1433,1433,1433,1433,1433,1433,1433,1433,1433,1433,1433,1433,1427,1427,1427,1427,1427,1427,1427,1427,1427,1433,0,0,0,0,0,956,956,954,954,951,948,946,946,946,946,946,946,946,948,948,951,954,954,956,956,956,956,956,959,967,0,0,0,0,1445,1439,1433,1427,1427,1427,1427,1427,1427,1427,1427,1433,1433,1433,1433,1433,1433,1433,1433,1433,1427,1427,1427,1433,1433,1433,1433,1433,1433,1433,1433,1433,1433,1433,1433,1433,1433,1433,1433,1433,1433,1433,1433,1433,1433,1433,1433,1433,1433,1433,1433,1433,1433,1433,1433,1433,1433,1433,1433,1433,1433,1433,1427,1427,1433,1433,1433,1433,1433,1433,1433,1433,1433,1433,1433,1433,1433,1433,1433,1439,1439,1149,1149,1149,1149,1149,1145,1141,1141,1145,0,0,0,0,0,0,0,0,0,0,0,0,697,696,696,696,694,693,693,691,688,687,687,686,686,684,683,683,682,682,682,683,684,686,687,687,688,690,691,694,696,697,697,698,698,698,0,0,0,0,0,0,0,0,0,1264,1264,1264,1268,1264,1264,1268,1268,1268,1268,1273,1273,1427,1427,1427,1427,1427,1427,1427,1427,1427,1427,1427,1427,1427,1427,1421,1421,1421,1421,1421,1421,1421,1421,1421,1421,1421,1421,1421,1427,1427,1427,1427,1427,1427,1427,1427,1427,1421,1421,1421,1421,1421,1421,1421,1421,1427,1427,1427,1427,1427,1427,1427,1427,1427,1427,1421,1421,1421,1421,1421,1421,1421,1421,1421,1421,1421,1427,1427,1427,1427,1427,1421,1421,1421,1421,1421,1421,1421,1415,1415,1415,1415,0,0,0,0,0,1047,1041,1041,1038,1038,1034,1034,1031,1028,1028,1025,1025,1025,1025,1025,1028,1028,1031,1031,1034,1038,1038,1038,1041,1041,1415,1415,1415,1415,1415,1415,1415,1415,1415,1415,1421,1421,1415,1415,1415,1415,1415,1415,1415,1415,1415,1415,1415,1415,1415,1415,1415,1415,1415,1415,1415,1415,1415,1415,1415,1415,1415,1415,1421,1415,1415,1415,1415,1415,1415,1415,1415,1415,1415,1415,1415,1415,1415,1415,1415,1415,1421,1421,1421,1415,1415,1415,1415,1415,1415,1415,1415,1415,1415,1415,1415,1410,1410,1410,1410,1410,1410,1410,1410,1415,1415,1415,1415,1415,1415,1415,1410,1410,1410,1410,1410,1404,1404,1404,1404,1404,1410,1404,1404,1404,1404,1404,1404,1398,1398,1398,1404,1398,1398,1398,1398,1392,1392,1392,1392,1392,1392,1387,1387,1381,1381,1381,1381,1376,1376,1376,1376,1376,1370,1370,1370,1365,1365,1365,1359,1359,1354,1354,1354,1349,1349,1343,1343,1343,1338,1338,1338,1333,1333,1328,1328,1328,1328,1328,1328,1322,1322,1317,1317,1312,1312,1312,1312,1312,1307,1307,1307,1302,1302,1302,1297,1292,1292,1292,1288,1288,1288,1288,1288,1283,1283,1278,1273,1273,1268,1268,1149,1145,1141,1141,1138,1130,1126,1123,1119,1115,1112,1108,1105,1101,1097,1094,1094,1090,1087,1087,1084,1080,1080,0,0,0,0,0,0,0,0,0,0,0,0,0,0,0,0,0,0,0,0,0,0,0,0,0,0,0,0,0,0,0,0
0,0,0,0,0,0,0,0,0,0,1427,1427,1427,1427,1427,1421,1421,1421,1421,1421,1421,1421,1421,1427,1427,1427,1427,1427,1427,1421,1421,1421,1421,1421,1421,1421,1421,1421,1415,1415,1415,1415,1415,1415,1415,1415,1421,1421,1421,1421,1421,1421,1421,1421,1421,1421,1421,1421,1421,1421,1421,1421,1421,1421,1421,1421,1421,1427,1427,1427,1433,1433,1427,1427,1427,1427,1433,1433,1427,1427,1427,1427,1427,1427,1427,1427,1427,1427,1427,1427,1421,1421,1415,1415,1415,1427,1427,0,0,0,0,0,0,956,956,954,951,948,948,948,946,946,946,946,946,948,951,951,954,954,956,956,956,959,959,962,962,0,0,0,0,1445,1439,1427,1427,1421,1415,1415,1415,1415,1415,1421,1427,1427,1427,1433,1427,1427,1427,1427,1427,1421,1421,1427,1427,1433,1433,1433,1433,1433,1433,1433,1427,1427,1427,1427,1427,1427,1427,1427,1427,1427,1427,1427,1427,1427,1433,1433,1433,1427,1427,1427,1427,1427,1427,1427,1427,1427,1427,1433,1433,1427,1427,1427,1427,1427,1427,1427,1427,1427,1433,1433,1433,1433,1433,1433,1433,1433,1433,1433,1149,1149,1149,1145,1145,1145,1145,1145,1141,1141,1145,1145,0,0,0,0,0,0,0,0,0,0,697,697,697,696,696,694,694,693,691,688,688,687,687,686,684,683,683,683,683,683,683,684,687,687,688,688,691,691,696,696,698,698,700,700,700,0,0,0,0,0,0,0,0,0,1264,1264,1264,1268,1268,1268,1268,1268,1268,1268,1273,1273,1421,1421,1421,1421,1421,1421,1421,1421,1421,1421,1421,1421,1421,1421,1421,1421,1415,1415,1421,1421,1421,1421,1421,1415,1415,1415,1415,1421,1421,1421,1421,1421,1421,1421,1421,1421,1421,1421,1415,1415,1415,1415,1415,1415,1421,1421,1421,1421,1421,1421,1421,1421,1421,1421,1421,1421,1421,1421,1421,1421,1421,1421,1421,1421,1421,1421,1421,1421,1421,1421,1421,1415,1415,1415,1415,1415,1415,1415,1415,1415,1415,0,0,0,0,0,1050,1044,1041,1041,1038,1038,1034,1034,1031,1031,1028,1025,1025,1025,1028,1028,1028,1031,1031,1034,1038,1038,1041,1041,1421,1421,1415,1415,1415,1415,1415,1415,1415,1415,1415,1415,1415,1415,1415,1415,1415,1415,1415,1415,1410,1410,1415,1415,1415,1415,1415,1415,1415,1415,1415,1415,1415,1415,1410,1410,1415,1415,1415,1415,1415,1415,1415,1415,1410,1410,1410,1410,1410,1410,1410,1410,1410,1410,1410,1410,1410,1415,1415,1415,1415,1415,1415,1410,1410,1410,1410,1410,1410,1410,1410,1410,1404,1404,1404,1404,1404,1404,1404,1404,1404,1410,1410,1410,1410,1410,1410,1410,1410,1410,1404,1404,1404,1404,1404,1398,1398,1404,1404,1404,1398,1398,1398,1398,1398,1398,1398,1398,1398,1398,1392,1392,1392,1392,1392,1387,1387,1387,1387,1381,1381,1381,1381,1381,1376,1376,1376,1376,1376,1370,1370,1370,1365,1365,1365,1359,1359,1354,1354,1354,1349,1349,1343,1343,1343,1343,1338,1338,1338,1333,1333,1333,1328,1328,1328,1328,1328,1322,1317,1317,1312,1312,1312,1312,1312,1307,1307,1307,1302,1302,1302,1297,1297,1292,1292,1292,1288,1288,1288,1288,1283,1283,1278,1278,1273,1268,1149,1149,1145,1141,1138,1134,1130,1123,1119,1115,1112,1112,1105,1105,1097,1094,1094,1094,1090,1087,1087,1084,1084,1084,0,0,0,0,0,0,0,0,0,0,0,0,0,0,0,0,0,0,0,0,0,0,0,0,0,0,0,0,0,0,0,0
0,0,0,0,0,0,0,0,0,0,1427,1421,1415,1415,1415,1415,1415,1415,1415,1415,1415,1415,1421,1421,1421,1421,1421,1421,1421,1421,1421,1421,1415,1415,1415,1415,1415,1415,1410,1410,1410,1410,1415,1415,1415,1415,1415,1415,1421,1421,1415,1415,1415,1415,1421,1421,1421,1421,1421,1421,1415,1415,1415,1415,1415,1415,1415,1421,1421,1421,1427,1427,1421,1421,1421,1421,1421,1427,1427,1427,1427,1427,1427,1427,1421,1421,1421,1421,1421,1421,1421,1415,1415,1415,1415,1421,1421,1421,0,0,0,0,0,956,956,954,951,948,948,948,946,946,946,946,946,946,951,951,954,954,956,956,956,959,959,962,962,964,964,0,0,0,1445,1427,1421,1415,1415,1415,1415,1415,1415,1415,1415,1415,1415,1427,1427,1421,1421,1427,1427,1421,1421,1427,1427,1427,1427,1427,1427,1427,1427,1427,1427,1421,1421,1421,1421,1421,1421,1421,1421,1421,1421,1421,1421,1421,1427,1427,1427,1427,1421,1421,1415,1415,1415,1421,1421,1421,1421,1421,1421,1421,1421,1421,1421,1421,1421,1421,1427,1427,1427,1427,1433,1433,1433,1433,1433,1433,1433,1433,1149,1145,1145,1145,1145,1145,1145,1145,1141,1141,1141,1141,1145,0,0,0,0,0,0,0,0,0,697,697,697,697,697,696,694,694,691,690,688,687,686,686,684,683,683,683,683,683,683,684,687,688,688,690,691,693,696,697,698,700,701,700,700,0,0,0,0,0,0,0,0,1264,1264,1264,1268,1268,1268,1268,1268,1268,1268,1268,1415,1415,1415,1415,1415,1415,1415,1415,1415,1415,1415,1415,1415,1415,1415,1415,1415,1415,1415,1415,1415,1415,1415,1415,1415,1415,1415,1410,1410,1415,1415,1415,1415,1415,1415,1415,1415,1415,1415,1415,1415,1415,1415,1415,1415,1415,1415,1415,1415,1415,1415,1415,1415,1415,1415,1415,1415,1415,1415,1415,1415,1415,1415,1415,1415,1415,1415,1415,1415,1415,1415,1415,1415,1410,1410,1415,1415,1415,1415,1410,1410,1410,1410,0,0,0,0,0,1050,1044,1044,1041,1041,1038,1038,1034,1034,1031,1028,1028,1028,1028,1028,1031,1031,1031,1034,1038,1041,1041,1041,1041,1415,1415,1415,1410,1410,1410,1410,1410,1410,1410,1410,1410,1410,1410,1410,1410,1410,1410,1410,1410,1410,1410,1410,1410,1410,1410,1410,1410,1415,1415,1410,1410,1410,1410,1410,1410,1410,1410,1415,1415,1410,1410,1410,1410,1404,1404,1404,1404,1404,1404,1404,1404,1404,1404,1404,1404,1404,1404,1404,1410,1404,1404,1404,1404,1404,1410,1404,1404,1404,1404,1404,1404,1398,1398,1398,1398,1398,1398,1398,1398,1398,1398,1404,1404,1404,1404,1404,1404,1404,1404,1398,1398,1398,1398,1398,1398,1398,1398,1398,1398,1398,1398,1392,1392,1392,1392,1392,1392,1392,1392,1392,1392,1392,1392,1387,1387,1387,1387,1381,1381,1376,1376,1376,1376,1376,1376,1376,1376,1376,1370,1370,1370,1370,1365,1365,1359,1359,1354,1354,1354,1349,1349,1349,1343,1343,1343,1338,1338,1338,1333,1333,1328,1328,1328,1328,1328,1328,1322,1317,1317,1312,1312,1312,1312,1312,1312,1307,1307,1307,1302,1302,1302,1297,1297,1292,1292,1288,1288,1288,1288,1283,1283,1283,1278,1273,1153,1145,1145,1145,1141,1138,1134,1130,1123,1119,1115,1112,1108,1105,1101,1097,1094,1094,1094,1090,1090,1087,1087,1084,1084,0,0,0,0,0,0,0,0,0,0,0,0,0,0,0,0,0,0,0,0,0,0,0,0,0,0,0,0,0,0,0,0
0,0,0,0,0,0,0,0,0,0,1415,1415,1415,1410,1410,1410,1415,1415,1415,1415,1415,1415,1415,1415,1415,1415,1415,1415,1415,1415,1415,1415,1415,1415,1415,1415,1415,1410,1410,1410,1410,1410,1410,1415,1410,1410,1415,1415,1415,1415,1415,1415,1415,1415,1415,1415,1415,1415,1415,1415,1415,1415,1415,1415,1415,1415,1415,1415,1415,1415,1421,1421,1415,1415,1415,1415,1415,1415,1415,1415,1415,1421,1421,1421,1421,1415,1415,1415,1415,1415,1415,1415,1410,1410,1410,1410,1410,1421,0,0,0,0,0,956,956,954,951,951,948,948,946,946,946,946,946,946,951,951,954,954,956,959,959,962,964,964,964,964,964,0,0,0,0,1415,1415,1415,1410,1410,1410,1410,1410,1410,1410,1410,1410,1415,1410,1410,1421,1421,1415,1415,1415,1421,1421,1427,1427,1427,1427,1427,1427,1421,1421,1421,1415,1415,1415,1415,1415,1415,1415,1415,1415,1415,1415,1415,1415,1421,1421,1415,1415,1415,1415,1415,1415,1415,1415,1410,1410,1415,1415,1415,1415,1415,1415,1415,1415,1415,1421,1421,1421,1421,1427,1427,1427,1126,1126,1130,1134,1134,1138,1141,1141,1141,1141,1141,1141,1141,1141,1141,1141,1141,1145,1145,0,0,0,0,0,0,0,0,0,697,697,697,697,696,696,694,691,690,688,687,686,686,684,683,683,683,683,683,684,686,687,688,690,691,693,694,696,697,698,700,703,703,0,0,0,0,0,0,0,0,0,1264,1264,1264,1268,1268,1268,1268,1268,1268,1268,1268,1268,1415,1415,1415,1415,1410,1410,1410,1410,1415,1415,1415,1415,1415,1410,1410,1410,1410,1410,1410,1410,1410,1410,1410,1410,1410,1410,1410,1410,1415,1415,1415,1410,1410,1410,1410,1415,1410,1410,1410,1410,1410,1410,1410,1410,1410,1410,1404,1404,1404,1410,1410,1404,1404,1410,1410,1415,1415,1415,1415,1415,1415,1415,1415,1415,1415,1415,1415,1415,1410,1410,1410,1410,1410,1410,1410,1410,1410,1410,1404,1404,1404,1398,1398,0,0,0,0,1047,1047,1044,1044,1041,1038,1038,1034,1034,1034,1031,1028,1028,1028,1031,1031,1034,1034,1041,1041,1041,1041,1041,1041,1415,1415,1404,1404,1404,1404,1404,1404,1404,1404,1404,1404,1410,1410,1404,1404,1404,1404,1404,1404,1404,1404,1404,1404,1404,1404,1404,1404,1404,1404,1410,1404,1404,1404,1398,1398,1404,1404,1404,1410,1404,1404,1404,1404,1398,1398,1398,1398,1398,1398,1398,1398,1398,1398,1398,1398,1398,1398,1398,1404,1398,1398,1398,1398,1398,1398,1398,1398,1398,1398,1398,1398,1398,1398,1398,1398,1398,1398,1392,1392,1398,1398,1398,1398,1398,1398,1398,1398,1398,1398,1392,1392,1392,1392,1392,1392,1392,1392,1392,1392,1392,1392,1392,1392,1392,1392,1392,1392,1392,1392,1387,1387,1387,1387,1381,1381,1381,1381,1381,1376,1376,1376,1376,1376,1376,1376,1376,1376,1376,1370,1370,1370,1370,1365,1365,1359,1359,1354,1354,1354,1349,1349,1349,1343,1343,1343,1338,1338,1338,1333,1333,1328,1328,1328,1328,1328,1328,1322,1317,1317,1312,1312,1312,1312,1312,1312,1307,1307,1307,1302,1302,1302,1297,1297,1292,1292,1292,1292,1288,1288,1283,1283,1283,1278,1273,1153,1145,1145,1145,1141,1138,1134,1126,1123,1115,1115,1112,1105,1105,1101,1097,1094,1094,1094,1090,1090,1087,1087,1084,1084,0,0,0,0,0,0,0,0,0,0,0,0,0,0,0,0,0,0,0,0,0,0,0,0,0,0,0,0,0,0,0,0
0,0,0,0,0,0,0,0,0,0,1410,1410,1404,1404,1404,1404,1404,1410,1410,1410,1410,1410,1410,1410,1410,1410,1410,1410,1410,1410,1410,1410,1415,1410,1410,1410,1410,1410,1404,1404,1404,1404,1404,1410,1410,1410,1410,1410,1410,1410,1415,1415,1415,1410,1410,1415,1410,1410,1410,1410,1410,1410,1410,1410,1410,1410,1410,1415,1415,1415,1415,1415,1415,1415,1415,1415,1415,1410,1410,1415,1415,1410,1410,1415,1415,1415,1415,1415,1415,1415,1410,1410,1410,1410,1410,1410,1410,0,0,0,0,0,964,964,959,956,954,954,951,948,946,946,946,946,946,948,951,954,954,956,956,959,962,962,964,964,967,959,959,959,0,0,1404,1404,1404,1404,1410,1410,1410,1410,1410,1410,1410,1410,1410,1410,1410,1404,1404,1404,1404,1410,1410,1410,1410,1421,1421,1421,1421,1421,1421,1421,1415,1415,1415,1415,1415,1415,1415,1415,1415,1415,1415,1415,1415,1415,1415,1415,1415,1415,1415,1410,1410,1410,1410,1410,1410,1404,1404,1410,1410,1410,1410,1410,1415,1415,1415,1415,1415,1415,1421,1421,1427,1126,1126,1126,1126,1130,1134,1134,1134,1138,1138,1138,1138,1138,1138,1138,1138,1138,1138,1141,1141,1145,0,0,0,0,0,0,0,0,0,698,698,697,697,697,696,694,691,690,688,687,687,686,684,684,684,684,684,684,684,686,687,688,690,691,693,696,696,697,700,701,703,703,0,0,0,0,0,0,0,0,0,1264,1264,1264,1268,1268,1268,1268,1268,1268,1268,1268,1268,1410,1404,1404,1410,1410,1410,1410,1410,1410,1410,1410,1410,1410,1410,1410,1404,1404,1404,1404,1410,1410,1404,1404,1410,1410,1404,1404,1404,1410,1410,1410,1404,1404,1404,1404,1410,1404,1404,1404,1404,1404,1404,1404,1404,1404,1404,1404,1404,1404,1404,1404,1404,1404,1404,1404,1404,1404,1404,1404,1410,1410,1410,1410,1410,1410,1410,1410,1410,1404,1404,1404,1404,1398,1398,1404,1404,1404,1398,1398,1398,1392,1392,1392,0,0,0,0,1047,1047,1047,1044,1044,1041,1038,1038,1034,1034,1034,1028,1028,1031,1031,1031,1034,1038,1041,1041,1041,1041,1041,1041,1404,1398,1398,1398,1398,1398,1398,1398,1398,1398,1404,1404,1404,1404,1404,1404,1404,1398,1398,1398,1398,1398,1398,1398,1398,1398,1404,1404,1404,1404,1398,1398,1398,1398,1398,1398,1398,1398,1398,1398,1398,1398,1398,1398,1398,1392,1392,1398,1398,1398,1398,1398,1398,1398,1398,1398,1398,1398,1398,1398,1398,1398,1392,1392,1392,1392,1392,1392,1392,1392,1392,1392,1392,1392,1392,1392,1392,1392,1392,1392,1392,1392,1392,1392,1392,1398,1398,1392,1392,1392,1392,1387,1387,1387,1387,1387,1392,1392,1392,1392,1387,1387,1387,1387,1387,1387,1387,1387,1387,1387,1381,1381,1381,1381,1376,1376,1376,1376,1376,1376,1376,1376,1376,1376,1370,1370,1370,1370,1370,1370,1370,1370,1370,1365,1365,1359,1359,1354,1354,1354,1349,1349,1349,1349,1343,1343,1343,1338,1338,1333,1333,1333,1333,1328,1328,1328,1328,1322,1322,1317,1317,1317,1312,1312,1312,1312,1312,1307,1307,1307,1307,1302,1302,1302,1292,1292,1292,1292,1288,1288,1283,1283,1283,1278,1157,1153,1149,1145,1141,1141,1134,1130,1123,1119,1115,1115,1112,1105,1105,1101,1097,1094,1094,1094,1090,1090,1090,1087,1084,1084,0,0,0,0,0,0,0,0,0,0,0,0,0,0,0,0,0,0,0,0,0,0,0,0,0,0,0,0,0,0,0,0
0,0,0,0,0,0,0,0,0,0,1404,1404,1398,1398,1398,1398,1398,1398,1404,1404,1410,1404,1404,1404,1404,1404,1404,1404,1410,1410,1410,1410,1410,1410,1410,1410,1410,1410,1404,1404,1404,1404,1404,1404,1404,1404,1404,1410,1410,1410,1410,1410,1410,1410,1410,1410,1410,1410,1410,1410,1410,1410,1410,1410,1410,1410,1410,1410,1410,1410,1415,1410,1410,1410,1410,1410,1410,1410,1410,1410,1410,1410,1410,1410,1410,1410,1410,1410,1410,1410,1410,1410,1404,1404,1404,1404,1404,0,0,0,0,0,964,964,964,962,956,954,951,948,948,948,946,946,948,951,951,954,954,956,956,959,962,962,964,964,967,959,959,959,0,0,0,1398,1398,1398,1404,1404,1404,1404,1404,1404,1404,1398,1398,1404,1404,1398,1398,1398,1398,1404,1398,1398,1398,1404,1415,1415,1415,1415,1415,1415,1415,1410,1410,1410,1410,1410,1410,1410,1410,1410,1410,1415,1410,1410,1410,1410,1410,1410,1410,1410,1410,1404,1404,1404,1404,1404,1404,1404,1404,1404,1404,1410,1410,1410,1410,1410,1115,1115,1115,1119,1123,1123,1126,1126,1126,1130,1130,1130,1130,1134,1134,1138,1134,1134,1138,1138,1138,1138,1138,1138,1141,1145,0,0,0,0,0,0,0,0,0,700,698,698,698,698,697,696,693,691,690,688,687,687,686,684,684,684,684,684,684,686,687,688,690,691,693,697,697,698,700,701,703,703,704,0,0,0,0,0,0,0,0,1268,1268,1268,1268,1268,1268,1268,1268,1273,1268,1268,1273,1404,1398,1398,1398,1398,1404,1404,1404,1404,1404,1404,1404,1404,1404,1404,1398,1398,1398,1398,1398,1398,1398,1398,1404,1404,1404,1398,1398,1404,1404,1404,1404,1398,1398,1398,1404,1398,1398,1398,1398,1398,1398,1398,1398,1398,1398,1398,1398,1398,1398,1398,1398,1398,1398,1398,1398,1398,1398,1398,1398,1398,1398,1398,1404,1404,1404,1404,1404,1398,1398,1398,1398,1398,1398,1398,1398,1398,1392,1392,1392,1392,1387,1387,0,0,0,0,1050,1047,1047,1047,1044,1041,1038,1038,1034,1034,1034,1031,1031,1031,1031,1031,1034,1038,1041,1041,1041,1044,1044,1044,1404,1404,1398,1398,1398,1392,1392,1392,1392,1392,1392,1392,1392,1398,1398,1398,1398,1398,1398,1398,1398,1398,1398,1398,1398,1398,1398,1398,1398,1398,1398,1398,1398,1392,1392,1392,1392,1398,1398,1398,1398,1398,1398,1398,1392,1392,1392,1392,1392,1392,1392,1392,1392,1392,1392,1392,1392,1392,1392,1392,1392,1392,1392,1387,1387,1387,1387,1387,1387,1387,1387,1387,1387,1387,1387,1387,1387,1387,1387,1387,1387,1392,1392,1392,1392,1392,1392,1392,1387,1387,1387,1381,1381,1381,1381,1381,1387,1387,1387,1387,1387,1381,1381,1381,1381,1381,1381,1387,1381,1381,1376,1376,1376,1376,1376,1376,1376,1376,1376,1376,1376,1376,1376,1370,1370,1370,1370,1370,1370,1370,1365,1365,1365,1365,1365,1359,1359,1359,1354,1354,1354,1354,1349,1349,1349,1349,1343,1343,1338,1338,1333,1333,1333,1333,1328,1328,1328,1322,1322,1317,1317,1317,1312,1312,1312,1312,1312,1307,1307,1307,1307,1302,1302,1302,1292,1292,1292,1292,1288,1288,1283,1283,1283,1278,1153,1153,1149,1141,1138,1134,1130,1126,1123,1119,1115,1115,1112,1105,1105,1101,1097,1097,1094,1094,1090,1090,1090,1087,1084,1084,0,0,0,0,0,0,0,0,0,0,0,0,0,0,0,0,0,0,0,0,0,0,0,0,0,0,0,0,0,0,0,0
0,0,0,0,0,0,0,0,0,0,1404,1398,1398,1398,1392,1392,1392,1398,1398,1398,1398,1398,1398,1398,1398,1398,1392,1392,1398,1398,1404,1404,1410,1410,1410,1410,1410,1404,1404,1398,1398,1398,1404,1404,1398,1398,1404,1404,1404,1410,1410,1410,1410,1404,1404,1404,1404,1404,1404,1404,1404,1404,1404,1398,1398,1398,1398,1404,1404,1410,1410,1410,1404,1404,1404,1404,1404,1404,1404,1404,1404,1404,1404,1404,1398,1398,1404,1404,1404,1398,1398,1398,1398,1398,1392,1392,1398,0,0,0,0,0,0,964,964,962,956,956,954,951,951,951,948,948,948,951,954,954,956,956,959,962,962,964,964,964,967,959,959,959,0,0,1387,1387,1387,1387,1392,1392,1392,1392,1392,1392,1392,1392,1392,1398,1398,1398,1398,1398,1398,1398,1398,1392,1392,1398,1398,1404,1404,1404,1410,1410,1410,1410,1404,1404,1404,1404,1410,1410,1410,1410,1410,1410,1404,1392,1392,1392,1392,1392,1392,1404,1404,1398,1398,1398,1398,1398,1398,1398,1398,1398,1404,1404,1404,1410,1410,1115,1115,1115,1115,1119,1123,1123,1123,1126,1126,1126,1126,1126,1126,1130,1130,1130,1134,1134,1134,1134,1134,1134,1134,1134,1134,1145,0,0,0,0,0,0,0,0,0,0,700,700,698,698,698,697,693,693,691,688,687,687,686,686,686,686,686,686,686,686,687,688,690,691,693,696,697,698,700,704,704,704,704,0,0,0,0,0,0,0,0,1268,1268,1268,1268,1268,1268,1268,1273,1273,1273,1273,1273,1392,1392,1392,1392,1392,1398,1398,1398,1398,1398,1398,1398,1398,1398,1398,1398,1392,1392,1398,1398,1398,1398,1398,1398,1398,1398,1392,1392,1398,1398,1398,1398,1398,1398,1398,1398,1398,1398,1398,1398,1398,1398,1398,1398,1398,1398,1392,1392,1398,1398,1392,1392,1398,1398,1392,1392,1392,1392,1392,1392,1392,1392,1392,1392,1392,1392,1392,1398,1398,1392,1392,1392,1392,1392,1392,1392,1392,1392,1392,1387,1387,1387,1387,0,0,0,0,1047,1047,1047,1047,1044,1041,1041,1038,1038,1034,1034,1031,1031,1034,1031,1031,1034,1038,1044,1044,1044,1047,1050,1050,1398,1398,1398,1392,1392,1392,1392,1392,1387,1387,1387,1387,1387,1387,1387,1387,1387,1392,1392,1392,1392,1392,1392,1392,1392,1392,1392,1392,1392,1392,1392,1392,1392,1392,1392,1392,1392,1392,1392,1387,1387,1392,1392,1392,1387,1387,1387,1387,1387,1387,1387,1392,1392,1392,1392,1392,1392,1392,1387,1387,1387,1387,1387,1387,1387,1387,1387,1387,1387,1381,1381,1381,1381,1381,1381,1381,1381,1381,1381,1381,1387,1387,1387,1387,1387,1387,1387,1387,1387,1381,1381,1381,1376,1376,1376,1376,1381,1381,1381,1381,1381,1376,1376,1376,1376,1376,1376,1381,1376,1376,1376,1376,1376,1370,1370,1370,1370,1376,1376,1370,1370,1370,1370,1370,1370,1370,1370,1370,1370,1365,1365,1359,1359,1359,1354,1354,1354,1354,1354,1354,1354,1354,1349,1349,1349,1349,1343,1338,1338,1338,1333,1333,1333,1328,1328,1328,1328,1322,1322,1317,1317,1317,1317,1317,1312,1312,1312,1312,1307,1307,1307,1302,1302,1302,1297,1292,1292,1292,1292,1288,1288,1283,1283,1149,1149,1149,1145,1141,1134,1126,1126,1123,1119,1119,1115,1115,1112,1108,1105,1101,1101,1097,1097,1094,1094,1094,1090,1090,1090,1090,0,0,0,0,0,0,0,0,0,0,0,0,0,0,0,0,0,0,0,0,0,0,0,0,0,0,0,0,0,0,0,0
0,0,0,0,0,0,0,0,0,0,1398,1398,1392,1392,1387,1387,1392,1392,1392,1392,1392,1392,1392,1392,1392,1387,1387,1387,1392,1392,1392,1392,1398,1398,1398,1398,1398,1398,1392,1392,1392,1392,1398,1398,1398,1398,1398,1398,1398,1404,1404,1404,1404,1398,1398,1398,1398,1398,1398,1398,1398,1398,1398,1398,1398,1398,1398,1398,1398,1404,1404,1404,1404,1404,1404,1404,1404,1404,1404,1398,1398,1398,1398,1398,1392,1392,1398,1398,1398,1392,1392,1398,1392,1392,1387,1387,1392,0,0,0,0,0,0,964,964,962,959,959,956,954,954,954,951,951,951,954,954,956,956,956,959,962,962,964,964,967,967,967,967,967,0,1376,0,1381,1381,1381,1387,1387,1387,1392,1392,1392,1392,1392,1392,1392,1392,1392,1392,1392,1392,1392,1392,1392,1392,1392,1392,1398,1398,1398,1398,1398,1398,1398,1398,1398,1398,1398,1404,1404,1404,1404,1404,1404,1404,1392,1392,1387,1387,1392,1392,1392,1392,1392,1392,1392,1398,1392,1392,1392,1398,1398,1398,1398,1398,1112,1112,1112,1115,1115,1115,1119,1119,1119,1123,1123,1123,1123,1123,1123,1123,1126,1126,1126,1130,1130,1130,1134,1130,1130,1130,1130,1134,0,0,0,0,0,0,0,0,0,0,703,701,701,701,700,700,697,697,694,693,690,688,687,686,686,686,686,686,686,686,686,687,690,691,691,693,696,697,698,700,704,704,704,704,0,0,0,0,0,0,0,0,1268,1268,1268,1268,1268,1268,1268,1273,1273,1278,1278,1278,1392,1387,1387,1387,1387,1387,1387,1392,1392,1392,1392,1392,1392,1392,1392,1392,1392,1392,1392,1392,1392,1392,1392,1392,1392,1392,1387,1387,1392,1392,1392,1392,1392,1392,1392,1398,1398,1398,1398,1398,1398,1398,1398,1392,1392,1392,1392,1392,1392,1392,1387,1387,1387,1387,1387,1387,1392,1392,1392,1392,1392,1392,1392,1392,1387,1387,1387,1387,1387,1387,1392,1392,1392,1392,1392,1387,1387,1387,1381,1381,1381,1381,1381,0,0,0,0,1047,1047,1047,1047,1044,1044,1041,1038,1038,1038,1038,1034,1034,1034,1034,1034,1038,1041,1044,1047,1047,1050,1050,1050,1392,1392,1392,1387,1387,1387,1387,1387,1387,1381,1381,1381,1381,1381,1381,1381,1381,1381,1381,1381,1387,1387,1387,1387,1387,1387,1387,1392,1392,1392,1392,1392,1392,1387,1387,1387,1387,1387,1387,1387,1387,1387,1387,1387,1381,1381,1381,1387,1387,1387,1387,1387,1387,1387,1387,1387,1387,1387,1381,1381,1381,1387,1381,1381,1381,1381,1381,1381,1381,1381,1381,1376,1376,1376,1376,1376,1376,1376,1376,1376,1376,1381,1381,1381,1381,1381,1381,1381,1381,1381,1376,1376,1376,1376,1376,1376,1376,1376,1376,1376,1376,1376,1376,1376,1376,1376,1376,1376,1370,1370,1370,1370,1370,1370,1365,1365,1365,1370,1370,1370,1370,1370,1370,1370,1365,1365,1365,1365,1365,1365,1365,1359,1359,1359,1354,1354,1354,1354,1354,1354,1354,1354,1349,1349,1349,1349,1343,1338,1338,1338,1333,1333,1333,1328,1328,1328,1328,1322,1322,1322,1317,1317,1317,1317,1317,1312,1312,1312,1307,1307,1307,1307,1302,1302,1297,1292,1292,1292,1292,1288,1288,1283,1145,1145,1145,1145,1141,1138,1134,1126,1123,1123,1119,1119,1115,1115,1112,1105,1105,1105,1105,1101,1101,1097,1097,1094,1094,1094,1090,1090,0,0,0,0,0,0,0,0,0,0,0,0,0,0,0,0,0,0,0,0,0,0,0,0,0,0,0,0,0,0,0,0
0,0,0,0,0,0,0,0,0,0,1398,1392,1387,1387,1387,1387,1387,1387,1392,1392,1392,1392,1392,1387,1387,1387,1381,1381,1381,1381,1387,1387,1392,1392,1398,1392,1392,1392,1392,1392,1387,1387,1387,1392,1392,1392,1392,1392,1392,1392,1392,1398,1398,1392,1392,1392,1392,1392,1392,1392,1392,1392,1392,1392,1392,1392,1392,1392,1392,1392,1392,1398,1398,1398,1398,1398,1398,1398,1398,1398,1392,1392,1392,1392,1392,1392,1392,1392,1392,1392,1392,1392,1392,1387,1387,1381,1381,1381,0,0,0,0,0,964,964,962,962,959,956,956,954,954,954,954,954,954,954,956,956,959,959,962,962,964,964,967,967,967,967,967,0,1376,1376,1376,1376,1376,1381,1381,1381,1381,1381,1381,1381,1381,1387,1387,1392,1392,1392,1392,1392,1392,1392,1392,1392,1392,1392,1392,1392,1392,1392,1392,1392,1392,1392,1392,1392,1392,1398,1398,1398,1398,1398,1398,1398,1392,1392,1387,1387,1392,1392,1392,1392,1392,1392,1392,1392,1392,1392,1392,1392,1392,1392,1398,1108,1108,1112,1112,1112,1115,1115,1115,1119,1119,1119,1119,1119,1123,1123,1123,1123,1123,1123,1123,1123,1123,1126,1126,1126,1126,1126,1126,1126,0,0,0,0,0,0,0,0,0,0,703,701,701,701,701,700,698,697,694,693,691,690,687,687,686,686,686,686,686,686,687,687,690,691,693,696,696,697,698,700,704,704,704,704,0,0,0,0,0,0,0,0,1268,1268,1268,1273,1273,1273,1273,1273,1278,1278,1283,1283,1387,1387,1387,1387,1387,1387,1387,1387,1387,1387,1387,1387,1387,1387,1392,1392,1387,1387,1392,1392,1387,1387,1387,1387,1387,1387,1381,1381,1387,1387,1387,1392,1392,1392,1392,1392,1392,1392,1392,1392,1392,1392,1392,1392,1392,1392,1387,1387,1387,1381,1381,1381,1381,1381,1381,1381,1387,1387,1387,1387,1387,1387,1387,1387,1381,1381,1381,1381,1381,1381,1381,1381,1381,1387,1387,1381,1381,1381,1381,1376,1376,1376,1376,0,0,0,0,0,1050,1047,1047,1044,1044,1041,1038,1038,1038,1038,1038,1038,1038,1038,1038,1038,1041,1044,1047,1047,1047,1050,1050,1392,1392,1387,1387,1387,1381,1381,1381,1381,1376,1376,1376,1376,1376,1376,1376,1376,1376,1376,1376,1376,1376,1376,1376,1381,1381,1387,1387,1387,1387,1387,1387,1387,1381,1381,1381,1381,1381,1381,1381,1381,1381,1381,1381,1381,1376,1376,1381,1381,1381,1381,1381,1381,1387,1387,1381,1381,1381,1376,1376,1376,1376,1376,1376,1376,1376,1376,1376,1376,1376,1376,1376,1376,1376,1376,1376,1376,1376,1376,1376,1376,1376,1376,1376,1376,1376,1376,1376,1376,1376,1376,1376,1376,1376,1376,1376,1376,1376,1370,1370,1370,1370,1370,1370,1370,1370,1370,1370,1365,1365,1365,1365,1365,1365,1365,1365,1365,1365,1365,1365,1365,1365,1365,1365,1365,1365,1365,1365,1365,1359,1359,1354,1354,1354,1354,1354,1349,1349,1354,1354,1349,1349,1349,1349,1349,1343,1343,1338,1338,1333,1333,1333,1333,1333,1328,1328,1328,1328,1322,1322,1322,1322,1322,1317,1317,1317,1312,1312,1312,1307,1307,1307,1307,1302,1297,1297,1292,1292,1292,1288,1288,1283,1138,1138,1141,1141,1138,1134,1130,1126,1123,1123,1119,1119,1115,1115,1112,1105,1105,1105,1105,1101,1101,1097,1097,1097,1094,1094,1094,1094,0,0,0,0,0,0,0,0,0,0,0,0,0,0,0,0,0,0,0,0,0,0,0,0,0,0,0,0,0,0,0,0
0,0,0,0,0,0,0,0,0,0,1392,1387,1387,1387,1387,1387,1387,1387,1387,1387,1387,1387,1387,1387,1381,1381,1381,1381,1376,1376,1376,1387,1387,1387,1392,1392,1392,1392,1387,1387,1387,1387,1387,1387,1387,1387,1387,1392,1392,1392,1392,1392,1392,1392,1392,1392,1392,1392,1392,1392,1392,1392,1392,1392,1392,1387,1387,1387,1387,1392,1392,1392,1392,1392,1392,1392,1392,1392,1392,1392,1392,1392,1392,1387,1387,1387,1392,1392,1387,1387,1387,1387,1387,1387,1381,1370,1365,1365,1365,0,0,0,0,964,964,964,962,959,959,956,954,954,954,954,954,954,954,956,956,959,959,959,962,964,964,967,967,967,0,0,0,1376,1376,1376,1376,1376,1381,1381,1381,1381,1381,1381,1381,1381,1387,1387,1387,1387,1387,1387,1387,1387,1387,1387,1387,1387,1387,1387,1387,1387,1387,1387,1392,1392,1392,1387,1387,1387,1387,1387,1387,1387,1392,1392,1387,1387,1387,1387,1387,1387,1387,1387,1387,1387,1387,1387,1392,1392,1392,1392,1392,1392,1108,1108,1108,1108,1108,1112,1112,1112,1115,1115,1115,1119,1119,1119,1119,1119,1119,1119,1119,1119,1119,1123,1119,1119,1123,1123,1126,1126,1126,1126,1126,0,0,0,0,0,0,0,0,0,0,0,703,703,701,701,700,698,698,697,694,693,691,688,687,687,687,686,686,686,686,687,687,690,693,693,696,697,697,700,701,704,704,704,704,0,0,0,0,0,0,0,0,1278,1273,1273,1273,1273,1273,1273,1273,1278,1283,1283,1283,1381,1381,1381,1381,1381,1381,1381,1381,1381,1381,1376,1376,1381,1381,1387,1387,1387,1387,1387,1387,1387,1387,1381,1381,1381,1381,1376,1376,1387,1387,1387,1387,1387,1387,1392,1392,1392,1392,1387,1387,1387,1387,1387,1387,1387,1387,1381,1381,1381,1381,1376,1376,1376,1376,1376,1376,1376,1381,1381,1381,1381,1381,1381,1376,1376,1376,1376,1376,1376,1376,1376,1376,1376,1376,1376,1376,1376,1376,1376,1376,1376,1370,1370,1376,0,0,0,0,0,1050,1050,1047,1044,1041,1041,1041,1038,1038,1038,1038,1038,1038,1038,1038,1041,1044,1047,1047,1047,1050,1050,1381,1381,1381,1381,1381,1376,1376,1376,1376,1376,1376,1370,1370,1370,1370,1370,1370,1370,1370,1370,1370,1376,1376,1376,1370,1370,1376,1376,1376,1381,1381,1381,1381,1381,1381,1381,1376,1376,1376,1376,1376,1376,1376,1376,1376,1376,1376,1376,1376,1376,1376,1376,1376,1376,1376,1376,1376,1376,1376,1376,1376,1376,1370,1370,1376,1376,1370,1370,1370,1370,1370,1370,1370,1370,1370,1370,1370,1370,1370,1370,1370,1370,1370,1370,1370,1370,1370,1376,1376,1370,1370,1370,1370,1370,1370,1370,1370,1370,1370,1370,1370,1365,1365,1365,1365,1365,1365,1365,1359,1359,1365,1365,1359,1359,1359,1359,1359,1359,1359,1359,1359,1359,1359,1359,1359,1359,1359,1359,1359,1354,1354,1354,1354,1354,1349,1349,1349,1349,1349,1349,1349,1349,1349,1349,1343,1343,1343,1338,1338,1333,1333,1333,1333,1333,1328,1328,1328,1328,1328,1322,1322,1322,1322,1317,1317,1312,1312,1312,1312,1307,1307,1307,1307,1302,1302,1302,1297,1292,1292,1288,1288,1283,1138,1138,1138,1138,1134,1134,1130,1126,1123,1119,1119,1115,1115,1112,1112,1105,1105,1105,1105,1101,1101,1101,1101,1101,1101,1101,1101,1101,0,0,0,0,0,0,0,0,0,0,0,0,0,0,0,0,0,0,0,0,0,0,0,0,0,0,0,0,0,0,0,0
0,0,0,0,0,0,0,0,0,0,1387,1381,1381,1381,1387,1387,1387,1387,1387,1387,1387,1381,1381,1381,1381,1381,1376,1376,1376,1376,1376,1381,1381,1381,1387,1387,1387,1387,1387,1387,1381,1381,1381,1381,1387,1387,1387,1387,1387,1387,1387,1387,1387,1387,1387,1387,1387,1387,1392,1392,1387,1387,1387,1387,1387,1387,1387,1387,1387,1387,1387,1387,1387,1387,1387,1387,1387,1387,1387,1387,1387,1387,1387,1387,1387,1387,1387,1381,1381,1387,1387,1387,1387,1387,1370,1365,1365,1365,1365,0,0,0,0,967,967,967,962,962,959,956,956,956,954,954,954,954,954,956,956,959,959,959,962,964,964,967,967,970,0,0,0,1376,1376,1376,1376,1376,1381,1381,1381,1381,1381,1381,1376,1376,1381,1387,1387,1387,1387,1387,1387,1387,1387,1387,1387,1387,1387,1387,1387,1387,1387,1387,1387,1387,1387,1387,1387,1387,1381,1381,1387,1381,1381,1381,1381,1381,1381,1381,1387,1387,1387,1387,1387,1387,1387,1387,1392,1387,1387,1392,1105,1105,1105,1105,1105,1108,1108,1108,1108,1112,1112,1112,1115,1115,1119,1119,1119,1119,1119,1119,1119,1119,1119,1119,1119,1119,1119,1119,1119,1119,1119,1119,1126,0,0,0,0,0,0,0,0,0,0,0,703,703,703,701,700,698,698,697,694,693,691,690,688,687,687,687,687,687,687,687,688,690,693,694,696,697,698,700,703,704,704,704,704,0,0,0,0,0,0,0,0,1278,1273,1273,1273,1273,1273,1273,1273,1278,1283,1283,1283,1381,1376,1376,1376,1376,1376,1376,1376,1376,1376,1376,1376,1376,1376,1376,1381,1381,1381,1387,1381,1381,1381,1376,1376,1376,1376,1376,1376,1376,1376,1381,1381,1381,1387,1387,1387,1387,1387,1387,1387,1387,1387,1387,1387,1387,1381,1381,1381,1381,1376,1376,1376,1376,1376,1376,1376,1376,1376,1376,1376,1376,1376,1376,1376,1376,1376,1376,1376,1376,1376,1376,1376,1376,1376,1376,1376,1376,1376,1370,1370,1370,1370,1370,1370,0,0,0,0,0,1050,1050,1047,1044,1041,1041,1041,1038,1038,1038,1038,1038,1038,1038,1041,1041,1044,1047,1050,1050,1050,1050,1376,1376,1376,1376,1376,1376,1376,1370,1370,1370,1370,1370,1370,1370,1370,1370,1365,1365,1365,1370,1370,1370,1370,1370,1365,1365,1365,1365,1365,1370,1376,1376,1376,1376,1376,1376,1376,1376,1376,1376,1370,1370,1370,1376,1376,1376,1370,1370,1376,1376,1376,1376,1376,1376,1376,1370,1370,1370,1370,1370,1370,1370,1370,1370,1370,1370,1370,1370,1370,1370,1370,1365,1365,1365,1365,1365,1370,1370,1370,1370,1365,1365,1365,1365,1365,1365,1365,1365,1365,1365,1365,1370,1370,1370,1370,1365,1365,1365,1365,1365,1365,1359,1359,1359,1359,1359,1359,1359,1354,1354,1359,1359,1354,1354,1354,1354,1354,1354,1354,1359,1359,1359,1359,1354,1354,1354,1354,1354,1354,1354,1349,1349,1349,1349,1349,1349,1349,1349,1349,1349,1349,1349,1349,1349,1343,1343,1338,1338,1338,1333,1333,1333,1333,1333,1333,1328,1328,1328,1328,1328,1322,1322,1322,1317,1317,1312,1312,1312,1312,1307,1307,1307,1307,1302,1302,1302,1297,1292,1292,1288,1288,1283,1138,1138,1138,1138,1134,1134,1130,1126,1123,1119,1119,1115,1115,1112,1112,1108,1105,1105,1105,1105,1105,1108,1108,1105,1105,1105,1105,1105,0,0,0,0,0,0,0,0,0,0,0,0,0,0,0,0,0,0,0,0,0,0,0,0,0,0,0,0,0,0,0,0
0,0,0,0,0,0,0,0,0,1381,1381,1381,1381,1381,1381,1387,1381,1381,1381,1381,1381,1381,1381,1376,1376,1376,1370,1370,1370,1370,1370,1370,1376,1376,1376,1376,1381,1387,1381,1381,1376,1376,1376,1381,1381,1376,1376,1381,1381,1381,1381,1381,1381,1387,1387,1387,1387,1387,1387,1387,1387,1387,1387,1387,1381,1381,1381,1381,1381,1381,1381,1381,1387,1387,1381,1381,1381,1381,1381,1381,1381,1381,1381,1381,1381,1381,1381,1376,1376,1376,1381,1387,1381,1381,1370,1365,1365,1365,1365,0,0,0,0,0,973,967,962,962,962,959,956,956,956,956,956,956,956,956,956,959,959,962,962,964,967,967,967,967,0,0,1376,1376,1376,1376,1376,1376,1376,1376,1376,1376,1376,1376,1376,1376,1376,1381,1381,1381,1381,1381,1381,1381,1381,1381,1381,1381,1381,1381,1381,1381,1381,1381,1381,1381,1381,1381,1381,1381,1376,1376,1381,1381,1376,1376,1376,1376,1376,1376,1376,1381,1381,1381,1381,1381,1381,1381,1381,1094,1094,1097,1101,1101,1101,1101,1105,1105,1105,1108,1108,1108,1112,1112,1115,1115,1115,1119,1119,1119,1119,1119,1119,1119,1119,1119,1119,1119,1115,1115,1112,1108,1108,1108,1108,0,0,0,0,0,0,0,0,0,0,0,704,703,703,701,700,698,698,697,694,693,691,691,690,688,688,687,687,687,687,688,690,691,694,696,696,697,698,700,703,704,706,706,706,0,0,0,0,0,0,0,0,1278,1273,1273,1273,1273,1278,1278,1278,1283,1283,1283,1283,1381,1376,1370,1370,1370,1370,1376,1376,1370,1370,1370,1370,1370,1370,1370,1376,1376,1376,1376,1376,1370,1370,1376,1376,1376,1370,1370,1370,1376,1376,1376,1376,1376,1376,1381,1381,1381,1381,1381,1381,1376,1376,1376,1376,1376,1376,1376,1376,1376,1376,1370,1370,1370,1370,1370,1370,1370,1370,1370,1376,1376,1376,1376,1370,1370,1370,1370,1370,1370,1370,1370,1370,1370,1370,1370,1370,1370,1370,1370,1370,1365,1359,1359,1365,0,1354,0,0,0,1054,1050,1047,1047,1044,1041,1041,1041,1038,1038,1038,1038,1038,1038,1041,1041,1044,1050,1050,1050,1050,1050,1370,1370,1370,1370,1370,1370,1370,1370,1370,1370,1365,1365,1365,1365,1365,1365,1365,1359,1359,1365,1365,1365,1359,1359,1359,1359,1359,1359,1359,1365,1365,1365,1370,1370,1376,1376,1376,1370,1370,1370,1370,1370,1370,1370,1370,1370,1370,1370,1370,1370,1370,1370,1370,1370,1370,1370,1365,1365,1365,1365,1365,1365,1365,1365,1365,1365,1365,1365,1365,1365,1365,1365,1365,1365,1359,1359,1359,1359,1359,1365,1359,1359,1359,1359,1359,1365,1365,1365,1365,1365,1365,1365,1359,1359,1365,1359,1359,1359,1359,1359,1359,1359,1359,1359,1359,1354,1354,1354,1354,1354,1354,1354,1354,1354,1354,1354,1354,1354,1354,1354,1354,1354,1354,1354,1354,1354,1354,1354,1349,1349,1349,1349,1349,1349,1349,1349,1349,1349,1349,1349,1349,1343,1343,1343,1343,1338,1338,1333,1333,1333,1333,1333,1333,1333,1333,1333,1328,1328,1328,1328,1328,1328,1328,1322,1317,1312,1312,1312,1312,1307,1307,1307,1307,1302,1302,1302,1297,1297,1292,1292,1288,1283,1138,1138,1138,1138,1134,1134,1130,1126,1123,1119,1119,1115,1112,1112,1108,1105,1105,1108,1108,1108,1108,1108,1112,1112,1108,1105,1105,1105,0,0,0,0,0,0,0,0,0,0,0,0,0,0,0,0,0,0,0,0,0,0,0,0,0,0,0,0,0,0,0,0
0,0,0,0,0,0,0,0,0,1376,1376,1376,1376,1376,1381,1381,1381,1381,1376,1376,1376,1376,1376,1376,1376,1370,1370,1370,1370,1365,1365,1370,1370,1370,1376,1376,1381,1381,1376,1376,1376,1370,1370,1370,1370,1370,1370,1376,1376,1376,1376,1381,1381,1381,1381,1381,1381,1387,1387,1387,1381,1381,1381,1381,1376,1376,1376,1376,1376,1376,1376,1376,1381,1381,1376,1376,1376,1376,1376,1376,1376,1376,1376,1376,1376,1376,1376,1376,1376,1376,1376,1381,1376,1376,1365,1365,1365,1370,1370,0,0,0,0,0,973,967,962,962,962,959,956,956,956,956,956,956,956,956,956,959,959,962,962,964,967,967,967,967,967,0,1376,1376,1376,1376,1376,1376,1370,1370,1370,1376,1370,1370,1370,1370,1370,1376,1376,1376,1376,1376,1376,1376,1376,1376,1376,1376,1376,1376,1376,1376,1376,1370,1370,1370,1376,1376,1376,1376,1376,1376,1376,1376,1376,1376,1376,1376,1376,1376,1376,1376,1381,1376,1090,1090,1090,1090,1094,1094,1094,1097,1101,1101,1101,1101,1101,1101,1105,1105,1108,1108,1108,1112,1112,1115,1115,1115,1119,1119,1119,1119,1119,1119,1119,1119,1115,1115,1115,1112,1108,1108,1105,1105,1105,1105,0,0,0,0,0,0,0,0,0,0,704,704,704,703,701,700,700,698,694,693,693,691,690,688,688,687,687,687,688,688,690,693,694,696,697,697,698,700,704,704,706,707,707,708,0,0,0,0,0,0,0,1283,1283,1278,1278,1278,1278,1278,1278,1283,1283,1283,1288,1288,1370,1365,1365,1365,1370,1370,1370,1370,1370,1370,1370,1370,1370,1370,1365,1365,1365,1370,1370,1370,1370,1370,1370,1370,1370,1370,1370,1370,1370,1370,1370,1370,1376,1376,1376,1376,1376,1376,1376,1376,1376,1376,1376,1376,1376,1370,1370,1370,1370,1370,1370,1370,1370,1370,1370,1370,1370,1370,1370,1370,1370,1370,1370,1370,1370,1365,1365,1365,1365,1365,1370,1370,1370,1370,1370,1365,1365,1365,1359,1359,1354,1354,1354,1354,0,0,0,0,1054,1050,1050,1047,1044,1041,1041,1041,1041,1038,1038,1038,1038,1041,1041,1044,1050,1050,1050,1050,1054,1054,1370,1370,1370,1365,1365,1365,1365,1365,1365,1365,1365,1365,1365,1365,1365,1365,1365,1359,1359,1365,1365,1359,1359,1359,1359,1354,1354,1354,1354,1359,1359,1359,1359,1365,1365,1365,1359,1359,1365,1365,1365,1365,1365,1365,1365,1365,1359,1359,1365,1365,1359,1359,1359,1359,1359,1365,1359,1359,1359,1359,1359,1359,1359,1359,1359,1359,1359,1359,1359,1359,1359,1359,1359,1359,1359,1354,1354,1359,1359,1354,1354,1354,1354,1354,1354,1354,1354,1354,1354,1354,1354,1359,1359,1354,1354,1354,1354,1354,1354,1354,1354,1354,1354,1354,1354,1349,1349,1349,1349,1349,1349,1349,1349,1349,1349,1349,1349,1349,1349,1354,1354,1354,1354,1349,1349,1349,1349,1349,1349,1349,1349,1349,1349,1343,1343,1343,1343,1343,1343,1343,1343,1343,1343,1343,1338,1338,1333,1333,1333,1333,1333,1333,1333,1333,1333,1328,1328,1328,1328,1328,1328,1328,1328,1322,1317,1312,1312,1312,1312,1307,1307,1307,1307,1307,1307,1302,1302,1297,1292,1292,1288,1288,1138,1138,1134,1134,1134,1130,1130,1126,1123,1119,1119,1115,1112,1112,1108,1105,1105,1108,1108,1108,1112,1119,1123,1115,1108,1108,1105,1105,0,0,0,0,0,0,0,0,0,0,0,0,0,0,0,0,0,0,0,0,0,0,0,0,0,0,0,0,0,0,0,0
0,0,0,0,0,0,0,0,0,1370,1370,1370,1370,1370,1376,1376,1376,1376,1370,1370,1376,1376,1376,1370,1370,1370,1370,1370,1370,1365,1365,1365,1365,1365,1365,1370,1370,1376,1376,1376,1376,1370,1370,1370,1370,1370,1370,1370,1370,1370,1370,1370,1370,1376,1376,1376,1376,1376,1381,1381,1376,1376,1376,1376,1370,1370,1370,1370,1370,1370,1370,1370,1376,1370,1370,1370,1370,1370,1370,1370,1370,1370,1370,1370,1370,1370,1376,1370,1370,1376,1376,1381,1370,1370,1365,1354,1354,1365,1365,0,0,0,0,0,975,967,967,962,962,959,959,956,956,956,956,956,956,956,959,959,959,962,964,967,967,967,967,970,0,0,0,1370,1370,1370,1370,1370,1370,1370,1370,1370,1370,1370,1370,1370,1370,1370,1370,1370,1370,1370,1376,1376,1370,1370,1370,1370,1370,1370,1370,1370,1370,1370,1370,1370,1370,1370,1370,1370,1370,1370,1370,1370,1370,1370,1370,1370,1370,1370,1090,1090,1090,1090,1090,1090,1090,1090,1094,1094,1097,1097,1101,1101,1101,1101,1101,1101,1105,1105,1108,1108,1108,1112,1112,1112,1115,1115,1119,1119,1119,1119,1119,1119,1119,1115,1115,1115,1115,1112,1108,1108,1105,1105,1105,1105,1105,0,0,0,0,0,0,0,0,0,704,704,704,703,701,701,700,698,696,694,693,693,691,690,690,688,688,688,688,690,691,693,696,696,697,698,700,700,704,704,706,707,707,708,0,0,0,0,0,0,0,0,0,1278,1278,1278,1278,1278,1278,1283,1288,1288,1288,1288,1365,1365,1365,1365,1365,1365,1365,1365,1365,1365,1365,1365,1365,1365,1365,1359,1359,1359,1359,1365,1365,1365,1365,1365,1365,1365,1365,1370,1370,1370,1370,1370,1370,1370,1370,1370,1370,1370,1370,1370,1370,1370,1370,1370,1370,1370,1370,1370,1370,1370,1370,1370,1370,1370,1370,1365,1365,1365,1365,1365,1365,1365,1365,1365,1365,1365,1365,1365,1365,1365,1365,1365,1365,1365,1365,1365,1365,1365,1359,1354,1354,1354,1354,1354,1354,1349,0,0,1054,1050,1050,1047,1044,1044,1041,1041,1041,1041,1041,1041,1041,1041,1044,1044,1050,1050,1050,1054,1054,1054,1359,1359,1359,1359,1359,1359,1359,1359,1359,1359,1359,1359,1359,1359,1359,1359,1359,1354,1354,1359,1354,1354,1354,1354,1354,1354,1354,1354,1354,1354,1354,1354,1354,1359,1359,1359,1359,1354,1354,1359,1359,1359,1359,1359,1359,1359,1359,1359,1359,1359,1354,1354,1354,1354,1354,1359,1354,1354,1354,1354,1354,1354,1354,1354,1354,1354,1354,1354,1354,1354,1354,1354,1354,1354,1354,1354,1354,1354,1354,1354,1354,1354,1354,1349,1349,1349,1349,1349,1349,1349,1354,1354,1354,1354,1354,1349,1349,1349,1349,1349,1354,1354,1354,1354,1349,1349,1349,1349,1343,1343,1343,1343,1343,1343,1343,1343,1343,1349,1349,1349,1349,1349,1349,1349,1349,1349,1349,1343,1343,1343,1343,1343,1343,1338,1338,1338,1343,1338,1338,1338,1338,1338,1338,1338,1333,1333,1333,1333,1333,1333,1333,1333,1333,1333,1333,1328,1328,1328,1328,1328,1328,1328,1328,1322,1322,1312,1312,1312,1312,1307,1307,1307,1307,1307,1307,1302,1302,1297,1292,1292,1292,1283,1138,1138,1134,1134,1134,1130,1130,1126,1123,1119,1119,1115,1115,1108,1108,1105,1105,1108,1108,1115,1119,1123,1123,1119,1112,1108,1105,1105,0,0,0,0,0,0,0,0,0,0,0,0,0,0,0,0,0,0,0,0,0,0,0,0,0,0,0,0,0,0,0,0
0,0,0,0,0,0,0,0,0,1365,1365,1365,1370,1370,1370,1370,1370,1370,1370,1370,1370,1370,1370,1370,1370,1370,1365,1365,1365,1365,1365,1359,1359,1359,1359,1354,1354,1365,1370,1370,1365,1365,1365,1365,1365,1365,1365,1365,1370,1370,1365,1365,1365,1365,1365,1365,1370,1370,1370,1370,1370,1370,1370,1370,1365,1365,1365,1365,1365,1365,1365,1365,1370,1370,1370,1370,1370,1370,1370,1370,1365,1365,1365,1365,1370,1370,1370,1370,1370,1370,1365,1365,1370,1370,1365,1354,1354,1365,1359,1359,0,0,0,0,0,970,967,964,962,962,959,956,956,956,956,956,956,956,959,959,959,962,964,964,967,967,967,970,0,0,0,1370,1370,1370,1370,1370,1370,1365,1365,1370,1370,1370,1370,1370,1370,1370,1370,1370,1365,1365,1370,1370,1370,1365,1365,1365,1365,1365,1365,1365,1365,1365,1365,1365,1365,1365,1365,1365,1370,1370,1370,1370,1370,1370,1370,1084,1084,1087,1087,1090,1090,1090,1090,1090,1090,1090,1094,1094,1097,1097,1097,1101,1101,1101,1101,1101,1105,1105,1105,1105,1108,1108,1112,1112,1115,1115,1115,1119,1119,1119,1119,1119,1115,1115,1115,1112,1112,1112,1108,1105,1101,1101,1101,1101,1101,0,0,0,0,0,0,0,0,0,0,704,704,703,703,701,700,698,696,694,694,693,691,690,690,690,688,688,688,690,691,694,696,697,697,698,700,701,704,704,706,707,708,708,0,0,0,0,0,0,0,0,0,1283,1283,1283,1283,1283,1283,1283,1288,1288,1292,1292,1365,1359,1359,1359,1365,1365,1365,1365,1365,1365,1359,1359,1359,1359,1359,1359,1354,1354,1354,1359,1359,1359,1359,1359,1359,1359,1359,1365,1365,1359,1359,1365,1365,1365,1365,1365,1365,1365,1365,1359,1359,1359,1359,1359,1359,1359,1359,1365,1365,1365,1365,1365,1365,1365,1365,1365,1365,1359,1359,1359,1359,1359,1365,1365,1365,1359,1359,1359,1359,1359,1359,1359,1359,1359,1359,1359,1354,1354,1354,1354,1349,1349,1349,1349,1349,1349,0,1054,1054,1054,1050,1050,1047,1044,1044,1044,1041,1041,1041,1041,1041,1041,1044,1044,1050,1050,1050,1054,1054,1054,1354,1359,1359,1354,1354,1354,1354,1354,1354,1354,1354,1354,1354,1354,1354,1354,1354,1354,1354,1354,1354,1354,1354,1354,1354,1354,1354,1354,1354,1354,1354,1354,1354,1354,1354,1354,1354,1349,1349,1349,1349,1349,1354,1354,1354,1359,1354,1354,1354,1354,1354,1349,1349,1349,1349,1354,1349,1349,1349,1349,1349,1349,1349,1349,1349,1349,1354,1354,1354,1349,1349,1349,1354,1354,1354,1354,1354,1354,1349,1349,1349,1349,1349,1343,1343,1343,1343,1343,1343,1349,1349,1349,1349,1349,1349,1349,1349,1349,1349,1343,1343,1343,1349,1349,1349,1343,1343,1343,1343,1338,1338,1338,1338,1338,1338,1338,1343,1343,1343,1343,1343,1343,1343,1343,1343,1343,1343,1338,1338,1338,1343,1343,1338,1338,1338,1338,1338,1338,1338,1333,1333,1333,1328,1328,1328,1328,1328,1328,1328,1328,1328,1333,1328,1328,1328,1328,1328,1328,1328,1328,1328,1328,1322,1322,1322,1312,1312,1312,1312,1312,1307,1307,1307,1307,1307,1302,1302,1297,1292,1292,1292,1283,1283,1138,1134,1134,1134,1130,1130,1126,1123,1119,1119,1115,1112,1108,1108,1105,1105,1108,1108,1119,1119,1119,1119,1115,1112,1108,1105,1105,0,0,0,0,0,0,0,0,0,0,0,0,0,0,0,0,0,0,0,0,0,0,0,0,0,0,0,0,0,0,0,0
0,0,0,0,0,0,0,0,0,1365,1365,1365,1365,1365,1365,1370,1365,1365,1365,1365,1365,1365,1365,1365,1365,1365,1365,1365,1359,1359,1359,1354,1354,1354,1354,1354,1354,1359,1365,1365,1365,1365,1365,1365,1365,1365,1365,1365,1365,1365,1365,1359,1354,1354,1354,1354,1354,1354,1365,1365,1365,1365,1365,1365,1365,1365,1359,1359,1365,1359,1359,1359,1359,1365,1365,1365,1365,1365,1365,1365,1365,1359,1359,1359,1365,1365,1365,1365,1365,1365,1365,1365,1370,1370,1365,1349,1349,1365,1359,1359,0,0,0,0,0,0,967,964,964,962,962,959,959,959,956,956,956,956,959,959,959,962,964,964,967,967,967,970,0,970,0,1370,1370,1370,1370,1365,1365,1365,1365,1365,1365,1365,1365,1365,1365,1365,1365,1365,1365,1365,1365,1365,1365,1365,1359,1359,1359,1359,1365,1359,1359,1359,1359,1359,1365,1365,1365,1365,1365,1365,1370,1077,1077,1080,1080,1080,1080,1084,1087,1087,1090,1090,1090,1090,1090,1090,1090,1090,1090,1090,1094,1094,1097,1097,1097,1101,1101,1105,1105,1105,1105,1108,1108,1112,1115,1115,1115,1119,1119,1119,1119,1119,1115,1115,1115,1112,1112,1108,1105,1105,1101,1101,1101,1101,1101,0,0,0,0,0,0,0,0,0,707,704,704,706,704,703,701,698,696,696,694,693,693,691,691,690,690,690,690,691,693,694,696,697,698,698,700,703,704,704,707,708,710,710,0,0,0,0,0,0,0,0,0,1283,1283,1283,1283,1283,1283,1283,1288,1292,1297,1297,1349,1349,1354,1359,1359,1359,1359,1359,1359,1359,1359,1354,1354,1354,1354,1354,1349,1349,1354,1354,1354,1354,1354,1354,1354,1354,1359,1359,1354,1354,1354,1354,1359,1359,1359,1365,1365,1359,1359,1359,1354,1354,1354,1354,1359,1359,1359,1359,1359,1359,1359,1359,1359,1359,1359,1359,1354,1354,1354,1354,1354,1359,1359,1359,1359,1354,1354,1354,1354,1354,1354,1354,1354,1354,1354,1354,1354,1349,1349,1349,1349,1349,1349,1349,1349,1349,0,0,1054,1054,1050,1050,1050,1047,1047,1044,1041,1041,1041,1041,1041,1044,1044,1047,1050,1050,1054,1054,1057,1057,1354,1354,1354,1354,1354,1354,1354,1349,1349,1349,1354,1349,1349,1349,1349,1349,1349,1349,1349,1349,1349,1349,1349,1349,1349,1349,1349,1349,1349,1349,1349,1349,1349,1349,1349,1349,1349,1349,1349,1349,1349,1349,1349,1349,1349,1349,1349,1349,1349,1349,1349,1349,1349,1349,1349,1349,1349,1349,1349,1349,1349,1349,1349,1349,1349,1349,1349,1349,1349,1349,1349,1349,1349,1349,1349,1349,1349,1349,1343,1343,1343,1343,1338,1338,1338,1338,1338,1338,1338,1338,1343,1343,1343,1343,1343,1343,1343,1343,1343,1338,1338,1343,1343,1343,1338,1338,1338,1338,1338,1338,1338,1333,1333,1333,1333,1333,1338,1338,1338,1338,1338,1338,1338,1338,1338,1338,1343,1338,1338,1338,1338,1338,1338,1338,1333,1333,1338,1333,1333,1333,1333,1328,1328,1328,1328,1328,1328,1328,1328,1328,1328,1328,1328,1328,1328,1328,1328,1328,1328,1322,1322,1322,1322,1322,1322,1317,1317,1312,1312,1312,1307,1307,1307,1307,1307,1302,1302,1297,1297,1292,1292,1288,1288,1138,1134,1134,1134,1130,1130,1126,1123,1119,1119,1112,1108,1108,1108,1108,1108,1108,1115,1119,1119,1119,1119,1115,1108,1105,1097,1097,0,0,0,0,0,0,0,0,0,0,0,0,0,0,0,0,0,0,0,0,0,0,0,0,0,0,0,0,0,0,0,0
0,0,0,0,0,0,0,0,0,1359,1359,1359,1359,1359,1359,1359,1359,1359,1365,1365,1365,1365,1365,1365,1365,1359,1359,1359,1354,1354,1354,1354,1354,1354,1354,1349,1349,1354,1349,1349,1354,1359,1359,1359,1359,1359,1359,1365,1365,1365,1359,1349,1349,1349,1349,1349,1349,1349,1349,1354,1359,1359,1359,1359,1359,1359,1359,1354,1354,1354,1354,1354,1354,1359,1359,1359,1359,1359,1359,1359,1359,1359,1359,1359,1359,1359,1359,1359,1359,1359,1359,1365,1365,1365,1349,1349,1349,1354,1354,1359,0,0,0,0,0,0,967,964,964,962,962,962,959,959,956,956,959,959,959,959,959,962,964,967,967,967,967,970,970,970,970,1370,1370,1370,1365,1354,1354,1359,1359,1359,1365,1365,1365,1359,1359,1359,1359,1359,1354,1354,1359,1359,1359,1354,1354,1354,1354,1354,1359,1354,1354,1354,1354,1354,1359,1359,1359,1359,1365,1365,1077,1077,1077,1077,1080,1080,1080,1084,1087,1087,1087,1087,1087,1090,1090,1090,1090,1090,1090,1090,1090,1090,1094,1094,1094,1097,1101,1101,1105,1105,1105,1108,1108,1112,1115,1115,1119,1119,1119,1119,1119,1119,1115,1115,1115,1112,1112,1108,1105,1101,1101,1101,1097,1097,1097,0,0,0,0,0,0,0,0,0,707,707,707,706,706,704,703,698,697,697,696,694,693,693,691,691,691,691,691,691,693,694,696,697,698,700,700,704,704,706,708,710,710,710,0,0,0,0,0,0,0,0,0,1283,1283,1283,1283,1283,1283,1283,1288,1292,1297,1297,1333,1343,1349,1354,1354,1354,1359,1354,1354,1354,1354,1349,1349,1349,1349,1349,1349,1349,1349,1349,1349,1349,1349,1349,1349,1349,1354,1354,1354,1354,1354,1354,1354,1354,1354,1354,1354,1354,1354,1354,1354,1354,1354,1354,1354,1354,1354,1354,1354,1354,1354,1354,1354,1354,1354,1354,1354,1354,1354,1354,1354,1354,1354,1354,1354,1349,1349,1349,1349,1349,1349,1349,1349,1349,1349,1349,1349,1349,1349,1349,1349,1343,1343,1349,1349,1349,1063,1057,1057,1054,1054,1050,1050,1050,1050,1047,1044,1044,1041,1041,1044,1044,1047,1050,1050,1054,1054,1054,1060,1060,1354,1354,1349,1349,1349,1349,1349,1349,1349,1349,1349,1349,1349,1349,1349,1349,1349,1349,1349,1349,1349,1349,1349,1349,1349,1349,1349,1349,1349,1349,1349,1349,1349,1349,1349,1349,1343,1343,1343,1343,1343,1343,1343,1343,1343,1343,1343,1338,1338,1338,1338,1343,1338,1338,1338,1343,1343,1343,1343,1343,1343,1343,1343,1343,1343,1343,1343,1343,1349,1343,1343,1343,1343,1343,1343,1343,1343,1343,1343,1338,1338,1338,1333,1333,1333,1333,1333,1333,1333,1333,1338,1338,1338,1343,1338,1338,1338,1338,1338,1338,1333,1333,1338,1338,1333,1333,1333,1333,1333,1333,1333,1333,1333,1333,1333,1333,1333,1333,1333,1333,1333,1333,1333,1333,1333,1333,1333,1333,1333,1333,1333,1333,1333,1333,1333,1333,1333,1333,1333,1328,1328,1328,1328,1328,1328,1322,1322,1322,1322,1328,1328,1328,1328,1328,1328,1328,1328,1328,1322,1322,1322,1322,1322,1322,1317,1317,1317,1312,1312,1312,1312,1307,1307,1307,1307,1302,1302,1297,1297,1292,1292,1288,1288,1138,1134,1134,1134,1130,1130,1126,1123,1119,1115,1112,1108,1108,1108,1108,1108,1108,1115,1119,1119,1119,1115,1112,1108,1101,1097,1097,0,0,0,0,0,0,0,0,0,0,0,0,0,0,0,0,0,0,0,0,0,0,0,0,0,0,0,0,0,0,0,0
0,0,0,0,0,0,0,0,0,1349,1349,1349,1349,1349,1349,1354,1354,1354,1354,1359,1359,1359,1359,1359,1359,1359,1359,1359,1354,1354,1354,1349,1349,1349,1349,1349,1349,1349,1349,1349,1349,1354,1354,1354,1354,1354,1354,1359,1359,1359,1349,1349,1349,1349,1349,1349,1343,1343,1349,1349,1354,1354,1349,1349,1349,1354,1354,1354,1354,1354,1354,1354,1354,1354,1354,1354,1354,1354,1354,1354,1354,1354,1354,1354,1354,1354,1354,1354,1354,1354,1354,1359,1359,1365,1349,1349,1349,1354,1354,0,0,0,0,0,0,0,967,967,964,964,964,964,962,962,959,959,959,959,962,962,962,964,964,967,967,967,970,967,967,970,970,0,0,1354,1354,1349,1349,1349,1354,1354,1354,1354,1354,1359,1354,1354,1354,1354,1354,1354,1354,1354,1354,1349,1349,1349,1349,1349,1349,1349,1349,1354,1354,1354,1354,1354,1354,1354,1359,1365,1077,1077,1077,1077,1077,1077,1080,1080,1080,1080,1080,1084,1084,1087,1087,1087,1087,1087,1090,1090,1090,1090,1094,1094,1094,1097,1101,1101,1105,1105,1105,1108,1112,1112,1115,1119,1119,1119,1119,1119,1119,1119,1119,1115,1115,1112,1112,1108,1105,1101,1101,1101,1097,1097,1097,0,0,0,0,0,0,0,0,708,707,707,707,707,706,704,703,698,698,697,697,697,696,694,693,693,691,691,691,693,693,694,696,697,698,700,700,704,704,706,708,711,711,711,0,0,0,0,0,0,0,0,0,1283,1283,1283,1283,1283,1283,1288,1292,1292,1297,1302,1333,1338,1343,1349,1354,1354,1354,1349,1349,1349,1349,1349,1343,1343,1343,1343,1343,1343,1343,1343,1343,1343,1343,1343,1343,1343,1349,1349,1349,1349,1349,1349,1349,1349,1349,1349,1349,1349,1349,1349,1349,1349,1349,1349,1349,1349,1349,1349,1349,1349,1349,1349,1349,1349,1349,1349,1349,1349,1349,1349,1349,1349,1349,1349,1349,1349,1343,1343,1343,1338,1338,1343,1343,1343,1343,1343,1343,1343,1343,1343,1343,1343,1343,1343,1343,1349,1063,1063,1060,1057,1057,1054,1054,1050,1050,1047,1044,1044,1044,1044,1044,1044,1047,1050,1050,1054,1054,1057,1060,1060,1349,1349,1343,1343,1343,1343,1343,1343,1343,1343,1343,1343,1343,1343,1343,1343,1343,1338,1338,1343,1343,1343,1343,1343,1343,1343,1338,1338,1343,1343,1343,1343,1343,1343,1343,1343,1338,1338,1338,1338,1338,1338,1338,1338,1338,1338,1338,1338,1338,1338,1338,1333,1333,1333,1338,1338,1338,1338,1338,1338,1338,1338,1338,1338,1343,1343,1343,1343,1343,1343,1343,1343,1343,1338,1338,1338,1338,1338,1338,1333,1333,1333,1333,1333,1333,1328,1328,1333,1333,1333,1333,1333,1333,1338,1333,1333,1333,1333,1333,1333,1328,1328,1328,1328,1328,1328,1328,1328,1328,1333,1333,1328,1328,1333,1328,1328,1328,1328,1328,1333,1328,1328,1328,1328,1328,1328,1328,1328,1328,1328,1328,1328,1328,1328,1333,1328,1328,1328,1328,1328,1328,1322,1322,1322,1322,1322,1322,1317,1317,1322,1322,1322,1322,1322,1322,1322,1322,1322,1322,1322,1322,1322,1317,1317,1317,1317,1317,1312,1312,1312,1312,1312,1307,1307,1307,1302,1302,1302,1297,1297,1292,1292,1134,1134,1134,1134,1134,1130,1130,1126,1123,1119,1115,1112,1108,1108,1112,1108,1108,1112,1115,1119,1119,1115,1115,1112,1105,1097,1094,1094,0,0,0,0,0,0,0,0,0,0,0,0,0,0,0,0,0,0,0,0,0,0,0,0,0,0,0,0,0,0,0,0
0,0,0,0,0,0,0,0,0,1349,1349,1349,1349,1343,1343,1349,1349,1349,1349,1354,1354,1359,1359,1359,1359,1354,1354,1354,1349,1349,1349,1349,1349,1349,1349,1343,1343,1349,1349,1349,1349,1349,1349,1349,1349,1349,1349,1354,1354,1349,1349,1349,1349,1349,1343,1343,1343,1343,1343,1343,1349,1349,1343,1343,1343,1343,1343,1343,1343,1343,1349,1349,1349,1349,1349,1349,1349,1349,1349,1354,1349,1349,1349,1354,1354,1349,1349,1354,1354,1349,1349,1354,1354,1354,1354,1349,1349,1354,1354,1354,0,0,0,0,0,0,970,967,967,964,964,964,964,964,962,962,962,962,962,962,962,964,964,967,967,967,970,967,967,970,989,0,1349,1349,1349,1349,1343,1343,1349,1349,1349,1349,1349,1354,1349,1349,1349,1349,1349,1349,1349,1349,1354,1349,1349,1349,1349,1349,1349,1349,1349,1349,1349,1349,1354,1354,1349,1349,1070,1070,1070,1073,1073,1077,1077,1077,1077,1077,1077,1080,1080,1080,1084,1084,1087,1087,1087,1087,1087,1090,1090,1090,1094,1094,1094,1097,1101,1101,1105,1105,1105,1108,1112,1112,1115,1119,1119,1123,1123,1123,1119,1119,1119,1119,1115,1112,1112,1108,1105,1105,1101,1101,1101,1101,1101,1101,0,0,0,0,0,0,0,708,707,707,707,707,706,706,704,700,698,698,697,697,696,694,694,693,693,693,693,693,693,694,697,697,698,700,704,704,706,707,710,710,711,711,0,0,0,0,0,0,0,0,0,1283,1283,1283,1283,1283,1283,1288,1292,1297,1297,1302,1307,1338,1338,1343,1343,1349,1349,1343,1343,1343,1343,1343,1343,1343,1343,1343,1343,1343,1343,1343,1343,1343,1343,1343,1343,1343,1349,1349,1343,1343,1343,1343,1343,1343,1343,1343,1343,1343,1343,1343,1343,1343,1343,1343,1343,1343,1343,1343,1343,1343,1343,1338,1338,1343,1343,1343,1343,1349,1349,1349,1349,1349,1343,1343,1343,1343,1338,1338,1338,1338,1338,1338,1338,1338,1338,1338,1338,1338,1338,1338,1338,1338,1338,1338,1338,1349,1063,1063,1060,1057,1057,1054,1054,1054,1054,1050,1047,1044,1044,1044,1044,1047,1047,1050,1050,1054,1057,1057,1063,1063,1349,1349,1338,1338,1338,1338,1338,1338,1338,1338,1338,1338,1338,1338,1338,1338,1338,1333,1333,1338,1338,1338,1338,1338,1338,1338,1338,1338,1338,1338,1338,1338,1338,1338,1338,1338,1338,1333,1333,1333,1333,1333,1333,1333,1333,1333,1338,1333,1333,1333,1333,1333,1333,1333,1333,1333,1333,1333,1333,1333,1333,1333,1333,1333,1333,1338,1338,1338,1338,1338,1338,1338,1333,1333,1333,1333,1333,1333,1333,1333,1333,1333,1328,1328,1328,1328,1328,1328,1328,1328,1328,1328,1328,1328,1333,1333,1328,1328,1328,1328,1328,1322,1322,1322,1322,1328,1328,1328,1328,1328,1328,1328,1328,1322,1322,1322,1328,1328,1328,1328,1322,1322,1328,1328,1328,1322,1322,1322,1328,1322,1322,1328,1328,1328,1328,1328,1328,1322,1322,1322,1322,1322,1317,1317,1322,1317,1317,1317,1317,1317,1317,1317,1317,1317,1317,1322,1317,1317,1317,1317,1317,1317,1317,1317,1317,1317,1317,1312,1312,1312,1312,1312,1307,1307,1307,1302,1302,1302,1297,1297,1297,1297,1134,1134,1134,1134,1134,1130,1130,1126,1123,1119,1115,1112,1112,1112,1112,1108,1108,1115,1115,1119,1119,1115,1115,1108,1105,1097,1094,1094,0,0,0,0,0,0,0,0,0,0,0,0,0,0,0,0,0,0,0,0,0,0,0,0,0,0,0,0,0,0,0,0
0,0,0,0,0,0,0,0,0,1349,1349,1349,1343,1343,1343,1349,1343,1343,1343,1343,1354,1359,1359,1359,1354,1349,1349,1349,1349,1349,1349,1343,1343,1349,1349,1343,1343,1343,1343,1343,1343,1343,1349,1349,1349,1343,1343,1349,1349,1343,1343,1343,1343,1343,1343,1343,1343,1343,1343,1343,1349,1349,1343,1343,1343,1343,1343,1343,1343,1343,1343,1343,1343,1343,1343,1343,1349,1343,1343,1349,1349,1349,1349,1349,1349,1349,1349,1349,1349,1349,1349,1349,1349,1349,1349,1349,1349,1349,1349,1349,0,0,0,0,0,0,973,970,967,967,967,967,964,964,962,962,962,962,964,964,964,964,964,967,967,970,973,973,973,978,984,0,1349,1349,1343,1343,1343,1343,1343,1343,1338,1338,1343,1349,1349,1349,1349,1343,1343,1349,1343,1343,1349,1349,1349,1349,1349,1349,1349,1349,1349,1349,1349,1349,1349,1349,1070,1070,1070,1070,1070,1073,1073,1073,1073,1073,1077,1077,1077,1077,1077,1077,1080,1084,1084,1084,1084,1087,1087,1087,1090,1090,1094,1094,1097,1097,1101,1105,1105,1105,1108,1108,1112,1112,1115,1119,1119,1123,1123,1123,1119,1119,1119,1119,1115,1115,1112,1108,1105,1105,1101,1101,1101,1101,1101,1101,0,0,0,0,0,0,0,708,707,707,708,707,707,706,703,700,698,698,697,697,697,696,696,694,693,693,693,694,694,696,697,698,700,701,704,704,706,708,710,710,711,711,0,0,0,0,0,0,0,0,0,1288,1288,1288,1288,1288,1288,1288,1292,1297,1297,1307,1307,1322,1338,1338,1343,1343,1343,1338,1338,1338,1338,1338,1338,1338,1338,1338,1338,1338,1338,1338,1338,1343,1338,1338,1338,1338,1343,1343,1338,1338,1338,1338,1338,1338,1338,1338,1338,1338,1338,1338,1338,1338,1338,1338,1338,1338,1338,1338,1338,1338,1338,1333,1333,1338,1338,1338,1343,1343,1343,1343,1343,1343,1343,1343,1343,1338,1338,1338,1338,1333,1333,1338,1333,1333,1333,1333,1338,1333,1333,1333,1333,1333,1333,1333,1333,1333,1063,1063,1060,1060,1057,1057,1057,1054,1054,1050,1050,1050,1047,1047,1047,1047,1050,1050,1054,1054,1057,1057,1063,1063,1063,1333,1333,1333,1333,1333,1333,1333,1333,1333,1333,1338,1338,1338,1333,1333,1333,1333,1333,1333,1333,1333,1333,1333,1333,1333,1333,1333,1333,1333,1333,1333,1333,1333,1333,1333,1333,1333,1333,1328,1328,1328,1328,1328,1328,1328,1333,1333,1333,1333,1333,1328,1328,1328,1328,1328,1328,1328,1322,1322,1328,1328,1328,1328,1333,1333,1333,1333,1333,1333,1333,1333,1333,1333,1333,1333,1333,1333,1333,1328,1328,1328,1328,1328,1328,1328,1328,1328,1328,1328,1328,1328,1328,1328,1328,1328,1322,1322,1322,1322,1322,1317,1317,1317,1317,1322,1322,1322,1322,1322,1322,1328,1328,1322,1317,1317,1317,1317,1317,1317,1317,1317,1322,1322,1322,1322,1317,1317,1322,1317,1317,1317,1317,1322,1317,1317,1317,1317,1317,1317,1317,1317,1317,1317,1317,1312,1312,1312,1312,1312,1312,1317,1312,1312,1312,1317,1312,1312,1317,1317,1317,1317,1317,1317,1317,1317,1202,1202,1202,1202,1312,1307,1307,1307,1307,1302,1302,1302,1297,1297,1297,1297,1134,1134,1134,1134,1134,1130,1126,1123,1119,1119,1115,1112,1112,1112,1112,1112,1112,1115,1119,1119,1115,1115,1112,1105,1097,1094,1090,1090,0,0,0,0,0,0,0,0,0,0,0,0,0,0,0,0,0,0,0,0,0,0,0,0,0,0,0,0,0,0,0,0
0,0,0,0,0,0,0,0,0,1343,1343,1343,1343,1343,1343,1343,1338,1338,1338,1343,1349,1349,1349,1349,1343,1343,1343,1343,1343,1343,1343,1343,1343,1343,1343,1338,1338,1338,1338,1343,1343,1343,1343,1343,1343,1343,1343,1343,1343,1343,1343,1338,1338,1343,1343,1343,1343,1343,1343,1343,1343,1343,1338,1338,1338,1338,1338,1338,1338,1338,1338,1338,1338,1338,1338,1338,1343,1343,1343,1349,1349,1349,1349,1343,1343,1343,1343,1343,1343,1343,1343,1343,1343,1343,1343,1343,1343,1343,1343,1349,0,0,0,0,0,0,975,973,970,970,970,967,967,964,962,962,962,964,964,964,964,964,967,967,967,970,973,975,978,981,984,984,1343,1343,1343,1343,1338,1338,1338,1338,1333,1333,1338,1338,1338,1338,1338,1338,1338,1343,1343,1343,1343,1343,1343,1343,1343,1349,1349,1349,1349,1349,1349,1349,1063,1063,1067,1067,1067,1067,1067,1070,1073,1073,1073,1073,1073,1073,1073,1077,1077,1077,1080,1080,1084,1084,1084,1087,1087,1087,1090,1090,1090,1094,1097,1101,1101,1105,1105,1105,1108,1108,1115,1115,1115,1119,1119,1126,1126,1126,1123,1119,1119,1115,1115,1115,1112,1112,1108,1105,1105,1101,1101,1101,1105,1105,0,0,0,0,0,0,0,708,708,708,708,707,707,706,703,701,700,698,698,697,697,696,696,694,693,693,693,694,694,696,697,698,700,703,704,706,707,708,710,710,711,711,713,0,0,0,0,0,0,0,0,1288,1288,1288,1288,1288,1288,1292,1292,1297,1297,1307,1312,1322,1333,1333,1338,1338,1338,1338,1338,1338,1333,1333,1338,1338,1333,1333,1333,1333,1333,1333,1333,1338,1338,1338,1338,1338,1338,1338,1338,1338,1338,1333,1333,1333,1333,1333,1333,1333,1333,1333,1333,1333,1338,1338,1333,1333,1333,1333,1333,1333,1333,1333,1333,1333,1333,1333,1338,1338,1338,1338,1338,1338,1333,1333,1333,1333,1333,1333,1333,1333,1333,1333,1333,1333,1333,1333,1333,1333,1328,1328,1328,1328,1328,1328,1328,1328,1063,1063,1063,1063,1060,1060,1057,1054,1054,1050,1050,1050,1047,1047,1050,1050,1050,1050,1054,1057,1057,1063,1063,1063,1067,1328,1328,1328,1333,1333,1333,1333,1333,1333,1333,1333,1333,1333,1333,1333,1333,1328,1328,1328,1328,1328,1328,1328,1328,1328,1328,1328,1328,1328,1328,1328,1333,1333,1333,1333,1333,1333,1328,1328,1328,1328,1328,1328,1322,1322,1328,1328,1328,1328,1328,1328,1322,1322,1322,1322,1322,1322,1322,1322,1322,1322,1322,1322,1328,1328,1328,1328,1328,1328,1333,1328,1328,1328,1328,1328,1328,1328,1328,1328,1322,1322,1322,1328,1328,1322,1322,1322,1322,1322,1322,1322,1317,1317,1322,1322,1317,1317,1322,1317,1317,1317,1317,1317,1317,1317,1317,1317,1317,1317,1317,1322,1322,1317,1317,1312,1312,1312,1312,1312,1312,1312,1317,1317,1317,1317,1317,1317,1317,1312,1312,1312,1312,1312,1312,1312,1312,1317,1317,1317,1317,1312,1312,1312,1312,1312,1307,1307,1307,1307,1312,1312,1312,1312,1312,1312,1312,1312,1312,1312,1312,1317,1317,1317,1317,1202,1202,1202,1202,1202,1202,1202,1307,1307,1307,1302,1302,1297,1292,1292,1297,1297,1138,1138,1138,1134,1134,1130,1126,1123,1119,1115,1115,1112,1112,1112,1112,1112,1112,1115,1119,1119,1115,1108,1108,1097,1094,1094,1090,1090,0,0,0,0,0,0,0,0,0,0,0,0,0,0,0,0,0,0,0,0,0,0,0,0,0,0,0,0,0,0,0,0
0,0,0,0,0,0,0,0,0,1343,1343,1343,1343,1338,1338,1338,1338,1338,1338,1338,1338,1343,1338,1338,1338,1333,1333,1338,1338,1338,1338,1338,1338,1338,1338,1338,1338,1333,1333,1338,1338,1343,1343,1343,1338,1338,1338,1333,1333,1338,1338,1338,1338,1338,1338,1338,1338,1338,1338,1338,1338,1338,1333,1333,1333,1333,1333,1333,1333,1333,1333,1333,1333,1333,1333,1338,1338,1338,1338,1338,1343,1343,1343,1343,1343,1343,1343,1343,1343,1343,1343,1343,1338,1338,1343,1343,1343,1338,1328,1328,0,0,0,0,0,0,975,973,970,970,970,967,967,964,964,964,964,964,964,964,964,964,967,970,970,973,975,975,978,981,984,984,0,1338,1338,1338,1338,1333,1333,1333,1333,1333,1333,1333,1333,1338,1338,1333,1333,1333,1333,1338,1338,1343,1343,1343,1343,1343,1343,1349,1349,1349,1060,1060,1063,1063,1063,1063,1063,1067,1067,1070,1070,1070,1070,1073,1073,1073,1073,1073,1077,1077,1080,1080,1084,1084,1084,1087,1087,1087,1090,1090,1090,1094,1097,1101,1101,1105,1105,1105,1108,1108,1115,1115,1119,1123,1123,1126,1126,1126,1123,1123,1119,1115,1115,1115,1112,1112,1112,1108,1105,1105,1105,1105,1105,1105,0,0,0,0,0,0,0,708,708,708,708,708,708,707,704,703,700,700,698,697,697,696,696,694,694,694,694,694,694,696,697,700,700,704,706,707,708,710,710,711,711,713,713,0,0,0,0,0,0,0,0,1288,1288,1288,1288,1288,1288,1292,1292,1297,1297,1307,1317,1322,1328,1333,1333,1333,1333,1333,1333,1333,1333,1333,1333,1333,1333,1328,1328,1328,1328,1328,1328,1333,1333,1333,1333,1333,1333,1333,1333,1333,1333,1333,1333,1333,1333,1333,1333,1333,1333,1333,1333,1333,1333,1333,1333,1328,1328,1333,1333,1333,1328,1328,1328,1328,1328,1333,1333,1338,1338,1338,1333,1333,1333,1333,1333,1333,1333,1333,1333,1328,1328,1328,1328,1328,1328,1328,1328,1328,1328,1328,1328,1322,1322,1322,1322,1322,1317,1067,1067,1063,1063,1060,1060,1057,1054,1054,1050,1050,1050,1050,1050,1050,1050,1050,1054,1057,1060,1063,1063,1067,1067,1322,1322,1322,1322,1328,1328,1333,1333,1333,1333,1333,1333,1333,1328,1328,1328,1328,1328,1328,1328,1328,1328,1328,1328,1328,1328,1328,1328,1328,1328,1328,1328,1328,1328,1328,1328,1328,1328,1322,1322,1322,1322,1322,1322,1322,1322,1322,1322,1322,1322,1322,1317,1317,1317,1317,1317,1317,1317,1317,1317,1317,1317,1317,1317,1317,1322,1322,1322,1328,1328,1328,1328,1322,1322,1322,1322,1322,1322,1322,1322,1322,1322,1322,1322,1322,1322,1317,1317,1317,1317,1317,1317,1317,1312,1312,1312,1312,1312,1312,1312,1312,1312,1312,1312,1312,1317,1317,1312,1312,1312,1312,1312,1312,1312,1312,1312,1312,1312,1312,1312,1312,1312,1312,1312,1312,1312,1312,1312,1312,1312,1312,1312,1312,1312,1312,1312,1312,1312,1312,1312,1312,1312,1307,1307,1307,1307,1302,1302,1307,1307,1307,1307,1307,1307,1307,1307,1307,1312,1312,1312,1317,1317,1317,1197,1197,1202,1202,1202,1202,1202,1202,1307,1307,1307,1307,1307,1297,1292,1292,1297,1297,1145,1141,1138,1134,1134,1130,1126,1123,1119,1115,1115,1112,1112,1112,1112,1112,1112,1115,1115,1115,1112,1105,1105,1097,1094,1090,1087,1087,0,0,0,0,0,0,0,0,0,0,0,0,0,0,0,0,0,0,0,0,0,0,0,0,0,0,0,0,0,0,0,0
0,0,0,0,0,0,0,0,0,1338,1338,1338,1333,1333,1338,1333,1333,1328,1328,1328,1328,1333,1333,1333,1333,1333,1333,1333,1333,1333,1333,1333,1333,1338,1338,1333,1333,1333,1333,1333,1333,1333,1333,1333,1333,1333,1333,1328,1328,1333,1333,1333,1333,1333,1338,1333,1333,1333,1333,1333,1333,1333,1333,1333,1333,1333,1333,1328,1328,1333,1333,1333,1333,1333,1333,1333,1333,1333,1333,1338,1338,1338,1333,1333,1338,1338,1338,1338,1338,1338,1338,1338,1333,1333,1333,1333,1328,1328,1322,1317,1317,0,0,0,0,978,975,975,973,970,970,967,967,964,964,964,964,964,964,964,964,967,967,970,973,975,975,978,981,981,984,984,0,1333,1333,1333,1333,1333,1333,1333,1328,1328,1328,1328,1328,1333,1333,1328,1328,1333,1333,1333,1333,1338,1343,1343,1343,1050,1050,1050,1050,1060,1060,1060,1060,1060,1063,1063,1063,1063,1067,1067,1070,1070,1070,1070,1070,1073,1073,1073,1073,1077,1080,1080,1084,1084,1087,1087,1087,1087,1090,1090,1094,1094,1097,1101,1105,1105,1105,1105,1108,1108,1115,1119,1123,1123,1322,1322,1322,1322,1322,1322,1123,1119,1115,1115,1112,1112,1112,1108,1105,1105,1105,1105,1105,1105,1105,0,0,0,0,0,0,0,708,708,708,708,708,707,706,704,701,700,698,698,697,697,696,694,694,694,694,694,696,696,698,700,701,704,706,707,708,710,711,711,713,713,0,0,0,0,0,0,0,0,0,1288,1288,1288,1288,1288,1288,1292,1292,1297,1297,1307,1312,1317,1322,1328,1328,1328,1328,1328,1328,1328,1328,1328,1328,1328,1328,1328,1328,1328,1328,1328,1328,1328,1328,1328,1328,1328,1333,1333,1333,1333,1333,1328,1328,1328,1328,1328,1328,1328,1328,1328,1328,1328,1322,1322,1328,1328,1328,1328,1328,1328,1328,1328,1328,1328,1328,1328,1328,1328,1328,1333,1333,1333,1328,1328,1328,1328,1328,1328,1328,1328,1328,1328,1328,1328,1328,1322,1322,1328,1322,1322,1322,1322,1322,1322,1317,1317,1317,1067,1067,1063,1063,1063,1060,1057,1054,1054,1050,1050,1050,1050,1050,1050,1050,1054,1054,1057,1060,1067,1067,1067,1070,1312,1312,1312,1317,1322,1322,1322,1322,1322,1322,1328,1328,1328,1328,1328,1328,1328,1328,1322,1322,1322,1322,1322,1322,1322,1322,1322,1322,1322,1322,1322,1322,1322,1328,1322,1322,1322,1322,1322,1317,1317,1317,1317,1317,1317,1317,1317,1317,1317,1317,1317,1317,1317,1317,1312,1312,1312,1312,1312,1312,1312,1312,1312,1312,1312,1317,1317,1317,1317,1322,1322,1322,1322,1322,1317,1317,1317,1317,1317,1317,1317,1317,1317,1317,1317,1317,1317,1312,1312,1312,1312,1312,1312,1312,1312,1312,1307,1307,1307,1307,1307,1307,1312,1312,1312,1312,1312,1312,1307,1307,1307,1312,1307,1307,1307,1307,1307,1307,1307,1307,1307,1307,1307,1307,1307,1307,1307,1307,1307,1307,1307,1307,1307,1307,1307,1312,1312,1312,1312,1307,1307,1307,1302,1302,1302,1297,1297,1297,1302,1302,1302,1302,1302,1302,1307,1307,1307,1307,1312,1312,1317,1317,1322,1197,1197,1197,1197,1202,1202,1202,1202,0,0,1307,1307,1307,1307,1297,1297,1145,1145,1145,1141,1138,1134,1134,1130,1126,1123,1119,1112,1112,1112,1112,1112,1112,1115,1115,1115,1115,1115,1108,1101,1097,1094,1094,1090,1087,1087,0,0,0,0,0,0,0,0,0,0,0,0,0,0,0,0,0,0,0,0,0,0,0,0,0,0,0,0,0,0,0,0
0,0,0,0,0,0,0,0,0,1333,1333,1333,1333,1333,1328,1328,1328,1328,1322,1322,1322,1328,1328,1328,1328,1328,1328,1328,1328,1328,1328,1328,1328,1333,1333,1328,1328,1328,1328,1328,1333,1333,1333,1333,1333,1333,1333,1328,1328,1333,1333,1333,1333,1333,1333,1333,1333,1333,1333,1333,1333,1328,1328,1328,1328,1328,1328,1328,1328,1328,1328,1333,1333,1333,1328,1328,1328,1328,1328,1328,1328,1328,1328,1328,1333,1328,1328,1328,1328,1333,1333,1333,1333,1333,1333,1333,1328,1328,1322,1312,1312,0,0,0,0,978,975,975,973,973,970,970,967,964,964,964,964,964,964,964,964,967,967,973,975,975,978,978,981,981,984,984,0,1333,1333,1333,1328,1328,1328,1328,1328,1328,1328,1328,1328,1328,1328,1328,1328,1328,1328,1328,1333,1050,1050,1343,1054,1047,1047,1050,1050,1057,1060,1060,1060,1060,1060,1060,1060,1063,1063,1063,1067,1067,1067,1070,1070,1070,1070,1073,1073,1077,1077,1080,1084,1084,1087,1087,1087,1090,1090,1090,1094,1097,1101,1101,1105,1105,1105,1105,1108,1108,1112,1119,1322,1322,1322,1322,1322,1322,1322,1317,1317,1322,1115,1115,1112,1112,1112,1108,1108,1105,1105,1105,1105,1105,1105,0,0,0,0,0,0,0,710,710,710,708,708,707,707,704,701,700,698,698,697,697,696,696,694,694,694,694,696,697,700,701,703,704,706,707,708,711,711,713,713,713,0,0,0,0,0,0,0,0,0,1288,1288,1288,1288,1288,1288,1292,1292,1297,1302,1307,1312,1317,1322,1322,1322,1322,1328,1328,1328,1328,1328,1328,1328,1328,1328,1322,1322,1322,1322,1322,1322,1328,1328,1328,1328,1328,1328,1328,1328,1328,1328,1328,1328,1328,1328,1328,1328,1328,1328,1322,1322,1322,1322,1322,1322,1322,1322,1322,1328,1328,1328,1328,1328,1322,1322,1322,1322,1317,1317,1317,1317,1317,1317,1322,1322,1328,1328,1328,1328,1328,1322,1322,1322,1322,1317,1317,1317,1317,1317,1317,1317,1317,1317,1317,1312,1312,1063,1063,1063,1063,1063,1063,1063,1060,1057,1054,1054,1050,1050,1050,1050,1050,1050,1054,1054,1057,1063,1067,1067,1067,1307,1307,1307,1307,1312,1317,1317,1317,1317,1317,1317,1317,1317,1322,1322,1322,1322,1322,1322,1317,1317,1317,1317,1317,1317,1322,1322,1322,1317,1317,1317,1317,1317,1317,1317,1317,1317,1317,1317,1317,1312,1312,1312,1312,1312,1312,1312,1312,1312,1312,1312,1312,1312,1312,1312,1312,1312,1312,1312,1312,1312,1312,1312,1312,1312,1312,1312,1312,1312,1312,1312,1312,1312,1317,1317,1312,1312,1312,1312,1312,1312,1312,1312,1312,1312,1312,1312,1312,1312,1312,1307,1307,1307,1307,1307,1307,1307,1307,1307,1307,1307,1307,1307,1307,1307,1307,1307,1307,1307,1302,1302,1302,1302,1307,1307,1307,1307,1307,1307,1307,1307,1307,1307,1302,1302,1307,1307,1307,1302,1302,1302,1302,1302,1302,1302,1307,1307,1307,1307,1307,1307,1302,1297,1297,1297,1292,1292,1292,1297,1297,1297,1297,1297,1302,1302,1302,1302,1302,1302,1307,1307,1312,1317,1193,1193,1197,1197,1197,1202,1202,1202,1202,0,0,0,0,0,0,0,1145,1145,1145,1145,1141,1138,1134,1130,1126,1126,1119,1115,1112,1112,1112,1112,1112,1112,1115,1115,1115,1115,1112,1105,1101,1097,1094,1090,1087,1084,1084,0,0,0,0,0,0,0,0,0,0,0,0,0,0,0,0,0,0,0,0,0,0,0,0,0,0,0,0,0,0,0,0
0,0,0,0,0,0,0,0,0,1328,1328,1328,1328,1328,1328,1322,1322,1317,1312,1312,1312,1317,1317,1322,1322,1322,1322,1322,1322,1322,1322,1322,1322,1328,1328,1328,1322,1322,1322,1328,1328,1328,1328,1328,1328,1328,1328,1328,1328,1328,1328,1328,1328,1328,1328,1328,1328,1328,1328,1328,1328,1328,1328,1328,1322,1322,1322,1322,1322,1322,1328,1328,1328,1328,1328,1328,1328,1328,1328,1322,1322,1322,1322,1328,1328,1328,1328,1328,1328,1328,1328,1328,1328,1328,1328,1328,1328,1322,1322,1312,1307,1307,0,0,0,0,978,975,975,973,973,970,967,967,964,964,964,964,964,967,967,967,970,973,975,975,978,978,981,984,984,984,989,0,1328,1328,1328,1328,1328,1328,1322,1322,1322,1322,1322,1322,1322,1322,1328,1038,1038,1044,1047,1047,1050,1050,1050,1047,1047,1054,1054,1054,1057,1057,1057,1057,1060,1060,1060,1060,1060,1063,1067,1067,1067,1070,1070,1070,1070,1073,1073,1077,1077,1080,1084,1084,1087,1087,1087,1090,1090,1094,1097,1101,1101,1105,1105,1105,1105,1105,1108,1108,1112,1322,1322,1322,1322,1317,1317,1317,1317,1317,1317,1317,1317,1317,1115,1112,1112,1108,1108,1105,1105,1105,1105,1105,1105,0,0,0,0,0,0,0,710,710,710,710,708,708,707,706,703,701,700,698,698,698,697,697,696,696,696,696,697,698,700,703,703,704,706,707,708,713,713,713,713,714,0,0,0,0,0,0,0,0,0,1292,1292,1292,1292,1292,1292,1297,1297,1297,1307,1307,1307,1312,1312,1317,1317,1317,1322,1322,1322,1322,1322,1322,1322,1322,1322,1322,1322,1322,1322,1322,1322,1322,1322,1322,1322,1322,1328,1328,1328,1328,1328,1328,1322,1322,1322,1322,1322,1322,1322,1317,1317,1317,1317,1317,1317,1317,1317,1317,1322,1322,1322,1322,1322,1322,1317,1317,1317,1317,1312,1312,1312,1312,1312,1312,1312,1317,1317,1322,1322,1317,1317,1317,1317,1317,1317,1312,1312,1317,1317,1317,1317,1317,1317,1312,1307,1307,1063,1063,1063,1063,1063,1063,1063,1060,1057,1057,1054,1054,1050,1050,1050,1050,1054,1054,1057,1060,1067,1067,1067,1067,1307,1307,1307,1307,1312,1312,1312,1312,1312,1312,1312,1312,1312,1312,1312,1312,1312,1312,1312,1312,1312,1312,1317,1317,1317,1317,1317,1317,1317,1317,1317,1317,1317,1312,1312,1312,1312,1312,1312,1312,1312,1312,1312,1312,1312,1312,1312,1312,1307,1307,1307,1307,1307,1307,1312,1312,1312,1312,1312,1312,1312,1312,1312,1312,1312,1312,1312,1307,1307,1307,1307,1307,1307,1307,1307,1307,1307,1307,1312,1312,1307,1307,1307,1307,1307,1312,1312,1307,1307,1307,1302,1302,1302,1302,1302,1302,1302,1302,1302,1302,1302,1302,1302,1302,1307,1302,1302,1302,1302,1302,1297,1297,1297,1302,1302,1302,1302,1302,1307,1307,1307,1302,1302,1297,1297,1297,1297,1297,1297,1297,1297,1297,1297,1297,1302,1302,1302,1302,1302,1302,1297,1297,1292,1292,1292,1292,1292,1292,1292,1292,1292,1292,1292,1292,1292,1292,1292,1297,1297,1297,1297,1297,1312,1193,1193,1197,1197,1197,1197,1197,1197,0,0,0,0,0,0,0,1145,1145,1145,1145,1141,1138,1134,1126,1123,1119,1119,1119,1115,1112,1112,1112,1112,1115,1115,1115,1115,1112,1112,1108,1101,1097,1094,1090,1087,1080,1080,1084,0,0,0,0,0,0,0,0,0,0,0,0,0,0,0,0,0,0,0,0,0,0,0,0,0,0,0,0,0,0,0,0
0,0,0,0,0,0,0,0,0,1322,1322,1322,1322,1322,1322,1322,1322,1317,1312,1307,1307,1307,1307,1312,1312,1317,1317,1322,1322,1322,1322,1322,1322,1322,1322,1322,1322,1322,1322,1322,1322,1322,1322,1322,1322,1322,1322,1322,1322,1322,1322,1322,1322,1322,1322,1322,1322,1322,1328,1328,1328,1322,1322,1322,1322,1322,1322,1322,1322,1322,1322,1322,1322,1322,1322,1322,1322,1322,1322,1322,1322,1322,1322,1322,1322,1322,1322,1322,1322,1322,1322,1322,1322,1322,1317,1317,1322,1322,1322,1312,1307,1307,0,0,0,0,0,978,978,975,975,970,967,967,967,964,964,964,964,967,967,970,973,973,975,975,978,978,981,984,984,989,989,1328,1328,1322,1322,1322,1322,1322,1322,1322,1322,1322,1322,1322,1322,1322,1034,1034,1038,1044,1044,1047,1047,1047,1050,1050,1050,1050,1050,1050,1054,1057,1057,1057,1057,1057,1057,1060,1060,1060,1063,1067,1067,1067,1070,1070,1073,1073,1073,1077,1080,1080,1084,1087,1087,1087,1090,1090,1094,1094,1101,1101,1105,1105,1108,1108,1108,1108,1112,1112,1317,1317,1317,1317,1317,1317,1317,1317,1317,1312,1312,1317,1312,1312,1312,1112,1112,1112,1108,1108,1108,1108,1108,1105,1105,0,0,0,0,0,0,0,713,711,711,710,710,708,707,707,706,703,701,700,700,698,697,697,697,697,697,697,697,698,701,703,704,704,706,707,710,713,713,713,714,714,0,0,0,0,0,0,0,0,0,1297,1297,1297,1297,1297,1297,1297,1297,1302,1307,1307,1307,1307,1307,1312,1312,1312,1312,1312,1317,1317,1322,1322,1322,1322,1317,1317,1317,1317,1317,1317,1317,1317,1317,1317,1317,1317,1322,1322,1322,1322,1322,1322,1322,1322,1322,1317,1317,1317,1317,1317,1312,1312,1312,1312,1312,1312,1312,1312,1317,1322,1322,1322,1317,1317,1317,1312,1312,1312,1312,1312,1312,1312,1312,1312,1312,1312,1312,1312,1312,1312,1312,1312,1312,1312,1312,1312,1312,1312,1312,1312,1312,1312,1312,1312,1307,1307,1057,1057,1060,1063,1063,1063,1060,1060,1057,1057,1054,1054,1054,1054,1054,1054,1054,1057,1057,1063,1067,1067,1067,1067,1302,1302,1302,1307,1307,1307,1307,1307,1307,1312,1312,1312,1307,1307,1307,1307,1307,1307,1307,1307,1312,1312,1312,1312,1312,1312,1312,1312,1312,1312,1312,1312,1312,1312,1312,1312,1312,1312,1312,1312,1307,1307,1307,1307,1307,1307,1307,1307,1307,1307,1307,1307,1307,1307,1307,1307,1307,1307,1307,1307,1307,1307,1307,1307,1307,1307,1307,1307,1302,1302,1302,1302,1307,1302,1302,1302,1302,1302,1302,1302,1307,1307,1307,1307,1307,1307,1307,1302,1302,1302,1302,1302,1302,1302,1297,1297,1297,1297,1297,1302,1302,1297,1297,1297,1302,1297,1297,1297,1297,1297,1292,1292,1297,1297,1297,1302,1302,1302,1302,1302,1302,1297,1297,1292,1292,1292,1292,1292,1292,1292,1292,1292,1292,1292,1292,1292,1292,1292,1297,1297,1292,1292,1288,1288,1288,1288,1288,1288,1288,1292,1292,1292,1292,1292,1292,1292,1292,1292,1292,1292,1292,1292,1292,1189,1189,1193,1197,1197,1197,1197,1197,0,0,0,0,0,0,0,0,1145,1123,1123,1123,1126,1126,1123,1119,1119,1115,1115,1115,1115,1115,1115,1115,1115,1115,1115,1112,1108,1105,1101,1094,1094,1090,1090,1087,1080,1080,0,0,0,0,0,0,0,0,0,0,0,0,0,0,0,0,0,0,0,0,0,0,0,0,0,0,0,0,0,0,0,0,0
0,0,0,0,0,0,0,0,0,1317,1317,1317,1317,1317,1317,1317,1317,1312,1307,1307,1307,1307,1307,1312,1312,1312,1312,1317,1317,1317,1322,1322,1322,1322,1322,1317,1317,1317,1317,1317,1317,1312,1312,1317,1317,1317,1317,1317,1317,1317,1317,1317,1317,1317,1317,1317,1317,1317,1322,1322,1322,1322,1322,1322,1317,1317,1317,1317,1317,1317,1317,1317,1322,1322,1322,1322,1322,1322,1322,1317,1317,1317,1317,1317,1322,1322,1322,1322,1317,1317,1317,1317,1317,1317,1312,1312,1317,1317,1317,1312,1312,1312,0,0,0,0,0,0,978,978,975,970,967,967,967,967,967,967,967,967,967,970,973,975,975,978,978,981,984,984,984,989,989,989,1322,1322,1322,1322,1322,1322,1322,1322,1317,1317,1038,1038,1034,1034,1034,1034,1038,1041,1044,1044,1047,1047,1047,1050,1050,1050,1050,1050,1050,1054,1054,1054,1057,1057,1057,1060,1060,1060,1063,1067,1067,1067,1070,1070,1073,1073,1073,1077,1080,1084,1087,1087,1087,1087,1090,1090,1094,1097,1101,1105,1105,1105,1108,1108,1108,1108,1317,1317,1317,1317,1317,1317,1317,1317,1317,1317,1312,1312,1312,1312,1312,1312,1312,1312,1112,1112,1112,1108,1108,1108,0,0,0,0,0,0,0,0,0,0,716,713,711,710,710,708,708,707,706,703,703,701,700,698,698,697,697,697,697,697,698,698,701,703,704,706,706,707,710,713,713,714,714,714,0,0,0,0,0,0,0,0,0,1297,1297,1297,1297,1297,1297,1297,1297,1302,1307,1307,1307,1307,1307,1307,1307,1307,1307,1312,1312,1312,1312,1317,1317,1312,1312,1312,1312,1312,1312,1312,1312,1312,1312,1312,1312,1312,1317,1317,1317,1322,1317,1317,1317,1317,1317,1317,1312,1312,1312,1312,1312,1312,1312,1312,1312,1312,1312,1312,1312,1312,1317,1312,1312,1312,1312,1312,1307,1307,1307,1307,1307,1307,1307,1312,1312,1307,1307,1307,1307,1307,1307,1307,1307,1307,1307,1307,1307,1312,1312,1312,1312,1312,1312,1307,1307,1050,1050,1054,1057,1060,1060,1060,1060,1060,1057,1057,1054,1054,1054,1054,1054,1054,1054,1057,1060,1063,1067,1067,1067,1067,1297,1297,1297,1302,1302,1302,1307,1307,1307,1307,1307,1307,1307,1307,1307,1307,1307,1307,1307,1307,1307,1307,1307,1307,1312,1312,1312,1312,1312,1307,1307,1307,1307,1307,1307,1307,1307,1307,1307,1307,1307,1307,1307,1307,1307,1307,1307,1307,1302,1302,1302,1302,1302,1307,1307,1307,1302,1302,1302,1302,1307,1307,1302,1302,1302,1302,1302,1297,1297,1297,1297,1297,1297,1297,1297,1302,1297,1297,1297,1297,1302,1297,1297,1307,1307,1307,1307,1302,1297,1297,1297,1297,1297,1297,1292,1292,1292,1297,1297,1297,1297,1297,1297,1297,1292,1292,1292,1292,1292,1292,1292,1292,1292,1292,1297,1297,1297,1297,1297,1297,1297,1292,1292,1288,1288,1288,1288,1288,1288,1288,1288,1288,1288,1288,1288,1288,1288,1292,1288,1288,1288,1292,1288,1288,1288,1288,1288,1288,1288,1288,1288,1288,1288,1288,1288,1288,1288,1288,1288,1288,1288,1288,1288,1185,1185,1193,1193,1197,1197,1197,1197,0,0,0,0,0,0,0,1126,1126,1123,1123,1123,1123,1123,1119,1119,1115,1115,1115,1115,1115,1115,1115,1115,1115,1115,1112,1108,1108,1105,1097,1094,1090,1090,1090,1087,1080,1080,0,0,0,0,0,0,0,0,0,0,0,0,0,0,0,0,0,0,0,0,0,0,0,0,0,0,0,0,0,0,0,0,0
0,0,0,0,0,0,0,0,0,1312,1312,1312,1312,1312,1312,1312,1312,1312,1307,1307,1307,1307,1307,1307,1307,1307,1312,1312,1317,1317,1312,1312,1312,1317,1317,1317,1312,1312,1312,1312,1312,1312,1312,1312,1312,1312,1312,1312,1317,1317,1312,1312,1312,1312,1312,1312,1312,1317,1317,1317,1322,1322,1317,1317,1317,1312,1312,1312,1312,1312,1312,1312,1317,1317,1317,1317,1317,1317,1317,1312,1312,1317,1312,1312,1317,1317,1317,1317,1312,1312,1312,1312,1307,1307,1307,1307,1307,1312,1312,1307,1307,1307,1307,1307,0,0,0,0,978,978,973,970,967,967,967,967,967,967,967,967,970,970,973,975,975,978,978,981,984,984,984,989,989,989,1322,1322,1322,1322,1322,1322,1317,1317,1038,1038,1038,1038,1034,1034,1034,1038,1038,1041,1041,1044,1044,1047,1047,1047,1047,1047,1047,1050,1050,1050,1054,1054,1057,1057,1057,1060,1060,1060,1063,1067,1067,1067,1070,1070,1073,1073,1073,1077,1080,1084,1084,1087,1090,1090,1090,1094,1097,1097,1101,1105,1105,1105,1312,1312,1312,1312,1317,1317,1317,1317,1312,1312,1317,1312,1312,1312,1307,1307,1307,1307,1307,1307,1307,1307,1307,1307,1307,1307,1307,0,0,0,0,0,0,0,0,0,0,0,716,714,713,711,710,710,708,707,706,704,703,703,700,700,698,698,697,697,697,697,698,698,700,703,704,706,706,708,711,713,713,714,716,716,0,0,0,0,0,0,0,0,0,1302,1302,1302,1302,1297,1297,1297,1297,1302,1307,1307,1307,1307,1307,1307,1307,1307,1307,1307,1307,1307,1307,1307,1307,1307,1307,1307,1307,1307,1307,1307,1307,1307,1307,1307,1307,1307,1312,1312,1312,1317,1317,1312,1312,1312,1312,1312,1312,1312,1312,1312,1307,1307,1307,1307,1307,1307,1307,1307,1307,1312,1307,1307,1307,1307,1307,1307,1307,1307,1307,1307,1307,1307,1307,1307,1307,1307,1302,1302,1302,1302,1302,1302,1302,1302,1302,1302,1302,1307,1307,1307,1307,1312,1307,1050,1050,1050,1050,1054,1054,1054,1057,1057,1057,1060,1057,1057,1057,1054,1054,1054,1054,1054,1057,1060,1060,1067,1067,1067,1067,1067,1297,1292,1292,1297,1302,1302,1302,1302,1302,1302,1302,1302,1302,1302,1302,1302,1302,1302,1302,1302,1302,1302,1302,1302,1302,1302,1302,1307,1307,1307,1302,1302,1302,1302,1302,1302,1302,1302,1302,1302,1302,1302,1302,1302,1302,1302,1302,1302,1302,1302,1302,1302,1302,1302,1302,1302,1302,1297,1297,1302,1302,1302,1297,1297,1297,1297,1297,1297,1292,1292,1292,1292,1292,1292,1292,1292,1292,1292,1292,1292,1292,1292,1292,1292,1292,1297,1297,1292,1292,1292,1292,1292,1292,1292,1292,1292,1292,1292,1292,1292,1292,1292,1292,1292,1292,1292,1292,1292,1292,1292,1292,1292,1292,1292,1292,1292,1292,1292,1292,1292,1292,1288,1288,1288,1288,1283,1283,1283,1283,1288,1288,1288,1288,1283,1283,1283,1283,1283,1283,1283,1283,1283,1283,1283,1283,1283,1283,1283,1288,1288,1288,1288,1288,1288,1283,1283,1283,1288,1288,1288,1283,1283,1283,1185,1185,1193,1193,1197,1197,1197,1197,0,0,0,0,0,0,1126,1126,1126,1123,1123,1123,1119,1119,1119,1115,1115,1112,1112,1112,1115,1115,1115,1115,1112,1112,1108,1105,1105,1097,1094,1094,1090,1090,1087,1084,1077,1077,0,0,0,0,0,0,0,0,0,0,0,0,0,0,0,0,0,0,0,0,0,0,0,0,0,0,0,0,0,0,0,0,0
0,0,0,0,0,0,0,0,0,1307,1307,1307,1307,1307,1307,1312,1312,1307,1307,1307,1307,1302,1302,1307,1307,1307,1307,1312,1312,1312,1307,1307,1307,1307,1307,1307,1307,1307,1307,1307,1307,1307,1307,1307,1307,1307,1307,1307,1312,1312,1312,1312,1312,1307,1307,1307,1312,1312,1312,1312,1317,1317,1317,1312,1312,1312,1312,1312,1312,1312,1312,1312,1312,1312,1312,1312,1312,1312,1312,1312,1312,1312,1312,1312,1312,1312,1312,1312,1307,1307,1307,1307,1307,1307,1302,1302,1307,1307,1307,1307,1307,1307,1307,1307,0,0,0,0,984,981,973,970,967,967,967,967,967,967,967,967,970,970,973,975,978,978,981,981,984,984,984,989,989,989,989,1322,1322,1322,1322,1317,1034,1034,1034,1034,1034,1034,1034,1034,1038,1038,1034,1034,1038,1041,1044,1044,1044,1044,1044,1047,1047,1047,1050,1050,1050,1050,1054,1057,1057,1060,1060,1060,1063,1067,1067,1070,1070,1070,1073,1073,1077,1080,1080,1084,1084,1087,1090,1090,1094,1097,1097,1097,1101,1101,1105,1105,1307,1307,1307,1307,1312,1312,1312,1312,1312,1312,1312,1307,1307,1307,1307,1307,1307,1307,1307,1307,1307,1307,1307,1307,1307,1307,1302,1302,0,0,0,0,0,0,0,0,0,0,716,716,714,714,713,710,710,708,707,704,704,703,701,700,700,698,698,698,698,698,698,698,700,704,704,706,706,708,713,713,714,714,716,716,720,720,0,0,0,0,0,0,0,1302,1302,1302,1302,1302,1297,1297,1297,1302,1302,1302,1302,1302,1302,1302,1302,1302,1302,1302,1302,1302,1302,1302,1302,1302,1302,1302,1302,1302,1307,1307,1302,1302,1302,1302,1302,1302,1307,1307,1307,1307,1312,1307,1307,1307,1307,1307,1307,1307,1307,1307,1307,1307,1307,1307,1307,1307,1302,1302,1302,1302,1297,1297,1297,1302,1302,1302,1302,1302,1302,1302,1302,1302,1302,1302,1302,1297,1297,1302,1302,1297,1297,1297,1297,1297,1297,1297,1297,1297,1297,1302,1307,1307,1047,1047,1050,1050,1050,1050,1050,1054,1054,1054,1054,1057,1057,1057,1057,1054,1054,1054,1054,1057,1060,1060,1063,1067,1067,1067,1070,1292,1292,1292,1292,1297,1297,1297,1302,1302,1302,1297,1297,1297,1297,1297,1297,1297,1297,1297,1297,1302,1302,1302,1302,1302,1297,1297,1297,1297,1297,1297,1302,1302,1297,1297,1302,1302,1297,1297,1297,1297,1297,1297,1297,1297,1292,1292,1297,1297,1297,1302,1297,1297,1297,1297,1297,1297,1297,1292,1292,1297,1297,1292,1292,1292,1292,1292,1292,1292,1292,1288,1288,1288,1288,1288,1288,1288,1288,1288,1292,1292,1292,1292,1292,1292,1288,1288,1288,1288,1288,1292,1292,1292,1292,1292,1292,1292,1292,1292,1288,1288,1288,1288,1288,1288,1288,1288,1288,1288,1288,1288,1288,1288,1288,1288,1288,1288,1288,1288,1288,1288,1288,1288,1283,1283,1283,1283,1278,1278,1278,1283,1278,1278,1278,1278,1278,1278,1278,1278,1278,1278,1278,1283,1278,1278,1278,1278,1283,1283,1283,1283,1283,1283,1283,1283,1278,1278,1283,1283,1283,1283,1278,1278,1278,1278,1193,1193,1197,1197,1197,1193,1193,1193,1193,0,0,0,0,1123,1123,1123,1123,1119,1119,1119,1119,1115,1115,1115,1112,1112,1112,1115,1115,1115,1112,1112,1108,1105,1101,1097,1097,1094,1090,1090,1087,1084,1077,1073,1073,0,0,0,0,0,0,0,0,0,0,0,0,0,0,0,0,0,0,0,0,0,0,0,0,0,0,0,0,0,0,0,0,0
0,0,0,0,0,0,0,0,0,1302,1302,1302,1302,1302,1307,1307,1307,1307,1307,1302,1302,1302,1302,1307,1307,1307,1307,1307,1307,1307,1307,1302,1302,1302,1302,1307,1307,1307,1302,1302,1307,1307,1307,1307,1307,1302,1302,1307,1307,1307,1307,1307,1307,1307,1307,1307,1307,1307,1307,1307,1307,1312,1312,1307,1307,1307,1307,1307,1307,1307,1307,1302,1302,1302,1307,1302,1302,1307,1307,1307,1307,1307,1307,1307,1307,1307,1307,1307,1307,1307,1307,1307,1302,1302,1302,1302,1302,1302,1302,1302,1297,1297,1297,1297,1297,0,0,0,984,984,978,978,973,970,970,967,967,967,967,970,970,973,975,975,978,978,981,981,984,987,987,989,989,989,989,1322,1322,1322,1322,1031,1031,1031,1031,1034,1034,1034,1034,1034,1034,1038,1034,1034,1038,1038,1041,1041,1044,1044,1044,1047,1047,1047,1050,1050,1050,1050,1054,1057,1057,1060,1060,1060,1067,1067,1070,1070,1070,1070,1073,1077,1077,1080,1080,1084,1084,1087,1090,1090,1094,1097,1097,1101,1101,1101,1105,1297,1297,1302,1307,1307,1307,1307,1307,1307,1307,1307,1307,1307,1307,1307,1302,1302,1302,1302,1302,1302,1302,1302,1302,1302,1302,1302,1302,1302,1302,0,0,0,0,0,0,0,0,0,716,716,714,714,713,711,710,708,707,706,704,704,703,701,700,698,698,698,698,698,698,698,700,704,704,706,706,708,713,713,714,716,717,717,720,720,0,0,0,0,0,0,0,0,1302,1302,1297,1297,1297,1297,1297,1297,1302,1302,1302,1302,1302,1302,1302,1297,1297,1297,1297,1297,1297,1297,1297,1297,1297,1297,1297,1297,1297,1297,1297,1297,1302,1302,1297,1297,1302,1302,1302,1302,1307,1307,1307,1302,1302,1302,1302,1302,1302,1302,1302,1302,1302,1302,1302,1302,1302,1297,1297,1297,1297,1292,1292,1297,1297,1297,1297,1297,1302,1297,1297,1297,1297,1297,1302,1297,1297,1297,1297,1292,1292,1292,1292,1292,1292,1292,1297,1297,1297,1297,1297,1044,1044,1044,1047,1047,1050,1050,1050,1050,1050,1050,1054,1054,1054,1054,1057,1054,1054,1057,1057,1057,1060,1063,1063,1067,1067,1070,1070,1288,1288,1288,1288,1292,1292,1292,1297,1297,1297,1292,1292,1292,1292,1292,1292,1292,1292,1297,1297,1292,1292,1292,1297,1292,1292,1292,1292,1292,1292,1292,1292,1292,1292,1297,1297,1297,1297,1292,1292,1292,1292,1292,1292,1292,1292,1292,1292,1292,1292,1297,1292,1292,1292,1297,1292,1292,1292,1292,1292,1292,1292,1292,1292,1292,1292,1292,1288,1288,1288,1288,1288,1288,1283,1283,1283,1283,1283,1288,1288,1288,1288,1288,1288,1288,1288,1288,1288,1283,1283,1288,1288,1288,1288,1288,1288,1288,1288,1288,1288,1288,1288,1288,1288,1288,1288,1288,1288,1283,1283,1288,1288,1288,1283,1283,1283,1283,1283,1283,1288,1288,1283,1283,1283,1283,1278,1278,1278,1278,1278,1278,1278,1278,1278,1278,1278,1278,1278,1273,1273,1273,1278,1278,1278,1273,1273,1278,1273,1273,1273,1278,1278,1283,1283,1278,1278,1278,1278,1278,1278,1278,1278,1278,1278,1278,1197,1197,1197,1197,1193,1193,1193,1189,1185,1185,0,0,0,1123,1123,1123,1119,1119,1119,1119,1119,1115,1115,1115,1115,1115,1115,1115,1115,1115,1112,1108,1105,1101,1097,1094,1094,1090,1087,1087,1084,1080,1077,1073,1073,0,0,0,0,0,0,0,0,0,0,0,0,0,0,0,0,0,0,0,0,0,0,0,0,0,0,0,0,0,0,0,0,0
0,0,0,0,0,0,0,0,0,1297,1297,1297,1302,1302,1302,1297,1297,1302,1302,1297,1297,1297,1297,1302,1302,1302,1302,1302,1302,1302,1302,1302,1302,1302,1302,1302,1302,1302,1302,1302,1302,1302,1302,1302,1302,1302,1302,1302,1307,1307,1307,1307,1307,1302,1302,1302,1302,1302,1302,1302,1302,1307,1307,1307,1307,1307,1307,1307,1307,1302,1302,1302,1297,1297,1302,1302,1302,1302,1302,1302,1302,1307,1307,1307,1307,1307,1307,1307,1307,1307,1307,1302,1302,1302,1297,1297,1297,1297,1297,1297,1297,1297,1297,1297,1297,0,0,0,0,987,981,981,978,973,973,970,970,970,970,970,973,973,975,975,978,978,981,981,984,987,987,989,989,989,989,1317,1317,1317,1317,1031,1031,1031,1031,1031,1031,1031,1031,1031,1034,1034,1034,1034,1034,1034,1038,1038,1041,1041,1041,1047,1047,1047,1050,1050,1050,1050,1054,1057,1057,1060,1060,1063,1067,1067,1070,1070,1073,1073,1073,1077,1077,1080,1080,1084,1084,1087,1087,1090,1094,1097,1097,1101,1101,1292,1292,1297,1297,1302,1302,1302,1307,1307,1307,1302,1302,1302,1297,1297,1302,1302,1302,1302,1297,1297,1302,1302,1297,1297,1297,1297,1297,1297,1297,1297,1297,0,0,0,0,0,0,0,0,0,716,716,716,716,713,711,710,708,707,706,704,704,703,701,700,698,698,698,698,698,698,698,700,704,704,706,707,708,713,713,714,716,717,719,720,722,0,0,0,0,0,0,0,0,1302,1302,1297,1292,1292,1292,1292,1292,1297,1297,1297,1297,1297,1297,1297,1297,1292,1292,1292,1292,1292,1292,1292,1297,1292,1292,1292,1292,1297,1292,1292,1292,1292,1292,1288,1288,1297,1297,1297,1297,1297,1297,1302,1302,1302,1297,1297,1302,1302,1297,1297,1297,1297,1297,1302,1297,1297,1292,1292,1292,1292,1292,1292,1292,1292,1292,1292,1292,1292,1297,1292,1292,1292,1297,1292,1292,1292,1292,1292,1292,1292,1292,1292,1288,1288,1288,1292,1292,1292,1034,1034,1038,1041,1041,1044,1044,1047,1047,1047,1047,1050,1050,1050,1050,1050,1054,1054,1054,1054,1057,1057,1060,1060,1063,1063,1067,1070,1070,1073,1283,1283,1288,1288,1288,1288,1292,1292,1292,1292,1292,1292,1292,1292,1292,1288,1288,1288,1292,1292,1292,1292,1292,1292,1292,1292,1288,1288,1288,1288,1288,1288,1288,1288,1288,1292,1288,1288,1292,1292,1288,1288,1288,1288,1288,1288,1288,1288,1288,1292,1292,1292,1292,1292,1292,1292,1292,1292,1288,1288,1292,1288,1288,1288,1288,1288,1288,1288,1288,1288,1288,1283,1283,1283,1278,1278,1278,1278,1283,1283,1283,1283,1283,1283,1283,1283,1283,1283,1278,1278,1283,1283,1283,1283,1283,1283,1283,1283,1283,1278,1278,1278,1283,1283,1283,1283,1283,1283,1278,1278,1278,1278,1278,1278,1278,1278,1278,1278,1278,1283,1283,1283,1278,1278,1278,1273,1273,1273,1273,1273,1273,1273,1273,1273,1273,1273,1273,1273,1273,1273,1273,1273,1273,1273,1273,1273,1273,1273,1273,1273,1273,1273,1273,1278,1278,1278,1278,1273,1273,1273,1273,1273,1273,1273,1273,1197,1197,1197,1197,1193,1193,1189,1189,1185,1185,1185,0,0,1123,1123,1123,1119,1119,1119,1119,1119,1115,1115,1115,1115,1115,1115,1115,1112,1112,1108,1105,1105,1101,1097,1094,1090,1090,1084,1084,1080,1077,1073,1070,1070,0,0,0,0,0,0,0,0,0,0,0,0,0,0,0,0,0,0,0,0,0,0,0,0,0,0,0,0,0,0,0,0,0
