0,0,0,0,0,0,0,0,0,0,0,0,0,0,0,1926,1926,1936,1936,1936,1947,1947,1936,1936,1926,1926,1926,1926,1915,1915,1915,1915,1915,1915,1904,1904,1904,0,0,0,0,0,0,0,0,0,0,0,0,956,954,951,951,951,948,948,951,0,0,0,0,0,0,0,0,0,0,0,0,672,670,668,663,663,661,661,661,663,663,663,663,664,664,661,661,658,658,657,657,657,658,657,657,658,657,657,658,659,659,659,659,659,659,657,657,657,657,658,658,658,658,658,659,659,659,659,661,661,662,663,663,664,664,664,664,666,666,666,667,670,670,670,671,671,672,674,674,675,675,675,676,676,678,680,680,682,682,683,683,686,686,686,687,687,687,688,688,691,691,693,693,694,700,700,701,707,707,708,708,710,711,713,713,714,714,717,719,720,720,720,722,722,723,723,723,725,727,727,727,728,730,730,731,733,733,734,736,738,739,739,739,741,741,741,742,742,746,747,747,749,749,750,752,752,754,754,755,757,759,759,761,761,762,762,764,766,766,766,767,769,771,771,773,773,774,774,776,778,780,780,781,783,785,787,787,787,789,789,790,792,794,794,796,796,796,798,800,800,802,803,805,807,807,809,809,811,811,811,811,811,813,813,817,819,819,819,821,821,823,825,825,827,827,833,833,837,837,837,839,1794,1813,1804,1804,1813,1813,1813,1813,1794,1794,0,0,0,0,0,0,0,0,0,0,0,0,891,889,889,889,887,885,882,880,880,878,878,878,878,878,878,880,880,882,885,885,887,887,887,889,889,889,889,889,896,896,0,0,0,0,0,0,0,1705,1705,1696,1696,1696,1688,1680,1680,1671,1671,1663,1663,1655,1655,1647,1639,1639,1632,1632,1624,1624,1616,1609,1609,1601,1601,1594,1586,1586,1586,1579,1579,1572,1564,1564,1557,1557,1550,1550,1543,1543,1543,1543,1536,1529,1523,1523,1523,1516,1516,1509,1509,1509,1503,1503,1496,1489,1489,1489,1483,1477,1470,1470,1470,1464,1464,1458,1458,1452,1445,1445,1439,1439,1433,1427,1421,1421,1415,1415,1415,1410,1410,1404,1404,1398,1398,1398,1392,1392,1387,1387,1381,1376,1376,1370,1370,1370,1365,1365,1354,1354,1354,1349,1349,1343,1338,1338,1333,1333,1333,1328,1328,1322,1322,1317,1317,1312,1312,1307,1307,1307,1302,1302,1297,1292,1288,1288,1283,1283,1278,1278,1273,1273,1268,1264,1264,1259,1255,1255,1250,1250,1250,1250,1245,1245,1241,1236,1236,1236,1232,1227,1223,1223,1219,1214,1214,1214,1210,1206,1206,1202,1202,1202,1197,1197,1197,1197,1189,1185,1185,1181,1181,1181,1177,1173,1173,1169,1169,1165,1165,1161,1157,1153,1153,1153,1149,1149,1149,1145,1141,1138,1138,1134,1134,1134,1130,1130,1126,1123,1123,1119,1119,1115,1115,1112,1108,1108,1105,1105,1101,1101,1097,1094,1094,1094,1090,1090,1087,1087,1084,1084,1080,1080,1080,1080,1077,1073,1073,1070,1067,1063,1063,1063,1060,1060,1057,1054,1054,1050,1050,1047,1047,1044,1044,1041,1041,1038,1038,1034,1034,1034,1028,1028,1028,1025,1025,1025,1022,1022,1019,1019,0,0,0,0,0,0,0,0,0,0,0,0,0,0,0,0,0,0,0,0,0,0,0,0,0,0,0,0,0,0,0
0,0,0,0,0,0,0,0,0,0,0,0,0,0,0,1926,1926,1936,1936,1936,1936,1936,1936,1926,1926,1915,1915,1915,1915,1915,1904,1904,1904,1904,1904,1894,1883,1883,0,0,0,0,0,0,0,0,0,0,0,0,956,956,956,954,954,951,951,0,0,0,0,0,0,0,0,0,0,0,0,0,0,0,663,657,657,654,654,659,659,663,663,664,664,661,661,655,655,654,654,654,655,654,654,655,653,653,654,654,655,655,657,657,657,655,655,655,655,657,657,657,657,657,658,658,659,659,659,659,661,661,663,664,664,664,664,666,666,666,667,670,670,670,671,672,672,674,674,675,675,675,676,678,679,680,680,682,683,684,684,687,687,688,690,690,690,690,691,693,693,693,693,694,704,704,706,707,708,708,710,710,713,713,713,714,716,717,719,720,720,720,722,722,723,723,725,727,727,728,728,728,730,730,731,733,734,734,736,738,739,739,741,741,741,742,742,744,746,747,747,749,750,750,752,754,754,755,757,759,759,761,761,761,762,762,764,766,766,767,767,769,771,773,773,773,774,776,776,780,780,781,781,785,787,787,787,787,789,789,790,792,794,796,796,796,796,798,800,802,803,803,805,807,809,809,811,811,811,811,811,811,811,811,817,819,819,819,821,821,821,821,1823,1823,1823,1804,1794,1794,1794,841,841,1794,1804,1804,1804,1813,1804,1804,1804,1794,1794,0,0,0,0,0,0,0,0,0,0,0,0,891,891,891,889,887,887,885,882,880,880,878,878,878,878,878,880,880,882,885,885,887,887,889,889,891,894,894,894,896,896,0,0,0,0,0,0,0,1705,1705,1696,1696,1696,1688,1680,1680,1671,1671,1663,1663,1663,1655,1647,1647,1639,1632,1632,1632,1624,1624,1616,1609,1601,1601,1601,1594,1586,1586,1579,1579,1579,1572,1564,1564,1564,1557,1550,1550,1543,1543,1543,1536,1529,1523,1523,1523,1516,1516,1509,1509,1509,1503,1503,1496,1496,1496,1489,1489,1483,1477,1477,1470,1470,1464,1464,1458,1452,1445,1445,1439,1439,1433,1427,1427,1421,1421,1415,1415,1415,1410,1404,1404,1398,1398,1398,1392,1392,1392,1387,1381,1376,1376,1376,1370,1370,1365,1365,1359,1354,1354,1349,1349,1349,1343,1338,1338,1333,1333,1333,1328,1328,1322,1322,1317,1312,1312,1307,1307,1307,1302,1302,1297,1292,1288,1288,1283,1283,1278,1278,1273,1273,1268,1268,1264,1259,1255,1255,1250,1250,1250,1250,1250,1245,1241,1241,1236,1236,1232,1232,1227,1223,1219,1219,1214,1214,1210,1210,1206,1206,1202,1202,1197,1197,1197,1197,1189,1185,1185,1185,1181,1181,1181,1177,1173,1169,1169,1165,1165,1161,1157,1157,1153,1153,1149,1149,1149,1145,1145,1141,1138,1138,1138,1134,1134,1130,1126,1123,1123,1119,1119,1115,1115,1112,1112,1108,1105,1105,1101,1101,1097,1094,1094,1094,1090,1090,1087,1087,1084,1084,1080,1080,1080,1080,1077,1073,1073,1070,1067,1063,1063,1063,1063,1060,1057,1057,1054,1050,1050,1050,1047,1044,1044,1041,1041,1038,1038,1038,1034,1034,1031,1028,1028,1028,1025,1025,1022,1022,1019,1019,0,0,0,0,0,0,0,0,0,0,0,0,0,0,0,0,0,0,0,0,0,0,0,0,0,0,0,0,0,0,0
0,0,0,0,0,0,0,0,0,0,0,0,0,0,0,1926,1926,1926,1926,1926,1926,1926,1915,1915,1915,1915,1915,1915,1915,1915,1894,1894,1883,1883,1894,1894,1883,1883,0,0,0,0,0,0,0,0,0,0,0,0,956,956,956,956,954,954,956,964,964,0,0,0,0,0,0,0,0,0,0,0,0,0,0,657,653,652,652,650,650,650,642,642,642,650,650,650,650,650,650,650,649,649,649,649,649,650,650,650,652,652,652,652,653,654,654,655,655,655,657,657,657,657,658,658,659,659,659,659,661,661,663,664,664,666,666,666,666,666,670,671,671,672,672,672,672,674,675,675,676,676,676,680,680,682,682,683,684,686,686,690,690,693,693,694,696,697,697,693,693,694,704,704,704,707,707,708,708,710,710,711,713,713,714,716,717,719,720,720,720,720,722,722,723,725,727,727,728,728,728,730,730,731,733,733,734,734,736,738,739,739,741,741,741,742,744,746,747,747,747,749,750,752,752,754,755,757,759,759,759,761,761,761,762,764,766,766,767,767,769,771,771,773,773,774,776,776,778,780,781,781,781,785,787,787,787,789,789,790,792,794,794,796,796,796,796,800,800,802,803,803,805,807,809,809,811,811,811,811,811,811,809,809,809,809,809,1794,1804,1813,1813,1813,1823,1823,1813,1804,1794,1794,1794,1794,1794,1794,1804,1804,1804,1804,1804,1804,1804,1785,1785,0,0,0,0,0,0,0,0,0,0,0,0,0,891,891,891,889,887,885,882,880,880,878,878,878,878,880,880,882,882,885,887,887,887,889,891,891,894,896,896,898,898,0,0,0,0,0,0,0,1705,1705,1696,1696,1696,1688,1680,1680,1671,1671,1663,1663,1663,1655,1655,1647,1639,1639,1632,1632,1624,1624,1616,1609,1609,1601,1601,1594,1586,1586,1586,1579,1579,1572,1572,1564,1564,1557,1550,1550,1543,1543,1543,1536,1536,1523,1523,1523,1516,1516,1516,1509,1509,1503,1503,1496,1496,1496,1489,1489,1483,1483,1483,1477,1470,1464,1464,1458,1452,1445,1445,1439,1439,1433,1433,1427,1427,1421,1421,1415,1415,1415,1410,1410,1410,1404,1398,1398,1392,1392,1387,1387,1381,1376,1376,1370,1370,1370,1365,1359,1359,1354,1354,1349,1349,1343,1338,1338,1333,1333,1328,1328,1328,1322,1322,1317,1312,1312,1307,1307,1307,1307,1302,1302,1292,1292,1288,1288,1283,1283,1278,1278,1273,1273,1268,1264,1259,1255,1255,1250,1250,1250,1250,1250,1245,1241,1241,1241,1236,1232,1232,1227,1223,1219,1219,1214,1214,1214,1210,1210,1206,1202,1202,1197,1197,1197,1197,1189,1189,1185,1185,1181,1181,1181,1177,1173,1169,1169,1165,1165,1161,1161,1157,1153,1153,1149,1149,1149,1145,1145,1141,1138,1138,1134,1134,1134,1130,1126,1123,1123,1119,1119,1119,1115,1115,1112,1108,1105,1105,1101,1101,1097,1094,1094,1094,1094,1090,1087,1087,1087,1084,1080,1080,1080,1080,1077,1077,1073,1070,1067,1063,1063,1063,1063,1060,1060,1057,1057,1054,1050,1047,1047,1044,1044,1041,1041,1041,1038,1038,1034,1034,1031,1028,1028,1028,1025,1025,1022,1022,1019,1019,0,0,0,0,0,0,0,0,0,0,0,0,0,0,0,0,0,0,0,0,0,0,0,0,0,0,0,0,0,0,0
0,0,0,0,0,0,0,0,0,0,0,0,0,0,0,1915,1904,1904,1915,1915,1915,1904,1904,1904,1904,1904,1904,1915,1904,1894,1894,1883,1883,1883,1894,1883,1883,1883,0,0,0,0,0,0,0,0,0,0,0,0,959,959,959,959,959,959,959,964,964,964,0,0,0,0,0,0,0,0,0,0,0,0,0,0,650,648,647,646,646,646,642,642,642,642,644,647,648,648,648,648,647,647,647,647,648,648,649,650,650,650,650,650,652,652,652,654,654,655,655,655,657,657,658,658,659,659,659,661,661,662,664,664,664,666,666,666,666,666,670,671,671,671,672,672,672,675,675,676,676,676,680,682,683,683,683,683,686,687,688,691,693,694,696,697,698,698,700,701,701,704,704,707,707,708,708,708,710,710,710,713,713,714,714,716,719,719,720,720,720,722,722,722,723,725,727,727,728,728,730,730,731,731,733,734,734,736,738,738,739,741,741,742,742,742,746,747,747,747,749,749,752,752,754,755,757,757,759,759,759,761,761,761,762,764,767,767,767,767,769,771,773,773,774,774,778,778,780,780,781,781,783,785,787,787,787,789,790,790,792,794,794,796,796,798,798,800,802,802,803,803,805,807,809,811,811,811,811,811,811,811,809,809,809,0,0,0,0,1804,1813,1813,1813,1813,1813,1794,1794,1794,1794,1794,1794,1794,1804,1804,1794,1794,1794,1794,1794,1785,1785,1785,0,0,0,0,0,0,0,0,0,0,0,0,891,891,891,889,887,887,885,882,880,880,880,880,880,880,880,882,885,887,887,887,889,889,894,894,894,896,896,896,896,0,0,0,0,0,0,0,1705,1705,1696,1696,1696,1688,1688,1680,1671,1671,1663,1663,1663,1655,1655,1647,1639,1639,1632,1632,1624,1624,1616,1609,1609,1601,1601,1594,1586,1586,1586,1579,1579,1579,1572,1572,1564,1557,1550,1550,1543,1543,1543,1536,1536,1523,1523,1523,1523,1516,1516,1509,1509,1503,1503,1496,1496,1496,1489,1489,1483,1483,1483,1477,1477,1470,1464,1464,1458,1452,1445,1445,1439,1439,1433,1433,1427,1427,1421,1421,1415,1415,1410,1410,1410,1404,1398,1398,1392,1392,1387,1387,1381,1376,1376,1376,1370,1370,1365,1365,1359,1354,1354,1349,1349,1343,1338,1338,1333,1333,1328,1328,1328,1322,1322,1317,1312,1312,1312,1312,1307,1307,1307,1302,1297,1292,1292,1288,1283,1283,1278,1278,1273,1273,1268,1268,1264,1255,1255,1250,1250,1250,1250,1250,1245,1241,1241,1241,1236,1236,1232,1232,1223,1223,1219,1219,1214,1214,1214,1210,1210,1206,1202,1202,1197,1197,1197,1189,1189,1185,1185,1181,1181,1181,1177,1173,1169,1169,1165,1165,1161,1161,1157,1153,1153,1153,1149,1149,1149,1145,1141,1138,1138,1134,1134,1134,1130,1126,1126,1123,1123,1119,1119,1115,1115,1112,1108,1105,1105,1105,1101,1101,1097,1097,1094,1094,1090,1090,1090,1087,1084,1084,1080,1080,1080,1077,1077,1073,1070,1067,1063,1063,1063,1063,1060,1060,1060,1057,1054,1050,1047,1047,1044,1044,1041,1041,1041,1041,1038,1038,1038,1034,1031,1028,1028,1025,1025,1022,1022,1019,1019,0,0,0,0,0,0,0,0,0,0,0,0,0,0,0,0,0,0,0,0,0,0,0,0,0,0,0,0,0,0,0
0,0,0,0,0,0,0,0,0,0,0,0,0,0,0,1904,1904,1904,1904,1894,1894,1894,1883,1883,1883,1883,1883,1883,1883,1883,1883,1883,1883,1883,1883,1883,1883,1894,0,0,0,0,0,0,0,0,0,0,0,0,0,962,962,962,962,962,962,964,964,964,964,0,0,0,0,0,0,0,0,0,0,0,0,0,648,647,646,644,644,642,642,642,642,642,642,646,646,647,647,647,646,646,647,647,647,647,648,649,650,650,650,650,652,652,652,653,654,654,654,655,657,657,658,658,659,659,659,661,661,662,664,664,666,666,666,666,666,667,670,671,671,671,674,674,674,675,676,676,678,678,683,683,684,684,684,688,690,691,691,693,696,696,697,698,698,700,701,701,703,704,706,707,707,708,708,710,710,710,711,713,714,714,716,716,719,719,720,720,720,722,722,723,725,727,727,727,728,728,730,731,731,733,733,734,734,736,738,739,741,741,741,742,742,744,746,747,747,747,749,750,752,754,754,755,757,759,759,759,759,761,761,762,764,766,767,769,771,771,771,773,773,774,774,776,778,778,780,780,781,781,783,787,787,787,789,790,792,792,794,794,794,796,796,798,798,800,802,802,803,803,807,807,809,811,811,811,811,813,813,813,813,813,1757,0,0,1794,1794,1804,1804,1804,1804,1804,1804,1794,1794,1794,1794,1794,1794,1794,1794,1794,1794,1794,1794,1794,1794,1776,1776,1776,0,0,0,0,0,0,0,0,0,0,0,894,894,894,891,889,889,887,885,882,882,880,880,880,880,880,882,885,887,887,887,887,889,889,894,894,894,896,896,896,896,0,0,0,0,0,0,0,1705,1705,1705,1696,1696,1688,1688,1680,1671,1663,1663,1663,1663,1655,1655,1647,1639,1639,1639,1632,1632,1624,1616,1616,1609,1601,1601,1594,1594,1586,1586,1586,1579,1579,1572,1572,1564,1564,1557,1550,1543,1543,1543,1536,1536,1536,1529,1523,1523,1516,1516,1516,1509,1509,1503,1496,1496,1496,1489,1489,1483,1483,1483,1483,1477,1470,1464,1464,1458,1452,1452,1445,1439,1439,1439,1439,1433,1427,1427,1421,1421,1415,1415,1410,1410,1404,1404,1398,1392,1392,1387,1387,1381,1376,1376,1376,1370,1370,1365,1365,1359,1354,1354,1349,1349,1343,1338,1338,1333,1333,1328,1328,1328,1328,1322,1317,1317,1312,1312,1312,1307,1307,1307,1302,1302,1292,1292,1288,1288,1288,1283,1278,1273,1273,1268,1268,1264,1259,1255,1255,1255,1250,1250,1250,1245,1241,1241,1236,1236,1236,1232,1227,1227,1223,1219,1219,1214,1214,1214,1210,1210,1206,1202,1202,1197,1197,1197,1193,1189,1189,1185,1185,1181,1181,1177,1173,1169,1169,1165,1165,1165,1161,1157,1153,1153,1153,1149,1149,1149,1145,1141,1138,1138,1138,1138,1134,1134,1130,1126,1123,1123,1119,1119,1119,1115,1112,1108,1105,1105,1105,1101,1101,1097,1097,1094,1094,1094,1090,1090,1090,1087,1084,1084,1080,1080,1080,1077,1073,1070,1067,1067,1067,1063,1063,1063,1060,1060,1057,1054,1050,1050,1047,1044,1044,1044,1044,1041,1041,1038,1038,1038,1034,1034,1028,1028,1028,1025,1025,1022,1019,1019,0,0,0,0,0,0,0,0,0,0,0,0,0,0,0,0,0,0,0,0,0,0,0,0,0,0,0,0,0,0,0
0,0,0,0,0,0,0,0,0,0,0,0,0,0,0,1904,1894,1894,1894,1883,1883,1883,1883,1883,1883,1873,1873,1873,1883,1883,1883,1883,1883,1883,1883,1883,1883,1883,1883,0,0,0,0,0,0,0,0,0,0,0,0,964,964,964,967,962,962,964,964,964,964,0,0,0,0,0,0,0,0,0,0,0,0,0,647,647,646,644,643,642,642,641,641,641,642,643,643,644,644,644,644,646,646,646,647,647,648,649,649,649,650,650,652,652,652,653,654,654,654,655,655,657,658,658,659,659,661,661,662,662,664,664,666,666,666,666,666,667,671,671,672,672,675,675,675,676,679,679,679,686,686,686,686,687,688,690,691,693,693,694,696,697,698,700,700,701,703,703,703,704,706,707,707,708,708,710,710,711,713,714,714,716,716,717,719,719,720,720,722,722,723,723,725,727,727,728,728,730,730,731,731,733,733,734,734,736,738,739,741,741,741,742,742,744,746,747,747,749,749,750,752,754,755,757,759,759,759,759,761,761,761,762,764,767,769,771,771,771,773,773,774,774,776,778,778,778,780,781,781,783,787,787,787,789,789,792,792,794,794,794,794,796,796,798,798,800,802,802,803,803,805,807,809,811,813,811,811,815,815,0,0,1757,1757,1766,1766,1794,1794,1794,1794,1794,1794,1794,1794,1785,1785,1785,1785,1785,1785,1794,1794,1794,1794,1794,1785,1785,1776,1766,1766,1766,0,0,0,0,0,0,0,0,0,0,0,894,894,894,891,891,889,887,885,882,882,880,880,880,880,882,882,885,887,887,887,889,889,891,894,894,894,896,894,894,896,0,0,0,0,0,0,0,1705,1705,1705,1696,1696,1696,1688,1680,1671,1663,1663,1663,1663,1655,1655,1647,1639,1639,1639,1632,1632,1624,1624,1616,1609,1609,1601,1601,1594,1594,1586,1586,1579,1579,1572,1572,1564,1564,1557,1550,1550,1543,1543,1543,1536,1536,1529,1523,1523,1523,1516,1516,1509,1509,1503,1496,1496,1489,1489,1489,1483,1483,1483,1483,1477,1470,1464,1464,1458,1458,1452,1445,1445,1439,1439,1439,1439,1433,1427,1421,1421,1415,1415,1410,1410,1404,1404,1398,1392,1392,1392,1387,1381,1376,1376,1376,1376,1370,1370,1370,1365,1359,1354,1354,1349,1343,1343,1338,1333,1333,1333,1328,1328,1328,1322,1317,1317,1312,1312,1312,1307,1307,1307,1302,1302,1297,1292,1288,1288,1288,1283,1278,1273,1273,1268,1268,1264,1259,1255,1255,1255,1250,1250,1250,1245,1241,1236,1236,1236,1236,1232,1227,1227,1223,1219,1219,1214,1214,1214,1210,1210,1206,1202,1202,1197,1197,1193,1193,1189,1189,1185,1185,1181,1181,1177,1173,1169,1169,1165,1165,1165,1161,1157,1153,1153,1153,1153,1149,1149,1145,1145,1138,1138,1138,1138,1134,1134,1130,1126,1126,1123,1119,1119,1119,1115,1112,1108,1108,1105,1105,1105,1101,1097,1097,1097,1094,1094,1090,1090,1090,1087,1084,1084,1080,1080,1080,1077,1073,1070,1067,1067,1067,1063,1063,1063,1060,1060,1057,1054,1050,1050,1047,1047,1044,1044,1044,1041,1041,1038,1038,1038,1034,1034,1028,1028,1028,1028,1025,1025,1022,1022,0,0,0,0,0,0,0,0,0,0,0,0,0,0,0,0,0,0,0,0,0,0,0,0,0,0,0,0,0,0,0
0,0,0,0,0,0,0,0,0,0,0,0,0,0,0,1894,1883,1883,1883,1883,1873,1873,1873,1873,1873,1873,1873,1873,1873,1883,1883,1873,1873,1873,1873,1873,1873,1873,1883,0,0,0,0,0,0,0,0,0,0,0,0,964,964,964,967,964,964,964,964,964,964,0,0,0,0,0,0,0,0,0,0,0,0,0,647,646,644,643,642,642,642,641,641,641,641,642,642,643,643,643,644,644,646,646,647,647,648,649,649,649,650,650,652,652,653,653,654,654,654,655,655,657,658,658,659,659,661,661,662,663,664,664,664,667,666,666,667,671,671,672,672,674,676,676,678,683,684,686,686,687,687,687,688,690,691,691,693,694,697,697,697,698,698,700,700,701,703,703,704,706,707,707,708,708,710,710,711,711,714,714,716,716,716,717,719,719,720,720,722,723,725,725,727,727,728,728,730,730,731,733,733,733,733,734,736,736,738,739,741,741,742,742,744,746,747,747,750,750,750,752,754,755,757,757,759,759,759,761,761,761,762,764,766,767,771,771,771,773,773,773,774,776,778,778,780,780,781,781,783,783,787,787,787,789,789,792,792,794,794,794,794,796,796,798,800,800,802,802,803,803,803,807,809,813,813,815,815,815,1766,0,1757,1757,1757,1766,1766,1776,1776,1785,1794,1794,1785,1785,1785,1785,1776,1776,1776,1785,1785,1785,1794,1794,1785,1785,1785,1785,1766,1766,1766,1766,1766,0,0,0,0,0,0,0,0,0,0,896,896,896,896,894,891,889,885,882,882,882,882,882,882,885,885,885,887,887,889,889,889,891,894,894,894,896,894,894,896,0,0,0,0,0,0,0,1705,1705,1705,1705,1696,1696,1688,1680,1671,1663,1663,1663,1663,1655,1655,1647,1647,1639,1639,1632,1632,1624,1624,1616,1609,1609,1609,1601,1601,1594,1586,1586,1579,1579,1572,1572,1564,1564,1557,1550,1550,1550,1543,1543,1543,1536,1536,1529,1523,1523,1516,1516,1509,1509,1503,1496,1496,1489,1489,1489,1483,1483,1483,1483,1477,1470,1464,1464,1464,1458,1452,1445,1445,1439,1439,1439,1439,1433,1433,1421,1421,1421,1415,1415,1410,1404,1404,1398,1398,1392,1392,1387,1387,1376,1376,1376,1376,1370,1370,1370,1365,1359,1359,1354,1349,1349,1343,1343,1338,1333,1333,1328,1328,1328,1322,1322,1317,1312,1312,1312,1312,1307,1307,1307,1302,1297,1292,1292,1288,1288,1283,1283,1278,1273,1273,1268,1264,1259,1255,1255,1255,1250,1250,1250,1245,1241,1236,1236,1236,1236,1232,1232,1227,1223,1223,1219,1219,1214,1214,1214,1210,1206,1202,1202,1197,1197,1193,1193,1189,1185,1185,1185,1181,1181,1177,1173,1169,1169,1169,1165,1165,1161,1157,1157,1153,1153,1153,1153,1149,1145,1145,1138,1138,1138,1138,1134,1134,1130,1130,1126,1123,1119,1119,1115,1115,1112,1108,1108,1105,1105,1105,1101,1101,1101,1097,1094,1094,1090,1090,1090,1087,1087,1084,1080,1080,1080,1077,1073,1073,1070,1067,1067,1063,1063,1063,1063,1060,1057,1054,1054,1050,1047,1047,1044,1044,1044,1044,1041,1041,1038,1038,1038,1034,1031,1028,1028,1028,1025,1025,1022,1022,0,0,0,0,0,0,0,0,0,0,0,0,0,0,0,0,0,0,0,0,0,0,0,0,0,0,0,0,0,0,0
0,0,0,0,0,0,0,0,0,0,0,0,0,0,0,1883,1873,1873,1873,1873,1873,1863,1863,1863,1873,1873,1873,1873,1873,1873,1873,1863,1853,1853,1863,1863,1853,1853,1863,0,0,0,0,0,0,0,0,0,0,0,0,970,967,967,967,967,964,964,964,964,962,962,0,0,0,0,0,0,0,0,0,0,0,0,646,646,644,643,642,642,642,641,641,641,641,642,642,642,642,643,643,644,646,646,647,647,648,649,649,649,650,650,652,653,653,653,654,654,655,655,657,657,658,659,659,661,661,661,662,663,664,664,664,667,667,668,670,672,672,672,675,675,678,679,683,683,686,686,687,687,687,688,690,691,693,693,694,696,697,697,698,698,698,700,701,703,703,703,704,706,707,707,708,708,710,710,711,713,714,714,716,716,716,719,720,720,720,720,722,723,725,727,727,728,728,728,730,731,731,733,733,733,734,736,736,738,741,741,742,742,742,744,746,746,747,749,750,750,750,752,754,755,757,759,759,759,761,761,761,762,764,766,766,769,771,771,773,773,773,774,774,776,778,780,780,781,781,783,783,783,787,787,787,789,790,792,792,794,794,794,794,796,798,800,800,802,802,800,800,800,803,809,809,809,1181,1181,1776,1766,1766,1766,1766,1757,1757,1766,1766,1776,1776,1776,1785,1785,1785,1776,1776,1776,1776,1776,1776,1776,1776,1776,1785,1785,1776,1776,1776,1766,1766,1757,1757,1757,1757,0,0,0,0,0,0,0,0,0,0,0,898,896,896,896,891,889,885,885,882,882,882,882,882,885,885,885,887,887,889,889,889,894,896,896,896,896,896,896,896,0,0,0,0,0,0,0,1713,1705,1705,1705,1696,1696,1696,1688,1671,1663,1663,1663,1663,1655,1655,1655,1647,1647,1639,1632,1632,1632,1624,1624,1616,1609,1609,1609,1601,1594,1594,1586,1586,1579,1579,1572,1564,1564,1557,1557,1550,1550,1550,1543,1543,1543,1536,1536,1529,1523,1523,1516,1509,1509,1503,1496,1496,1489,1489,1489,1483,1483,1483,1483,1477,1470,1470,1464,1464,1458,1452,1445,1445,1439,1439,1439,1439,1439,1433,1427,1421,1421,1415,1415,1410,1404,1404,1398,1398,1392,1392,1387,1387,1381,1376,1376,1376,1370,1370,1370,1365,1359,1359,1354,1354,1349,1349,1349,1338,1333,1333,1328,1328,1328,1322,1322,1317,1317,1312,1312,1312,1312,1307,1307,1302,1292,1292,1292,1288,1288,1283,1283,1278,1273,1273,1273,1264,1259,1255,1255,1255,1255,1250,1250,1245,1241,1236,1236,1236,1236,1232,1232,1232,1227,1223,1219,1219,1214,1214,1214,1210,1206,1202,1202,1197,1197,1197,1193,1189,1185,1185,1185,1181,1181,1181,1177,1169,1169,1169,1165,1165,1161,1157,1157,1153,1153,1153,1153,1149,1149,1145,1141,1138,1138,1138,1134,1134,1130,1130,1126,1123,1119,1119,1115,1115,1112,1108,1108,1108,1105,1105,1105,1101,1101,1097,1097,1094,1094,1090,1090,1090,1090,1087,1084,1080,1080,1077,1077,1073,1073,1070,1067,1063,1063,1063,1063,1060,1060,1057,1054,1050,1050,1047,1044,1044,1044,1044,1041,1041,1038,1038,1038,1034,1031,1028,1028,1028,1025,1025,1025,1025,0,0,0,0,0,0,0,0,0,0,0,0,0,0,0,0,0,0,0,0,0,0,0,0,0,0,0,0,0,0,0
0,0,0,0,0,0,0,0,0,0,0,0,0,0,0,1873,1873,1873,1873,1873,1863,1863,1863,1863,1863,1873,1873,1873,1873,1873,1873,1853,1853,1853,1853,1853,1843,1843,1843,0,0,0,0,0,0,0,0,0,0,0,0,973,973,973,970,967,964,964,964,964,962,962,0,0,0,0,0,0,0,0,0,0,0,646,646,646,644,644,642,642,642,641,641,641,641,642,642,642,642,643,643,644,644,646,647,648,648,649,649,649,650,650,652,653,653,654,654,654,655,655,657,658,658,659,661,661,661,661,662,663,664,664,667,667,668,670,671,672,675,675,678,678,680,680,684,686,687,687,687,687,688,690,691,693,693,694,696,697,697,698,698,700,700,700,701,703,704,704,704,707,707,707,708,708,710,710,711,713,714,716,716,716,717,719,720,720,720,722,722,725,725,727,728,728,730,730,731,731,733,733,733,734,734,736,736,739,741,741,742,742,742,744,746,747,747,749,750,752,752,754,755,755,757,759,759,761,761,761,762,762,766,766,767,769,771,773,773,773,774,774,776,778,778,780,780,781,781,783,783,787,787,787,787,789,792,792,794,794,794,794,794,796,798,800,802,802,802,800,800,800,1181,1181,1177,1181,1181,0,0,1776,1766,1766,1766,1766,1766,1766,1776,1776,1776,1776,1776,1776,1776,1766,1766,1766,1766,1766,1766,1766,1766,1766,1776,1766,1766,1766,1766,1757,1757,1757,1748,1748,1757,0,0,0,0,0,0,0,0,0,0,0,906,898,896,896,896,889,887,885,882,882,882,882,882,885,885,887,887,889,889,889,891,894,896,896,896,896,896,896,896,0,0,0,0,0,0,0,1713,1705,1705,1705,1696,1696,1696,1688,1688,1671,1671,1663,1663,1655,1655,1655,1647,1647,1639,1639,1632,1632,1624,1624,1616,1616,1616,1609,1609,1601,1594,1594,1586,1579,1579,1572,1564,1564,1564,1557,1550,1550,1550,1543,1543,1543,1543,1536,1529,1523,1523,1516,1516,1509,1509,1503,1496,1489,1489,1489,1483,1483,1483,1477,1477,1470,1470,1470,1464,1458,1452,1445,1445,1445,1439,1439,1439,1439,1433,1427,1421,1421,1415,1415,1410,1410,1404,1398,1398,1398,1392,1392,1387,1381,1381,1376,1376,1370,1370,1370,1365,1365,1359,1354,1354,1354,1349,1349,1338,1338,1333,1328,1328,1328,1328,1322,1322,1317,1312,1312,1307,1307,1307,1307,1302,1292,1292,1292,1288,1288,1288,1283,1283,1278,1273,1268,1264,1259,1259,1255,1255,1255,1250,1250,1250,1245,1241,1236,1236,1236,1232,1232,1232,1227,1223,1219,1219,1214,1214,1214,1210,1206,1202,1202,1202,1197,1197,1193,1189,1185,1185,1185,1181,1181,1181,1177,1169,1169,1169,1165,1165,1161,1157,1157,1153,1153,1153,1153,1149,1149,1149,1141,1138,1138,1138,1134,1134,1130,1130,1126,1126,1123,1119,1119,1115,1115,1112,1108,1108,1108,1105,1105,1101,1101,1101,1097,1094,1094,1090,1090,1090,1090,1090,1084,1084,1080,1080,1077,1073,1073,1070,1070,1067,1063,1063,1063,1060,1060,1057,1054,1050,1050,1047,1047,1044,1044,1044,1041,1041,1041,1038,1038,1034,1031,1028,1028,1028,1025,1025,1025,1025,0,0,0,0,0,0,0,0,0,0,0,0,0,0,0,0,0,0,0,0,0,0,0,0,0,0,0,0,0,0,0
0,0,0,0,0,0,0,0,0,0,0,0,0,0,0,1873,1873,1873,1863,1863,1853,1853,1863,1853,1853,1863,1863,1863,1863,1863,1853,1853,1843,1843,1853,1843,1843,1843,1843,0,0,0,0,0,0,0,0,0,0,0,0,978,978,975,973,970,967,964,964,964,964,964,0,0,0,0,0,0,0,0,0,0,0,644,644,646,644,643,642,642,642,642,641,641,641,642,642,642,643,643,643,644,644,646,647,648,648,649,650,650,650,652,653,653,654,654,655,655,657,657,658,659,659,661,661,662,662,662,663,664,666,666,667,668,670,671,672,674,676,678,680,680,682,682,686,686,687,687,687,688,690,691,693,693,694,694,696,697,698,698,698,700,700,700,701,703,704,704,706,707,707,707,708,708,710,711,713,714,716,716,716,717,719,720,720,720,720,723,723,725,727,727,728,728,730,730,731,733,733,734,734,734,736,738,738,739,741,742,744,744,744,746,747,747,749,750,750,752,752,754,755,757,757,759,759,761,761,762,764,764,766,767,767,769,771,773,773,774,774,774,776,778,778,778,780,780,781,783,783,787,787,787,787,789,792,794,794,794,794,794,796,1165,1173,1173,802,802,803,803,1177,1177,1177,1177,1177,1181,1181,1173,1776,1776,1776,1766,1766,1766,1766,1766,1766,1766,1766,1766,1766,1766,1766,1766,1757,1757,1757,1757,1757,1757,1757,1757,1766,1757,1757,1757,1757,1757,1748,1739,1739,1739,1748,0,0,0,0,0,0,0,0,0,0,0,906,901,898,898,898,891,887,887,885,882,882,882,882,885,885,887,887,889,889,891,891,894,896,896,896,898,896,896,896,0,0,0,0,0,0,0,1713,1705,1705,1705,1696,1696,1696,1688,1688,1680,1671,1663,1663,1663,1655,1655,1647,1647,1639,1639,1639,1632,1624,1624,1616,1616,1616,1609,1609,1601,1601,1594,1586,1586,1579,1572,1572,1564,1564,1557,1557,1550,1550,1550,1543,1543,1543,1536,1529,1523,1523,1516,1516,1509,1509,1503,1496,1489,1489,1489,1483,1483,1483,1477,1477,1470,1470,1470,1464,1458,1452,1452,1445,1445,1445,1439,1439,1439,1433,1427,1427,1421,1415,1415,1410,1410,1404,1398,1398,1398,1392,1392,1392,1381,1381,1376,1376,1370,1370,1370,1365,1365,1359,1354,1354,1354,1354,1349,1343,1338,1333,1328,1328,1328,1328,1328,1322,1317,1312,1312,1307,1307,1307,1307,1302,1292,1292,1292,1288,1288,1288,1283,1283,1278,1273,1268,1268,1264,1259,1259,1255,1255,1255,1250,1250,1245,1241,1241,1236,1236,1232,1232,1232,1227,1227,1223,1219,1219,1214,1214,1210,1210,1206,1202,1202,1197,1197,1193,1189,1189,1185,1185,1181,1181,1181,1177,1173,1169,1169,1169,1165,1161,1157,1157,1153,1153,1153,1153,1149,1149,1149,1141,1138,1138,1138,1134,1134,1130,1130,1130,1126,1123,1119,1119,1115,1115,1112,1108,1108,1108,1105,1105,1105,1105,1101,1097,1097,1094,1094,1090,1090,1090,1090,1084,1084,1080,1080,1077,1073,1073,1073,1070,1067,1067,1063,1063,1060,1060,1060,1057,1054,1050,1050,1047,1047,1047,1047,1044,1041,1041,1041,1038,1038,1031,1031,1028,1028,1028,1025,1025,1025,0,0,0,0,0,0,0,0,0,0,0,0,0,0,0,0,0,0,0,0,0,0,0,0,0,0,0,0,0,0,0
0,0,0,0,0,0,0,0,0,0,0,0,0,0,1843,1843,1843,1863,1853,1853,1843,1843,1843,1843,1853,1853,1853,1853,1853,1853,1853,1853,1843,1843,1843,1843,1833,1833,1833,1833,0,0,0,0,0,0,0,0,0,0,0,0,978,975,973,973,967,967,964,964,964,964,970,0,0,0,0,0,0,0,0,0,0,644,644,646,644,643,642,642,642,642,641,641,641,642,642,643,643,644,644,644,646,646,647,648,649,649,650,650,652,652,653,654,654,654,655,655,657,658,659,659,661,661,662,663,663,664,668,671,672,675,675,676,676,675,675,676,679,679,682,682,683,684,686,686,687,687,687,688,690,691,693,694,694,696,697,697,698,698,698,700,700,701,703,704,704,706,706,707,707,708,708,708,710,711,713,714,716,716,717,717,720,720,720,720,722,723,723,727,727,728,728,728,730,731,733,733,733,734,734,736,738,738,739,741,742,744,744,744,746,747,747,749,749,750,752,752,754,754,755,757,757,759,761,761,762,762,764,766,767,767,769,769,771,773,773,774,774,774,776,778,778,778,780,780,781,783,783,785,785,787,787,787,787,1173,1169,1169,1169,1165,1165,1165,1169,1173,1173,1173,1177,1177,1177,1177,1177,1177,1177,1173,1173,0,1776,1776,1766,1757,1757,1766,1766,1766,1766,1766,1757,1757,1757,1757,1757,1757,1757,1757,1757,1757,1757,1748,1748,1748,1748,1748,1748,1748,1748,1748,1748,1739,1739,1739,1731,1731,0,0,0,0,0,0,0,0,0,0,906,903,901,901,898,896,894,889,887,885,885,885,885,885,887,887,889,889,891,891,894,894,896,896,898,898,896,896,896,0,0,0,0,0,0,0,1713,1705,1705,1705,1696,1696,1696,1688,1688,1680,1680,1671,1663,1663,1655,1655,1655,1647,1647,1639,1639,1632,1632,1624,1616,1616,1616,1609,1609,1601,1601,1594,1586,1586,1579,1572,1572,1572,1564,1557,1557,1557,1550,1550,1550,1543,1543,1536,1529,1523,1523,1516,1516,1509,1509,1503,1496,1496,1489,1489,1483,1483,1477,1477,1477,1470,1470,1470,1464,1464,1452,1452,1445,1445,1445,1445,1439,1439,1433,1427,1427,1421,1415,1415,1410,1410,1404,1398,1398,1398,1398,1392,1392,1387,1381,1381,1376,1370,1370,1370,1365,1365,1359,1354,1354,1354,1354,1349,1349,1343,1338,1333,1333,1328,1328,1328,1328,1322,1317,1312,1312,1307,1307,1307,1302,1297,1292,1292,1292,1288,1288,1283,1283,1278,1273,1268,1268,1264,1264,1259,1255,1255,1255,1250,1250,1245,1241,1241,1236,1236,1232,1232,1232,1227,1223,1223,1219,1219,1214,1214,1210,1210,1206,1202,1202,1202,1197,1193,1189,1189,1185,1185,1185,1181,1181,1177,1173,1169,1169,1169,1165,1165,1161,1157,1157,1153,1153,1153,1153,1149,1149,1145,1138,1138,1138,1134,1134,1134,1134,1130,1126,1123,1119,1119,1115,1115,1115,1112,1108,1108,1108,1105,1105,1105,1101,1097,1097,1094,1094,1094,1090,1090,1090,1087,1084,1080,1080,1077,1073,1073,1073,1070,1070,1067,1067,1063,1060,1060,1060,1057,1054,1054,1050,1050,1047,1047,1047,1044,1041,1041,1041,1041,1038,1034,1031,1028,1028,1028,1025,1025,1025,0,0,0,0,0,0,0,0,0,0,0,0,0,0,0,0,0,0,0,0,0,0,0,0,0,0,0,0,0,0,0
0,0,0,0,0,0,0,0,0,0,0,0,0,0,1833,1833,1833,1843,1843,1843,1833,1833,1843,1843,1843,1843,1843,1843,1843,1843,1843,1843,1833,1833,1833,1833,1823,1823,1804,1804,0,0,0,0,0,0,0,0,0,0,0,0,0,0,973,973,970,967,967,967,967,967,970,0,0,0,0,0,0,0,0,0,0,0,646,646,644,643,642,642,642,642,642,641,641,642,643,643,643,644,644,644,646,647,648,649,649,650,650,650,652,653,654,654,655,655,657,657,658,659,659,661,661,662,663,666,666,668,671,672,674,675,676,676,678,679,679,680,680,680,683,683,684,686,687,687,687,687,687,690,691,691,693,694,694,696,697,697,698,698,700,700,700,701,703,704,706,706,707,707,708,708,708,710,710,711,713,714,716,717,717,719,720,720,722,722,723,725,725,727,727,728,728,728,730,733,733,734,734,736,736,736,738,738,739,741,742,744,744,744,746,747,747,749,750,752,752,754,754,755,757,757,759,759,761,762,764,764,766,767,767,767,769,769,771,773,773,774,774,776,776,778,778,780,780,781,781,781,783,785,785,0,1177,1177,1173,1173,1173,1169,1165,1165,1165,1165,1165,1169,1173,1173,1177,1177,1177,1177,1177,1177,1177,1173,1173,0,0,1776,1757,1748,1748,1748,1748,1748,1748,1757,1757,1748,1748,1748,1748,1748,1748,1748,1748,1748,1748,1748,1739,1739,1748,1739,1739,1739,1739,1739,1739,1731,1722,1722,1722,1722,0,0,0,0,0,0,0,0,0,0,908,906,903,901,898,896,896,891,889,887,887,887,887,887,887,887,889,889,891,894,894,896,898,898,898,898,898,898,901,0,0,0,0,0,0,0,1705,1705,1705,1696,1696,1696,1696,1688,1688,1680,1680,1671,1663,1663,1663,1655,1655,1647,1647,1639,1639,1632,1632,1624,1624,1616,1616,1609,1609,1601,1601,1594,1594,1586,1579,1572,1572,1572,1564,1564,1557,1557,1550,1550,1550,1543,1543,1536,1529,1523,1523,1516,1516,1509,1509,1503,1496,1496,1489,1489,1489,1483,1477,1477,1477,1470,1470,1470,1464,1464,1458,1452,1452,1445,1445,1445,1439,1439,1433,1427,1427,1421,1421,1415,1415,1410,1404,1404,1398,1398,1398,1392,1392,1387,1387,1381,1376,1370,1370,1370,1365,1365,1359,1354,1354,1354,1354,1349,1349,1343,1338,1333,1333,1333,1333,1328,1328,1322,1322,1312,1312,1312,1307,1307,1302,1297,1292,1292,1292,1288,1288,1283,1283,1278,1278,1273,1268,1268,1264,1259,1259,1255,1255,1255,1250,1245,1245,1241,1236,1236,1232,1232,1232,1227,1223,1223,1219,1219,1219,1214,1214,1210,1206,1206,1202,1202,1197,1193,1193,1189,1185,1185,1185,1181,1181,1177,1177,1169,1169,1169,1165,1165,1161,1161,1157,1157,1153,1153,1153,1149,1149,1145,1138,1138,1138,1134,1134,1134,1134,1134,1126,1123,1123,1119,1119,1119,1115,1112,1108,1108,1108,1105,1105,1105,1101,1097,1097,1094,1094,1094,1090,1090,1090,1087,1084,1080,1080,1077,1077,1073,1073,1070,1070,1067,1067,1063,1063,1063,1060,1060,1054,1054,1050,1050,1047,1047,1047,1044,1041,1041,1041,1041,1038,1034,1031,1028,1028,1028,1025,1025,1025,0,0,0,0,0,0,0,0,0,0,0,0,0,0,0,0,0,0,0,0,0,0,0,0,0,0,0,0,0,0,0
0,0,0,0,0,0,0,0,0,0,0,0,0,0,1833,1833,1833,1833,1833,1833,1833,1833,1833,1833,1833,1833,1833,1833,1823,1823,1833,1833,1833,1833,1833,1823,1823,1823,1804,1804,1813,0,0,0,0,0,0,0,0,0,0,0,0,0,973,973,970,967,967,967,970,970,973,978,0,0,0,0,0,0,0,0,0,0,647,646,644,644,642,642,642,642,642,642,642,642,643,643,643,644,644,644,646,647,648,649,650,650,652,652,653,654,655,655,657,657,659,659,661,661,662,662,662,663,666,667,668,671,674,674,675,675,676,676,678,679,679,682,682,683,683,684,684,686,687,687,687,688,690,690,691,693,693,694,694,696,697,698,698,700,700,701,701,701,704,704,706,707,708,708,708,708,710,710,710,711,713,714,716,717,719,719,720,722,722,722,723,725,725,727,728,728,728,728,731,733,734,734,736,736,736,738,739,739,741,741,742,744,744,746,746,749,749,750,752,752,754,754,755,755,757,757,759,759,761,764,764,766,767,767,769,769,769,769,771,773,773,774,776,776,776,778,780,780,781,781,781,781,785,785,0,0,1177,1177,1173,1173,1173,1169,1165,1165,1165,1165,1165,1169,1169,1173,1177,1177,1177,1177,1177,1177,1177,1177,1177,0,1739,1739,1739,1739,1739,1739,1739,1739,1739,1739,1739,1739,1739,1739,1739,1739,1739,1739,1739,1739,1739,1739,1731,1731,1731,1731,1731,1731,1731,1731,1731,1731,1722,1722,1722,1722,1731,0,0,0,0,0,0,0,0,0,908,908,906,901,901,898,896,894,889,889,889,887,887,887,889,889,889,891,894,896,896,898,898,898,898,901,901,901,906,0,0,0,0,0,0,0,1705,1705,1705,1696,1696,1696,1696,1688,1688,1680,1680,1671,1671,1663,1663,1663,1655,1647,1647,1647,1639,1632,1632,1632,1624,1616,1616,1609,1609,1609,1601,1601,1594,1579,1579,1579,1572,1572,1572,1564,1564,1557,1557,1550,1550,1543,1543,1536,1529,1529,1523,1523,1516,1516,1509,1509,1503,1496,1496,1496,1489,1483,1477,1477,1477,1470,1470,1470,1464,1464,1464,1452,1452,1445,1445,1445,1439,1439,1433,1427,1427,1421,1415,1415,1415,1410,1404,1404,1398,1398,1398,1392,1392,1392,1387,1387,1376,1376,1370,1370,1365,1365,1359,1359,1354,1354,1354,1349,1349,1343,1338,1333,1333,1333,1333,1333,1328,1328,1322,1317,1312,1312,1307,1307,1302,1297,1292,1292,1292,1288,1288,1288,1283,1283,1278,1273,1268,1268,1264,1259,1259,1255,1255,1255,1250,1250,1245,1241,1236,1236,1232,1232,1232,1232,1227,1223,1223,1219,1219,1214,1214,1210,1210,1206,1206,1202,1197,1197,1193,1189,1185,1185,1185,1181,1181,1181,1177,1173,1169,1169,1165,1165,1161,1161,1161,1157,1153,1153,1153,1153,1149,1145,1141,1138,1138,1134,1134,1134,1134,1134,1130,1126,1126,1123,1119,1119,1115,1112,1112,1108,1108,1108,1105,1105,1105,1101,1097,1097,1094,1094,1090,1090,1090,1087,1084,1080,1080,1077,1077,1077,1073,1073,1070,1067,1067,1063,1063,1063,1060,1060,1057,1054,1054,1050,1050,1050,1047,1044,1044,1041,1041,1041,1038,1034,1031,1028,1028,1028,1025,1025,1025,0,0,0,0,0,0,0,0,0,0,0,0,0,0,0,0,0,0,0,0,0,0,0,0,0,0,0,0,0,0,0
0,0,0,0,0,0,0,0,0,0,0,0,0,0,1823,1823,1823,1823,1823,1823,1823,1823,1823,1823,1823,1823,1823,1823,1813,1813,1823,1833,1823,1823,1823,1813,1813,1813,1804,1794,1794,0,0,0,0,0,0,0,0,0,0,0,0,0,973,970,970,970,970,970,973,973,975,978,981,0,0,0,0,0,0,0,0,0,647,646,646,644,642,642,643,643,642,642,642,643,643,644,644,644,644,646,646,648,649,650,650,650,653,653,653,654,655,658,658,659,661,661,663,663,663,663,663,664,667,668,670,674,674,675,675,676,676,678,678,679,679,682,682,683,684,684,686,687,687,687,687,688,690,691,691,693,694,694,696,697,697,698,698,700,701,701,701,703,704,704,707,707,708,708,708,708,710,710,711,713,714,714,716,717,719,720,720,722,722,723,725,727,727,727,728,728,730,731,731,733,734,734,736,738,738,738,739,741,742,742,744,746,746,747,747,749,749,750,752,752,754,754,755,757,757,757,759,761,761,764,766,766,767,767,769,769,769,771,773,773,773,774,776,776,776,778,780,780,781,781,781,783,0,0,0,0,0,1177,1173,1173,1173,1165,1165,1165,1165,1165,1165,1169,1169,1173,1177,1177,1177,1177,1177,1177,1177,1177,1177,0,0,1722,1722,1722,1731,1731,1731,1731,1731,1731,1731,1731,1731,1731,1731,1731,1731,1731,1731,1731,1731,1731,1731,1731,1731,1722,1722,1722,1722,1722,1722,1722,1722,1722,1722,1722,1713,1713,0,0,0,0,0,0,0,0,0,910,906,903,901,898,896,894,891,889,889,889,889,889,889,889,891,894,896,896,896,898,898,898,903,906,906,906,906,910,0,0,0,0,0,0,1705,1705,1705,1696,1696,1696,1688,1688,1688,1680,1680,1671,1671,1671,1663,1663,1663,1655,1655,1655,1639,1639,1632,1632,1632,1624,1616,1616,1609,1609,1601,1601,1594,1579,1579,1579,1579,1572,1572,1564,1564,1557,1550,1550,1550,1543,1536,1536,1529,1529,1523,1523,1516,1516,1509,1509,1503,1503,1503,1496,1489,1483,1477,1477,1477,1470,1470,1470,1464,1464,1464,1458,1452,1452,1445,1445,1439,1439,1433,1427,1427,1427,1415,1415,1415,1410,1404,1404,1398,1398,1398,1392,1392,1392,1387,1387,1376,1376,1376,1370,1365,1365,1359,1359,1354,1354,1354,1354,1349,1349,1338,1333,1333,1333,1333,1333,1328,1328,1322,1317,1312,1312,1307,1307,1302,1297,1292,1292,1292,1288,1288,1288,1288,1283,1278,1278,1273,1268,1264,1264,1259,1259,1255,1255,1250,1250,1245,1241,1241,1236,1236,1232,1232,1232,1227,1227,1223,1219,1219,1219,1214,1214,1210,1210,1206,1202,1202,1197,1197,1193,1189,1185,1185,1185,1181,1181,1181,1177,1173,1169,1165,1165,1165,1161,1161,1157,1153,1153,1153,1153,1149,1145,1141,1138,1138,1138,1134,1134,1134,1134,1130,1130,1126,1123,1123,1123,1119,1115,1112,1112,1108,1108,1105,1105,1105,1101,1097,1097,1094,1094,1090,1090,1090,1087,1084,1084,1080,1080,1077,1077,1077,1073,1073,1070,1067,1067,1063,1063,1060,1060,1057,1054,1054,1050,1050,1050,1047,1047,1044,1044,1041,1041,1038,1038,1034,1031,1028,1028,1028,1025,1025,0,0,0,0,0,0,0,0,0,0,0,0,0,0,0,0,0,0,0,0,0,0,0,0,0,0,0,0,0,0,0
0,0,0,0,0,0,0,0,0,0,0,0,0,0,1804,1804,1804,1804,1813,1813,1804,1804,1813,1813,1813,1813,1813,1813,1813,1813,1813,1823,1823,1823,1823,1813,1813,1804,1804,1794,1794,0,0,0,0,0,0,0,0,0,0,0,0,0,970,970,970,970,970,970,973,973,975,978,978,978,981,0,0,0,0,0,0,0,0,646,646,643,642,642,643,643,643,643,643,644,644,644,644,644,646,646,646,648,649,650,650,652,654,654,655,657,658,659,661,662,663,663,663,663,663,663,664,666,668,671,672,675,675,675,675,676,676,678,678,680,680,682,683,684,684,684,686,687,688,688,690,691,691,691,693,694,694,696,696,697,697,698,698,700,701,703,703,704,704,706,707,708,708,708,710,710,710,711,711,713,714,716,717,717,719,720,722,722,723,723,725,727,727,728,728,728,730,731,733,734,734,736,736,738,738,739,741,741,742,744,746,746,747,749,750,750,750,750,752,754,754,755,757,757,757,759,759,761,761,764,766,766,767,767,767,767,767,769,773,773,773,774,776,776,776,778,780,780,781,781,781,0,0,0,0,0,1177,1177,1177,1177,1169,1165,1165,1169,1165,1165,1169,1169,1173,1173,1177,1177,1177,1177,1177,1177,1177,1177,1177,1177,0,1722,1722,1722,1722,1722,1722,1722,1731,1731,1731,1722,1722,1731,1722,1722,1731,1731,1722,1722,1731,1722,1722,1722,1722,1722,1722,1722,1722,1722,1722,1722,1722,1722,1722,1722,1713,1713,0,0,0,0,0,0,0,0,0,910,908,906,901,898,896,894,891,889,889,889,889,889,889,889,891,894,896,896,898,898,901,901,903,906,906,906,908,910,913,0,0,0,0,0,0,1705,1696,1696,1696,1696,1688,1688,1680,1680,1671,1671,1671,1671,1663,1663,1663,1655,1655,1655,1639,1639,1639,1632,1632,1624,1624,1616,1616,1609,1609,1601,1601,1586,1579,1579,1579,1572,1572,1564,1564,1557,1550,1550,1550,1543,1536,1536,1529,1529,1523,1523,1516,1516,1509,1509,1509,1503,1503,1496,1489,1489,1483,1477,1477,1470,1470,1470,1464,1464,1464,1458,1452,1452,1445,1445,1439,1439,1433,1433,1427,1427,1421,1415,1415,1410,1404,1404,1398,1398,1398,1392,1392,1392,1392,1387,1376,1376,1376,1370,1370,1365,1359,1359,1359,1354,1354,1354,1349,1349,1338,1338,1333,1333,1333,1333,1328,1328,1322,1317,1312,1312,1307,1307,1302,1302,1297,1292,1292,1292,1288,1288,1288,1283,1283,1278,1278,1268,1268,1264,1259,1259,1259,1255,1250,1250,1250,1245,1241,1236,1236,1236,1232,1232,1227,1227,1227,1219,1219,1219,1214,1214,1214,1210,1206,1206,1202,1202,1197,1193,1189,1189,1185,1185,1185,1181,1181,1181,1177,1169,1169,1169,1165,1165,1161,1157,1157,1153,1153,1153,1149,1145,1141,1138,1138,1138,1134,1134,1134,1134,1130,1130,1126,1126,1123,1123,1119,1119,1115,1112,1108,1108,1108,1105,1105,1101,1097,1097,1094,1094,1090,1090,1090,1087,1087,1084,1080,1080,1077,1077,1077,1073,1073,1070,1067,1067,1063,1063,1063,1060,1057,1057,1054,1050,1050,1050,1047,1047,1047,1044,1041,1041,1038,1038,1038,1031,1031,1028,1028,1028,1028,0,0,0,0,0,0,0,0,0,0,0,0,0,0,0,0,0,0,0,0,0,0,0,0,0,0,0,0,0,0,0
0,0,0,0,0,0,0,0,0,0,0,0,0,0,1794,1794,1794,1794,1794,1794,1794,1794,1794,1794,1794,1804,1804,1804,1804,1804,1804,1804,1804,1804,1804,1804,1804,1804,1794,1794,1785,1785,0,0,0,0,0,0,0,0,0,0,0,0,970,970,970,970,970,973,973,973,975,978,978,978,981,0,0,0,0,0,0,0,0,0,646,643,642,642,643,643,643,643,643,644,644,644,644,644,646,646,648,649,650,650,652,654,655,655,657,658,659,661,661,663,663,663,664,664,664,664,666,667,670,671,674,675,676,676,676,676,678,678,679,680,680,682,683,684,684,686,686,687,688,690,691,691,693,693,694,694,696,696,697,697,697,698,698,700,701,703,703,704,704,706,707,708,708,708,710,710,710,711,713,714,714,716,717,719,720,720,722,723,723,725,727,727,727,728,728,728,731,733,733,734,736,736,738,739,739,739,741,742,744,744,746,747,749,750,750,752,752,752,752,754,755,757,757,757,757,759,759,761,762,764,766,766,767,767,767,767,767,769,773,773,773,774,776,776,776,780,780,780,780,780,0,0,0,0,0,0,1181,1177,1177,1177,1169,1169,1169,1169,1169,1169,1169,1173,1173,1173,1177,1177,1177,1177,1177,1177,1177,1177,1177,1177,0,1713,1713,1713,1722,1722,1722,1722,1722,1722,1722,1722,1722,1722,1722,1722,1722,1722,1722,1713,1713,1713,1713,1713,1713,1713,1713,1713,1713,1713,1713,1713,1713,1713,1713,1713,1696,1696,0,0,0,0,0,0,0,0,0,910,908,906,903,901,896,896,891,891,889,889,889,889,889,891,891,894,896,896,898,898,901,901,903,906,906,906,908,910,913,0,0,0,0,0,0,0,1688,1688,1688,1688,1688,1688,1680,1680,1671,1671,1671,1671,1663,1663,1663,1655,1655,1647,1639,1639,1639,1632,1632,1624,1624,1616,1616,1609,1609,1601,1601,1594,1586,1579,1579,1579,1572,1572,1564,1557,1550,1550,1550,1550,1543,1536,1529,1529,1523,1523,1516,1516,1509,1509,1509,1503,1503,1496,1489,1489,1483,1477,1477,1470,1470,1470,1470,1464,1464,1458,1452,1445,1445,1445,1439,1439,1439,1433,1427,1427,1421,1421,1415,1415,1410,1404,1398,1398,1398,1392,1392,1392,1392,1381,1376,1376,1376,1370,1370,1370,1365,1365,1359,1354,1354,1354,1349,1349,1343,1338,1338,1333,1333,1333,1328,1328,1322,1317,1312,1312,1312,1307,1302,1302,1297,1297,1292,1292,1292,1288,1288,1283,1283,1278,1278,1268,1268,1264,1264,1259,1259,1255,1255,1250,1250,1245,1241,1236,1236,1236,1232,1232,1232,1227,1227,1223,1219,1219,1214,1214,1214,1210,1206,1206,1202,1202,1197,1197,1193,1189,1189,1185,1185,1181,1181,1181,1177,1173,1169,1169,1169,1165,1165,1161,1157,1153,1153,1153,1149,1145,1141,1141,1138,1138,1138,1134,1134,1134,1130,1130,1126,1126,1123,1123,1119,1119,1115,1112,1108,1108,1108,1105,1105,1105,1101,1101,1097,1094,1094,1090,1090,1087,1087,1084,1080,1080,1077,1077,1077,1073,1073,1070,1070,1067,1063,1063,1063,1060,1057,1057,1054,1054,1050,1050,1050,1047,1047,1044,1041,1041,1038,1038,1038,1031,1031,1028,1028,1028,1028,0,0,0,0,0,0,0,0,0,0,0,0,0,0,0,0,0,0,0,0,0,0,0,0,0,0,0,0,0,0,0
0,0,0,0,0,0,0,0,0,0,0,0,0,0,1794,1794,1794,1794,1785,1785,1794,1794,1785,1785,1794,1804,1804,1804,1804,1794,1794,1804,1794,1794,1804,1804,1804,1804,1785,1785,1776,1766,1766,1766,0,0,0,0,0,0,0,0,0,0,0,970,970,970,973,973,973,975,975,978,978,978,981,981,0,0,0,0,0,0,0,0,0,643,642,642,643,643,643,644,644,644,644,644,646,646,647,647,649,650,650,652,652,655,657,658,658,658,661,661,662,663,664,664,664,664,666,666,667,668,670,672,674,675,676,676,676,678,679,679,679,680,682,683,684,686,686,686,687,687,688,690,691,693,693,694,694,696,696,697,697,698,698,698,700,701,703,703,703,704,706,707,707,708,710,710,710,711,711,713,713,714,716,716,717,719,720,720,722,723,725,727,727,728,728,728,728,731,731,733,734,734,736,738,739,739,739,741,741,742,744,744,746,747,749,750,752,752,752,752,754,754,755,757,757,759,759,761,761,761,762,764,766,766,767,767,767,767,767,771,771,773,773,774,776,776,776,776,1722,1713,0,0,0,0,0,0,0,0,1181,1181,1177,1177,1169,1169,1173,1169,1169,1169,1173,1173,1173,1177,1177,1177,1177,1177,1181,1181,1181,1177,1177,1177,0,1713,1713,1713,1713,1713,1713,1713,1713,1713,1713,1713,1713,1713,1713,1713,1713,1713,1696,1696,1696,1696,1696,1696,1696,1696,1696,1705,1705,1705,1705,1705,1705,1705,1705,1705,1696,1696,1696,0,0,0,0,0,0,0,0,910,908,908,903,901,896,896,891,891,889,889,891,891,891,891,894,896,896,898,898,901,903,903,906,906,906,906,910,913,915,0,0,0,0,0,0,0,1680,1680,1688,1688,1680,1671,1671,1671,1671,1671,1671,1663,1663,1663,1655,1655,1655,1647,1639,1639,1639,1632,1632,1624,1624,1616,1616,1609,1609,1601,1601,1594,1586,1579,1579,1579,1572,1572,1564,1557,1550,1550,1550,1543,1543,1543,1536,1529,1523,1523,1516,1516,1516,1509,1509,1503,1503,1496,1489,1489,1489,1483,1477,1477,1470,1470,1470,1464,1464,1452,1452,1445,1445,1445,1439,1439,1439,1433,1427,1427,1421,1421,1421,1415,1410,1404,1404,1398,1398,1398,1392,1392,1392,1381,1381,1376,1376,1370,1370,1370,1365,1365,1365,1359,1354,1354,1349,1349,1343,1338,1338,1333,1333,1333,1328,1328,1322,1322,1317,1312,1312,1307,1307,1302,1302,1297,1292,1292,1292,1288,1288,1288,1283,1283,1278,1268,1268,1264,1264,1259,1259,1255,1255,1250,1250,1250,1245,1241,1236,1236,1236,1232,1232,1232,1227,1223,1219,1219,1219,1214,1214,1210,1206,1206,1202,1202,1197,1197,1193,1189,1189,1185,1185,1185,1181,1181,1177,1173,1169,1169,1169,1165,1165,1161,1157,1153,1153,1153,1149,1149,1145,1141,1141,1138,1138,1138,1134,1134,1134,1130,1126,1126,1123,1123,1119,1119,1115,1112,1108,1108,1108,1105,1105,1105,1105,1101,1097,1097,1094,1090,1090,1087,1087,1084,1084,1080,1080,1077,1077,1073,1073,1070,1070,1067,1067,1063,1063,1063,1060,1060,1057,1054,1054,1050,1050,1047,1047,1044,1041,1041,1038,1038,1038,1034,1034,1031,1028,1028,1028,0,0,0,0,0,0,0,0,0,0,0,0,0,0,0,0,0,0,0,0,0,0,0,0,0,0,0,0,0,0,0
0,0,0,0,0,0,0,0,0,0,0,0,0,0,1794,1794,1794,1794,1785,1785,1785,1785,1785,1785,1785,1785,1794,1794,1794,1794,1794,1785,1785,1785,1785,1785,1785,1785,1776,1776,1766,1766,1757,1757,0,0,0,0,0,0,0,0,0,0,0,967,967,970,973,973,975,975,975,978,978,978,981,981,987,989,0,0,0,0,0,0,0,0,0,0,644,643,643,644,644,644,644,646,646,646,647,648,650,650,653,653,654,657,658,658,659,659,661,662,662,663,664,664,664,666,666,666,667,668,670,672,672,675,676,676,676,679,679,679,680,682,682,683,684,686,686,686,687,687,688,690,691,693,694,694,696,696,696,697,697,698,698,700,701,703,703,703,703,706,707,708,708,708,710,710,711,711,713,713,714,714,716,716,717,719,720,722,722,723,725,727,728,728,728,728,731,733,733,734,734,736,738,738,739,741,741,741,742,742,744,744,746,747,750,752,752,752,752,752,754,754,755,757,757,759,759,761,761,761,762,764,766,766,767,767,767,767,767,771,771,771,1696,1696,1696,1722,1722,1722,1722,1713,1713,1713,0,0,0,0,0,0,1177,1177,1181,1181,1177,1177,1177,1173,1169,1169,1173,1173,1177,1177,1177,1177,1177,1181,1181,1181,1181,1181,1181,1181,1696,1713,1713,1713,1713,1705,1705,1705,1705,1705,1705,1705,1705,1713,1705,1705,1705,1705,1696,1696,1696,1696,1696,1696,1688,1688,1688,1688,1688,1696,1696,1705,1705,1705,1705,1705,1696,1696,1696,0,0,0,0,0,0,0,0,0,908,908,906,903,898,896,894,891,891,891,891,891,891,894,896,896,898,898,898,901,903,906,906,906,906,906,910,913,915,0,0,0,0,0,0,0,1671,1671,1680,1680,1680,1671,1671,1663,1663,1663,1663,1663,1663,1663,1655,1655,1655,1647,1639,1639,1639,1632,1632,1632,1624,1624,1616,1616,1609,1609,1601,1594,1586,1579,1579,1579,1579,1572,1564,1557,1557,1550,1550,1543,1543,1543,1536,1536,1529,1523,1523,1516,1516,1509,1509,1509,1503,1496,1489,1489,1489,1483,1483,1477,1470,1470,1470,1464,1464,1452,1452,1445,1445,1445,1439,1439,1439,1433,1427,1427,1421,1421,1421,1415,1415,1410,1404,1398,1398,1398,1392,1392,1392,1387,1381,1376,1376,1376,1370,1370,1370,1370,1365,1359,1354,1354,1354,1349,1343,1343,1338,1333,1333,1333,1328,1328,1328,1322,1317,1312,1312,1307,1307,1302,1302,1297,1292,1292,1292,1292,1288,1288,1288,1283,1283,1278,1268,1264,1264,1259,1259,1255,1255,1255,1255,1250,1250,1241,1241,1236,1236,1232,1232,1232,1227,1227,1223,1219,1219,1214,1214,1210,1210,1206,1202,1202,1202,1197,1197,1193,1193,1189,1185,1185,1185,1181,1177,1173,1173,1169,1169,1165,1165,1161,1157,1157,1153,1153,1153,1149,1145,1141,1141,1138,1138,1138,1134,1134,1134,1130,1130,1126,1123,1123,1119,1119,1115,1112,1108,1108,1108,1105,1105,1105,1105,1101,1097,1097,1094,1090,1090,1090,1090,1087,1084,1084,1080,1080,1077,1077,1073,1070,1070,1067,1067,1067,1063,1063,1060,1060,1057,1054,1054,1050,1050,1047,1047,1044,1041,1041,1038,1038,1038,1034,1034,1031,1028,1028,1028,0,0,0,0,0,0,0,0,0,0,0,0,0,0,0,0,0,0,0,0,0,0,0,0,0,0,0,0,0,0,0
0,0,0,0,0,0,0,0,0,0,0,0,0,0,1794,1785,1785,1785,1785,1785,1776,1776,1776,1776,1785,1785,1794,1794,1785,1785,1785,1776,1776,1776,1776,1776,1776,1757,1757,1757,1766,1766,1757,1757,0,0,0,0,0,0,0,0,0,0,0,967,967,967,970,975,975,975,978,978,981,981,981,984,987,987,987,0,0,0,0,0,0,0,0,0,644,644,644,644,644,644,646,646,646,647,649,649,650,653,654,654,657,658,658,659,659,661,661,662,662,663,664,664,664,666,666,667,667,668,671,672,672,675,676,678,678,679,680,680,682,682,683,684,684,686,686,687,687,687,688,690,691,693,694,696,696,697,697,698,698,698,698,700,701,703,703,704,707,707,707,708,708,710,710,711,713,713,713,714,714,716,716,717,719,720,720,722,723,725,725,727,728,728,728,730,731,733,733,734,734,738,739,739,739,741,741,741,742,742,744,746,747,747,750,752,752,752,752,752,754,754,755,757,757,759,759,761,761,761,762,764,766,766,766,766,767,767,767,767,1688,1696,1696,1696,1696,1713,1713,1713,1713,1713,1713,1713,1705,1696,1696,0,0,0,1177,1177,1181,1181,1177,1177,1177,1177,1173,1173,1173,1177,1177,1177,1177,1177,1181,1181,1181,1181,1181,1181,1181,1696,1696,1696,1705,1705,1696,1696,1696,1705,1705,1696,1696,1696,1696,1705,1696,1696,1696,1696,1696,1696,1688,1688,1696,1688,1688,1688,1688,1688,1688,1688,1688,1688,1688,1688,1688,1696,1696,1696,0,0,0,0,0,0,0,0,0,0,0,908,906,903,903,898,898,894,894,894,894,894,896,896,896,898,898,898,898,901,903,906,906,906,906,908,910,910,915,0,0,0,0,0,0,1655,1655,1663,1671,1671,1671,1671,1663,1663,1663,1663,1663,1655,1655,1663,1655,1655,1655,1647,1639,1639,1639,1632,1632,1632,1624,1624,1616,1616,1609,1609,1601,1594,1594,1579,1579,1579,1579,1579,1572,1564,1557,1557,1550,1543,1543,1543,1543,1536,1529,1529,1523,1523,1516,1516,1509,1509,1503,1496,1496,1496,1489,1489,1483,1477,1477,1470,1470,1464,1464,1452,1452,1445,1445,1445,1445,1439,1439,1433,1433,1427,1421,1421,1421,1415,1415,1410,1410,1404,1398,1398,1392,1392,1392,1387,1381,1376,1376,1376,1370,1370,1370,1370,1365,1359,1354,1354,1354,1349,1343,1343,1338,1338,1333,1333,1328,1328,1328,1322,1322,1317,1317,1312,1307,1307,1302,1302,1297,1297,1292,1292,1292,1288,1288,1283,1283,1278,1273,1268,1264,1259,1259,1259,1255,1255,1255,1255,1250,1250,1241,1241,1236,1236,1232,1232,1232,1227,1223,1223,1219,1219,1214,1214,1210,1206,1202,1202,1202,1197,1197,1193,1193,1189,1185,1185,1185,1181,1181,1177,1173,1173,1169,1165,1165,1165,1161,1157,1153,1153,1153,1149,1145,1141,1141,1138,1138,1138,1138,1134,1134,1130,1130,1126,1123,1123,1119,1119,1115,1115,1108,1108,1108,1108,1105,1105,1101,1101,1097,1097,1094,1094,1090,1090,1090,1087,1087,1084,1084,1080,1077,1077,1073,1073,1070,1070,1067,1067,1063,1063,1060,1060,1057,1057,1054,1054,1050,1050,1050,1047,1044,1041,1041,1038,1038,1034,1034,1031,1028,1028,1028,0,0,0,0,0,0,0,0,0,0,0,0,0,0,0,0,0,0,0,0,0,0,0,0,0,0,0,0,0,0,0
0,0,0,0,0,0,0,0,0,0,0,0,0,0,1785,1785,1776,1776,1776,1776,1766,1766,1766,1766,1776,1776,1785,1785,1785,1785,1776,1766,1766,1766,1766,1766,1766,1757,1757,1757,1766,1766,1757,1757,0,0,0,0,0,0,0,0,0,0,0,967,967,967,970,973,973,975,978,978,981,981,984,984,987,987,984,984,0,0,0,0,0,0,0,0,644,644,644,644,644,644,646,646,647,649,652,654,654,655,655,655,658,658,659,659,661,661,661,662,662,664,664,664,664,666,667,667,668,670,671,672,672,676,678,679,679,680,680,682,682,682,683,684,684,686,686,687,687,687,688,690,691,693,696,696,697,697,697,698,698,700,700,701,703,703,703,704,707,708,708,710,710,710,710,711,713,713,714,714,716,716,716,717,719,720,722,723,725,727,728,728,730,730,730,730,733,733,734,734,736,738,739,739,741,741,741,741,742,742,746,746,747,747,750,752,752,752,752,752,754,754,755,757,757,759,761,761,761,761,762,764,766,766,766,766,766,1688,1688,1688,1688,1696,1696,1696,1705,1705,1705,1705,1705,1713,1713,1713,1705,1696,1696,0,0,0,1177,1177,1181,1181,1181,1181,1177,1177,1177,1177,1177,1177,1177,1177,1177,1177,1181,1181,1181,1181,1185,1185,1185,1696,1696,1696,1696,1696,1696,1696,1696,1696,1696,1696,1696,1696,1696,1696,1688,1688,1688,1688,1688,1688,1688,1688,1688,1688,1688,1688,1680,1680,1680,1680,1680,1680,1680,1680,1680,1680,1680,1680,1688,0,0,0,0,0,0,0,0,0,0,910,908,908,903,901,898,894,894,894,894,896,896,896,898,898,898,898,901,901,906,906,906,906,906,908,910,910,0,0,0,0,0,0,0,1655,1655,1655,1663,1663,1663,1663,1655,1655,1655,1655,1655,1647,1647,1655,1655,1655,1647,1647,1647,1639,1639,1632,1632,1632,1624,1624,1616,1616,1609,1601,1601,1594,1594,1586,1586,1579,1579,1579,1572,1572,1564,1557,1550,1550,1543,1543,1543,1536,1536,1529,1523,1523,1516,1516,1516,1509,1503,1496,1496,1496,1489,1489,1489,1483,1477,1477,1470,1464,1464,1452,1452,1445,1445,1445,1445,1439,1439,1433,1433,1427,1421,1421,1421,1415,1415,1410,1410,1404,1398,1398,1392,1392,1392,1387,1381,1376,1376,1376,1376,1370,1370,1370,1365,1365,1359,1354,1349,1349,1349,1343,1338,1338,1333,1333,1328,1328,1328,1322,1322,1317,1312,1312,1307,1307,1307,1302,1297,1297,1292,1292,1292,1288,1288,1283,1283,1278,1273,1268,1264,1264,1259,1259,1255,1255,1255,1255,1250,1250,1245,1241,1236,1236,1236,1236,1232,1232,1227,1223,1219,1219,1214,1214,1210,1210,1206,1202,1202,1197,1197,1197,1193,1189,1189,1185,1185,1181,1181,1177,1173,1173,1173,1169,1169,1165,1165,1161,1157,1153,1153,1153,1149,1145,1141,1138,1138,1138,1138,1134,1134,1130,1130,1126,1123,1123,1119,1119,1115,1115,1108,1108,1108,1108,1105,1105,1101,1101,1097,1097,1094,1094,1090,1090,1090,1090,1087,1087,1084,1080,1080,1077,1077,1073,1073,1070,1070,1067,1063,1063,1060,1060,1060,1057,1054,1054,1050,1050,1050,1047,1044,1044,1041,1038,1038,1034,1034,1031,1028,1028,1028,0,0,0,0,0,0,0,0,0,0,0,0,0,0,0,0,0,0,0,0,0,0,0,0,0,0,0,0,0,0,0
0,0,0,0,0,0,0,0,0,0,0,0,0,0,1766,1766,1766,1766,1766,1766,1766,1766,1766,1766,1766,1766,1766,1776,1766,1766,1766,1757,1757,1757,1757,1766,1766,1757,1757,1757,1757,1757,1757,1757,1766,0,0,0,0,0,0,0,0,0,0,967,967,967,970,973,973,975,975,978,978,981,981,984,984,987,984,984,0,0,0,0,0,0,0,0,0,0,0,644,644,644,646,647,648,650,653,655,655,657,657,658,658,659,659,661,661,661,662,662,663,664,664,666,666,666,667,667,668,668,671,672,674,678,679,679,680,680,682,682,683,683,684,684,686,686,686,687,687,688,690,691,693,693,697,697,697,697,698,698,700,700,700,701,703,704,704,704,707,708,708,710,710,710,711,713,714,714,716,716,716,717,717,719,720,720,723,725,725,727,728,728,730,731,731,731,733,733,734,736,736,739,739,739,741,741,742,742,744,744,746,746,746,746,750,752,752,752,752,752,754,755,755,757,757,759,761,761,761,761,761,1688,1688,1688,1688,1688,1688,1688,1688,1688,1688,1696,1696,1696,1696,1705,1705,1705,1705,1705,1705,1705,1696,1696,1696,1696,0,0,0,1181,1181,1181,1181,1181,1181,1177,1177,1177,1177,1177,1177,1177,1181,1181,1181,1181,1181,1185,1185,1189,1189,1696,1696,1696,1696,1696,1688,1688,1688,1696,1696,1688,1688,1688,1688,1688,1688,1688,1688,1680,1680,1680,1680,1680,1688,1680,1680,1680,1680,1680,1680,1680,1680,1680,1671,1671,1671,1671,1671,1655,1655,0,0,0,0,0,0,0,0,0,0,910,910,910,908,903,898,896,896,896,896,896,896,898,898,898,898,901,901,903,906,906,906,906,906,908,910,910,0,0,0,0,0,0,1647,1647,1655,1655,1655,1655,1655,1655,1655,1655,1647,1647,1647,1647,1647,1647,1655,1655,1647,1647,1639,1639,1632,1632,1632,1624,1624,1624,1616,1609,1609,1601,1601,1594,1594,1586,1586,1579,1579,1579,1572,1572,1564,1564,1550,1550,1543,1543,1543,1536,1536,1529,1523,1523,1516,1516,1516,1516,1503,1496,1496,1489,1489,1489,1489,1483,1483,1477,1470,1470,1464,1458,1452,1452,1445,1445,1445,1439,1439,1439,1433,1427,1421,1421,1421,1415,1415,1415,1410,1404,1404,1398,1398,1392,1392,1387,1381,1376,1376,1376,1376,1370,1370,1370,1365,1365,1359,1354,1349,1349,1349,1343,1343,1338,1333,1333,1333,1328,1328,1322,1322,1317,1312,1312,1307,1307,1307,1307,1302,1302,1297,1292,1292,1288,1288,1283,1283,1278,1273,1268,1268,1264,1259,1259,1259,1255,1255,1255,1250,1250,1245,1241,1236,1236,1236,1236,1232,1232,1227,1227,1223,1219,1214,1214,1210,1210,1206,1202,1202,1197,1197,1197,1193,1193,1189,1185,1185,1181,1181,1177,1177,1173,1173,1169,1169,1165,1165,1161,1157,1153,1153,1153,1149,1145,1145,1141,1138,1138,1138,1134,1134,1130,1130,1126,1123,1123,1119,1119,1115,1115,1112,1108,1108,1108,1108,1105,1105,1101,1097,1097,1094,1094,1094,1090,1090,1090,1090,1087,1087,1084,1080,1077,1077,1077,1073,1070,1070,1067,1067,1063,1063,1060,1060,1057,1054,1054,1054,1050,1050,1047,1044,1044,1041,1041,1038,1038,1034,1031,1031,1028,1028,0,0,0,0,0,0,0,0,0,0,0,0,0,0,0,0,0,0,0,0,0,0,0,0,0,0,0,0,0,0,0
0,0,0,0,0,0,0,0,0,0,0,0,0,0,1766,1766,1766,1766,1757,1757,1757,1757,1757,1757,1757,1757,1757,1757,1757,1757,1757,1757,1757,1757,1757,1757,1757,1757,1757,1757,1757,1757,1757,1757,1757,0,0,0,0,0,0,0,0,0,0,967,967,967,970,973,973,975,975,978,978,981,981,984,984,987,987,987,987,0,0,0,0,0,0,0,0,0,0,0,0,646,646,648,649,650,654,655,655,658,658,659,659,659,661,661,661,661,662,662,663,664,664,664,666,666,667,667,668,668,671,672,674,679,680,680,680,682,682,683,684,684,686,686,686,687,687,687,688,690,691,691,693,694,696,697,697,697,698,700,701,701,701,703,704,706,706,707,708,708,710,710,710,711,713,714,714,716,717,717,717,717,720,720,722,722,725,727,727,727,730,730,730,731,731,733,734,734,736,736,738,739,739,741,741,741,742,742,744,744,746,746,746,746,750,750,752,752,752,752,754,755,755,757,757,759,761,761,761,1688,1688,1688,1688,1688,1688,1688,1680,1680,1688,1688,1696,1696,1696,1696,1696,1705,1705,1705,1696,1696,1696,1696,1696,1688,1688,1688,0,0,0,0,0,1185,1181,1181,1181,1177,1177,1177,1177,1177,1177,1181,1181,1181,1181,1185,1185,1185,1189,1193,1193,1688,1688,1688,1688,1688,1688,1688,1688,1688,1688,1688,1688,1688,1680,1680,1680,1671,1671,1671,1671,1671,1680,1680,1680,1680,1680,1671,1671,1671,1671,1671,1671,1671,1663,1663,1663,1663,1663,1655,1655,0,0,0,0,0,0,0,0,0,0,918,915,913,908,906,903,898,898,896,896,898,898,898,898,898,898,901,903,903,906,906,908,908,908,910,913,0,0,0,0,0,0,0,1647,1647,1647,1655,1655,1655,1655,1647,1647,1647,1647,1647,1647,1647,1647,1647,1647,1647,1647,1639,1639,1632,1632,1632,1624,1624,1624,1616,1616,1609,1609,1601,1601,1601,1594,1586,1586,1586,1579,1579,1579,1572,1564,1564,1550,1550,1543,1543,1543,1536,1529,1529,1523,1523,1516,1516,1516,1516,1503,1496,1496,1489,1489,1489,1489,1489,1483,1477,1477,1470,1464,1458,1458,1452,1452,1445,1445,1445,1439,1439,1433,1427,1421,1421,1421,1415,1415,1415,1415,1410,1410,1404,1398,1398,1392,1392,1387,1381,1376,1376,1376,1370,1370,1370,1365,1365,1359,1354,1349,1349,1349,1343,1343,1338,1338,1333,1333,1328,1328,1328,1322,1322,1312,1312,1312,1307,1307,1307,1302,1302,1297,1292,1292,1292,1288,1283,1283,1278,1273,1268,1268,1264,1264,1264,1259,1259,1255,1255,1250,1250,1245,1241,1236,1236,1236,1236,1232,1232,1232,1227,1223,1219,1219,1214,1214,1210,1206,1202,1202,1197,1197,1197,1193,1193,1189,1185,1185,1181,1181,1177,1177,1177,1173,1169,1169,1169,1165,1165,1161,1157,1153,1153,1149,1149,1145,1145,1141,1138,1138,1138,1134,1134,1130,1126,1123,1123,1119,1119,1115,1115,1112,1112,1108,1108,1108,1105,1105,1101,1101,1097,1097,1094,1094,1090,1090,1090,1090,1087,1087,1084,1080,1077,1077,1077,1073,1073,1073,1070,1067,1063,1063,1060,1060,1057,1057,1054,1054,1050,1050,1047,1044,1044,1041,1041,1038,1038,1038,1034,1031,1028,1028,0,0,0,0,0,0,0,0,0,0,0,0,0,0,0,0,0,0,0,0,0,0,0,0,0,0,0,0,0,0,0
0,0,0,0,0,0,0,0,0,0,0,0,0,0,1757,1757,1757,1757,1757,1748,1748,1757,1757,1757,1748,1748,1748,1748,1748,1748,1748,1748,1748,1757,1757,1757,1757,1757,1757,1757,1757,1757,1757,1757,1757,0,0,0,0,0,0,0,0,0,0,0,970,970,973,975,975,975,978,981,981,981,984,987,987,987,987,987,987,987,0,0,0,0,0,0,0,0,0,0,0,0,652,652,653,654,655,657,657,658,658,659,659,661,661,661,662,663,663,663,664,664,664,664,666,666,667,668,668,668,671,672,674,679,680,680,682,682,683,683,684,684,686,686,687,687,687,687,688,691,691,691,693,696,696,697,697,697,698,700,701,701,703,703,704,706,706,707,708,708,710,710,711,711,714,714,716,716,717,719,719,720,722,722,722,723,727,727,727,727,730,730,731,731,731,733,734,734,736,738,738,739,739,739,741,741,742,742,744,744,746,746,746,746,750,750,752,754,754,754,754,755,757,757,757,1705,1705,1696,1696,1688,1688,1688,1688,1688,1688,1688,1680,1680,1688,1688,1696,1696,1696,1696,1696,1696,1696,1696,1696,1696,1696,1688,1688,1688,1680,1671,1671,0,0,0,0,1185,1185,1181,1181,1181,1181,1181,1177,1177,1177,1181,1181,1181,1181,1185,1185,1189,1193,1193,1197,1688,1688,1688,1688,1680,1680,1680,1680,1680,1680,1680,1680,1680,1671,1671,1671,1663,1663,1663,1663,1663,1671,1671,1663,1663,1663,1663,1663,1663,1663,1655,1655,1655,1663,1655,1655,1663,1663,1663,1663,0,0,0,0,0,0,0,0,0,0,918,915,915,908,906,903,898,898,898,898,898,898,898,898,898,901,903,903,906,906,906,908,908,910,910,913,913,0,0,0,0,0,0,1647,1647,1647,1647,1647,1647,1647,1647,1647,1647,1639,1639,1639,1639,1639,1639,1639,1639,1639,1632,1632,1632,1624,1624,1624,1616,1616,1616,1609,1609,1601,1601,1601,1594,1594,1594,1586,1586,1579,1579,1579,1572,1564,1564,1557,1550,1550,1543,1543,1536,1529,1529,1523,1523,1523,1516,1516,1516,1503,1503,1496,1496,1489,1489,1489,1489,1483,1477,1477,1470,1464,1458,1458,1452,1452,1452,1445,1445,1445,1439,1433,1433,1427,1421,1421,1415,1415,1415,1415,1415,1410,1404,1398,1398,1398,1392,1392,1381,1376,1376,1376,1370,1370,1370,1365,1365,1359,1354,1354,1349,1349,1349,1343,1343,1338,1338,1333,1328,1328,1328,1322,1322,1312,1312,1312,1307,1307,1307,1302,1302,1297,1297,1292,1292,1288,1288,1283,1278,1273,1273,1268,1268,1264,1264,1259,1259,1255,1255,1255,1250,1250,1241,1236,1236,1236,1236,1232,1232,1232,1227,1223,1219,1219,1219,1214,1214,1210,1206,1202,1202,1197,1197,1197,1193,1193,1189,1185,1181,1181,1181,1177,1177,1177,1173,1173,1169,1169,1165,1161,1157,1157,1153,1153,1149,1149,1145,1141,1141,1138,1138,1134,1134,1130,1130,1126,1123,1123,1119,1119,1115,1115,1112,1112,1108,1108,1105,1105,1105,1101,1097,1097,1094,1094,1094,1090,1090,1090,1087,1087,1084,1080,1080,1077,1077,1077,1073,1073,1070,1067,1063,1063,1060,1060,1057,1057,1054,1054,1054,1050,1047,1044,1044,1041,1041,1038,1038,1038,1034,1031,1028,1028,0,0,0,0,0,0,0,0,0,0,0,0,0,0,0,0,0,0,0,0,0,0,0,0,0,0,0,0,0,0,0
0,0,0,0,0,0,0,0,0,0,0,0,0,0,1748,1748,1748,1748,1748,1748,1748,1748,1748,1748,1748,1739,1739,1739,1748,1748,1739,1739,1739,1748,1748,1731,1731,1731,1748,1748,1748,1748,1748,1748,1748,1748,0,0,0,0,0,0,0,0,0,0,970,970,973,975,975,978,978,981,981,984,984,987,987,987,987,987,987,987,987,0,0,0,0,0,0,0,0,0,0,0,0,653,653,654,655,657,657,658,659,659,661,661,661,662,663,663,663,664,664,664,666,666,666,666,667,668,670,670,671,672,674,679,680,682,682,682,683,684,684,684,686,686,687,687,688,688,690,691,691,691,693,696,696,697,698,698,698,700,703,703,704,704,706,707,707,707,708,710,710,711,711,713,714,716,716,717,717,719,719,720,722,723,723,725,727,727,727,728,730,731,731,733,733,733,734,734,736,738,738,739,739,739,741,741,742,742,744,744,746,746,746,746,752,752,752,754,754,754,755,755,1696,1696,1696,1688,1688,1696,1696,1688,1688,1688,1688,1688,1680,1680,1680,1680,1688,1688,1688,1688,1688,1688,1688,1688,1688,1688,1688,1688,1688,1688,1688,1680,1680,1671,1671,0,0,0,0,0,1185,1185,1181,1181,1181,1181,1181,1181,1181,1181,1181,1181,1185,1185,1189,1189,1193,1193,1197,1197,1688,1688,1680,1680,1671,1671,1671,1671,1680,1671,1671,1671,1671,1663,1663,1663,1663,1663,1663,1663,1663,1663,1663,1663,1663,1655,1655,1655,1655,1647,1647,1647,1647,1647,1647,1647,1647,1647,1663,0,0,0,0,0,0,0,0,0,0,915,915,915,910,908,906,901,898,898,898,898,898,898,898,901,901,903,906,906,908,908,908,908,910,913,913,913,0,0,0,0,0,0,1639,1639,1639,1639,1639,1639,1639,1639,1639,1639,1639,1639,1639,1639,1639,1639,1639,1632,1632,1632,1624,1624,1616,1616,1616,1616,1609,1609,1609,1609,1601,1601,1601,1594,1594,1594,1586,1586,1586,1579,1579,1572,1572,1564,1557,1550,1550,1543,1543,1536,1536,1536,1529,1523,1523,1523,1516,1516,1509,1503,1496,1496,1496,1496,1489,1489,1489,1477,1477,1470,1464,1458,1458,1458,1458,1452,1452,1445,1445,1445,1439,1433,1427,1427,1421,1415,1415,1415,1415,1415,1410,1404,1398,1398,1398,1392,1392,1387,1381,1376,1376,1370,1370,1370,1365,1365,1359,1354,1354,1354,1349,1349,1349,1343,1343,1338,1333,1333,1328,1328,1328,1322,1317,1312,1312,1312,1307,1307,1307,1302,1297,1297,1292,1292,1288,1288,1283,1278,1273,1273,1268,1268,1268,1264,1264,1259,1259,1255,1255,1250,1250,1245,1241,1236,1236,1236,1232,1232,1232,1227,1223,1223,1219,1219,1214,1214,1214,1206,1206,1202,1202,1197,1197,1193,1193,1189,1185,1185,1181,1181,1177,1177,1177,1173,1173,1169,1169,1169,1165,1157,1157,1153,1153,1149,1149,1149,1145,1141,1138,1138,1134,1134,1130,1130,1130,1126,1123,1123,1119,1119,1115,1115,1112,1108,1108,1105,1105,1105,1101,1101,1097,1097,1094,1094,1090,1090,1090,1087,1087,1084,1080,1080,1077,1077,1077,1073,1073,1070,1067,1063,1063,1063,1060,1060,1057,1054,1054,1054,1050,1047,1044,1044,1041,1041,1041,1038,1038,1034,1034,1031,1031,0,0,0,0,0,0,0,0,0,0,0,0,0,0,0,0,0,0,0,0,0,0,0,0,0,0,0,0,0,0,0
0,0,0,0,0,0,0,0,0,0,0,0,0,0,1739,1739,1748,1739,1739,1739,1739,1731,1731,1731,1731,1731,1731,1731,1731,1731,1731,1731,1731,1731,1731,1722,1722,1731,1739,1739,1739,1748,1739,1739,1748,1748,0,0,0,0,0,0,0,0,0,0,0,978,975,975,978,978,978,981,981,984,984,987,987,987,987,987,987,987,987,0,0,0,0,0,0,0,0,0,0,0,0,654,654,657,657,658,658,659,659,659,661,661,661,662,663,664,664,664,666,666,666,666,667,668,668,670,670,670,671,672,675,679,680,682,682,683,683,684,684,686,686,687,687,687,690,690,691,691,691,693,693,696,696,697,698,698,698,701,703,703,704,704,706,707,707,707,708,710,710,711,713,714,716,716,716,719,719,720,720,722,722,723,723,727,727,727,728,730,730,731,731,733,733,733,734,734,736,738,738,739,739,739,741,742,744,744,746,746,746,746,746,746,746,1655,1655,1655,1663,1663,1663,1663,0,1688,1688,1688,1688,1688,1688,1688,1688,1688,1680,1680,1680,1680,1680,1680,1680,1680,1680,1688,1688,1688,1680,1680,1680,1680,1680,1671,1671,1680,1680,1671,1671,1671,1663,1663,0,0,0,0,0,1185,1185,1181,1181,1181,1181,1181,1181,1181,1185,1185,1185,1189,1189,1193,1193,1193,1197,1197,1688,1688,1680,1671,1671,1663,1663,1671,1671,1663,1663,1663,1663,1655,1655,1655,1655,1655,1663,1663,1655,1655,1655,1655,1655,1655,1647,1647,1647,1639,1639,1639,1639,1639,1639,1639,1639,1639,1639,1639,0,0,0,0,0,0,0,0,0,915,915,915,910,908,906,906,901,901,901,898,898,898,901,901,903,906,906,906,908,908,910,910,913,913,913,915,0,0,0,0,0,0,1639,1639,1639,1639,1639,1632,1632,1632,1632,1632,1632,1632,1632,1632,1632,1632,1632,1624,1616,1616,1616,1616,1609,1609,1609,1609,1609,1609,1609,1609,1601,1601,1601,1594,1594,1594,1586,1586,1586,1579,1579,1572,1572,1564,1557,1550,1550,1543,1543,1536,1536,1536,1529,1523,1523,1523,1523,1516,1509,1509,1503,1496,1496,1496,1496,1496,1489,1477,1477,1470,1464,1464,1458,1458,1458,1452,1452,1445,1445,1445,1439,1439,1433,1427,1421,1421,1415,1415,1415,1415,1410,1404,1398,1398,1398,1392,1392,1387,1381,1376,1376,1376,1370,1370,1365,1365,1359,1354,1354,1354,1349,1349,1349,1343,1343,1343,1333,1333,1328,1328,1328,1322,1317,1312,1312,1312,1307,1307,1307,1302,1302,1297,1292,1292,1292,1288,1283,1278,1273,1273,1273,1268,1268,1268,1264,1264,1259,1255,1255,1250,1250,1245,1241,1236,1236,1236,1232,1232,1232,1227,1223,1223,1219,1219,1214,1214,1214,1210,1206,1202,1202,1197,1197,1197,1193,1189,1185,1185,1181,1181,1181,1177,1177,1173,1173,1169,1169,1169,1165,1161,1157,1153,1153,1149,1149,1149,1145,1141,1138,1138,1138,1134,1134,1134,1130,1130,1123,1123,1119,1119,1115,1115,1112,1108,1108,1108,1105,1105,1101,1101,1101,1097,1094,1094,1090,1090,1090,1087,1087,1084,1080,1080,1077,1077,1077,1073,1073,1070,1067,1063,1063,1063,1060,1060,1057,1054,1054,1054,1054,1050,1047,1047,1044,1041,1041,1038,1038,1038,1034,1031,1031,0,0,0,0,0,0,0,0,0,0,0,0,0,0,0,0,0,0,0,0,0,0,0,0,0,0,0,0,0,0,0
0,0,0,0,0,0,0,0,0,0,0,0,0,0,1731,1731,1731,1739,1731,1731,1731,1722,1722,1722,1713,1713,1713,1713,1722,1722,1722,1722,1722,1731,1731,1722,1722,1739,1739,1739,1739,1739,1739,1739,1739,1731,1731,0,0,0,0,0,0,0,0,0,0,0,981,981,981,981,981,981,981,984,984,987,987,987,987,987,987,987,987,987,0,0,0,0,0,0,0,0,0,0,0,0,0,661,659,659,659,659,659,659,661,661,661,663,663,664,664,664,666,666,666,667,668,670,670,670,671,671,672,674,675,680,680,682,682,683,683,684,684,686,686,687,687,688,691,691,691,693,693,693,696,696,697,697,698,698,698,701,703,703,704,704,706,707,707,708,710,710,711,713,713,714,716,716,716,719,719,720,720,722,722,723,723,727,727,727,728,730,730,731,731,733,733,734,734,734,736,738,738,739,739,741,741,742,744,744,746,746,747,747,747,747,1655,1655,1655,1655,1663,1663,1663,1663,1663,1671,1671,1671,1680,1680,1680,1680,1680,1680,1680,1680,1680,1680,1680,1680,1671,1671,1671,1680,1680,1671,1671,1671,1671,1671,1671,1671,1671,1671,1671,1663,1663,1671,1663,1663,0,0,0,0,0,1189,1185,1185,1181,1181,1181,1181,1181,1181,1185,1185,1185,1189,1193,1193,1193,1193,1197,1197,1688,1688,1671,1671,1663,1663,1663,1663,1663,1655,1655,1655,1655,1655,1655,1655,1655,1655,1655,1647,1647,1647,1647,1655,1647,1647,1647,1639,1639,1639,1639,1639,1639,1639,1639,1632,1632,1632,1632,1632,1632,0,0,0,0,0,0,0,0,918,918,918,913,910,908,906,903,903,901,901,901,901,901,903,906,906,906,908,908,908,910,913,915,915,915,915,0,0,0,0,0,0,1632,1632,1632,1632,1632,1624,1624,1624,1624,1632,1632,1632,1624,1624,1624,1624,1616,1609,1609,1609,1616,1609,1609,1609,1609,1609,1601,1601,1601,1601,1601,1601,1601,1601,1594,1594,1586,1586,1586,1579,1579,1572,1572,1564,1557,1550,1550,1550,1543,1543,1536,1536,1529,1529,1523,1523,1523,1516,1516,1509,1503,1496,1496,1496,1496,1496,1489,1477,1477,1470,1464,1464,1464,1458,1458,1452,1452,1452,1445,1445,1439,1439,1433,1427,1421,1421,1415,1415,1415,1415,1410,1410,1404,1398,1398,1398,1392,1387,1381,1376,1376,1376,1370,1370,1370,1365,1359,1354,1354,1354,1349,1349,1349,1349,1343,1343,1338,1333,1333,1328,1328,1322,1317,1317,1312,1312,1307,1307,1307,1302,1302,1297,1292,1292,1292,1288,1283,1278,1273,1273,1273,1268,1268,1268,1264,1264,1259,1255,1255,1250,1250,1245,1245,1241,1236,1236,1232,1232,1232,1227,1223,1223,1219,1219,1214,1214,1214,1210,1210,1206,1202,1202,1197,1197,1197,1189,1189,1185,1185,1181,1181,1177,1177,1177,1177,1173,1169,1169,1165,1161,1157,1153,1153,1149,1149,1149,1145,1141,1138,1138,1138,1134,1134,1134,1130,1130,1130,1123,1123,1119,1119,1115,1115,1112,1112,1108,1108,1105,1101,1101,1101,1101,1097,1094,1090,1090,1090,1087,1087,1087,1084,1080,1080,1077,1077,1073,1073,1070,1067,1067,1063,1063,1060,1060,1057,1054,1054,1054,1054,1050,1047,1047,1044,1041,1041,1041,1038,1038,1034,1031,1031,0,0,0,0,0,0,0,0,0,0,0,0,0,0,0,0,0,0,0,0,0,0,0,0,0,0,0,0,0,0,0
0,0,0,0,0,0,0,0,0,0,0,0,0,0,1722,1722,1722,1722,1722,1722,1722,1722,1722,1713,1713,1713,1713,1713,1713,1722,1722,1722,1722,1722,1713,1713,1713,1731,1731,1731,1731,1731,1731,1731,1731,1722,1696,1696,0,0,0,0,0,0,0,0,0,0,0,981,981,981,984,984,984,984,984,987,987,987,987,987,987,987,987,987,0,0,0,0,0,0,0,0,0,0,0,0,0,662,661,659,659,659,661,661,661,661,662,663,664,664,664,664,666,666,666,667,668,670,670,671,671,672,674,675,676,680,682,682,682,683,683,684,686,686,686,687,688,690,691,693,693,694,694,694,696,696,697,697,698,700,700,701,703,704,704,706,707,707,708,708,710,711,711,713,714,716,716,716,717,719,719,720,722,722,723,723,725,727,727,727,728,730,730,731,731,733,733,734,734,734,736,738,738,739,739,741,741,746,746,746,747,747,749,749,747,747,1655,1655,1655,1655,1663,1663,1663,1663,1663,1671,1671,1671,1671,1671,1671,1671,1680,1680,1680,1680,1680,1680,1671,1671,1671,1671,1671,1671,1671,1671,1663,1663,1663,1663,1663,1663,1663,1663,1663,1663,1663,1663,1655,1655,0,0,0,0,0,1193,1189,1189,1185,1185,1185,1181,1181,1181,1185,1185,1185,1189,1193,1193,1193,1193,1197,1197,1202,1671,1671,1663,1663,1655,1655,1655,1655,1655,1655,1647,1647,1647,1647,1647,1647,1647,1647,1647,1647,1647,1647,1647,1639,1639,1639,1632,1632,1632,1632,1632,1632,1632,1632,1632,1632,1632,1632,1632,1632,0,0,0,0,0,0,0,0,918,918,915,913,910,908,906,903,903,903,903,901,901,903,903,906,906,908,908,908,910,910,913,915,915,915,915,0,0,0,0,0,0,1632,1624,1624,1624,1624,1616,1616,1616,1616,1616,1624,1624,1616,1616,1616,1616,1609,1609,1609,1609,1609,1609,1601,1601,1601,1601,1601,1601,1601,1601,1601,1601,1601,1594,1594,1594,1586,1586,1586,1579,1579,1572,1564,1557,1557,1550,1550,1550,1543,1543,1536,1536,1529,1529,1523,1523,1516,1516,1516,1509,1503,1496,1496,1496,1496,1496,1489,1483,1477,1470,1464,1464,1464,1464,1458,1458,1458,1452,1445,1445,1445,1439,1433,1427,1427,1421,1415,1415,1415,1415,1415,1410,1404,1404,1398,1398,1392,1387,1381,1376,1376,1376,1370,1370,1370,1365,1359,1354,1354,1354,1349,1349,1349,1349,1343,1343,1343,1338,1333,1333,1328,1322,1322,1317,1312,1312,1312,1307,1307,1302,1302,1297,1297,1292,1292,1288,1283,1283,1278,1273,1273,1273,1268,1268,1264,1264,1259,1255,1255,1250,1250,1245,1245,1241,1236,1236,1232,1232,1232,1227,1223,1223,1219,1219,1214,1214,1214,1214,1210,1206,1202,1202,1197,1197,1197,1193,1189,1185,1185,1185,1181,1181,1177,1177,1177,1173,1169,1169,1165,1161,1157,1157,1153,1153,1153,1149,1145,1145,1141,1138,1138,1134,1134,1134,1134,1134,1126,1123,1123,1123,1119,1119,1115,1115,1112,1108,1108,1105,1105,1101,1101,1101,1097,1094,1094,1090,1090,1090,1087,1087,1084,1080,1080,1077,1077,1077,1073,1073,1067,1067,1063,1063,1063,1060,1060,1057,1057,1054,1054,1054,1050,1047,1044,1044,1041,1041,1038,1038,1038,1034,1034,0,0,0,0,0,0,0,0,0,0,0,0,0,0,0,0,0,0,0,0,0,0,0,0,0,0,0,0,0,0,0
0,0,0,0,0,0,0,0,0,0,0,0,0,0,1705,1705,1705,1722,1722,1713,1713,1705,1705,1705,1705,1705,1705,1705,1705,1713,1713,1713,1722,1722,1713,1713,1713,1722,1722,1722,1731,1731,1722,1722,1722,1722,1696,1696,0,0,0,0,0,0,0,0,0,0,0,984,984,984,984,984,984,984,984,987,987,987,987,987,987,987,987,987,989,0,0,0,0,0,0,0,0,0,0,0,0,0,661,661,661,661,661,661,661,662,662,664,664,664,664,664,666,666,666,667,668,670,670,671,671,672,675,675,678,679,682,683,683,683,684,684,686,686,687,688,688,690,691,693,693,694,694,694,696,697,697,698,698,700,701,703,703,704,706,707,708,708,708,708,710,711,713,714,714,716,716,716,717,719,719,720,722,723,723,725,727,727,727,727,728,730,730,730,731,733,733,734,736,736,736,736,738,739,739,739,739,1655,1655,1647,1655,1655,1655,1655,1655,1655,1655,1655,1655,1655,1663,1663,1663,1663,1663,1663,1663,1663,1671,1671,1671,1671,1680,1680,1671,1671,1671,1663,1663,1663,1663,1663,1663,1663,1655,1655,1655,1655,1655,1655,1655,1663,1663,1663,1663,1655,1655,1655,1647,1647,1647,0,0,0,0,1193,1193,1193,1189,1185,1185,1185,1185,1185,1185,1189,1189,1189,1193,1193,1193,1193,1197,1197,1202,1202,1655,1655,1655,1655,1647,1647,1647,1647,1647,1639,1639,1639,1639,1639,1639,1639,1647,1639,1639,1639,1639,1639,1632,1632,1632,1624,1624,1632,1632,1632,1632,1632,1632,1624,1624,1624,1624,1624,1624,0,0,0,0,0,0,0,0,0,918,915,915,913,910,908,906,906,903,903,903,903,903,903,906,908,908,908,908,910,913,915,915,915,915,915,915,0,0,0,0,0,1632,1616,1609,1609,1616,1616,1609,1609,1609,1609,1616,1609,1609,1609,1609,1609,1609,1609,1609,1601,1601,1601,1601,1601,1594,1594,1594,1594,1594,1594,1594,1594,1594,1594,1594,1586,1586,1586,1586,1579,1579,1572,1564,1557,1557,1557,1550,1550,1543,1543,1536,1536,1529,1529,1523,1523,1516,1516,1516,1509,1509,1503,1503,1496,1496,1496,1489,1483,1477,1470,1464,1464,1464,1464,1464,1458,1458,1452,1452,1445,1445,1439,1439,1433,1427,1421,1421,1415,1415,1415,1415,1410,1410,1404,1404,1398,1392,1392,1381,1381,1376,1376,1376,1370,1370,1365,1365,1359,1354,1354,1354,1349,1349,1349,1349,1349,1343,1338,1333,1333,1328,1322,1322,1317,1317,1312,1312,1307,1307,1307,1302,1297,1297,1292,1292,1288,1288,1283,1278,1273,1273,1273,1268,1268,1268,1264,1259,1255,1255,1250,1250,1245,1245,1241,1236,1236,1232,1232,1232,1227,1227,1223,1223,1219,1219,1214,1214,1214,1210,1206,1202,1202,1202,1197,1197,1193,1189,1185,1185,1185,1181,1181,1177,1177,1177,1173,1169,1169,1165,1161,1157,1157,1153,1153,1153,1149,1149,1145,1141,1138,1138,1138,1134,1134,1134,1134,1126,1123,1123,1123,1119,1119,1119,1115,1115,1112,1108,1105,1105,1105,1101,1101,1097,1094,1094,1094,1090,1090,1090,1087,1084,1080,1080,1080,1077,1077,1073,1073,1070,1067,1067,1063,1063,1063,1060,1057,1057,1057,1054,1054,1050,1047,1044,1044,1041,1041,1038,1038,1038,1034,1034,0,0,0,0,0,0,0,0,0,0,0,0,0,0,0,0,0,0,0,0,0,0,0,0,0,0,0,0,0,0,0
0,0,0,0,0,0,0,0,0,0,0,0,0,1696,1696,1696,1705,1705,1713,1713,1705,1696,1696,1696,1696,1696,1696,1705,1705,1705,1705,1705,1705,1713,1713,1713,1722,1722,1722,1722,1722,1722,1713,1713,1713,1713,1688,1688,1688,0,0,0,0,0,0,0,0,0,0,984,984,984,984,984,984,987,987,987,987,987,989,989,989,989,989,989,989,992,0,0,0,0,0,0,0,0,0,0,0,0,661,661,661,661,661,661,662,662,663,664,664,664,664,666,666,667,667,668,670,671,672,672,672,674,675,676,678,679,682,683,683,684,686,686,687,687,688,688,690,691,693,693,693,694,694,696,696,697,697,698,700,701,701,703,704,707,707,708,708,708,708,710,711,713,713,714,716,716,716,717,717,719,719,720,722,723,723,725,727,727,728,728,728,730,730,730,733,733,733,734,734,736,736,736,736,0,1632,1632,0,1655,1655,1647,1655,1655,1655,1655,1655,1655,1655,1655,1655,1655,1655,1655,1655,1655,1655,1655,1655,1663,1663,1663,1663,1663,1663,1663,1655,1655,1655,1655,1655,1655,1655,1655,1655,1647,1647,1647,1647,1647,1647,1647,1655,1655,1655,1655,1655,1655,1647,1647,1647,1647,1647,1647,0,0,0,1193,1193,1193,1189,1189,1185,1185,1185,1185,1189,1189,1193,1193,1193,1197,1197,1197,1197,1197,1197,1197,1655,1655,1639,1639,1639,1639,1639,1639,1639,1632,1632,1632,1632,1632,1632,1639,1639,1632,1632,1632,1632,1632,1632,1624,1624,1624,1624,1624,1624,1624,1624,1624,1624,1624,1616,1616,1616,1616,1624,0,0,0,0,0,0,0,0,0,918,918,915,915,913,908,908,906,906,906,903,903,903,906,906,908,908,908,908,910,913,915,915,915,915,915,915,0,0,0,0,0,0,1609,1609,1609,1609,1609,1609,1609,1609,1609,1609,1601,1601,1609,1609,1609,1601,1601,1601,1601,1601,1601,1594,1594,1594,1594,1586,1586,1586,1586,1594,1594,1594,1594,1586,1586,1586,1579,1579,1579,1579,1579,1564,1557,1557,1557,1550,1550,1550,1543,1543,1543,1536,1529,1529,1523,1523,1516,1516,1516,1509,1509,1503,1503,1496,1496,1489,1483,1483,1470,1464,1464,1464,1464,1464,1458,1458,1452,1452,1445,1445,1439,1439,1433,1427,1421,1421,1421,1415,1415,1415,1410,1410,1404,1404,1398,1392,1392,1381,1381,1376,1376,1376,1370,1370,1365,1365,1359,1354,1354,1354,1354,1349,1349,1349,1349,1343,1343,1338,1333,1328,1328,1322,1317,1317,1312,1312,1307,1307,1307,1302,1297,1297,1292,1292,1288,1288,1283,1278,1278,1273,1273,1273,1268,1268,1264,1259,1259,1255,1250,1250,1250,1245,1241,1241,1236,1232,1232,1232,1227,1227,1223,1223,1219,1219,1214,1214,1214,1210,1206,1206,1202,1202,1197,1197,1193,1189,1185,1185,1185,1181,1181,1181,1177,1177,1173,1169,1169,1165,1161,1161,1161,1157,1153,1153,1149,1149,1145,1145,1141,1138,1138,1134,1134,1134,1134,1130,1126,1123,1123,1119,1119,1119,1115,1115,1112,1108,1105,1105,1105,1101,1101,1097,1094,1094,1094,1094,1094,1090,1087,1084,1084,1080,1080,1077,1077,1073,1073,1070,1067,1067,1067,1063,1063,1060,1060,1057,1057,1054,1054,1050,1050,1044,1044,1044,1041,1041,1038,1038,1034,1034,0,0,0,0,0,0,0,0,0,0,0,0,0,0,0,0,0,0,0,0,0,0,0,0,0,0,0,0,0,0,0
0,0,0,0,0,0,0,0,0,0,0,0,0,1696,1696,1696,1696,1696,1696,1696,1696,1696,1696,1696,1696,1696,1696,1696,1696,1696,1705,1705,1705,1705,1705,1713,1713,1713,1713,1713,1713,1705,1705,1696,1696,1696,1688,1680,1680,0,0,0,0,0,0,0,0,0,0,984,984,984,984,984,987,987,987,987,987,987,989,989,989,989,989,995,992,992,995,0,0,0,0,0,0,0,0,0,0,0,662,662,662,662,662,662,662,662,664,664,664,664,664,666,667,667,667,668,670,671,672,672,674,675,676,676,678,679,682,683,683,684,686,687,687,687,688,690,690,691,693,693,693,694,694,696,697,698,698,700,701,701,701,703,704,707,708,708,708,710,710,711,713,713,713,714,716,716,716,717,717,719,719,720,722,723,723,725,727,728,728,728,730,730,730,730,731,731,733,734,734,734,734,0,1632,0,1632,1632,1639,1655,1655,1647,1647,1655,1647,1647,1647,1647,1647,1647,1655,1655,1655,1655,1655,1655,1655,1655,1647,1647,1647,1647,1655,1647,1647,1647,1647,1647,1647,1647,1647,1647,1647,1647,1647,1647,1647,1647,1647,1647,1647,1647,1647,1647,1647,1647,1647,1647,1647,1639,1639,1639,1639,1639,0,0,0,1197,1197,1197,1197,1193,1189,1189,1189,1189,1189,1189,1193,1193,1193,1197,1197,1197,1202,1202,1197,1197,1197,1624,1624,1624,1632,1632,1632,1624,1624,1632,1632,1632,1632,1632,1632,1632,1632,1632,1632,1632,1632,1632,1624,1624,1624,1616,1616,1624,1624,1624,1624,1624,1624,1616,1616,1616,1616,1616,1616,0,0,0,0,0,0,0,0,0,0,918,918,915,913,910,908,908,906,906,906,906,906,906,906,908,908,908,908,910,915,915,915,915,915,918,918,0,0,0,0,0,0,1609,1609,1609,1609,1601,1601,1601,1601,1601,1601,1601,1601,1601,1601,1601,1601,1601,1601,1601,1594,1594,1594,1586,1586,1586,1586,1586,1586,1586,1586,1586,1586,1586,1579,1579,1579,1579,1579,1579,1579,1572,1564,1557,1557,1557,1550,1550,1550,1550,1543,1543,1543,1536,1529,1523,1523,1516,1516,1516,1509,1509,1503,1503,1496,1496,1489,1489,1483,1470,1470,1470,1464,1464,1464,1458,1458,1452,1452,1445,1445,1445,1439,1433,1433,1427,1421,1421,1421,1415,1415,1415,1410,1404,1404,1398,1392,1392,1387,1381,1376,1376,1376,1376,1370,1365,1365,1365,1354,1354,1354,1354,1349,1349,1349,1343,1343,1338,1338,1333,1333,1328,1322,1322,1317,1317,1312,1312,1307,1307,1307,1302,1297,1297,1292,1292,1288,1288,1283,1278,1273,1273,1273,1268,1268,1264,1264,1259,1255,1255,1250,1250,1250,1245,1241,1236,1236,1232,1232,1232,1227,1223,1223,1223,1219,1219,1214,1214,1210,1210,1206,1202,1202,1197,1197,1197,1193,1185,1185,1185,1181,1181,1181,1177,1177,1173,1169,1169,1169,1161,1161,1161,1157,1153,1153,1153,1149,1145,1145,1141,1138,1138,1134,1134,1134,1134,1130,1126,1126,1123,1123,1119,1119,1115,1115,1112,1108,1105,1105,1105,1101,1101,1097,1094,1094,1094,1094,1094,1090,1090,1087,1084,1080,1080,1077,1077,1073,1073,1070,1067,1067,1067,1067,1063,1063,1060,1060,1057,1054,1054,1054,1050,1047,1044,1044,1041,1041,1038,1038,1034,1034,0,0,0,0,0,0,0,0,0,0,0,0,0,0,0,0,0,0,0,0,0,0,0,0,0,0,0,0,0,0,0
0,0,0,0,0,0,0,0,0,0,0,0,0,1696,1688,1688,1688,1688,1696,1696,1696,1696,1696,1696,1696,1696,1688,1688,1696,1696,1696,1696,1696,1705,1705,1705,1705,1705,1705,1705,1696,1696,1696,1696,1688,1688,1688,1671,1671,1671,0,0,0,0,0,0,0,0,0,0,987,984,984,987,987,987,987,987,987,989,989,992,992,992,992,998,995,995,995,0,0,0,0,0,0,0,0,0,0,0,663,662,662,663,662,662,662,662,664,664,664,664,664,667,667,668,668,670,670,672,674,675,675,675,676,676,678,679,682,683,683,684,687,687,687,688,690,690,691,691,693,693,694,696,696,697,697,698,700,700,701,703,703,704,704,707,708,708,710,710,710,711,713,714,714,714,714,714,716,717,717,719,719,720,722,723,725,725,727,728,728,728,730,730,730,730,731,731,731,731,1632,1632,0,1632,1632,1632,1632,1632,1639,1639,1647,1647,1647,1647,1647,1647,1647,1639,1639,1647,1647,1647,1647,1655,1647,1647,1647,1647,1647,1639,1639,1639,1639,1639,1639,1639,1639,1639,1639,1639,1639,1647,1639,1639,1639,1639,1639,1639,1639,1639,1632,1632,1639,1639,1639,1639,1639,1639,1639,1632,1632,1632,1632,1632,0,0,0,1197,1197,1197,1197,1193,1193,1189,1189,1189,1189,1189,1193,1193,1193,1197,1197,1197,1202,1202,1202,1202,1202,1624,1624,1624,1624,1624,1624,1624,1624,1624,1624,1624,1624,1624,1624,1624,1624,1632,1624,1624,1624,1624,1616,1616,1616,1616,1616,1616,1616,1616,1616,1616,1616,1616,1609,1609,1609,1609,1616,0,0,0,0,0,0,0,0,0,918,918,918,915,915,913,910,908,908,908,908,906,906,908,908,908,910,910,910,913,915,915,918,918,918,918,918,0,0,0,0,0,0,1609,1601,1601,1601,1601,1601,1594,1594,1601,1594,1594,1594,1594,1594,1594,1594,1594,1594,1594,1594,1586,1586,1586,1586,1586,1579,1579,1586,1586,1586,1586,1579,1579,1579,1579,1579,1579,1579,1579,1579,1572,1564,1564,1557,1557,1550,1550,1550,1550,1550,1543,1543,1536,1536,1523,1523,1523,1516,1516,1509,1509,1503,1503,1496,1496,1489,1489,1483,1477,1470,1470,1464,1464,1464,1458,1458,1452,1452,1445,1445,1445,1439,1433,1433,1427,1421,1421,1421,1415,1415,1415,1410,1404,1404,1398,1392,1392,1387,1381,1381,1376,1376,1376,1370,1370,1365,1365,1354,1354,1354,1354,1349,1349,1349,1343,1343,1338,1338,1333,1333,1328,1322,1322,1322,1317,1312,1312,1307,1307,1307,1302,1297,1297,1292,1292,1288,1288,1283,1278,1278,1273,1273,1268,1268,1264,1264,1259,1255,1255,1250,1250,1250,1245,1241,1236,1236,1232,1232,1232,1227,1227,1227,1223,1219,1219,1214,1214,1214,1210,1206,1202,1202,1202,1197,1197,1193,1189,1185,1185,1185,1181,1181,1177,1177,1173,1169,1169,1169,1161,1161,1161,1157,1153,1153,1153,1149,1149,1149,1145,1141,1138,1138,1138,1134,1134,1134,1130,1126,1126,1123,1123,1119,1119,1115,1112,1112,1108,1105,1105,1101,1101,1097,1094,1094,1094,1094,1094,1090,1090,1090,1087,1084,1080,1080,1077,1077,1073,1073,1070,1067,1067,1067,1063,1063,1060,1060,1057,1054,1054,1054,1050,1050,1047,1044,1044,1041,1038,1038,1034,1034,0,0,0,0,0,0,0,0,0,0,0,0,0,0,0,0,0,0,0,0,0,0,0,0,0,0,0,0,0,0,0
0,0,0,0,0,0,0,0,0,0,0,0,0,1688,1688,1688,1688,1688,1696,1696,1696,1696,1696,1696,1696,1696,1688,1688,1688,1688,1688,1688,1688,1688,1688,1688,1696,1696,1696,1696,1696,1696,1688,1688,1688,1680,1680,1663,1663,1663,0,0,0,0,0,0,0,0,0,0,987,987,987,987,987,987,987,987,989,989,992,992,992,998,998,998,998,995,995,998,0,0,0,0,0,0,0,0,0,0,662,662,662,663,663,663,663,663,664,664,664,666,666,667,667,668,668,670,671,672,674,675,675,676,676,676,678,679,680,682,686,687,687,687,688,690,691,691,691,693,693,694,696,696,697,698,698,700,700,700,701,703,703,704,704,707,708,708,710,710,710,711,713,714,714,714,714,714,716,717,717,719,719,720,722,723,725,725,727,728,728,728,730,730,730,0,730,0,0,0,0,1632,1632,1632,1632,1632,1632,1632,1639,1639,1647,1647,1647,1647,1647,1647,1647,1639,1639,1639,1647,1647,1647,1647,1647,1647,1647,1639,1639,1639,1639,1639,1639,1632,1632,1632,1632,1632,1632,1632,1632,1639,1639,1639,1639,1639,1639,1632,1632,1632,1632,1632,1632,1632,1632,1632,1632,1632,1632,1624,1624,1624,1632,1632,1632,1624,1197,1197,1197,1197,1197,1193,1193,1193,1193,1193,1193,1193,1197,1197,1197,1197,1197,1202,1202,1202,1202,1202,1202,1202,1624,1624,1616,1616,1616,1616,1616,1616,1616,1616,1601,1601,1609,1609,1624,1624,1616,1616,1616,1609,1609,1609,1609,1609,1609,1609,1609,1609,1609,1609,1609,1609,1601,1601,1601,1601,1609,0,0,0,0,0,0,0,0,0,918,918,918,918,915,913,910,910,908,908,908,908,908,908,908,908,910,910,913,913,915,918,918,918,918,918,920,0,0,0,0,0,0,1601,1601,1601,1594,1594,1594,1594,1594,1594,1586,1586,1586,1586,1594,1594,1586,1586,1586,1586,1586,1586,1579,1579,1579,1579,1579,1579,1579,1579,1579,1579,1579,1579,1579,1579,1572,1572,1572,1572,1572,1572,1564,1557,1557,1557,1550,1550,1550,1550,1543,1543,1543,1536,1536,1523,1523,1523,1516,1516,1509,1509,1503,1503,1496,1496,1489,1489,1483,1477,1477,1470,1470,1464,1464,1464,1458,1452,1452,1445,1445,1445,1439,1433,1433,1427,1421,1421,1421,1415,1415,1415,1410,1410,1404,1398,1392,1392,1387,1381,1381,1381,1376,1376,1376,1370,1370,1365,1359,1354,1354,1354,1349,1349,1349,1349,1343,1343,1338,1333,1333,1328,1328,1322,1322,1317,1317,1312,1312,1307,1307,1307,1302,1292,1292,1292,1292,1288,1288,1283,1278,1273,1273,1273,1268,1268,1264,1264,1255,1255,1250,1250,1250,1245,1241,1236,1236,1232,1232,1232,1232,1227,1227,1223,1219,1219,1214,1214,1214,1210,1206,1206,1202,1202,1197,1197,1189,1189,1185,1181,1181,1181,1181,1177,1177,1173,1169,1169,1169,1165,1161,1161,1157,1157,1153,1153,1153,1149,1149,1145,1145,1138,1138,1138,1138,1134,1134,1130,1126,1126,1123,1123,1119,1119,1119,1115,1112,1108,1105,1105,1105,1101,1101,1097,1094,1094,1094,1094,1094,1090,1090,1087,1084,1080,1080,1077,1077,1077,1073,1070,1070,1067,1067,1063,1063,1063,1060,1060,1057,1054,1054,1050,1050,1047,1047,1044,1041,1041,1038,1038,1038,0,0,0,0,0,0,0,0,0,0,0,0,0,0,0,0,0,0,0,0,0,0,0,0,0,0,0,0,0,0,0
0,0,0,0,0,0,0,0,0,0,0,0,0,1680,1680,1680,1680,1688,1688,1688,1688,1688,1688,1688,1688,1688,1680,1680,1688,1688,1688,1688,1680,1680,1688,1688,1680,1680,1680,1680,1688,1688,1688,1688,1688,1680,1680,1663,1663,1663,0,0,0,0,0,0,0,0,0,0,987,987,987,987,987,987,989,989,989,989,992,995,995,998,998,998,998,998,998,998,0,0,0,0,0,0,0,0,0,0,662,661,661,664,663,663,663,664,666,666,666,666,667,667,667,667,675,675,675,674,674,676,676,676,676,676,678,678,679,680,686,687,688,688,690,690,691,691,693,693,694,696,696,697,697,698,698,700,701,701,703,703,703,704,707,708,708,708,710,710,710,713,714,714,714,716,716,716,717,717,717,719,719,719,722,723,725,727,728,728,728,730,730,730,730,0,0,0,0,1632,1632,1632,1632,1632,1632,1632,1632,1632,1632,1632,1639,1639,1639,1639,1639,1639,1639,1632,1632,1632,1639,1639,1639,1639,1639,1639,1639,1639,1639,1639,1639,1632,1632,1632,1632,1632,1624,1624,1624,1624,1624,1632,1632,1632,1632,1632,1632,1632,1632,1632,1632,1632,1632,1632,1632,1624,1624,1624,1624,1624,1616,1616,1616,1624,1624,1624,1202,1202,1202,1197,1197,1197,1197,1197,1197,1197,1197,1197,1197,1202,1202,1202,1202,1202,1206,1206,1206,1202,1202,1202,1609,1609,1609,1616,1609,1609,1609,1609,1609,1609,1601,1601,1601,1601,1601,1601,1601,1601,1609,1609,1601,1601,1601,1601,1601,1601,1601,1601,1601,1601,1601,1601,1601,1594,1594,1594,1594,0,0,0,0,0,0,0,0,0,0,920,918,918,915,915,913,910,908,908,908,908,908,908,908,908,910,913,913,915,915,918,918,918,920,920,920,0,0,0,0,0,0,1586,1586,1586,1579,1579,1579,1579,1579,1586,1586,1579,1579,1586,1586,1579,1579,1579,1579,1579,1579,1579,1579,1572,1572,1572,1572,1572,1572,1572,1572,1572,1572,1572,1572,1572,1572,1572,1564,1564,1572,1564,1564,1557,1557,1557,1550,1550,1550,1550,1543,1543,1543,1543,1536,1536,1523,1523,1516,1516,1516,1509,1503,1503,1496,1496,1489,1489,1483,1483,1477,1470,1470,1464,1464,1464,1458,1452,1452,1445,1445,1445,1439,1433,1433,1427,1421,1421,1421,1415,1415,1415,1410,1410,1404,1398,1398,1392,1387,1387,1381,1381,1381,1376,1376,1370,1370,1365,1365,1354,1354,1354,1349,1349,1349,1349,1343,1343,1338,1333,1333,1328,1328,1322,1322,1317,1317,1312,1312,1307,1307,1307,1302,1292,1292,1292,1292,1288,1288,1283,1278,1278,1273,1273,1268,1268,1264,1264,1255,1255,1255,1250,1250,1245,1241,1241,1236,1232,1232,1232,1232,1227,1227,1223,1219,1219,1214,1214,1214,1210,1210,1206,1202,1202,1197,1197,1189,1189,1185,1181,1181,1181,1181,1181,1177,1173,1173,1169,1169,1165,1165,1161,1161,1157,1157,1153,1153,1153,1149,1149,1145,1141,1141,1138,1138,1134,1134,1130,1130,1126,1123,1123,1119,1119,1119,1115,1112,1108,1105,1105,1105,1101,1101,1097,1097,1094,1094,1094,1094,1090,1090,1087,1084,1080,1080,1080,1077,1077,1073,1073,1070,1070,1067,1067,1063,1063,1060,1060,1057,1054,1054,1050,1050,1047,1047,1047,1041,1041,1038,1038,1038,0,0,0,0,0,0,0,0,0,0,0,0,0,0,0,0,0,0,0,0,0,0,0,0,0,0,0,0,0,0,0
0,0,0,0,0,0,0,0,0,0,0,0,0,1680,1671,1671,1680,1680,1680,1688,1688,1688,1688,1680,1680,1688,1680,1680,1680,1688,1688,1680,1680,1680,1680,1680,1680,1680,1680,1680,1680,1680,1680,1680,1680,1671,1671,1663,1663,1663,0,0,0,0,0,0,0,0,0,0,987,987,987,987,987,989,989,989,989,992,995,995,995,998,998,998,998,998,998,998,0,0,0,0,0,0,0,0,652,650,650,650,661,664,664,664,664,666,666,666,666,666,668,668,670,671,675,675,675,675,675,676,676,676,676,676,678,678,679,680,687,687,688,688,690,691,691,693,693,694,694,696,697,697,697,698,698,700,701,703,704,704,704,704,707,708,708,708,710,710,711,713,714,714,714,716,716,716,717,717,717,719,719,719,722,722,725,727,728,728,730,730,730,730,1616,0,1624,0,0,0,1632,1632,1624,1624,1632,1632,1632,1632,1632,1632,1632,1632,1632,1632,1639,1639,1639,1632,1632,1632,1632,1632,1632,1639,1639,1639,1639,1632,1632,1632,1632,1624,1624,1624,1616,1616,1624,1624,1624,1624,1624,1632,1624,1624,1624,1624,1624,1624,1624,1624,1624,1624,1624,1624,1624,1624,1624,1624,1616,1609,1609,1616,1616,1624,1624,1624,1202,1202,1202,1202,1202,1197,1197,1197,1197,1197,1197,1197,1197,1202,1202,1202,1202,1206,1206,1206,1206,1206,1206,1594,1594,1594,1601,1609,1609,1609,1601,1601,1601,1601,1601,1601,1601,1601,1601,1601,1601,1594,1594,1594,1594,1601,1594,1594,1594,1594,1601,1601,1601,1594,1594,1594,1594,1594,1586,1586,1586,0,0,0,0,0,0,0,0,0,0,0,918,918,918,915,913,910,910,908,908,908,908,908,910,910,913,913,915,915,918,920,920,920,923,923,925,0,0,0,0,0,0,1579,1579,1579,1579,1572,1572,1572,1572,1572,1572,1572,1572,1572,1572,1572,1572,1572,1572,1572,1572,1572,1572,1572,1572,1572,1572,1572,1572,1572,1572,1572,1564,1564,1564,1564,1564,1564,1564,1564,1564,1557,1557,1557,1550,1550,1550,1550,1550,1543,1543,1543,1543,1543,1536,1536,1523,1523,1516,1516,1516,1509,1503,1503,1496,1496,1496,1489,1489,1483,1483,1477,1470,1470,1464,1464,1458,1458,1452,1452,1445,1445,1439,1439,1433,1427,1427,1421,1421,1415,1415,1415,1410,1410,1404,1398,1398,1392,1392,1387,1387,1381,1381,1376,1376,1370,1370,1370,1365,1359,1354,1354,1354,1349,1349,1349,1343,1338,1338,1333,1333,1328,1328,1322,1322,1317,1317,1312,1312,1307,1307,1307,1302,1297,1292,1292,1292,1288,1288,1288,1283,1278,1273,1273,1273,1268,1268,1264,1255,1255,1255,1250,1250,1250,1245,1241,1236,1236,1236,1232,1232,1232,1227,1227,1223,1219,1219,1214,1214,1210,1210,1206,1202,1202,1202,1197,1193,1189,1185,1185,1185,1181,1181,1181,1181,1177,1173,1173,1169,1169,1165,1165,1161,1157,1157,1153,1153,1153,1149,1149,1149,1145,1141,1138,1138,1134,1134,1130,1130,1126,1126,1123,1123,1119,1119,1115,1112,1108,1105,1105,1105,1101,1101,1097,1097,1094,1094,1094,1094,1090,1090,1087,1084,1080,1080,1080,1077,1077,1077,1073,1073,1070,1067,1067,1063,1063,1063,1060,1057,1057,1054,1054,1050,1050,1047,1044,1041,1041,1038,1038,1038,0,0,0,0,0,0,0,0,0,0,0,0,0,0,0,0,0,0,0,0,0,0,0,0,0,0,0,0,0,0,0
