0.52587 0.5255 0.5255 0.52412 0.52412 0.52412 0.52338 0.52075 0.5195 0.51875 0.51712 0.51663 0.51663 0.51712 0.5175 0.5175 0.51825 0.51825 0.52038 0.52125 0.52163 0.52287 0.52287 0.52338 0.52412 0.52463 0.525 0.52587 0.52638 0.52712 0.52763 0.52763 0.52763 0.528 0.528 0.52938 0.52975 0.53025 0.53063 0.53112 0.5315 0.53112 0.5315 0.53275 0.53275 0.53238 0.53187 0.53187 0.53238 0.53187 0.53275 0.53463 0.535 0.5355 0.53587 0.53675 0.53763 0.5395 0.53987 0.54087 0.54175 0.54175 0.54263 0.54263 0.54312 0.54312 0.54263 0.54263 0.54312 0.5435 0.5435 0.54312 0.5435 0.5445 0.54538 0.54538 0.54725 0.54725 0.54812 0.54863 0.5495 0.55137 0.55188 0.55237 0.55237 0.55288 0.55288 0.55375 0.55475 0.55612 0.55712 0.55763 0.55812 0.559 0.5595 0.5605 0.561 0.561 0.561 0.561 0.562 0.562 0.5615 0.562 0.562 0.56237 0.56437 0.56488 0.56588 0.56588 0.56637 0.56837 0.56837 0.56837 0.56988 0.56988 0.56937 0.56937 0.56988 0.57088 0.57188 0.57188 0.57237 0.57237 0.57237 0.57337 0.57388 0.57488 0.576 0.576 0.5775 0.5775 0.578 0.5795 0.58013 0.58062 0.58162 0.58213 0.58375 0.58375 0.58425 0.58525 0.58588 0.58637 0.588 0.589 0.589 0.58962 0.58962 0.59013 0.59013 0.59062 0.59125 0.59125 0.59125 0.59225 0.59225 0.59275 0.59337 0.59388 0.595 0.5955 0.59613 0.59713 0.59775 0.59825 0.59937 0.6 0.60113 0.60162 0.60213 0.60275 0.60325 0.60388 0.60388 0.60437 0.60388 0.60388 0.60437 0.605 0.605 0.60562 0.60725 0.60725 0.60788 0.60837 0.609 0.61125 0.61075 0.61187 0.61238 0.61238 0.61362 0.61475 0.61475 0.61538 0.61475 0.61475 0.61713 0.61713 0.61775 0.61825 0.61887 0.62 0.6225 0.6225 0.62362 0.62425 0.62425 0.6255 0.6255 0.62662 0.62725 0.62725 0.62725 0.62787 0.6285 0.63038 0.6315 0.63213 0.634 0.63338 0.63338 0.63838 0.72488 0.72488 0.72737 0.73062 0.73137 0.73225 0.73475 0.73562 0.73638 0.739 0.74062 0.74062 0.7415 0.73975 0.73975 0.73975 0.74062 0.74238 0.74313 0.74313 0.7475 0.74838 0.75087 0.75175 0.75175 0.75262 0.7535 0.75175 0.75262 0.75262 0.75262 0.75438 0.7535 0.75438 0.75538 0.75538 0.75625 0.75713 0.758 0.758 0.75975 0.75887 0.75975 0.7615 0.76338 0.76513 0.76513 0.76787 0.76787 0.76875 0.76963 0.77063 0.77338 0.77338 0.77425 0.77712 0.778 0.778 0.779 0.77987 0.78175 0.78363 0.78463 0.7865 0.7875 0.78463 0.78463 0.7865 0.7865 0.78838 0.78938 0.79425 0.79525 0.79425 0.79425 0.79525 0.79525 0.79712 0.79712 0.79712 0.79812 0.79712 0.79812 0.79812 0.79912 0.80112 0.80112 0.80212 0.80512 0.80612 0.80812 0.81212 0.79525 0.79525 0.79712 0.79712 0.82137 0.82137 0.82037 0.82037 0.82037 0.81937 0.81837 0.81837 0.81725 0.81837 0.81937 0.8225 0.8235 0.8235 0.8235 0.8235 0.82563 0.82663 0.82663 0.82463 0.8235 0.82037 0.82037 0.82137 0.8225 0.82563 0.82663 0.82775 0.82775 0.82875 0.832 0.833 0.83088 0.83088 0.82988 0.82988 0.82988 0.82875 0.832 0.833
0.52587 0.52587 0.52587 0.525 0.52412 0.52412 0.52338 0.52163 0.52 0.51825 0.5175 0.51712 0.51712 0.51712 0.51787 0.51787 0.51825 0.51912 0.52075 0.52212 0.52212 0.52338 0.52375 0.52375 0.52463 0.525 0.5255 0.52587 0.52638 0.52712 0.528 0.52763 0.528 0.528 0.528 0.52938 0.52975 0.53025 0.53063 0.5315 0.5315 0.53187 0.53187 0.53275 0.53275 0.53275 0.53275 0.53238 0.53275 0.53238 0.53325 0.53412 0.53463 0.535 0.53638 0.53725 0.53812 0.53987 0.54038 0.54175 0.54212 0.54212 0.54312 0.54263 0.54312 0.54312 0.54312 0.54312 0.54312 0.5435 0.5435 0.54312 0.5435 0.5445 0.54487 0.54587 0.54725 0.54763 0.54812 0.54863 0.5495 0.55137 0.55188 0.55237 0.55288 0.55288 0.55325 0.55425 0.55525 0.55663 0.55812 0.55812 0.5585 0.5595 0.56 0.5615 0.5615 0.5615 0.5615 0.562 0.562 0.562 0.562 0.562 0.56237 0.56237 0.56488 0.56488 0.56588 0.56588 0.56688 0.56788 0.56837 0.56888 0.56988 0.56988 0.56937 0.56937 0.56988 0.57088 0.57188 0.57237 0.57237 0.57288 0.57237 0.57388 0.57437 0.576 0.5765 0.577 0.578 0.578 0.5785 0.5795 0.58013 0.58013 0.58213 0.58213 0.58375 0.58375 0.58425 0.58588 0.58588 0.58688 0.5885 0.589 0.58962 0.58962 0.59013 0.59013 0.59062 0.59062 0.59125 0.59125 0.59175 0.59225 0.59275 0.59337 0.59388 0.59388 0.59613 0.59662 0.59713 0.59825 0.59888 0.59888 0.6 0.6005 0.60162 0.60213 0.60275 0.60275 0.60325 0.60388 0.60437 0.60437 0.60437 0.60388 0.60437 0.605 0.60562 0.60562 0.60675 0.60725 0.60788 0.60837 0.6095 0.61125 0.61187 0.61238 0.61362 0.61413 0.61475 0.61538 0.61538 0.61538 0.61538 0.61538 0.61775 0.61825 0.61825 0.61887 0.62 0.62 0.6225 0.6225 0.62362 0.62362 0.62425 0.6255 0.626 0.62662 0.62787 0.62787 0.62787 0.6285 0.6285 0.63087 0.6315 0.63275 0.63338 0.63275 0.63338 0.6365 0.72413 0.72488 0.7265 0.73137 0.73225 0.73388 0.73562 0.73638 0.73725 0.74062 0.74062 0.74238 0.74238 0.7415 0.74238 0.74238 0.74313 0.74487 0.74487 0.74575 0.74925 0.75087 0.75175 0.75262 0.75262 0.75175 0.75175 0.75175 0.75262 0.75175 0.75262 0.7535 0.7535 0.75438 0.75538 0.75538 0.75713 0.75625 0.75713 0.75887 0.75887 0.75975 0.75975 0.7615 0.76425 0.76513 0.766 0.76875 0.76963 0.77063 0.7715 0.7715 0.77425 0.77425 0.77525 0.778 0.779 0.779 0.78087 0.78087 0.78175 0.78363 0.7855 0.7865 0.7875 0.7855 0.7855 0.7865 0.7875 0.79038 0.79138 0.79425 0.79525 0.79525 0.79612 0.79525 0.79612 0.79712 0.79712 0.79712 0.79812 0.79812 0.79812 0.79812 0.80012 0.80112 0.80212 0.80312 0.80612 0.80812 0.81012 0.81212 0.81625 0.81625 0.81937 0.82037 0.8225 0.8225 0.82137 0.82137 0.82137 0.82037 0.82037 0.81937 0.81837 0.81837 0.82037 0.8235 0.82463 0.82463 0.82463 0.82463 0.82775 0.82775 0.82775 0.82663 0.82463 0.82137 0.8225 0.8225 0.82463 0.82663 0.82775 0.82875 0.82775 0.82988 0.833 0.833 0.83088 0.83088 0.83088 0.82988 0.82875 0.82875 0.832 0.833
0.52638 0.52638 0.52638 0.5255 0.525 0.52463 0.52412 0.5225 0.52163 0.52 0.51912 0.51787 0.51787 0.51787 0.51787 0.51875 0.51875 0.51912 0.52125 0.52163 0.5225 0.52375 0.52412 0.52412 0.52463 0.525 0.5255 0.52587 0.52638 0.52763 0.528 0.528 0.528 0.5285 0.5285 0.52938 0.52975 0.53025 0.53063 0.53112 0.5315 0.5315 0.53187 0.53275 0.53275 0.53275 0.53275 0.53275 0.53238 0.53275 0.53325 0.53463 0.535 0.5355 0.53638 0.53763 0.53812 0.54087 0.54087 0.54175 0.54263 0.54263 0.54312 0.54312 0.5435 0.5435 0.5435 0.54312 0.5435 0.5435 0.5435 0.5435 0.5435 0.54487 0.54538 0.54625 0.54763 0.54812 0.54912 0.5495 0.5505 0.55188 0.55237 0.55288 0.55325 0.55375 0.55375 0.55425 0.55563 0.55712 0.55812 0.5585 0.5585 0.5595 0.5605 0.5615 0.5615 0.562 0.56237 0.56237 0.56237 0.562 0.56237 0.56288 0.56237 0.56237 0.56488 0.56537 0.56588 0.56588 0.56688 0.56788 0.56837 0.56837 0.56988 0.56988 0.56988 0.56988 0.57037 0.57188 0.57237 0.57237 0.57237 0.57288 0.57288 0.57388 0.57488 0.5765 0.577 0.5775 0.5785 0.579 0.5795 0.58013 0.58062 0.58113 0.58213 0.58262 0.58425 0.58475 0.58475 0.58588 0.58637 0.58688 0.5885 0.58962 0.58962 0.59013 0.59013 0.59062 0.59125 0.59062 0.59175 0.59175 0.59175 0.59275 0.59275 0.59388 0.5945 0.595 0.59662 0.59713 0.59775 0.59888 0.59888 0.59937 0.60113 0.60113 0.60213 0.60275 0.60275 0.60325 0.60388 0.60388 0.60437 0.60388 0.60388 0.60388 0.60437 0.605 0.60562 0.60613 0.60725 0.60788 0.60837 0.609 0.61013 0.61238 0.61238 0.613 0.61413 0.61413 0.61475 0.61587 0.6165 0.61587 0.61538 0.6165 0.61775 0.61825 0.61887 0.6195 0.62 0.62062 0.6225 0.6225 0.62362 0.62362 0.62425 0.626 0.62662 0.62725 0.62787 0.62787 0.62787 0.62913 0.62913 0.63087 0.63213 0.63275 0.63338 0.63338 0.63338 0.6365 0.7225 0.72325 0.7265 0.73137 0.73313 0.73388 0.73562 0.73725 0.73813 0.7415 0.7415 0.74313 0.74313 0.74238 0.74238 0.74313 0.744 0.74575 0.74662 0.7475 0.75013 0.75175 0.75175 0.75262 0.75262 0.75262 0.75262 0.75175 0.75262 0.75175 0.75175 0.75438 0.7535 0.75538 0.75538 0.75625 0.75713 0.75713 0.75713 0.75975 0.75975 0.7615 0.7615 0.76238 0.76513 0.766 0.766 0.76963 0.76963 0.7715 0.77238 0.77338 0.77425 0.77612 0.77612 0.779 0.77987 0.77987 0.78087 0.78087 0.78275 0.78463 0.7855 0.7875 0.7875 0.7865 0.7865 0.7875 0.78838 0.79138 0.79325 0.79525 0.79612 0.79612 0.79612 0.79612 0.79712 0.79812 0.79812 0.79812 0.79912 0.79812 0.79912 0.79912 0.80012 0.80312 0.80312 0.80512 0.80712 0.81012 0.81112 0.81312 0.81525 0.81725 0.81937 0.82037 0.8225 0.8225 0.82137 0.8225 0.8225 0.82037 0.82037 0.81937 0.81937 0.81937 0.82037 0.8225 0.8225 0.8225 0.8235 0.8235 0.82663 0.82663 0.82663 0.82563 0.82463 0.8225 0.8235 0.8235 0.82463 0.82563 0.82563 0.82875 0.82775 0.82875 0.83088 0.83088 0.82988 0.82875 0.82988 0.82875 0.82988 0.82875 0.832 0.83413
0.52712 0.52712 0.52712 0.52712 0.52587 0.52587 0.52587 0.52463 0.52412 0.52338 0.5225 0.52125 0.52 0.52038 0.52 0.51912 0.5195 0.52 0.52212 0.5225 0.52338 0.52463 0.525 0.5255 0.5255 0.52587 0.52638 0.52675 0.52712 0.528 0.5285 0.5285 0.5285 0.52887 0.52887 0.52938 0.52975 0.53063 0.53112 0.5315 0.53238 0.53187 0.53238 0.53375 0.53325 0.53325 0.53375 0.53375 0.53325 0.53325 0.53412 0.5355 0.53587 0.53638 0.53763 0.53863 0.539 0.54087 0.54125 0.54263 0.54312 0.54312 0.544 0.544 0.544 0.5445 0.5445 0.5445 0.5445 0.5445 0.544 0.5435 0.5435 0.54538 0.54587 0.54675 0.55 0.55 0.551 0.55137 0.55237 0.55375 0.55425 0.55425 0.55425 0.55475 0.55525 0.55612 0.55712 0.55812 0.5585 0.559 0.56 0.5605 0.5615 0.562 0.562 0.56288 0.56337 0.56337 0.56388 0.56388 0.56388 0.56388 0.56388 0.56388 0.56537 0.56588 0.56637 0.56637 0.56688 0.56837 0.56888 0.56888 0.57037 0.57037 0.57088 0.57037 0.57137 0.57288 0.57288 0.57288 0.57288 0.57288 0.57337 0.57437 0.576 0.5775 0.578 0.578 0.579 0.58013 0.58062 0.58162 0.58213 0.58213 0.58325 0.58375 0.58525 0.58588 0.58588 0.58688 0.58637 0.58737 0.589 0.58962 0.59013 0.59062 0.59062 0.59062 0.59125 0.59175 0.59225 0.59225 0.59275 0.59388 0.59388 0.5955 0.59613 0.59613 0.59775 0.59775 0.59825 0.59937 0.6 0.6 0.60213 0.60275 0.60275 0.60325 0.60325 0.60388 0.60437 0.605 0.60437 0.60437 0.60388 0.60388 0.60437 0.605 0.60562 0.60675 0.60788 0.609 0.609 0.6095 0.61075 0.613 0.61413 0.61475 0.61587 0.61587 0.61587 0.61713 0.61775 0.61775 0.61713 0.61775 0.61887 0.61887 0.62 0.62062 0.62125 0.6225 0.62362 0.62362 0.62487 0.6255 0.6255 0.62662 0.62787 0.62787 0.62913 0.6285 0.6285 0.62975 0.63038 0.63275 0.634 0.63462 0.63525 0.63462 0.63462 0.6365 0.7225 0.72413 0.7265 0.73313 0.73475 0.73562 0.73725 0.73813 0.739 0.74062 0.7415 0.74313 0.744 0.74313 0.74313 0.74487 0.74575 0.7475 0.7475 0.74925 0.75175 0.75262 0.75262 0.75262 0.75262 0.7535 0.7535 0.75262 0.7535 0.75262 0.75262 0.75438 0.7535 0.75625 0.75713 0.75713 0.75887 0.75975 0.75975 0.76062 0.7615 0.76338 0.76425 0.76425 0.766 0.767 0.76787 0.77063 0.7715 0.77238 0.77425 0.77612 0.77712 0.778 0.779 0.78175 0.78175 0.78275 0.78275 0.78275 0.78275 0.7855 0.7875 0.78838 0.78938 0.78838 0.78838 0.78938 0.79138 0.79325 0.79425 0.79612 0.79712 0.79812 0.79912 0.79912 0.79912 0.80012 0.80012 0.80012 0.80212 0.80112 0.80112 0.80212 0.80312 0.80712 0.80712 0.80912 0.81112 0.81312 0.81425 0.81625 0.81725 0.81937 0.82037 0.82137 0.8225 0.8235 0.8225 0.82137 0.8225 0.82037 0.82037 0.81937 0.81937 0.81837 0.81937 0.82137 0.82137 0.82137 0.8235 0.82463 0.82563 0.82663 0.82663 0.82563 0.82463 0.8235 0.82463 0.82463 0.82463 0.82563 0.82663 0.82775 0.82875 0.82875 0.82988 0.82988 0.82988 0.82988 0.83088 0.82988 0.83088 0.82988 0.83413 0.83625
0.52675 0.52675 0.52712 0.52675 0.52638 0.52638 0.52638 0.525 0.52463 0.52375 0.52287 0.52212 0.52125 0.52125 0.52075 0.52 0.52 0.52075 0.52212 0.52287 0.52338 0.525 0.5255 0.5255 0.5255 0.52638 0.52675 0.52675 0.52763 0.528 0.5285 0.5285 0.5285 0.52887 0.52887 0.52975 0.53025 0.53063 0.5315 0.53238 0.53325 0.53275 0.53325 0.53412 0.53412 0.53412 0.53412 0.53412 0.53412 0.53412 0.53463 0.53638 0.53638 0.53725 0.53863 0.5395 0.54038 0.54087 0.54175 0.5435 0.5435 0.544 0.544 0.5445 0.5445 0.5445 0.54487 0.5445 0.5445 0.54487 0.544 0.544 0.544 0.54587 0.54625 0.54763 0.55 0.5505 0.55188 0.55237 0.55237 0.55425 0.55475 0.55525 0.55525 0.55563 0.55563 0.55663 0.55712 0.5585 0.559 0.559 0.56 0.561 0.5615 0.56237 0.56237 0.56337 0.56337 0.56388 0.56388 0.56488 0.56488 0.56437 0.56437 0.56437 0.56588 0.56588 0.56637 0.56637 0.56737 0.56837 0.56888 0.56937 0.57037 0.57037 0.57088 0.57137 0.57188 0.57288 0.57337 0.57288 0.57337 0.57337 0.57388 0.57537 0.576 0.5785 0.5785 0.5785 0.5795 0.58013 0.58062 0.58213 0.58262 0.58262 0.58325 0.58425 0.58525 0.58588 0.58588 0.58688 0.58688 0.58737 0.58962 0.58962 0.59013 0.59062 0.59062 0.59125 0.59175 0.59225 0.59225 0.59275 0.59275 0.59337 0.5945 0.5955 0.59662 0.59662 0.59775 0.59825 0.59888 0.59888 0.59937 0.6 0.60275 0.60275 0.60275 0.60388 0.60388 0.60437 0.605 0.60562 0.60562 0.605 0.60388 0.60388 0.60437 0.60562 0.60562 0.60613 0.60788 0.60788 0.609 0.6095 0.61075 0.613 0.61362 0.61475 0.61587 0.61587 0.6165 0.61775 0.61887 0.61887 0.61887 0.61887 0.6195 0.6195 0.62062 0.62125 0.6225 0.623 0.62425 0.62425 0.6255 0.6255 0.626 0.62725 0.62787 0.6285 0.62913 0.62913 0.6285 0.63038 0.6315 0.634 0.63525 0.63587 0.63587 0.63587 0.63525 0.639 0.72488 0.72575 0.72813 0.73475 0.73562 0.73638 0.73813 0.73975 0.73975 0.7415 0.74238 0.74313 0.744 0.74238 0.744 0.74487 0.74662 0.7475 0.74838 0.74925 0.75262 0.75262 0.75262 0.75262 0.75262 0.7535 0.7535 0.7535 0.7535 0.7535 0.7535 0.75438 0.75538 0.75713 0.758 0.758 0.75975 0.76062 0.76062 0.7615 0.76238 0.76425 0.766 0.766 0.767 0.767 0.76875 0.77063 0.7715 0.77338 0.77425 0.77612 0.778 0.779 0.77987 0.78087 0.78275 0.78275 0.78275 0.78275 0.78363 0.7855 0.7865 0.78838 0.78938 0.78938 0.79038 0.79138 0.79138 0.79525 0.79525 0.79712 0.79812 0.79812 0.79912 0.79912 0.79912 0.80112 0.80112 0.80112 0.80212 0.80212 0.80312 0.80312 0.80412 0.80912 0.80912 0.81112 0.81312 0.81425 0.81525 0.81725 0.81837 0.81837 0.81937 0.82137 0.8235 0.8225 0.82137 0.8225 0.82037 0.82037 0.81937 0.81937 0.81837 0.81837 0.81837 0.82137 0.82137 0.8225 0.8225 0.8235 0.82563 0.82663 0.82563 0.82563 0.82463 0.8235 0.82463 0.82463 0.82463 0.82663 0.82663 0.82775 0.82775 0.82875 0.82875 0.82988 0.82875 0.83088 0.83088 0.832 0.832 0.83088 0.83413 0.83737
0.52675 0.52675 0.52675 0.52675 0.52638 0.52638 0.52638 0.5255 0.52463 0.52412 0.52338 0.52338 0.52212 0.52163 0.52125 0.52075 0.52075 0.52125 0.5225 0.52287 0.52375 0.5255 0.5255 0.52587 0.52587 0.52675 0.52712 0.52712 0.528 0.528 0.5285 0.5285 0.52887 0.52887 0.52887 0.52975 0.53025 0.5315 0.53238 0.53275 0.53375 0.53375 0.53375 0.53412 0.53412 0.53412 0.53463 0.53463 0.53463 0.535 0.5355 0.53675 0.53725 0.53812 0.539 0.53987 0.54038 0.54125 0.54212 0.5435 0.544 0.544 0.544 0.5445 0.5445 0.5445 0.54487 0.54487 0.54487 0.54487 0.5445 0.5445 0.5445 0.54587 0.54625 0.54763 0.5505 0.551 0.55188 0.55288 0.55288 0.55425 0.55475 0.55525 0.55563 0.55612 0.55612 0.55712 0.55763 0.5585 0.559 0.56 0.5605 0.561 0.562 0.56237 0.56288 0.56388 0.56388 0.56437 0.56488 0.56488 0.56537 0.56537 0.56537 0.56488 0.56637 0.56637 0.56688 0.56688 0.56737 0.56888 0.56888 0.56937 0.57037 0.57088 0.57137 0.57088 0.57188 0.57288 0.57337 0.57337 0.57337 0.57388 0.57437 0.57537 0.577 0.5785 0.579 0.579 0.58013 0.58062 0.58113 0.58262 0.58262 0.58262 0.58425 0.58425 0.58588 0.58588 0.58588 0.58688 0.58688 0.58737 0.59013 0.59013 0.59013 0.59062 0.59125 0.59175 0.59225 0.59225 0.59275 0.59275 0.59275 0.59388 0.5945 0.59613 0.59662 0.59713 0.59775 0.59825 0.59888 0.6 0.6 0.6005 0.60325 0.60275 0.60388 0.60388 0.60388 0.60562 0.60613 0.60562 0.60613 0.60562 0.60437 0.60437 0.605 0.60562 0.60613 0.60613 0.60725 0.60788 0.60837 0.609 0.61075 0.613 0.61413 0.61538 0.6165 0.6165 0.61713 0.61825 0.6195 0.6195 0.62 0.62 0.62 0.62 0.62062 0.6225 0.623 0.623 0.62425 0.62487 0.6255 0.626 0.62662 0.62725 0.6285 0.62913 0.62975 0.62975 0.62975 0.63087 0.63213 0.63525 0.63587 0.63713 0.63713 0.6365 0.6365 0.639 0.72575 0.72737 0.72975 0.73562 0.73638 0.73725 0.73813 0.73813 0.739 0.739 0.73975 0.74238 0.74313 0.74313 0.744 0.74487 0.74662 0.74838 0.74925 0.75013 0.75175 0.75262 0.75262 0.75262 0.75262 0.7535 0.75262 0.75262 0.7535 0.75262 0.75262 0.75538 0.75625 0.758 0.75887 0.75887 0.75975 0.76062 0.7615 0.76338 0.76338 0.76513 0.767 0.767 0.76787 0.76875 0.76875 0.77063 0.77238 0.77338 0.77612 0.77712 0.779 0.77987 0.78087 0.78175 0.78275 0.78363 0.78363 0.78363 0.78363 0.7855 0.7865 0.78938 0.78938 0.79038 0.79138 0.79225 0.79225 0.79525 0.79612 0.79812 0.79912 0.79912 0.79912 0.80012 0.80012 0.80112 0.80212 0.80212 0.80312 0.80312 0.80412 0.80312 0.80612 0.81012 0.81112 0.81112 0.81425 0.81525 0.81625 0.81725 0.81837 0.81937 0.81937 0.82037 0.8225 0.8225 0.8225 0.8225 0.82037 0.82037 0.81937 0.81837 0.81837 0.81837 0.81937 0.82137 0.82137 0.8225 0.8225 0.8235 0.82563 0.82663 0.82563 0.82563 0.82463 0.82463 0.82463 0.82563 0.82563 0.82563 0.82663 0.82775 0.82775 0.82875 0.82988 0.82988 0.82988 0.83088 0.832 0.832 0.833 0.832 0.83413 0.83737
0.52712 0.52712 0.52675 0.52638 0.52587 0.52638 0.52587 0.52587 0.525 0.525 0.52412 0.52412 0.52338 0.52338 0.52287 0.5225 0.52287 0.52287 0.52338 0.52338 0.52412 0.5255 0.52587 0.52638 0.52675 0.52712 0.52763 0.52763 0.528 0.5285 0.5285 0.52887 0.52938 0.52938 0.52975 0.53112 0.53112 0.53238 0.53238 0.53275 0.53375 0.53375 0.53412 0.53412 0.53412 0.53412 0.535 0.5355 0.53587 0.53638 0.53675 0.53812 0.53863 0.539 0.5395 0.54038 0.54087 0.54212 0.54312 0.544 0.544 0.544 0.5445 0.54487 0.54487 0.54538 0.54538 0.54538 0.54538 0.544 0.5445 0.5445 0.54487 0.54625 0.54625 0.54725 0.5505 0.551 0.55237 0.55288 0.55375 0.55425 0.55475 0.55525 0.55563 0.55612 0.55612 0.55763 0.55763 0.5595 0.56 0.56 0.5615 0.562 0.56288 0.56388 0.56437 0.56537 0.56588 0.56588 0.56637 0.56637 0.56688 0.56688 0.56637 0.56637 0.56737 0.56737 0.56737 0.56737 0.56837 0.56988 0.57037 0.57037 0.57037 0.57137 0.57237 0.57237 0.57288 0.57337 0.57337 0.57388 0.57437 0.57488 0.57537 0.5775 0.578 0.5795 0.5795 0.58013 0.58162 0.58213 0.58262 0.58325 0.58325 0.58375 0.58425 0.58475 0.58637 0.58637 0.58637 0.58688 0.58737 0.58737 0.59062 0.59062 0.59062 0.59125 0.59125 0.59225 0.59275 0.59275 0.59337 0.59337 0.59337 0.5945 0.5955 0.59613 0.59662 0.59775 0.59888 0.59937 0.6005 0.60162 0.60213 0.60275 0.60437 0.60437 0.60437 0.60437 0.60437 0.60562 0.60675 0.60675 0.60675 0.60613 0.60562 0.60562 0.60613 0.60675 0.60675 0.60725 0.60788 0.60837 0.609 0.6095 0.61125 0.61413 0.61475 0.61587 0.61775 0.61775 0.61825 0.61887 0.62 0.62 0.62062 0.62125 0.62187 0.62187 0.6225 0.6225 0.623 0.62362 0.62487 0.6255 0.62662 0.62662 0.62787 0.6285 0.62913 0.63038 0.63087 0.63213 0.63213 0.63338 0.634 0.63775 0.63838 0.639 0.63962 0.64025 0.64025 0.64225 0.73388 0.73388 0.73475 0.73638 0.73813 0.73813 0.73813 0.73813 0.73813 0.73975 0.739 0.74238 0.74313 0.744 0.744 0.74487 0.74662 0.74925 0.75013 0.75013 0.75175 0.75262 0.75262 0.75262 0.75262 0.7535 0.75262 0.7535 0.75262 0.75262 0.75175 0.75538 0.75713 0.75887 0.75975 0.76062 0.7615 0.76238 0.76338 0.76425 0.76513 0.766 0.767 0.76787 0.76787 0.76963 0.77063 0.77238 0.77425 0.77525 0.779 0.779 0.78087 0.78087 0.78175 0.78363 0.78363 0.78363 0.78463 0.78463 0.78363 0.7865 0.7875 0.78938 0.79038 0.79038 0.79225 0.79225 0.79225 0.79525 0.79612 0.79812 0.79912 0.80112 0.80112 0.80112 0.80212 0.80412 0.80412 0.80512 0.80612 0.80612 0.80612 0.80612 0.80712 0.81012 0.81112 0.81212 0.81425 0.81525 0.81625 0.81725 0.81837 0.81937 0.81937 0.82037 0.8225 0.8225 0.82137 0.8235 0.82137 0.82037 0.82037 0.82037 0.81937 0.82037 0.8225 0.8235 0.8235 0.8225 0.8235 0.82463 0.82563 0.82563 0.82775 0.82775 0.82463 0.8235 0.82463 0.82563 0.82563 0.82563 0.82663 0.82775 0.82775 0.82875 0.833 0.83413 0.832 0.833 0.83413 0.83525 0.83525 0.83525 0.83625 0.83737
0.52763 0.52675 0.52675 0.52675 0.52587 0.52587 0.52587 0.5255 0.525 0.525 0.52463 0.52412 0.52412 0.52412 0.52412 0.52338 0.52338 0.52338 0.52412 0.52412 0.52463 0.52587 0.52587 0.52638 0.52675 0.52712 0.52763 0.528 0.528 0.52887 0.52887 0.52938 0.52975 0.52975 0.52975 0.53063 0.5315 0.5315 0.53238 0.53238 0.53325 0.53275 0.53325 0.53412 0.53375 0.53375 0.535 0.5355 0.53638 0.53675 0.53725 0.53812 0.53863 0.539 0.53987 0.54038 0.54038 0.54312 0.5435 0.5445 0.54487 0.54487 0.54487 0.54587 0.54587 0.54625 0.54625 0.54587 0.54538 0.544 0.5445 0.54487 0.54487 0.54625 0.54675 0.54725 0.5495 0.5505 0.55237 0.55325 0.55325 0.55475 0.55475 0.55525 0.55563 0.55612 0.55663 0.55712 0.55763 0.559 0.5595 0.56 0.5615 0.562 0.56288 0.56437 0.56488 0.56588 0.56637 0.56637 0.56688 0.56688 0.56688 0.56788 0.56737 0.56737 0.56788 0.56788 0.56837 0.56837 0.56888 0.56988 0.57037 0.57088 0.57088 0.57188 0.57288 0.57237 0.57288 0.57388 0.57388 0.57437 0.576 0.576 0.5765 0.5775 0.5785 0.5795 0.58013 0.58062 0.58113 0.58162 0.58213 0.58375 0.58375 0.58375 0.58475 0.58525 0.58637 0.58637 0.58688 0.58688 0.58737 0.588 0.59062 0.59062 0.59062 0.59125 0.59125 0.59225 0.59337 0.59275 0.59337 0.59337 0.59337 0.595 0.5955 0.59713 0.59713 0.59775 0.59937 0.59937 0.6005 0.60162 0.60213 0.60325 0.60437 0.60437 0.60437 0.60437 0.605 0.60562 0.60675 0.60725 0.60675 0.60675 0.60613 0.60675 0.60675 0.60725 0.60725 0.60788 0.60837 0.60837 0.609 0.61013 0.61187 0.61475 0.61475 0.61587 0.61775 0.61775 0.61825 0.62 0.62062 0.62062 0.62125 0.62187 0.623 0.623 0.62362 0.62362 0.62425 0.62425 0.6255 0.6255 0.62662 0.62725 0.62725 0.6285 0.62913 0.62975 0.6315 0.63213 0.63213 0.63338 0.63462 0.63713 0.63838 0.639 0.63962 0.639 0.63962 0.64287 0.73475 0.73475 0.73562 0.73638 0.73813 0.73813 0.739 0.73813 0.739 0.74062 0.73975 0.74238 0.744 0.744 0.74487 0.74487 0.74662 0.75013 0.75013 0.75087 0.75262 0.75262 0.75262 0.75262 0.75262 0.75262 0.7535 0.7535 0.7535 0.7535 0.75175 0.75625 0.75713 0.75975 0.75975 0.7615 0.76238 0.76425 0.76425 0.766 0.76513 0.767 0.76875 0.76787 0.76963 0.77063 0.7715 0.77425 0.77525 0.77612 0.77987 0.78087 0.78175 0.78175 0.78275 0.78363 0.78463 0.78463 0.7855 0.7855 0.78463 0.7875 0.78838 0.78938 0.79038 0.79138 0.79225 0.79225 0.79325 0.79525 0.79612 0.79812 0.79912 0.80012 0.80212 0.80212 0.80212 0.80612 0.80612 0.80612 0.80812 0.80712 0.80712 0.80712 0.80812 0.81112 0.81112 0.81212 0.81425 0.81425 0.81425 0.81725 0.81725 0.81937 0.81937 0.82037 0.82137 0.82137 0.82137 0.8225 0.82137 0.81837 0.81937 0.81837 0.81837 0.81937 0.82037 0.8225 0.8225 0.82137 0.8235 0.8235 0.82563 0.82563 0.82663 0.82663 0.82463 0.8235 0.82463 0.82563 0.82563 0.82663 0.82663 0.82875 0.82875 0.83088 0.832 0.83413 0.833 0.83413 0.83525 0.83625 0.83525 0.83625 0.83625 0.83625
0.528 0.52712 0.52675 0.52675 0.52587 0.52587 0.52587 0.5255 0.5255 0.525 0.525 0.525 0.52463 0.52463 0.52463 0.52412 0.52375 0.52412 0.52463 0.525 0.525 0.52587 0.52638 0.52638 0.52712 0.52712 0.528 0.528 0.5285 0.52887 0.52887 0.52938 0.52975 0.52975 0.52975 0.53063 0.53112 0.53187 0.53187 0.53238 0.53238 0.53238 0.53275 0.53375 0.53375 0.53375 0.535 0.53587 0.53675 0.53725 0.53763 0.53863 0.539 0.539 0.53987 0.54087 0.54087 0.54312 0.544 0.54487 0.54538 0.54538 0.54625 0.54675 0.54675 0.54725 0.54725 0.54587 0.54538 0.5445 0.5445 0.54487 0.54538 0.54587 0.54675 0.54725 0.54912 0.55 0.55188 0.55288 0.55325 0.55525 0.55475 0.55525 0.55563 0.55612 0.55663 0.55712 0.55763 0.559 0.5595 0.56 0.561 0.56237 0.56288 0.56488 0.56537 0.56637 0.56737 0.56737 0.56737 0.56737 0.56737 0.56837 0.56788 0.56737 0.56788 0.56837 0.56837 0.56888 0.56937 0.57037 0.57088 0.57037 0.57137 0.57237 0.57288 0.57288 0.57288 0.57388 0.57388 0.57488 0.577 0.577 0.577 0.5785 0.579 0.5795 0.58013 0.58062 0.58162 0.58213 0.58213 0.58375 0.58425 0.58375 0.58525 0.58525 0.58688 0.58637 0.58688 0.58737 0.58737 0.588 0.58962 0.59013 0.59013 0.59062 0.59125 0.59175 0.59225 0.59337 0.59337 0.59388 0.5945 0.595 0.59613 0.59775 0.59775 0.59825 0.59937 0.6 0.6005 0.60162 0.60275 0.60325 0.60437 0.60437 0.605 0.60437 0.605 0.60562 0.60675 0.60725 0.60725 0.60725 0.60675 0.60725 0.60725 0.60788 0.60788 0.60837 0.60837 0.609 0.609 0.61075 0.61187 0.61413 0.61538 0.6165 0.61825 0.61775 0.61825 0.62 0.62062 0.62187 0.62187 0.6225 0.62425 0.62425 0.62362 0.62487 0.62487 0.62487 0.6255 0.626 0.62662 0.62725 0.62725 0.62913 0.62913 0.63038 0.63087 0.63213 0.63275 0.63338 0.63462 0.63713 0.63775 0.63838 0.639 0.639 0.63962 0.64225 0.73475 0.73475 0.73562 0.73725 0.73813 0.73813 0.73813 0.739 0.739 0.74062 0.74062 0.7415 0.74313 0.74313 0.74487 0.74487 0.74662 0.74925 0.75013 0.75013 0.75262 0.75262 0.75175 0.75175 0.75262 0.75262 0.7535 0.7535 0.75438 0.7535 0.75262 0.75625 0.758 0.76062 0.76062 0.7615 0.76425 0.76425 0.76513 0.767 0.767 0.767 0.76875 0.76963 0.77063 0.7715 0.77338 0.77425 0.77612 0.778 0.77987 0.78175 0.78175 0.78275 0.78363 0.78463 0.78463 0.7855 0.7865 0.7855 0.7855 0.7875 0.78838 0.79038 0.79038 0.79138 0.79138 0.79225 0.79225 0.79525 0.79525 0.79812 0.79812 0.80012 0.80312 0.80312 0.80412 0.80712 0.80812 0.80812 0.80912 0.80912 0.80912 0.80812 0.80912 0.81112 0.81212 0.81212 0.81425 0.81425 0.81425 0.81725 0.81725 0.81837 0.81837 0.81937 0.82137 0.82037 0.82037 0.82037 0.81937 0.81725 0.81837 0.81725 0.81625 0.81725 0.81725 0.81937 0.81937 0.81937 0.8225 0.8235 0.8235 0.82463 0.82663 0.82663 0.82563 0.82463 0.82463 0.82563 0.82563 0.82663 0.82775 0.82875 0.82988 0.83088 0.833 0.83413 0.83413 0.83525 0.83625 0.83625 0.83625 0.83625 0.83737 0.83625
0.52887 0.528 0.52763 0.52712 0.52638 0.52638 0.52587 0.52587 0.52587 0.5255 0.525 0.5255 0.525 0.525 0.525 0.52463 0.52463 0.52463 0.52463 0.52463 0.525 0.52587 0.52638 0.52675 0.528 0.5285 0.52887 0.52938 0.52887 0.52938 0.52938 0.52975 0.53025 0.52975 0.53025 0.5315 0.53187 0.53238 0.53187 0.53275 0.53275 0.53238 0.53275 0.53463 0.535 0.5355 0.53638 0.53675 0.53812 0.53863 0.539 0.5395 0.54038 0.54038 0.54087 0.54125 0.54125 0.5435 0.5445 0.54625 0.54625 0.54625 0.54725 0.54812 0.54812 0.54812 0.54863 0.54763 0.54725 0.54625 0.54625 0.54625 0.54625 0.54725 0.54812 0.54912 0.5495 0.55 0.55237 0.55325 0.55375 0.55525 0.55525 0.55525 0.55612 0.55712 0.55763 0.55763 0.55812 0.5595 0.5595 0.5605 0.5615 0.56237 0.56337 0.56537 0.56637 0.56688 0.56788 0.56788 0.56788 0.56788 0.56837 0.56837 0.56837 0.56788 0.56837 0.56888 0.56937 0.56988 0.56988 0.57037 0.57137 0.57137 0.57137 0.57237 0.57337 0.57337 0.57388 0.57437 0.57488 0.57488 0.577 0.577 0.578 0.579 0.5795 0.58113 0.58113 0.58162 0.58262 0.58325 0.58375 0.58475 0.58475 0.58475 0.58588 0.58588 0.58737 0.58688 0.58737 0.58737 0.588 0.588 0.589 0.58962 0.59013 0.59062 0.59062 0.59175 0.59175 0.59275 0.595 0.5955 0.59662 0.59775 0.59825 0.59888 0.6 0.6 0.6005 0.60162 0.60162 0.60213 0.60325 0.60325 0.605 0.605 0.60562 0.605 0.60562 0.60675 0.60788 0.609 0.60837 0.60837 0.60788 0.60837 0.609 0.6095 0.6095 0.61013 0.61013 0.61013 0.61013 0.61125 0.61238 0.61538 0.6165 0.6165 0.61825 0.61825 0.61887 0.62 0.62125 0.623 0.623 0.62362 0.62425 0.62425 0.62487 0.626 0.626 0.62662 0.62725 0.62725 0.6285 0.62913 0.62913 0.63038 0.63087 0.63087 0.63213 0.63338 0.634 0.63462 0.63525 0.63775 0.63838 0.639 0.63962 0.64025 0.64025 0.64412 0.73562 0.73475 0.73638 0.73725 0.73813 0.739 0.739 0.739 0.73975 0.74062 0.74062 0.7415 0.74313 0.74313 0.744 0.74487 0.74662 0.74838 0.74925 0.75013 0.75175 0.75175 0.75175 0.75175 0.75175 0.75262 0.75262 0.7535 0.75538 0.75538 0.75625 0.75625 0.758 0.76062 0.76238 0.76338 0.766 0.766 0.767 0.76875 0.76963 0.76963 0.77063 0.77063 0.77338 0.77425 0.77525 0.778 0.779 0.77987 0.78087 0.78175 0.78363 0.78363 0.78463 0.7855 0.7855 0.7855 0.7875 0.7865 0.7865 0.78838 0.78938 0.79038 0.79138 0.79138 0.79138 0.79225 0.79225 0.79612 0.79712 0.79812 0.79812 0.80012 0.80512 0.80612 0.80712 0.81112 0.81112 0.81112 0.81112 0.81212 0.81112 0.81112 0.81112 0.81112 0.81312 0.81312 0.81425 0.81425 0.81525 0.81725 0.81837 0.81837 0.81937 0.81937 0.82137 0.82137 0.82137 0.82037 0.82037 0.81725 0.81837 0.81725 0.81625 0.81625 0.81725 0.81837 0.81837 0.81837 0.8225 0.8225 0.8235 0.8235 0.82563 0.82663 0.82463 0.82563 0.82563 0.82663 0.82663 0.82988 0.82988 0.832 0.832 0.833 0.83525 0.83525 0.83625 0.8385 0.8395 0.84062 0.84175 0.84175 0.84175 0.84175
0.52975 0.5285 0.528 0.52712 0.52675 0.52675 0.52638 0.52638 0.52587 0.5255 0.5255 0.525 0.5255 0.525 0.525 0.52463 0.52412 0.52463 0.5255 0.525 0.5255 0.52638 0.52638 0.52675 0.528 0.5285 0.52887 0.52938 0.52938 0.52975 0.52975 0.53025 0.53063 0.53025 0.53063 0.53187 0.53275 0.53275 0.53275 0.53325 0.53325 0.53375 0.53375 0.535 0.5355 0.5355 0.53675 0.53725 0.53812 0.53863 0.539 0.54038 0.54038 0.54087 0.54125 0.54175 0.54175 0.5435 0.5445 0.54625 0.54625 0.54675 0.54725 0.54812 0.54863 0.54912 0.54912 0.54863 0.54812 0.54763 0.54725 0.54725 0.54725 0.54812 0.54912 0.55 0.5505 0.55137 0.55288 0.55375 0.55425 0.55563 0.55563 0.55563 0.55612 0.55712 0.55763 0.55812 0.5585 0.5595 0.5595 0.56 0.562 0.56288 0.56337 0.56588 0.56588 0.56788 0.56837 0.56788 0.56837 0.56837 0.56837 0.56888 0.56837 0.56788 0.56837 0.56888 0.56888 0.56937 0.56988 0.57088 0.57088 0.57137 0.57137 0.57237 0.57337 0.57337 0.57388 0.57437 0.57537 0.57537 0.577 0.5775 0.578 0.5795 0.58013 0.58113 0.58113 0.58162 0.58262 0.58325 0.58375 0.58525 0.58525 0.58525 0.58588 0.58637 0.58688 0.58737 0.58737 0.58737 0.588 0.588 0.589 0.59013 0.59062 0.59125 0.59125 0.59225 0.59225 0.59337 0.5955 0.59613 0.59662 0.59825 0.59825 0.59937 0.59937 0.6 0.60113 0.60162 0.60162 0.60213 0.60325 0.60437 0.60562 0.60562 0.60562 0.60613 0.60613 0.60725 0.60788 0.609 0.609 0.609 0.609 0.61013 0.61013 0.61075 0.61075 0.61075 0.61075 0.61125 0.61125 0.61187 0.61238 0.61538 0.6165 0.61713 0.61825 0.61825 0.61887 0.62062 0.62125 0.62362 0.62362 0.62425 0.6255 0.6255 0.6255 0.62662 0.62725 0.62725 0.62787 0.62787 0.6285 0.62913 0.62975 0.63087 0.63087 0.6315 0.63213 0.63338 0.634 0.63525 0.63587 0.63838 0.639 0.64025 0.64087 0.64163 0.64225 0.64675 0.73562 0.73562 0.73562 0.73813 0.739 0.739 0.73975 0.74062 0.74062 0.7415 0.74062 0.74238 0.74313 0.74313 0.744 0.74487 0.74575 0.74925 0.74925 0.75013 0.75175 0.75175 0.75262 0.75262 0.7535 0.7535 0.75438 0.75438 0.75538 0.75625 0.75625 0.758 0.758 0.7615 0.76238 0.76425 0.766 0.767 0.76787 0.76875 0.76875 0.77063 0.7715 0.7715 0.77238 0.77425 0.77525 0.779 0.77987 0.77987 0.78175 0.78275 0.78363 0.78363 0.78463 0.7855 0.7865 0.7865 0.7865 0.7865 0.7875 0.78838 0.78938 0.79138 0.79038 0.79138 0.79225 0.79225 0.79225 0.79612 0.79712 0.79912 0.79912 0.80112 0.80612 0.80712 0.80812 0.81112 0.81112 0.81212 0.81212 0.81312 0.81312 0.81212 0.81112 0.81212 0.81312 0.81312 0.81425 0.81425 0.81525 0.81625 0.81725 0.81837 0.81837 0.81937 0.82037 0.82037 0.82137 0.82037 0.81937 0.81725 0.81837 0.81725 0.81725 0.81725 0.81725 0.81837 0.81725 0.81725 0.82137 0.82137 0.8235 0.8235 0.82563 0.82663 0.82563 0.82563 0.82663 0.82775 0.82775 0.83088 0.832 0.83413 0.83413 0.83525 0.83625 0.83737 0.8385 0.8395 0.84175 0.84175 0.84288 0.84175 0.84288 0.84288
0.53112 0.52975 0.52938 0.5285 0.528 0.52763 0.52712 0.52675 0.52638 0.52587 0.52587 0.52587 0.5255 0.5255 0.5255 0.52463 0.52463 0.52463 0.52587 0.52587 0.52587 0.52675 0.52712 0.52763 0.528 0.5285 0.52887 0.52938 0.52975 0.53025 0.53063 0.5315 0.53187 0.53187 0.53187 0.53325 0.53375 0.535 0.535 0.535 0.5355 0.53587 0.53587 0.53638 0.53675 0.53763 0.53863 0.539 0.53987 0.53987 0.53987 0.54087 0.54125 0.54175 0.54175 0.54212 0.54212 0.5445 0.54487 0.54675 0.54675 0.54763 0.54863 0.54912 0.55 0.55 0.5505 0.55 0.5495 0.5495 0.55 0.55 0.5505 0.551 0.55137 0.55188 0.55237 0.55325 0.55425 0.55525 0.55525 0.55563 0.55612 0.55612 0.55663 0.55763 0.55812 0.55812 0.5585 0.5595 0.56 0.5605 0.5615 0.56237 0.56288 0.56588 0.56588 0.56737 0.56837 0.56837 0.56888 0.56888 0.56888 0.56937 0.56888 0.56888 0.56888 0.56937 0.56988 0.56988 0.56988 0.57088 0.57088 0.57137 0.57188 0.57288 0.57388 0.57388 0.57437 0.57537 0.576 0.577 0.5775 0.578 0.5775 0.5795 0.58013 0.58113 0.58162 0.58213 0.58375 0.58425 0.58475 0.58525 0.58637 0.58588 0.58637 0.58688 0.588 0.588 0.588 0.588 0.588 0.5885 0.59013 0.59062 0.59175 0.59225 0.59225 0.59337 0.59337 0.59388 0.59713 0.59775 0.59888 0.6 0.59937 0.6005 0.6005 0.6005 0.60162 0.60213 0.60213 0.60275 0.60388 0.60562 0.60613 0.60675 0.60675 0.60725 0.60675 0.60837 0.609 0.6095 0.6095 0.61013 0.61013 0.61125 0.61125 0.61187 0.61187 0.61187 0.61187 0.61187 0.61187 0.61362 0.61362 0.61587 0.6165 0.61713 0.61887 0.61887 0.61887 0.62125 0.62187 0.62362 0.62425 0.62487 0.626 0.6255 0.626 0.62725 0.62787 0.6285 0.6285 0.62913 0.62975 0.63038 0.63087 0.63213 0.63275 0.63275 0.63338 0.634 0.63587 0.6365 0.63775 0.63962 0.64025 0.64163 0.64287 0.64412 0.64412 0.64675 0.73562 0.73562 0.73638 0.739 0.739 0.73975 0.7415 0.74238 0.74238 0.74313 0.74238 0.74313 0.74487 0.744 0.74575 0.74575 0.74662 0.74925 0.74925 0.74925 0.75175 0.75262 0.7535 0.7535 0.75438 0.75625 0.75713 0.75713 0.75713 0.758 0.75713 0.7615 0.76062 0.76338 0.76425 0.76425 0.766 0.767 0.76787 0.77063 0.76963 0.7715 0.7715 0.77238 0.77525 0.77612 0.778 0.77987 0.77987 0.78087 0.78275 0.78275 0.78463 0.78463 0.78463 0.7855 0.7855 0.7875 0.78838 0.78838 0.78838 0.78938 0.79038 0.79138 0.79225 0.79225 0.79325 0.79325 0.79425 0.79612 0.79712 0.80012 0.80012 0.80312 0.80812 0.80912 0.81012 0.81312 0.81312 0.81312 0.81525 0.81525 0.81525 0.81525 0.81212 0.81312 0.81425 0.81525 0.81525 0.81625 0.81725 0.81625 0.81725 0.81725 0.81725 0.81837 0.81937 0.81937 0.81937 0.82037 0.81937 0.81937 0.82037 0.82037 0.81837 0.81837 0.81937 0.82037 0.81937 0.81937 0.82037 0.82137 0.82463 0.8235 0.82563 0.82663 0.82663 0.82663 0.82875 0.82875 0.83088 0.83413 0.83525 0.8385 0.8395 0.8385 0.8385 0.8395 0.84062 0.84175 0.84288 0.84288 0.84288 0.84175 0.84175 0.84175
0.53187 0.53063 0.52975 0.52887 0.5285 0.528 0.52763 0.52675 0.52638 0.52587 0.52587 0.52587 0.52587 0.5255 0.5255 0.525 0.52463 0.525 0.52587 0.52587 0.52587 0.52675 0.52712 0.52712 0.5285 0.52887 0.52887 0.52975 0.52975 0.53063 0.53112 0.5315 0.53238 0.53238 0.53275 0.53375 0.53412 0.535 0.5355 0.53587 0.53587 0.53638 0.53675 0.53725 0.53812 0.53863 0.5395 0.53987 0.54038 0.54038 0.54087 0.54175 0.54175 0.54212 0.54212 0.54263 0.54263 0.54487 0.54587 0.54725 0.54763 0.54812 0.5495 0.55 0.5505 0.551 0.551 0.551 0.551 0.55 0.551 0.551 0.55188 0.55237 0.55237 0.55288 0.55288 0.55375 0.55475 0.55525 0.55563 0.55563 0.55563 0.55612 0.55663 0.55763 0.5585 0.55812 0.5585 0.5595 0.56 0.5605 0.5615 0.562 0.56337 0.56537 0.56588 0.56737 0.56837 0.56888 0.56888 0.56888 0.56937 0.56937 0.56888 0.56888 0.56937 0.56988 0.56988 0.56988 0.57037 0.57088 0.57088 0.57137 0.57188 0.57288 0.57337 0.57337 0.57437 0.576 0.5765 0.577 0.5775 0.5775 0.5775 0.5795 0.58013 0.58113 0.58162 0.58213 0.58325 0.58375 0.58425 0.58637 0.58637 0.58637 0.58688 0.58737 0.58737 0.58737 0.588 0.588 0.588 0.5885 0.59013 0.59062 0.59225 0.59225 0.59225 0.59337 0.59337 0.5945 0.59775 0.59825 0.59937 0.6005 0.6 0.60113 0.60113 0.60162 0.60213 0.60275 0.60275 0.60388 0.60388 0.60613 0.60675 0.60675 0.60725 0.60725 0.60725 0.609 0.6095 0.6095 0.6095 0.61013 0.61013 0.61075 0.61125 0.61125 0.61125 0.61125 0.61187 0.61187 0.61238 0.61362 0.61413 0.61587 0.61713 0.61825 0.61887 0.6195 0.62 0.62125 0.62187 0.62425 0.62487 0.6255 0.626 0.626 0.626 0.62725 0.62787 0.62787 0.62913 0.62913 0.63038 0.6315 0.6315 0.63275 0.63275 0.63275 0.63462 0.63525 0.63587 0.63713 0.63775 0.64025 0.64025 0.64163 0.64225 0.6435 0.64412 0.64675 0.73475 0.73562 0.73638 0.73813 0.739 0.73975 0.7415 0.74313 0.744 0.744 0.74313 0.744 0.74487 0.74487 0.74662 0.74662 0.74662 0.74925 0.74925 0.74925 0.75175 0.75262 0.75438 0.75538 0.75538 0.75713 0.75887 0.75887 0.75887 0.75887 0.75887 0.76425 0.76338 0.76425 0.76425 0.76513 0.766 0.76787 0.76875 0.76963 0.76963 0.7715 0.77238 0.77338 0.77612 0.778 0.779 0.77987 0.78087 0.78087 0.78275 0.78363 0.78463 0.78463 0.7855 0.7855 0.7855 0.7875 0.78838 0.78838 0.78838 0.79038 0.79038 0.79225 0.79325 0.79325 0.79425 0.79425 0.79525 0.79612 0.79812 0.80012 0.80112 0.80412 0.80912 0.81012 0.81212 0.81212 0.81312 0.81425 0.81525 0.81625 0.81525 0.81525 0.81312 0.81425 0.81425 0.81525 0.81725 0.81725 0.81725 0.81725 0.81625 0.81725 0.81837 0.81837 0.81837 0.81937 0.81937 0.82037 0.81937 0.82037 0.82137 0.82037 0.82037 0.81937 0.82037 0.8225 0.82137 0.82037 0.82037 0.82137 0.82463 0.82463 0.82563 0.82875 0.82775 0.82775 0.82988 0.82988 0.832 0.83413 0.83525 0.8395 0.84062 0.8385 0.8395 0.84062 0.84062 0.84288 0.84288 0.84288 0.84388 0.84175 0.84288 0.84288
0.53238 0.53112 0.53063 0.52975 0.5285 0.528 0.52763 0.52712 0.52675 0.52587 0.52638 0.52638 0.52587 0.52587 0.5255 0.5255 0.525 0.5255 0.52587 0.52587 0.52587 0.52675 0.52712 0.52763 0.5285 0.52887 0.52938 0.52975 0.52975 0.53112 0.5315 0.5315 0.53325 0.53325 0.53325 0.53412 0.53463 0.5355 0.53587 0.53587 0.53675 0.53725 0.53725 0.53763 0.53812 0.53863 0.54038 0.54038 0.54087 0.54125 0.54125 0.54175 0.54175 0.54212 0.54212 0.54263 0.54312 0.54487 0.54587 0.54763 0.54812 0.54912 0.55 0.5505 0.5505 0.551 0.55137 0.551 0.5505 0.5505 0.551 0.55137 0.55188 0.55288 0.55288 0.55288 0.55288 0.55375 0.55475 0.55475 0.55525 0.55563 0.55563 0.55612 0.55663 0.55763 0.55812 0.55812 0.5585 0.56 0.56 0.5605 0.5615 0.562 0.56288 0.56537 0.56588 0.56688 0.56788 0.56837 0.56888 0.56837 0.56837 0.56937 0.56888 0.56888 0.56988 0.56988 0.57037 0.57037 0.57037 0.57137 0.57137 0.57188 0.57237 0.57337 0.57388 0.57388 0.57437 0.57537 0.576 0.577 0.5785 0.5785 0.5785 0.58013 0.58062 0.58113 0.58213 0.58262 0.58375 0.58375 0.58425 0.58637 0.58637 0.58637 0.58637 0.58688 0.588 0.588 0.588 0.588 0.588 0.5885 0.59013 0.59013 0.59175 0.59275 0.59275 0.59275 0.59337 0.59388 0.59775 0.59888 0.59937 0.60113 0.60113 0.60113 0.60213 0.60213 0.60213 0.60325 0.60325 0.60388 0.60437 0.60562 0.60613 0.60675 0.60788 0.60788 0.60788 0.60837 0.609 0.6095 0.609 0.6095 0.61075 0.61125 0.61125 0.61187 0.61187 0.61125 0.61187 0.61187 0.61238 0.61475 0.61475 0.6165 0.61713 0.61825 0.6195 0.62 0.62 0.62125 0.6225 0.62425 0.62487 0.6255 0.626 0.626 0.62662 0.62725 0.62787 0.6285 0.6285 0.62913 0.63038 0.63087 0.6315 0.63275 0.63338 0.63338 0.63462 0.63587 0.63587 0.63713 0.63775 0.64025 0.64087 0.64163 0.64412 0.64412 0.64538 0.64738 0.73562 0.73638 0.73725 0.739 0.73975 0.73975 0.74313 0.744 0.744 0.74487 0.744 0.74487 0.74487 0.74575 0.74662 0.74662 0.7475 0.74925 0.7475 0.74662 0.75013 0.75175 0.75438 0.75538 0.75625 0.758 0.75887 0.75887 0.75975 0.76062 0.7615 0.76513 0.76425 0.76425 0.76425 0.76513 0.767 0.76787 0.76875 0.76963 0.76963 0.7715 0.7715 0.77238 0.77612 0.778 0.779 0.78087 0.78087 0.78175 0.78275 0.78363 0.7855 0.7855 0.7855 0.7865 0.7865 0.7865 0.78938 0.78938 0.78938 0.79138 0.79038 0.79225 0.79325 0.79325 0.79425 0.79525 0.79525 0.79712 0.79812 0.80112 0.80212 0.80312 0.80712 0.80912 0.81012 0.81112 0.81112 0.81012 0.81312 0.81525 0.81625 0.81525 0.81212 0.81212 0.81312 0.81312 0.81725 0.81725 0.81725 0.81625 0.81725 0.81725 0.81837 0.81837 0.81837 0.81937 0.81937 0.82037 0.82037 0.82037 0.82137 0.82037 0.82137 0.82037 0.82137 0.8235 0.8225 0.82137 0.82137 0.8235 0.82563 0.82563 0.82663 0.82875 0.82875 0.82875 0.82988 0.82988 0.83088 0.83413 0.83625 0.8395 0.8395 0.8385 0.8395 0.8395 0.84175 0.84288 0.84288 0.84288 0.84288 0.84175 0.84288 0.84288
0.53325 0.53238 0.5315 0.53112 0.52887 0.5285 0.528 0.52763 0.52712 0.52675 0.52675 0.52675 0.52587 0.52638 0.52587 0.5255 0.5255 0.52587 0.52638 0.52638 0.52675 0.52675 0.52712 0.528 0.52938 0.52938 0.52975 0.53063 0.53063 0.53187 0.53238 0.53275 0.53463 0.53463 0.535 0.535 0.5355 0.53638 0.53638 0.53638 0.53675 0.53725 0.53763 0.53812 0.53863 0.539 0.54087 0.54087 0.54125 0.54175 0.54212 0.54212 0.54212 0.54212 0.54263 0.54263 0.54312 0.54587 0.54675 0.54863 0.5495 0.55 0.5505 0.5505 0.551 0.55137 0.55188 0.55137 0.551 0.551 0.55137 0.55188 0.55137 0.55288 0.55288 0.55325 0.55288 0.55375 0.55475 0.55525 0.55525 0.55612 0.55663 0.55663 0.55763 0.55812 0.5585 0.559 0.559 0.5605 0.561 0.561 0.562 0.56237 0.56337 0.56537 0.56588 0.56737 0.56788 0.56837 0.56837 0.56837 0.56837 0.56888 0.56888 0.56837 0.56988 0.57088 0.57088 0.57137 0.57137 0.57237 0.57288 0.57237 0.57337 0.57437 0.57437 0.57388 0.57437 0.576 0.5765 0.577 0.5795 0.58013 0.58013 0.58113 0.58162 0.58262 0.58262 0.58325 0.58375 0.58375 0.58425 0.58688 0.58688 0.58637 0.58737 0.588 0.5885 0.589 0.589 0.589 0.589 0.589 0.59013 0.59125 0.59225 0.59225 0.59275 0.59337 0.59337 0.5945 0.59775 0.59888 0.6005 0.60162 0.60162 0.60162 0.60213 0.60275 0.60325 0.60325 0.60388 0.60437 0.60437 0.60562 0.60562 0.60613 0.60725 0.60725 0.60788 0.609 0.609 0.6095 0.6095 0.6095 0.61125 0.61187 0.61238 0.61238 0.61238 0.613 0.61362 0.61413 0.61362 0.61587 0.61587 0.61825 0.61887 0.6195 0.62 0.62062 0.62125 0.6225 0.623 0.62425 0.62487 0.6255 0.62662 0.62662 0.62725 0.62787 0.6285 0.6285 0.62913 0.62913 0.6315 0.63213 0.63338 0.63338 0.634 0.634 0.63525 0.63587 0.63587 0.63775 0.63838 0.64163 0.64163 0.64287 0.646 0.64738 0.64738 0.65187 0.73638 0.73725 0.73813 0.73975 0.74062 0.7415 0.744 0.74575 0.74662 0.74662 0.74575 0.74575 0.74575 0.74575 0.7475 0.74838 0.74925 0.75013 0.74925 0.74925 0.75087 0.7535 0.75538 0.75713 0.75713 0.75887 0.75975 0.75975 0.76062 0.7615 0.76513 0.767 0.76425 0.76513 0.766 0.766 0.76875 0.76787 0.76963 0.76963 0.76963 0.7715 0.77238 0.77338 0.77712 0.779 0.77987 0.78175 0.78175 0.78275 0.78275 0.78363 0.78463 0.7855 0.7855 0.7855 0.7855 0.7865 0.78938 0.78938 0.79038 0.79138 0.79138 0.79225 0.79425 0.79425 0.79525 0.79525 0.79525 0.79712 0.79912 0.80112 0.80212 0.80312 0.80712 0.80912 0.81012 0.81112 0.81112 0.81012 0.81425 0.81425 0.81725 0.81625 0.81212 0.81212 0.81212 0.81312 0.81725 0.81837 0.81725 0.81625 0.81625 0.81625 0.81837 0.81937 0.81937 0.81937 0.82037 0.82137 0.8225 0.82137 0.8225 0.8225 0.8225 0.8225 0.8235 0.82463 0.82463 0.82463 0.82463 0.82563 0.82663 0.82663 0.82875 0.82988 0.82988 0.83088 0.83088 0.83088 0.832 0.83625 0.8385 0.8395 0.84062 0.8395 0.84062 0.84062 0.84062 0.84288 0.84288 0.84288 0.84288 0.84175 0.84288 0.84388
0.53375 0.53238 0.53238 0.5315 0.53025 0.52887 0.52887 0.528 0.52763 0.52712 0.52675 0.52675 0.52675 0.52638 0.52638 0.52587 0.5255 0.52638 0.52638 0.52675 0.52675 0.52712 0.52763 0.528 0.52887 0.52938 0.52975 0.53063 0.53112 0.53238 0.53275 0.53375 0.535 0.5355 0.5355 0.5355 0.53587 0.53638 0.53638 0.53638 0.53725 0.53725 0.53763 0.53812 0.53863 0.5395 0.54038 0.54087 0.54175 0.54175 0.54175 0.54212 0.54212 0.54212 0.54312 0.54312 0.54487 0.54587 0.54675 0.54863 0.54912 0.5495 0.5505 0.551 0.551 0.55188 0.55137 0.55137 0.551 0.551 0.551 0.55137 0.55188 0.55288 0.55325 0.55288 0.55325 0.55375 0.55525 0.55525 0.55563 0.55663 0.55663 0.55663 0.55812 0.5585 0.5595 0.5595 0.56 0.561 0.5615 0.562 0.56237 0.56288 0.56388 0.56488 0.56537 0.56688 0.56737 0.56737 0.56788 0.56837 0.56837 0.56837 0.56837 0.56888 0.56988 0.57037 0.57137 0.57137 0.57188 0.57288 0.57288 0.57337 0.57388 0.57437 0.57488 0.57388 0.57437 0.576 0.577 0.5775 0.58062 0.58062 0.58062 0.58162 0.58213 0.58262 0.58325 0.58325 0.58375 0.58375 0.58425 0.58737 0.58688 0.58737 0.58737 0.588 0.5885 0.589 0.58962 0.59013 0.58962 0.59013 0.59125 0.59225 0.59225 0.59275 0.59337 0.59388 0.59388 0.5945 0.59825 0.59937 0.60113 0.60162 0.60162 0.60162 0.60213 0.60213 0.60325 0.60325 0.60325 0.60437 0.60437 0.605 0.60562 0.60613 0.60725 0.60675 0.60725 0.609 0.609 0.6095 0.6095 0.61013 0.61125 0.61238 0.613 0.61362 0.61362 0.61413 0.61413 0.61475 0.61475 0.6165 0.6165 0.61825 0.61887 0.6195 0.62062 0.62062 0.62125 0.623 0.62362 0.62487 0.62487 0.6255 0.62662 0.62725 0.62725 0.62787 0.62913 0.62913 0.62913 0.62975 0.63213 0.63275 0.63338 0.634 0.63462 0.63462 0.63525 0.63587 0.6365 0.63775 0.63838 0.64163 0.64225 0.6435 0.64675 0.64863 0.65125 0.6585 0.739 0.73813 0.739 0.7415 0.74238 0.74313 0.74575 0.74662 0.7475 0.7475 0.7475 0.74662 0.7475 0.74662 0.74838 0.75013 0.75087 0.75175 0.75175 0.75087 0.7535 0.75438 0.75625 0.75713 0.758 0.75887 0.75975 0.76062 0.76238 0.76338 0.76513 0.766 0.766 0.766 0.76513 0.767 0.76787 0.76787 0.76875 0.76963 0.77063 0.77238 0.77238 0.77425 0.778 0.77987 0.78175 0.78275 0.78363 0.78363 0.78363 0.78363 0.78463 0.78463 0.7855 0.7855 0.7865 0.7865 0.78938 0.79038 0.79038 0.79138 0.79138 0.79325 0.79325 0.79425 0.79525 0.79525 0.79525 0.79712 0.79812 0.80112 0.80212 0.80312 0.80712 0.80812 0.81012 0.81112 0.81112 0.81112 0.81425 0.81525 0.81625 0.81625 0.81112 0.81112 0.81212 0.81312 0.81625 0.81837 0.81625 0.81525 0.81525 0.81625 0.81725 0.81837 0.82037 0.81937 0.82037 0.82137 0.8225 0.8225 0.8235 0.8225 0.8235 0.8235 0.82463 0.82463 0.82463 0.82463 0.82563 0.82663 0.82663 0.82775 0.82875 0.82988 0.832 0.83088 0.833 0.832 0.832 0.8385 0.8395 0.84062 0.84175 0.84062 0.84062 0.8395 0.84062 0.84175 0.84288 0.84288 0.84388 0.84175 0.84288 0.84388
0.53375 0.53325 0.53275 0.53238 0.53063 0.52975 0.52938 0.5285 0.528 0.52763 0.52763 0.52763 0.52712 0.52675 0.52638 0.52638 0.52587 0.52638 0.52712 0.52712 0.52712 0.52763 0.52763 0.5285 0.52938 0.52975 0.53025 0.53063 0.5315 0.53275 0.53375 0.53412 0.53587 0.53587 0.53587 0.53587 0.53638 0.53638 0.53675 0.53675 0.53725 0.53812 0.53763 0.53812 0.539 0.539 0.54087 0.54125 0.54175 0.54175 0.54212 0.54212 0.54212 0.54263 0.54312 0.54312 0.5435 0.54587 0.54587 0.54812 0.54863 0.54912 0.5505 0.5505 0.55137 0.55188 0.55188 0.55188 0.551 0.551 0.55137 0.55137 0.55237 0.55288 0.55288 0.55325 0.55325 0.55375 0.55563 0.55612 0.55663 0.55663 0.55712 0.55763 0.55812 0.559 0.5605 0.5605 0.5605 0.5615 0.562 0.56237 0.56288 0.56337 0.56388 0.56537 0.56537 0.56637 0.56688 0.56688 0.56788 0.56788 0.56837 0.56837 0.56837 0.56837 0.56988 0.57088 0.57137 0.57188 0.57188 0.57288 0.57237 0.57237 0.57388 0.57437 0.57437 0.57437 0.57488 0.576 0.5765 0.578 0.58062 0.58113 0.58113 0.58213 0.58213 0.58325 0.58375 0.58375 0.58425 0.58425 0.58425 0.58737 0.58737 0.58737 0.5885 0.5885 0.589 0.58962 0.58962 0.59062 0.59062 0.59062 0.59175 0.59225 0.59337 0.59275 0.59337 0.5945 0.5945 0.595 0.59825 0.59937 0.60113 0.60275 0.60162 0.60213 0.60213 0.60213 0.60388 0.60388 0.60388 0.60437 0.60437 0.60562 0.60613 0.60613 0.60725 0.60725 0.60725 0.609 0.609 0.61013 0.61013 0.61013 0.61238 0.613 0.61362 0.61413 0.61413 0.61413 0.61587 0.61587 0.61587 0.61775 0.61775 0.61887 0.6195 0.62062 0.62062 0.62125 0.62187 0.623 0.62425 0.62487 0.6255 0.6255 0.62662 0.62662 0.62725 0.6285 0.62913 0.62913 0.62975 0.63038 0.63275 0.63338 0.634 0.63462 0.63462 0.63525 0.63587 0.6365 0.6365 0.63775 0.639 0.64163 0.64287 0.6435 0.648 0.64987 0.65187 0.6585 0.739 0.73975 0.73975 0.74238 0.74313 0.74487 0.74662 0.7475 0.74838 0.74838 0.7475 0.74838 0.7475 0.7475 0.74925 0.75087 0.75175 0.75262 0.7535 0.7535 0.75438 0.75538 0.75713 0.75713 0.758 0.75975 0.76062 0.7615 0.76425 0.76513 0.76513 0.766 0.766 0.767 0.766 0.767 0.76787 0.76875 0.76875 0.76963 0.77063 0.77238 0.77338 0.77425 0.779 0.78087 0.78175 0.78363 0.78363 0.78463 0.78463 0.78463 0.78363 0.78463 0.7855 0.7865 0.7865 0.7875 0.78838 0.79038 0.79038 0.79138 0.79138 0.79425 0.79425 0.79425 0.79525 0.79612 0.79612 0.79712 0.79812 0.80112 0.80212 0.80312 0.80612 0.80812 0.81012 0.81112 0.81112 0.81212 0.81425 0.81525 0.81625 0.81625 0.81212 0.81212 0.81212 0.81312 0.81525 0.81725 0.81525 0.81425 0.81425 0.81625 0.81625 0.81725 0.82037 0.82037 0.82137 0.8225 0.8225 0.82463 0.82463 0.8235 0.8235 0.82463 0.82463 0.82563 0.82563 0.82563 0.82663 0.82663 0.82775 0.82663 0.82775 0.83088 0.832 0.832 0.83413 0.833 0.83413 0.8385 0.8395 0.84175 0.84175 0.84062 0.84062 0.84062 0.84062 0.84175 0.84288 0.84288 0.84388 0.84288 0.84288 0.84388
0.535 0.53375 0.53412 0.53375 0.53238 0.5315 0.53063 0.52975 0.52887 0.5285 0.5285 0.5285 0.528 0.52763 0.52763 0.52763 0.52763 0.52712 0.528 0.528 0.528 0.52938 0.52938 0.52887 0.52975 0.53025 0.53063 0.53112 0.53238 0.53375 0.53463 0.53463 0.53638 0.53638 0.53638 0.53587 0.53675 0.53763 0.53763 0.53763 0.53863 0.539 0.539 0.539 0.5395 0.54038 0.54087 0.54125 0.54212 0.54175 0.54212 0.54312 0.54312 0.54312 0.5435 0.5435 0.544 0.54538 0.54587 0.54763 0.54863 0.5495 0.55 0.551 0.55137 0.55188 0.55188 0.55237 0.55137 0.55188 0.55237 0.55288 0.55325 0.55375 0.55425 0.55425 0.55475 0.55563 0.55663 0.55712 0.55763 0.55812 0.5585 0.5585 0.5595 0.5595 0.561 0.561 0.5615 0.56288 0.56288 0.56337 0.56388 0.56437 0.56488 0.56588 0.56637 0.56637 0.56688 0.56688 0.56788 0.56788 0.56837 0.56888 0.56937 0.56888 0.57088 0.57137 0.57237 0.57288 0.57288 0.57288 0.57237 0.57237 0.57388 0.57437 0.57437 0.57437 0.57488 0.577 0.577 0.5785 0.58262 0.58262 0.58262 0.58375 0.58425 0.58475 0.58525 0.58525 0.58525 0.58525 0.58588 0.58737 0.588 0.589 0.589 0.589 0.58962 0.59013 0.59013 0.59062 0.59062 0.59125 0.59225 0.59275 0.59388 0.5945 0.5945 0.5955 0.5955 0.59613 0.59888 0.6 0.60113 0.60325 0.60325 0.60388 0.60388 0.60437 0.605 0.60562 0.60562 0.60562 0.605 0.60613 0.60725 0.60675 0.60788 0.60788 0.60837 0.61013 0.61075 0.61075 0.61238 0.61238 0.61413 0.61475 0.61538 0.61587 0.61587 0.61538 0.61775 0.61825 0.61825 0.62062 0.62 0.62125 0.62187 0.62187 0.6225 0.623 0.623 0.62487 0.62487 0.62487 0.626 0.626 0.62725 0.62787 0.62787 0.6285 0.62975 0.62975 0.63038 0.6315 0.634 0.63525 0.63525 0.63587 0.63587 0.6365 0.63713 0.63775 0.63838 0.639 0.63962 0.64287 0.64412 0.64475 0.64925 0.65125 0.65325 0.65925 0.739 0.73975 0.7415 0.74313 0.74487 0.74662 0.74925 0.74925 0.75013 0.75013 0.75013 0.75013 0.74838 0.74925 0.75087 0.75087 0.75175 0.7535 0.75438 0.75438 0.75625 0.75625 0.75887 0.75975 0.76062 0.7615 0.76238 0.76338 0.76513 0.766 0.767 0.76875 0.767 0.76787 0.767 0.767 0.76875 0.76875 0.76963 0.76963 0.77063 0.77238 0.77338 0.77525 0.779 0.78175 0.78275 0.78463 0.78463 0.78463 0.7865 0.7865 0.7875 0.7875 0.7875 0.78938 0.79038 0.79038 0.79038 0.79038 0.79138 0.79325 0.79325 0.79612 0.79612 0.79612 0.79612 0.79712 0.79712 0.79912 0.80112 0.80412 0.80512 0.80612 0.80912 0.81112 0.81212 0.81212 0.81212 0.81212 0.81425 0.81625 0.81725 0.81837 0.81525 0.81425 0.81425 0.81425 0.81625 0.81837 0.81625 0.81525 0.81525 0.81525 0.81625 0.81837 0.8225 0.8235 0.82463 0.82563 0.82563 0.82875 0.83088 0.82875 0.82775 0.82775 0.82775 0.82775 0.82775 0.82775 0.82875 0.82775 0.82775 0.82775 0.82875 0.83088 0.833 0.833 0.83413 0.83525 0.83625 0.8395 0.84062 0.84388 0.84388 0.84288 0.84175 0.84175 0.84175 0.84288 0.84388 0.84288 0.84288 0.84388 0.84388 0.845
0.53463 0.53375 0.53375 0.53375 0.53238 0.5315 0.53112 0.52975 0.52887 0.5285 0.5285 0.5285 0.528 0.52763 0.52763 0.52712 0.52712 0.52763 0.528 0.528 0.5285 0.52938 0.52887 0.52975 0.52975 0.53025 0.53063 0.53112 0.53187 0.53412 0.53463 0.535 0.53638 0.53638 0.53638 0.53675 0.53675 0.53763 0.53763 0.53812 0.539 0.539 0.5395 0.5395 0.54038 0.54087 0.54125 0.54175 0.54212 0.54212 0.54263 0.5435 0.5435 0.5435 0.5435 0.544 0.544 0.54538 0.54538 0.54763 0.54863 0.54912 0.55 0.551 0.55188 0.55188 0.55188 0.55237 0.55237 0.55188 0.55237 0.55325 0.55375 0.55425 0.55475 0.55475 0.55563 0.55612 0.55763 0.55812 0.55812 0.5585 0.559 0.559 0.56 0.5605 0.5615 0.562 0.562 0.56337 0.56337 0.56388 0.56437 0.56537 0.56537 0.56637 0.56637 0.56737 0.56737 0.56788 0.56888 0.56937 0.56937 0.57037 0.56988 0.56988 0.57137 0.57188 0.57288 0.57337 0.57288 0.57288 0.57237 0.57237 0.57388 0.57437 0.57488 0.57537 0.57537 0.5775 0.578 0.5795 0.58262 0.58325 0.58375 0.58425 0.58475 0.58475 0.58525 0.58588 0.58588 0.58588 0.58588 0.58688 0.5885 0.589 0.589 0.58962 0.58962 0.59013 0.59013 0.59062 0.59175 0.59175 0.59275 0.59388 0.595 0.5955 0.5955 0.59613 0.5955 0.59613 0.6 0.60113 0.60213 0.60325 0.60388 0.60437 0.60437 0.605 0.60562 0.60613 0.60562 0.60613 0.60613 0.60613 0.60725 0.60725 0.60837 0.60837 0.609 0.61013 0.61075 0.61075 0.61238 0.613 0.61475 0.61538 0.61538 0.6165 0.61587 0.61587 0.61825 0.61887 0.6195 0.62062 0.62125 0.62187 0.62187 0.6225 0.623 0.62362 0.62362 0.62487 0.62487 0.6255 0.626 0.626 0.62725 0.62787 0.62787 0.62913 0.62913 0.62913 0.6315 0.6315 0.63462 0.63525 0.63525 0.6365 0.6365 0.63713 0.63775 0.639 0.63838 0.63962 0.64025 0.64287 0.64412 0.646 0.64925 0.65125 0.65325 0.6585 0 0.7415 0.74238 0.74487 0.74575 0.7475 0.75013 0.75087 0.75087 0.75087 0.75087 0.75087 0.75013 0.75013 0.75175 0.75087 0.75262 0.7535 0.75438 0.75438 0.75625 0.75713 0.75975 0.76062 0.7615 0.76238 0.76338 0.76425 0.766 0.766 0.76787 0.76875 0.76787 0.76787 0.767 0.767 0.76787 0.76875 0.76963 0.76963 0.77063 0.77338 0.77425 0.77525 0.78087 0.78275 0.78363 0.78463 0.7855 0.7865 0.7865 0.7875 0.78838 0.78938 0.78938 0.79038 0.79038 0.79038 0.79225 0.79225 0.79325 0.79325 0.79425 0.79612 0.79612 0.79712 0.79712 0.79812 0.79812 0.80112 0.80212 0.80612 0.80712 0.80812 0.80912 0.81112 0.81212 0.81212 0.81312 0.81212 0.81525 0.81625 0.81725 0.81837 0.81725 0.81625 0.81625 0.81625 0.81837 0.81937 0.81625 0.81525 0.81525 0.81625 0.81525 0.81725 0.8235 0.82463 0.82663 0.82563 0.82775 0.83088 0.833 0.83088 0.83088 0.82988 0.82875 0.82988 0.82875 0.82875 0.82875 0.82875 0.82875 0.82775 0.82875 0.832 0.832 0.833 0.83525 0.83525 0.83625 0.84175 0.84288 0.84288 0.84388 0.84175 0.84288 0.84175 0.84175 0.84388 0.84288 0.84288 0.84288 0.84288 0.845 0.84613
0.53463 0.53325 0.53325 0.53325 0.53238 0.5315 0.53112 0.53025 0.52938 0.5285 0.528 0.5285 0.528 0.52763 0.52763 0.52763 0.52763 0.52763 0.5285 0.5285 0.52887 0.52938 0.52975 0.52938 0.53063 0.53112 0.53112 0.53112 0.53187 0.53375 0.53463 0.535 0.53638 0.53638 0.53638 0.53725 0.53763 0.53763 0.53812 0.53812 0.5395 0.53987 0.53987 0.54038 0.54087 0.54087 0.54175 0.54212 0.54263 0.54263 0.54312 0.54312 0.5435 0.5435 0.544 0.5445 0.54487 0.54538 0.54587 0.54725 0.54863 0.54912 0.55 0.551 0.55137 0.55237 0.55237 0.55237 0.55288 0.55237 0.55325 0.55375 0.55425 0.55525 0.55525 0.55563 0.55663 0.55712 0.55812 0.55812 0.5585 0.559 0.5595 0.56 0.5605 0.561 0.562 0.56237 0.56237 0.56388 0.56388 0.56437 0.56488 0.56488 0.56488 0.56637 0.56637 0.56788 0.56788 0.56837 0.56937 0.56988 0.57037 0.57188 0.57088 0.57088 0.57188 0.57237 0.57337 0.57388 0.57288 0.57288 0.57237 0.57237 0.57337 0.57488 0.57537 0.57537 0.576 0.5775 0.578 0.5795 0.58375 0.58375 0.58375 0.58475 0.58475 0.58525 0.58525 0.58588 0.58588 0.58588 0.58588 0.58688 0.588 0.5885 0.589 0.58962 0.59013 0.59013 0.59062 0.59125 0.59225 0.59275 0.59337 0.5945 0.59662 0.59662 0.59713 0.59662 0.59662 0.59662 0.6005 0.60113 0.60213 0.60388 0.60437 0.60562 0.60562 0.60562 0.60562 0.60562 0.60562 0.60613 0.60613 0.60675 0.60725 0.60788 0.609 0.6095 0.6095 0.61075 0.61075 0.61075 0.613 0.613 0.61538 0.61538 0.61587 0.6165 0.6165 0.6165 0.61887 0.6195 0.62 0.62125 0.62125 0.6225 0.6225 0.623 0.62362 0.62362 0.62425 0.62487 0.62487 0.626 0.626 0.62662 0.62725 0.62725 0.62787 0.6285 0.62913 0.62975 0.6315 0.63213 0.63462 0.63525 0.63525 0.6365 0.6365 0.63713 0.63838 0.639 0.639 0.64025 0.64087 0.6435 0.64475 0.646 0.64987 0.65125 0.65125 0.6585 0.73975 0.7415 0.74313 0.74575 0.74662 0.74838 0.75087 0.75087 0.75175 0.75175 0.75175 0.75087 0.75087 0.75087 0.75175 0.75175 0.75262 0.7535 0.75438 0.75438 0.75713 0.75713 0.76062 0.7615 0.7615 0.76338 0.76338 0.76425 0.766 0.767 0.76787 0.76875 0.76787 0.76787 0.76787 0.767 0.76787 0.76875 0.76963 0.76963 0.77063 0.77338 0.77525 0.77612 0.78175 0.78275 0.78463 0.7855 0.7855 0.7865 0.7875 0.78838 0.79038 0.79038 0.79038 0.79138 0.79225 0.79225 0.79225 0.79325 0.79425 0.79425 0.79525 0.79712 0.79712 0.79712 0.79912 0.79912 0.80012 0.80212 0.80412 0.80812 0.80912 0.80912 0.81112 0.81212 0.81212 0.81212 0.81312 0.81312 0.81525 0.81625 0.81837 0.81937 0.81837 0.81837 0.81837 0.81937 0.81937 0.81937 0.81725 0.81525 0.81525 0.81525 0.81625 0.81837 0.8235 0.82563 0.82663 0.82775 0.82875 0.833 0.83413 0.833 0.832 0.83088 0.82988 0.82988 0.82988 0.82988 0.82988 0.82875 0.82875 0.82775 0.82875 0.83088 0.833 0.833 0.833 0.83413 0.83413 0.84175 0.84288 0.84388 0.84388 0.84288 0.84175 0.84175 0.84288 0.84288 0.84288 0.84288 0.84175 0.84288 0.845 0.84613
0.535 0.53325 0.53325 0.53325 0.53275 0.53238 0.5315 0.53063 0.53063 0.528 0.528 0.5285 0.528 0.528 0.52763 0.52712 0.52763 0.528 0.52887 0.52887 0.52938 0.52975 0.53025 0.53025 0.53112 0.53112 0.5315 0.5315 0.53238 0.53412 0.53463 0.535 0.53675 0.53675 0.53675 0.53725 0.53812 0.53863 0.539 0.5395 0.53987 0.54038 0.54038 0.54038 0.54087 0.54125 0.54175 0.54212 0.54312 0.54312 0.54312 0.5435 0.544 0.544 0.54487 0.54538 0.54587 0.54675 0.54675 0.54812 0.54912 0.55 0.5505 0.55137 0.55137 0.55288 0.55237 0.55288 0.55325 0.55325 0.55425 0.55563 0.55563 0.55663 0.55663 0.55663 0.55712 0.55763 0.559 0.559 0.5595 0.5605 0.5605 0.5615 0.56237 0.56288 0.56337 0.56337 0.56388 0.56437 0.56537 0.56488 0.56488 0.56488 0.56488 0.56537 0.56637 0.56737 0.56788 0.56837 0.56988 0.57037 0.57088 0.57237 0.57237 0.57288 0.57337 0.57437 0.57488 0.57437 0.57337 0.57388 0.57337 0.57388 0.57488 0.57537 0.57537 0.57537 0.576 0.578 0.5785 0.5795 0.58375 0.58425 0.58475 0.58475 0.58475 0.58588 0.58588 0.58588 0.58637 0.58637 0.58588 0.58737 0.588 0.5885 0.589 0.59013 0.59125 0.59175 0.59175 0.59337 0.5945 0.595 0.5955 0.59613 0.59713 0.59713 0.59713 0.59662 0.59662 0.59713 0.6005 0.60113 0.60213 0.60388 0.60437 0.605 0.605 0.605 0.60613 0.60562 0.605 0.60613 0.60613 0.60675 0.60725 0.60788 0.609 0.61013 0.61013 0.61187 0.61187 0.61238 0.61362 0.61413 0.61538 0.6165 0.6165 0.61775 0.61775 0.61775 0.6195 0.62062 0.62062 0.6225 0.6225 0.623 0.623 0.623 0.62425 0.62425 0.6255 0.626 0.626 0.62662 0.62725 0.62725 0.6285 0.6285 0.6285 0.62975 0.62975 0.62975 0.63275 0.63338 0.63525 0.63525 0.63525 0.6365 0.6365 0.6365 0.639 0.63962 0.64087 0.64087 0.64225 0.64412 0.64538 0.64675 0.64925 0.64987 0.65125 0.739 0.74238 0.744 0.744 0.74662 0.7475 0.74925 0.7535 0.7535 0.75262 0.75262 0.75262 0.75262 0.75175 0.75262 0.75438 0.75438 0.75538 0.75625 0.758 0.758 0.7615 0.7615 0.76238 0.76338 0.76425 0.766 0.766 0.766 0.767 0.76787 0.76875 0.76963 0.76963 0.76875 0.76875 0.76875 0.76963 0.77063 0.7715 0.77238 0.77238 0.77612 0.779 0.779 0.78275 0.78275 0.78463 0.7855 0.7865 0.7865 0.7875 0.7875 0.79038 0.79038 0.79138 0.79138 0.79325 0.79325 0.79425 0.79525 0.79712 0.79712 0.79812 0.80012 0.80012 0.80012 0.80212 0.80312 0.80312 0.80712 0.80812 0.81112 0.81012 0.81112 0.81212 0.81312 0.81312 0.81312 0.81312 0.81525 0.81525 0.81725 0.81837 0.82037 0.82037 0.82137 0.82137 0.82137 0.8225 0.82137 0.81837 0.81525 0.81625 0.81725 0.81725 0.81837 0.8225 0.82663 0.82875 0.83088 0.83088 0.833 0.833 0.832 0.832 0.832 0.82988 0.82988 0.82988 0.82988 0.83088 0.83088 0.83088 0.82988 0.83088 0.832 0.833 0.832 0.832 0.832 0.833 0.84288 0.84288 0.84388 0.845 0.84388 0.845 0.845 0.845 0.84613 0.84613 0.845 0.845 0.845 0.84613 0.84613
0.535 0.53325 0.53275 0.53375 0.53275 0.53238 0.53187 0.53112 0.53063 0.52887 0.5285 0.52887 0.528 0.528 0.52763 0.52763 0.52763 0.528 0.52887 0.52938 0.52938 0.53025 0.53063 0.53063 0.5315 0.5315 0.5315 0.5315 0.53238 0.53463 0.53463 0.5355 0.53675 0.53675 0.53725 0.53725 0.53812 0.539 0.539 0.5395 0.54038 0.54038 0.54038 0.54038 0.54087 0.54125 0.54212 0.54212 0.54263 0.54312 0.54312 0.544 0.5445 0.5445 0.54538 0.54587 0.54675 0.54725 0.54763 0.54912 0.55 0.551 0.551 0.55137 0.55188 0.55288 0.55288 0.55325 0.55325 0.55325 0.55475 0.55525 0.55612 0.55612 0.55663 0.55663 0.55763 0.55812 0.559 0.5595 0.5595 0.561 0.5615 0.56237 0.56288 0.56337 0.56388 0.56437 0.56437 0.56488 0.56588 0.56537 0.56537 0.56537 0.56537 0.56588 0.56688 0.56788 0.56837 0.56837 0.56988 0.57037 0.57088 0.57237 0.57237 0.57237 0.57337 0.57388 0.57537 0.57537 0.57388 0.57388 0.57388 0.57388 0.57488 0.57537 0.57537 0.57537 0.5765 0.578 0.579 0.58013 0.58375 0.58425 0.58475 0.58475 0.58475 0.58588 0.58588 0.58588 0.58688 0.58688 0.58688 0.58737 0.588 0.5885 0.589 0.59013 0.59175 0.59175 0.59225 0.59388 0.5945 0.595 0.59613 0.59662 0.59775 0.59775 0.59713 0.59713 0.59713 0.59775 0.60113 0.60162 0.60275 0.60437 0.605 0.605 0.60562 0.60562 0.60562 0.605 0.605 0.60613 0.60613 0.60613 0.60725 0.60788 0.6095 0.61013 0.61075 0.61187 0.61238 0.61238 0.61475 0.61475 0.61587 0.6165 0.61713 0.61775 0.61825 0.61825 0.62 0.62062 0.62125 0.6225 0.6225 0.62362 0.62362 0.62362 0.62425 0.62487 0.62487 0.62662 0.626 0.62725 0.62725 0.62787 0.62913 0.6285 0.62913 0.62975 0.63038 0.63087 0.63275 0.634 0.63525 0.63587 0.63587 0.6365 0.6365 0.63713 0.639 0.63962 0.64163 0.64163 0.64225 0.64475 0.646 0.64738 0.64987 0.65063 0.65125 0.73975 0.74238 0.744 0.744 0.74662 0.7475 0.74925 0.75262 0.75262 0.75262 0.75175 0.75175 0.75262 0.75175 0.75262 0.75438 0.75438 0.75538 0.75625 0.758 0.75887 0.76062 0.7615 0.76238 0.76338 0.76425 0.766 0.766 0.766 0.76787 0.76787 0.76963 0.76963 0.76963 0.77063 0.76963 0.76875 0.77063 0.7715 0.77238 0.77425 0.77525 0.77712 0.78087 0.78087 0.78275 0.78363 0.78463 0.7855 0.7865 0.7865 0.78938 0.78938 0.79038 0.79138 0.79225 0.79325 0.79425 0.79425 0.79425 0.79525 0.79712 0.79712 0.79812 0.80112 0.80112 0.80112 0.80212 0.80412 0.80412 0.80712 0.80812 0.81012 0.81112 0.81012 0.81312 0.81312 0.81425 0.81312 0.81425 0.81425 0.81525 0.81625 0.81937 0.82037 0.82037 0.82137 0.82137 0.82137 0.8235 0.8225 0.82037 0.81837 0.81837 0.81725 0.81725 0.81837 0.8225 0.82563 0.82875 0.83088 0.832 0.833 0.83413 0.832 0.832 0.832 0.82988 0.82988 0.82988 0.82988 0.82988 0.82988 0.82988 0.82988 0.82988 0.832 0.832 0.83088 0.83088 0.832 0.83413 0.84175 0.84288 0.845 0.845 0.845 0.845 0.84613 0.84613 0.84725 0.84613 0.84613 0.84725 0.84613 0.84725 0.84725
0.535 0.53375 0.53325 0.53412 0.53375 0.53325 0.53238 0.53187 0.5315 0.52938 0.52938 0.52975 0.52887 0.5285 0.5285 0.528 0.5285 0.5285 0.52938 0.52975 0.52975 0.53025 0.53112 0.53187 0.53187 0.5315 0.5315 0.53238 0.53275 0.535 0.5355 0.5355 0.53675 0.53675 0.53725 0.53763 0.53812 0.5395 0.5395 0.53987 0.54087 0.54087 0.54038 0.54087 0.54087 0.54125 0.54212 0.54263 0.5435 0.544 0.544 0.54487 0.54538 0.54625 0.54625 0.54675 0.54763 0.54812 0.54863 0.55 0.551 0.55188 0.55188 0.55237 0.55288 0.55325 0.55375 0.55425 0.55425 0.55425 0.55525 0.55612 0.55612 0.55663 0.55712 0.55712 0.55763 0.55763 0.5595 0.5605 0.5605 0.5615 0.56237 0.56337 0.56437 0.56488 0.56488 0.56537 0.56537 0.56588 0.56637 0.56688 0.56688 0.56688 0.56688 0.56788 0.56837 0.56888 0.56937 0.56937 0.57037 0.57088 0.57137 0.57237 0.57288 0.57337 0.57337 0.57437 0.576 0.576 0.57488 0.57488 0.57437 0.57437 0.5765 0.5765 0.5775 0.5775 0.5785 0.5795 0.58013 0.58113 0.58425 0.58425 0.58425 0.58475 0.58475 0.58588 0.58637 0.58637 0.58737 0.58737 0.588 0.5885 0.589 0.59013 0.59062 0.59125 0.59225 0.59225 0.59275 0.5945 0.5955 0.59662 0.59713 0.59775 0.59825 0.59825 0.59775 0.59775 0.59825 0.59825 0.60162 0.60162 0.60275 0.60562 0.605 0.60562 0.60562 0.60613 0.60613 0.60562 0.60562 0.60675 0.60675 0.60675 0.60725 0.60837 0.61075 0.61075 0.61187 0.61238 0.61362 0.61413 0.61713 0.61713 0.61775 0.61825 0.61887 0.6195 0.62062 0.62125 0.62125 0.62187 0.6225 0.623 0.623 0.62425 0.62425 0.62425 0.62487 0.6255 0.6255 0.62662 0.62662 0.62725 0.62787 0.6285 0.62975 0.62975 0.62975 0.63038 0.6315 0.63213 0.634 0.63525 0.6365 0.6365 0.63713 0.63775 0.63775 0.639 0.64087 0.64163 0.64287 0.64287 0.64287 0.646 0.64675 0.64863 0.65187 0.65187 0.65125 0.73975 0.73975 0.744 0.74575 0.7475 0.74838 0.75087 0.75262 0.75262 0.75175 0.75087 0.75175 0.75262 0.75262 0.75262 0.7535 0.75438 0.75538 0.75713 0.75713 0.75887 0.75975 0.76062 0.76338 0.76338 0.76425 0.767 0.766 0.767 0.76787 0.76875 0.77063 0.7715 0.77063 0.7715 0.7715 0.7715 0.77238 0.77425 0.77525 0.77712 0.77712 0.77987 0.78175 0.78175 0.78275 0.78463 0.7855 0.7865 0.7875 0.7875 0.79225 0.79138 0.79325 0.79425 0.79425 0.79525 0.79712 0.79612 0.79612 0.79612 0.79712 0.79812 0.79912 0.80112 0.80112 0.80112 0.80212 0.80412 0.80612 0.80912 0.80912 0.81012 0.81112 0.81112 0.81312 0.81312 0.81425 0.81312 0.81425 0.81312 0.81525 0.81625 0.81837 0.81937 0.81937 0.82137 0.82137 0.82137 0.8235 0.8235 0.8225 0.8225 0.8225 0.82137 0.82037 0.82037 0.82463 0.82663 0.82875 0.833 0.833 0.83413 0.83413 0.83088 0.83088 0.83088 0.82875 0.82875 0.82875 0.82875 0.82875 0.82875 0.82988 0.82875 0.82988 0.832 0.833 0.833 0.83413 0.83525 0.83737 0.84288 0.84388 0.84613 0.84613 0.84613 0.84725 0.84725 0.84725 0.84837 0.84725 0.84725 0.8495 0.8495 0.85162 0.85062
0.535 0.53325 0.53325 0.53375 0.53375 0.53375 0.53275 0.53238 0.53187 0.52975 0.52975 0.52975 0.52938 0.52938 0.52887 0.5285 0.5285 0.5285 0.52938 0.52975 0.52975 0.53025 0.53112 0.53187 0.53187 0.5315 0.53112 0.53275 0.53325 0.535 0.535 0.5355 0.53675 0.53675 0.53725 0.53812 0.53863 0.539 0.539 0.5395 0.54125 0.54125 0.54038 0.54038 0.54087 0.54125 0.54212 0.54263 0.544 0.5445 0.544 0.54487 0.54587 0.54675 0.54675 0.54725 0.54812 0.54863 0.54863 0.5505 0.55137 0.55188 0.55188 0.55288 0.55288 0.55375 0.55425 0.55425 0.55475 0.55475 0.55563 0.55663 0.55712 0.55712 0.55763 0.55712 0.55812 0.55812 0.5595 0.5605 0.561 0.5615 0.56237 0.56288 0.56537 0.56488 0.56588 0.56588 0.56588 0.56637 0.56688 0.56688 0.56788 0.56737 0.56788 0.56888 0.56937 0.56988 0.56937 0.56988 0.57088 0.57137 0.57137 0.57288 0.57337 0.57337 0.57388 0.57488 0.5765 0.576 0.57537 0.57488 0.57488 0.57488 0.577 0.5775 0.5785 0.579 0.5795 0.58113 0.58113 0.58213 0.58375 0.58425 0.58425 0.58425 0.58475 0.58637 0.58688 0.58688 0.588 0.588 0.5885 0.589 0.58962 0.59062 0.59125 0.59175 0.59275 0.59337 0.59337 0.595 0.59613 0.59662 0.59775 0.59775 0.59888 0.59825 0.59775 0.59775 0.59825 0.59888 0.60162 0.60213 0.60275 0.605 0.605 0.60562 0.60562 0.60562 0.60675 0.60613 0.60613 0.60725 0.60725 0.60725 0.60837 0.60837 0.61075 0.61125 0.61187 0.613 0.61413 0.61475 0.61775 0.61775 0.61887 0.61887 0.6195 0.62062 0.62125 0.62187 0.623 0.623 0.62362 0.62362 0.62425 0.62362 0.62425 0.62425 0.6255 0.62487 0.6255 0.626 0.62662 0.62725 0.62787 0.6285 0.62975 0.62975 0.63038 0.63087 0.6315 0.63213 0.63462 0.63525 0.6365 0.6365 0.63775 0.63775 0.63838 0.63962 0.64087 0.64163 0.6435 0.6435 0.64412 0.646 0.64738 0.64925 0.65187 0.6525 0.65325 0.6585 0 0.74575 0.74662 0.74838 0.74925 0.75087 0.75175 0.75262 0.75175 0.75087 0.75175 0.75262 0.75262 0.75262 0.75438 0.75438 0.75538 0.75713 0.75887 0.75887 0.76062 0.76062 0.76338 0.76425 0.76513 0.76787 0.767 0.767 0.76875 0.76963 0.77063 0.7715 0.7715 0.7715 0.7715 0.7715 0.77338 0.77425 0.77612 0.77712 0.77612 0.77987 0.78175 0.78087 0.78175 0.78463 0.7865 0.7865 0.7875 0.78838 0.79325 0.79325 0.79425 0.79525 0.79525 0.79712 0.79812 0.79712 0.79712 0.79712 0.79712 0.79812 0.80012 0.80112 0.80112 0.80112 0.80212 0.80412 0.80612 0.80912 0.81012 0.81012 0.81112 0.81312 0.81425 0.81525 0.81425 0.81425 0.81425 0.81425 0.81625 0.81625 0.81837 0.81837 0.81937 0.82037 0.82137 0.8225 0.8225 0.8225 0.8235 0.8235 0.8235 0.8235 0.8235 0.8235 0.82563 0.82775 0.83088 0.83413 0.83525 0.83625 0.83525 0.83088 0.83088 0.83088 0.82875 0.82775 0.82775 0.82775 0.82875 0.82875 0.82875 0.82875 0.82875 0.832 0.833 0.83413 0.83625 0.8385 0.8395 0.845 0.84613 0.84613 0.84613 0.84613 0.84725 0.84725 0.84725 0.84837 0.84725 0.84725 0.8495 0.85162 0.85275 0.85162
0.535 0.53325 0.53325 0.53412 0.53375 0.53325 0.53275 0.53238 0.53187 0.53025 0.53025 0.53025 0.52975 0.52938 0.52938 0.52938 0.52938 0.52938 0.53025 0.53063 0.53112 0.53112 0.5315 0.53238 0.53275 0.53238 0.5315 0.53275 0.53325 0.53463 0.535 0.53587 0.53675 0.53675 0.53675 0.53863 0.53863 0.5395 0.5395 0.53987 0.54087 0.54087 0.54038 0.54087 0.54125 0.54175 0.54212 0.54312 0.5445 0.5445 0.5445 0.54538 0.54625 0.54675 0.54725 0.54763 0.54812 0.54863 0.54912 0.5505 0.55137 0.55237 0.55237 0.55288 0.55325 0.55375 0.55425 0.55475 0.55525 0.55525 0.55612 0.55663 0.55763 0.55763 0.55763 0.55763 0.55812 0.5585 0.56 0.561 0.561 0.5615 0.562 0.56237 0.56537 0.56537 0.56588 0.56588 0.56588 0.56637 0.56688 0.56737 0.56788 0.56788 0.56788 0.56937 0.56937 0.56988 0.57037 0.57037 0.57088 0.57188 0.57237 0.57288 0.57337 0.57388 0.57437 0.57537 0.577 0.5765 0.576 0.57537 0.57488 0.57537 0.578 0.5785 0.579 0.58013 0.58062 0.58162 0.58162 0.58213 0.58425 0.58425 0.58425 0.58425 0.58525 0.58637 0.58737 0.58737 0.588 0.5885 0.5885 0.58962 0.59013 0.59125 0.59175 0.59225 0.59275 0.59337 0.59388 0.595 0.59613 0.59662 0.59713 0.59775 0.59825 0.59888 0.59775 0.59825 0.59888 0.59937 0.60162 0.60213 0.60275 0.605 0.605 0.60562 0.60613 0.60675 0.60675 0.60613 0.60613 0.60725 0.60725 0.60725 0.60837 0.609 0.61125 0.61125 0.61238 0.61362 0.61475 0.61538 0.61775 0.61825 0.6195 0.62 0.62062 0.62125 0.6225 0.6225 0.62362 0.623 0.62425 0.62425 0.62362 0.62487 0.62487 0.62487 0.62487 0.626 0.626 0.62662 0.62725 0.62787 0.6285 0.62913 0.63038 0.63038 0.63038 0.63087 0.63213 0.63213 0.63462 0.63587 0.6365 0.63713 0.63775 0.63838 0.639 0.64025 0.64087 0.64225 0.6435 0.6435 0.64412 0.64675 0.648 0.64925 0.6525 0.65187 0.65187 0.6585 0.74487 0.74575 0.74662 0.74925 0.75013 0.75087 0.75262 0.7535 0.75175 0.75175 0.75175 0.7535 0.7535 0.7535 0.75438 0.75538 0.75538 0.758 0.75887 0.75975 0.7615 0.7615 0.76425 0.76425 0.766 0.76787 0.76787 0.76787 0.76875 0.76963 0.7715 0.77238 0.7715 0.77238 0.7715 0.7715 0.77338 0.77612 0.77712 0.779 0.778 0.77987 0.78275 0.78087 0.78275 0.7855 0.7865 0.7865 0.78838 0.78938 0.79225 0.79325 0.79425 0.79525 0.79612 0.79812 0.79912 0.79812 0.79812 0.79812 0.79912 0.79912 0.80012 0.80212 0.80112 0.80112 0.80312 0.80412 0.80712 0.81012 0.81012 0.81112 0.81212 0.81312 0.81525 0.81525 0.81525 0.81525 0.81525 0.81525 0.81625 0.81725 0.81937 0.81937 0.81937 0.82037 0.82037 0.82137 0.8225 0.8225 0.8235 0.82463 0.82463 0.82463 0.82563 0.82463 0.82663 0.82988 0.83088 0.83525 0.83525 0.83625 0.83625 0.832 0.832 0.832 0.82775 0.82663 0.82775 0.82775 0.82875 0.82988 0.82875 0.82875 0.82988 0.833 0.83525 0.83737 0.8395 0.84062 0.84175 0.84725 0.84725 0.84725 0.84725 0.84725 0.84837 0.84837 0.84837 0.8495 0.84837 0.85062 0.85062 0.85275 0.855 0.85388
0.535 0.53412 0.53412 0.53463 0.53463 0.53375 0.53325 0.53275 0.53238 0.53063 0.53063 0.53063 0.53063 0.53063 0.53063 0.53063 0.53187 0.53187 0.53238 0.53325 0.53275 0.53325 0.53275 0.53275 0.53375 0.53325 0.53238 0.53275 0.53325 0.53463 0.5355 0.53587 0.53725 0.53725 0.53725 0.53863 0.539 0.53987 0.53987 0.54038 0.54087 0.54125 0.54087 0.54175 0.54212 0.54212 0.54312 0.544 0.54587 0.54587 0.54538 0.54625 0.54725 0.54725 0.54812 0.54863 0.54912 0.5495 0.55 0.551 0.55188 0.55237 0.55288 0.55325 0.55325 0.55475 0.55475 0.55525 0.55563 0.55612 0.55712 0.55763 0.55812 0.55763 0.55812 0.55812 0.5585 0.559 0.561 0.562 0.562 0.562 0.56237 0.56337 0.56637 0.56637 0.56588 0.56588 0.56588 0.56688 0.56688 0.56737 0.56788 0.56837 0.56788 0.56988 0.57037 0.57037 0.57088 0.57137 0.57188 0.57237 0.57288 0.57437 0.57388 0.57537 0.57537 0.5765 0.578 0.5775 0.5775 0.577 0.577 0.577 0.579 0.58013 0.58113 0.58162 0.58162 0.58262 0.58213 0.58262 0.58425 0.58375 0.58425 0.58475 0.58525 0.58637 0.58737 0.588 0.5885 0.589 0.58962 0.59013 0.59062 0.59175 0.59175 0.59275 0.59275 0.59337 0.59388 0.595 0.5955 0.59662 0.59662 0.59713 0.59825 0.59888 0.59825 0.59937 0.6 0.6005 0.60213 0.60275 0.60325 0.605 0.605 0.60613 0.60675 0.60675 0.60725 0.60725 0.60675 0.60837 0.60788 0.609 0.6095 0.61075 0.61362 0.61362 0.61413 0.61475 0.61538 0.6165 0.61825 0.61887 0.62 0.62062 0.62187 0.623 0.623 0.62362 0.62425 0.62425 0.62425 0.62425 0.62425 0.62487 0.62487 0.6255 0.626 0.62662 0.62662 0.62725 0.62787 0.6285 0.62913 0.62975 0.63087 0.63087 0.63087 0.6315 0.63275 0.634 0.63587 0.63713 0.63775 0.63775 0.63838 0.64025 0.64025 0.64025 0.64225 0.64287 0.64412 0.64475 0.646 0.648 0.64925 0.65063 0.65187 0.65187 0.6525 0.74487 0.74575 0.74662 0.7475 0.75013 0.75087 0.75262 0.75262 0.7535 0.75262 0.75262 0.75262 0.75438 0.75538 0.75438 0.75625 0.75625 0.75625 0.758 0.75887 0.75975 0.76238 0.76238 0.76513 0.766 0.767 0.76875 0.76875 0.76875 0.77063 0.77063 0.7715 0.77238 0.77238 0.77238 0.77238 0.77238 0.77425 0.77612 0.778 0.78175 0.78087 0.78275 0.78463 0.78363 0.78463 0.7865 0.7875 0.78838 0.78938 0.79138 0.79325 0.79425 0.79525 0.79712 0.79712 0.79812 0.79912 0.79912 0.79912 0.79912 0.80012 0.80112 0.80112 0.80312 0.80212 0.80312 0.80512 0.80712 0.80812 0.81112 0.81212 0.81312 0.81425 0.81525 0.81625 0.81525 0.81525 0.81525 0.81525 0.81625 0.81937 0.81937 0.82037 0.82037 0.82037 0.82137 0.8225 0.8225 0.8235 0.8235 0.82463 0.82463 0.82663 0.82663 0.82875 0.82875 0.82875 0.83088 0.832 0.83525 0.83625 0.83625 0.83737 0.83413 0.833 0.832 0.82775 0.82775 0.82775 0.82875 0.82875 0.82988 0.83088 0.82988 0.832 0.8385 0.84175 0.84288 0.84613 0.84725 0.85062 0.85162 0.85162 0.85062 0.85062 0.8495 0.85062 0.85162 0.85275 0.85275 0.85162 0.85275 0.85388 0.855 0.8585 0.85737
0.5355 0.53412 0.53463 0.53463 0.535 0.53463 0.53325 0.53275 0.53238 0.53112 0.53112 0.5315 0.5315 0.5315 0.53112 0.53112 0.53238 0.53238 0.53325 0.53412 0.53375 0.53325 0.53325 0.53325 0.53375 0.53325 0.53325 0.53325 0.53325 0.535 0.53587 0.53587 0.53725 0.53725 0.53763 0.53812 0.53863 0.53987 0.54038 0.54038 0.54087 0.54125 0.54125 0.54125 0.54175 0.54175 0.5435 0.5445 0.54625 0.54625 0.54587 0.54675 0.54812 0.54863 0.54912 0.54912 0.5495 0.5495 0.5505 0.551 0.55237 0.55288 0.55288 0.55288 0.55325 0.55425 0.55475 0.55563 0.55563 0.55612 0.55712 0.55812 0.55763 0.55812 0.5585 0.55812 0.5595 0.56 0.5615 0.56237 0.562 0.56288 0.56337 0.56388 0.56688 0.56688 0.56588 0.56588 0.56637 0.56637 0.56688 0.56737 0.56837 0.56837 0.56837 0.56988 0.57037 0.57137 0.57188 0.57188 0.57237 0.57288 0.57337 0.57488 0.57537 0.576 0.5765 0.5775 0.5785 0.5785 0.578 0.5775 0.5775 0.578 0.58013 0.58062 0.58213 0.58213 0.58213 0.58325 0.58325 0.58325 0.58425 0.58425 0.58425 0.58475 0.58525 0.58637 0.58688 0.588 0.589 0.589 0.58962 0.59062 0.59062 0.59175 0.59225 0.59225 0.59337 0.59337 0.59337 0.595 0.5955 0.59613 0.59613 0.59713 0.59825 0.59888 0.59888 0.59937 0.6 0.6005 0.60213 0.60325 0.60388 0.605 0.60562 0.60613 0.60675 0.60675 0.60725 0.60725 0.60725 0.609 0.609 0.6095 0.61075 0.61187 0.61475 0.61538 0.61538 0.6165 0.6165 0.61775 0.61825 0.6195 0.62062 0.62125 0.62187 0.623 0.623 0.62362 0.62425 0.62425 0.62425 0.62425 0.62487 0.62487 0.6255 0.6255 0.626 0.62662 0.62725 0.62725 0.62787 0.62913 0.62975 0.63038 0.63087 0.63038 0.63087 0.63213 0.63275 0.63462 0.6365 0.63713 0.63838 0.639 0.639 0.63962 0.64025 0.64087 0.64225 0.64287 0.64538 0.64538 0.64675 0.64863 0.64987 0.65063 0.65187 0.65187 0.65125 0.74487 0.74575 0.74662 0.7475 0.75013 0.75087 0.75262 0.75262 0.75262 0.75175 0.75262 0.75262 0.75438 0.75538 0.75538 0.75538 0.75438 0.75538 0.75713 0.75887 0.75887 0.7615 0.76238 0.76513 0.766 0.767 0.76963 0.76963 0.76963 0.77063 0.7715 0.77238 0.77238 0.77338 0.77238 0.77238 0.77238 0.77425 0.77525 0.77612 0.78175 0.78087 0.78275 0.78463 0.78463 0.78463 0.7865 0.7875 0.78938 0.79038 0.79225 0.79325 0.79425 0.79525 0.79612 0.79712 0.79812 0.79812 0.79912 0.79812 0.79812 0.80012 0.80112 0.80212 0.80212 0.80312 0.80312 0.80512 0.80712 0.80912 0.81112 0.81212 0.81312 0.81525 0.81525 0.81725 0.81525 0.81525 0.81525 0.81525 0.81525 0.81937 0.81937 0.82137 0.82137 0.8225 0.82137 0.8235 0.8235 0.82463 0.82463 0.82563 0.82563 0.82663 0.82875 0.83088 0.83088 0.83088 0.83088 0.83088 0.83525 0.83525 0.83737 0.83737 0.83525 0.833 0.832 0.82775 0.82663 0.82663 0.82775 0.82988 0.83088 0.832 0.832 0.83413 0.8395 0.84175 0.845 0.845 0.84837 0.85162 0.85162 0.85275 0.85275 0.85062 0.85062 0.85275 0.85388 0.855 0.85388 0.85388 0.85388 0.855 0.85737 0.85962 0.85962
0.53587 0.53463 0.53463 0.535 0.535 0.53463 0.53412 0.53325 0.53275 0.53112 0.5315 0.53187 0.53187 0.53187 0.53187 0.5315 0.53275 0.53275 0.53375 0.535 0.53375 0.53325 0.53375 0.53375 0.53412 0.53375 0.53375 0.53325 0.53412 0.535 0.53587 0.53638 0.53725 0.53725 0.53763 0.53812 0.539 0.53987 0.54038 0.54038 0.54125 0.54125 0.54125 0.54175 0.54175 0.54212 0.5435 0.54487 0.54625 0.54675 0.54675 0.54725 0.54863 0.54912 0.5495 0.5495 0.55 0.55 0.5505 0.55137 0.55237 0.55288 0.55325 0.55288 0.55325 0.55425 0.55475 0.55563 0.55563 0.55612 0.55712 0.55812 0.55812 0.55812 0.5585 0.559 0.56 0.561 0.562 0.56288 0.56237 0.56288 0.56337 0.56437 0.56737 0.56688 0.56588 0.56588 0.56637 0.56688 0.56637 0.56688 0.56737 0.56737 0.56788 0.56937 0.56988 0.57088 0.57137 0.57237 0.57288 0.57288 0.57388 0.57488 0.57488 0.5765 0.577 0.578 0.579 0.579 0.579 0.5785 0.5785 0.5785 0.58062 0.58113 0.58213 0.58213 0.58262 0.58262 0.58262 0.58262 0.58375 0.58375 0.58375 0.58475 0.58525 0.58637 0.58737 0.588 0.58962 0.58962 0.58962 0.59062 0.59062 0.59175 0.59225 0.59275 0.59337 0.59337 0.59337 0.595 0.5955 0.59613 0.59613 0.59713 0.59888 0.59937 0.59888 0.59937 0.6005 0.60113 0.60275 0.60325 0.60388 0.605 0.60562 0.60613 0.60675 0.60725 0.60725 0.60788 0.60788 0.609 0.609 0.61013 0.61125 0.613 0.61538 0.61587 0.61713 0.6165 0.61713 0.61775 0.61887 0.62 0.62062 0.62125 0.62187 0.623 0.623 0.62362 0.62362 0.62425 0.62425 0.62362 0.62425 0.62487 0.62487 0.626 0.62662 0.62662 0.62662 0.62787 0.6285 0.62913 0.63038 0.63038 0.63087 0.63087 0.6315 0.63275 0.63338 0.63462 0.63713 0.63775 0.639 0.639 0.63962 0.64025 0.64087 0.64087 0.64287 0.6435 0.64475 0.64538 0.64675 0.64925 0.64987 0.65063 0.65187 0.65187 0.65187 0.74487 0.74575 0.74662 0.7475 0.74925 0.75087 0.75262 0.75262 0.75262 0.75175 0.75262 0.7535 0.75438 0.75438 0.75438 0.75438 0.75438 0.75538 0.75713 0.758 0.75887 0.76062 0.7615 0.76425 0.766 0.767 0.76963 0.76963 0.76963 0.77063 0.77063 0.7715 0.7715 0.77238 0.77338 0.77238 0.77338 0.77338 0.77425 0.77525 0.78175 0.78087 0.78275 0.78363 0.78463 0.7855 0.7865 0.7875 0.78938 0.79038 0.79138 0.79225 0.79325 0.79525 0.79712 0.79712 0.79812 0.79912 0.79812 0.79812 0.79812 0.79912 0.80112 0.80212 0.80312 0.80312 0.80412 0.80512 0.80712 0.80812 0.81112 0.81212 0.81312 0.81425 0.81525 0.81725 0.81625 0.81525 0.81525 0.81425 0.81525 0.81937 0.82037 0.82037 0.82137 0.82137 0.8235 0.8235 0.8235 0.82463 0.82463 0.82663 0.82663 0.82875 0.82988 0.832 0.832 0.832 0.83088 0.83088 0.83525 0.83625 0.83625 0.83625 0.83413 0.833 0.83088 0.82663 0.82663 0.82775 0.82775 0.83088 0.832 0.832 0.833 0.83525 0.84062 0.84288 0.845 0.84613 0.84837 0.85162 0.85275 0.85275 0.85275 0.85162 0.85062 0.85275 0.855 0.85625 0.85737 0.855 0.85625 0.85737 0.8585 0.86187 0.86187
0.53675 0.53638 0.53638 0.53675 0.53638 0.5355 0.53587 0.535 0.53412 0.53325 0.53325 0.53375 0.53325 0.53275 0.53275 0.53238 0.53375 0.53325 0.53463 0.5355 0.53412 0.53375 0.53375 0.53375 0.53463 0.53412 0.53412 0.53412 0.53463 0.5355 0.53587 0.53638 0.53812 0.53812 0.53812 0.53863 0.539 0.54038 0.54038 0.54087 0.54175 0.54175 0.54212 0.54263 0.54312 0.54312 0.5445 0.54538 0.54675 0.54725 0.54725 0.54812 0.54912 0.55 0.5505 0.5505 0.55137 0.55137 0.55137 0.55288 0.55288 0.55288 0.55325 0.55325 0.55325 0.55425 0.55525 0.55612 0.55663 0.55663 0.55712 0.55812 0.55812 0.5585 0.559 0.56 0.561 0.5615 0.56237 0.56388 0.56388 0.56437 0.56488 0.56537 0.56737 0.56737 0.56588 0.56588 0.56588 0.56688 0.56637 0.56688 0.56737 0.56788 0.56788 0.56937 0.56988 0.57137 0.57137 0.57188 0.57388 0.57388 0.57437 0.57537 0.57537 0.5765 0.5775 0.578 0.5795 0.5795 0.58013 0.58062 0.5795 0.579 0.58213 0.58213 0.58213 0.58213 0.58262 0.58262 0.58262 0.58325 0.58375 0.58375 0.58375 0.58475 0.58525 0.58688 0.588 0.5885 0.58962 0.59013 0.59013 0.59125 0.59062 0.59225 0.59275 0.59337 0.59388 0.5945 0.5945 0.5955 0.59613 0.59713 0.59713 0.59775 0.59937 0.6 0.59937 0.6005 0.60162 0.60213 0.60325 0.60388 0.605 0.60613 0.60613 0.60725 0.60725 0.60725 0.60725 0.60788 0.60837 0.6095 0.6095 0.61075 0.61187 0.613 0.6165 0.6165 0.61713 0.61775 0.61775 0.61825 0.61887 0.62 0.62125 0.62125 0.62187 0.623 0.62362 0.62362 0.62425 0.62425 0.62425 0.62425 0.62487 0.6255 0.6255 0.6255 0.62725 0.62787 0.62787 0.62787 0.62913 0.62975 0.63038 0.6315 0.63213 0.63275 0.63275 0.63462 0.63525 0.6365 0.639 0.639 0.64025 0.63962 0.64025 0.64163 0.64225 0.64287 0.64287 0.6435 0.64538 0.646 0.64738 0.64925 0.64925 0.64987 0.65187 0.6525 0.65325 0.74575 0.7475 0.74838 0.74838 0.75087 0.75175 0.7535 0.75438 0.75438 0.7535 0.7535 0.7535 0.75538 0.75438 0.75538 0.75538 0.75538 0.75625 0.758 0.75975 0.76062 0.76062 0.76238 0.76425 0.767 0.76787 0.76963 0.77063 0.76963 0.76963 0.77063 0.7715 0.77238 0.77238 0.77338 0.77338 0.77338 0.77525 0.77525 0.77612 0.78175 0.78275 0.78463 0.78463 0.78463 0.7855 0.7855 0.7865 0.79038 0.79138 0.79225 0.79225 0.79325 0.79612 0.79812 0.79812 0.79812 0.79912 0.79812 0.79712 0.79712 0.79912 0.80012 0.80212 0.80512 0.80412 0.80512 0.80612 0.80712 0.80912 0.81212 0.81212 0.81425 0.81525 0.81625 0.81725 0.81725 0.81525 0.81625 0.81625 0.81625 0.81837 0.81937 0.82137 0.82137 0.82137 0.82463 0.82463 0.82463 0.82563 0.82563 0.82775 0.82875 0.83088 0.83413 0.83525 0.83413 0.83413 0.833 0.833 0.83525 0.83525 0.83525 0.83525 0.833 0.832 0.82988 0.82563 0.82663 0.82875 0.82988 0.833 0.83525 0.8385 0.8385 0.8395 0.84388 0.84613 0.84725 0.8495 0.85062 0.85162 0.85388 0.85388 0.85162 0.85162 0.85162 0.85388 0.855 0.85737 0.85962 0.8585 0.85962 0.86187 0.86538 0.87113 0.87238
0.53763 0.53675 0.53675 0.53675 0.53675 0.53638 0.53638 0.53587 0.535 0.53463 0.53412 0.53463 0.53412 0.53375 0.53375 0.53412 0.53412 0.53375 0.53463 0.535 0.53463 0.53412 0.53375 0.53375 0.53463 0.53412 0.53463 0.53463 0.53463 0.5355 0.53587 0.53675 0.53812 0.53863 0.53812 0.53863 0.5395 0.54087 0.54087 0.54125 0.54212 0.54263 0.54263 0.54263 0.5435 0.5435 0.54487 0.54538 0.54675 0.54725 0.54763 0.54812 0.5495 0.5505 0.5505 0.5505 0.55137 0.55137 0.55188 0.55288 0.55288 0.55325 0.55325 0.55325 0.55375 0.55475 0.55525 0.55612 0.55663 0.55663 0.55763 0.55812 0.5585 0.559 0.5595 0.561 0.5615 0.562 0.56288 0.56337 0.56388 0.56437 0.56537 0.56588 0.56737 0.56688 0.56637 0.56588 0.56688 0.56688 0.56688 0.56688 0.56788 0.56788 0.56837 0.56988 0.57037 0.57137 0.57188 0.57237 0.57337 0.57337 0.57388 0.57537 0.57537 0.577 0.578 0.5785 0.5795 0.5795 0.58062 0.58062 0.58013 0.5795 0.58213 0.58213 0.58213 0.58262 0.58262 0.58262 0.58325 0.58262 0.58375 0.58375 0.58425 0.58475 0.58525 0.58737 0.588 0.5885 0.59013 0.59013 0.59062 0.59125 0.59175 0.59175 0.59225 0.59275 0.5945 0.595 0.595 0.59662 0.59662 0.59713 0.59775 0.59825 0.6 0.6005 0.6005 0.60113 0.60213 0.60275 0.60388 0.605 0.60613 0.60675 0.60675 0.60725 0.60788 0.60788 0.60788 0.60788 0.60837 0.61013 0.61013 0.61125 0.61238 0.61362 0.6165 0.61713 0.61713 0.61775 0.61775 0.61825 0.6195 0.62 0.62125 0.62125 0.6225 0.623 0.62362 0.62425 0.62425 0.62487 0.62425 0.62425 0.62487 0.626 0.626 0.62662 0.62725 0.62725 0.6285 0.6285 0.62913 0.63038 0.63087 0.6315 0.63275 0.63338 0.634 0.63525 0.63587 0.63713 0.639 0.63962 0.64025 0.64025 0.64087 0.64225 0.64287 0.64225 0.6435 0.6435 0.64538 0.646 0.64738 0.64925 0.64987 0.64987 0.6525 0.65387 0.65587 0.74838 0.74838 0.74925 0.74925 0.75087 0.75262 0.7535 0.75538 0.75438 0.75438 0.75438 0.75538 0.75538 0.75438 0.75538 0.75538 0.75625 0.75625 0.75887 0.75975 0.76062 0.76062 0.7615 0.76513 0.766 0.76787 0.76963 0.77063 0.77063 0.77063 0.7715 0.77238 0.77338 0.77338 0.77338 0.77338 0.77425 0.77525 0.77612 0.77612 0.78175 0.78175 0.78463 0.78463 0.78463 0.78463 0.7855 0.7875 0.78938 0.79138 0.79138 0.79225 0.79325 0.79612 0.79712 0.79812 0.79812 0.79812 0.79712 0.79712 0.79712 0.79712 0.79812 0.80112 0.80412 0.80412 0.80512 0.80712 0.80812 0.80912 0.81212 0.81312 0.81425 0.81525 0.81625 0.81725 0.81837 0.81625 0.81625 0.81625 0.81725 0.81837 0.81937 0.82037 0.82037 0.82137 0.8235 0.82463 0.82463 0.82563 0.82563 0.82875 0.82875 0.83088 0.83413 0.83625 0.83413 0.83413 0.83413 0.833 0.83525 0.83413 0.83525 0.83413 0.832 0.83088 0.82875 0.82663 0.82663 0.82875 0.82988 0.83625 0.83737 0.84062 0.84175 0.84288 0.84613 0.84837 0.8495 0.85062 0.85275 0.855 0.855 0.85388 0.85388 0.85388 0.85388 0.85625 0.85737 0.85962 0.86075 0.85962 0.863 0.8665 0.87 0.87475 0.87587
0.53812 0.53725 0.53812 0.53763 0.53725 0.53638 0.53675 0.53675 0.53638 0.535 0.53463 0.535 0.53463 0.53463 0.53463 0.53463 0.535 0.53412 0.53463 0.535 0.535 0.53463 0.53412 0.53412 0.53412 0.53463 0.53463 0.53463 0.535 0.5355 0.53587 0.53725 0.539 0.53863 0.53863 0.539 0.5395 0.54125 0.54125 0.54175 0.54263 0.54312 0.54312 0.54312 0.5435 0.544 0.5445 0.54538 0.54725 0.54725 0.54763 0.54863 0.54912 0.55 0.551 0.551 0.551 0.55137 0.55137 0.55288 0.55288 0.55288 0.55325 0.55325 0.55325 0.55525 0.55563 0.55612 0.55712 0.55712 0.55763 0.55812 0.5585 0.559 0.56 0.5615 0.56237 0.56237 0.56288 0.56388 0.56388 0.56437 0.56488 0.56588 0.56737 0.56688 0.56688 0.56637 0.56637 0.56737 0.56737 0.56737 0.56837 0.56837 0.56888 0.57037 0.57037 0.57188 0.57188 0.57188 0.57337 0.57337 0.57388 0.57488 0.57537 0.577 0.5785 0.579 0.5795 0.58013 0.58062 0.58062 0.58062 0.58013 0.58213 0.58213 0.58262 0.58262 0.58262 0.58262 0.58325 0.58325 0.58375 0.58425 0.58425 0.58525 0.58588 0.588 0.588 0.5885 0.59013 0.59062 0.59125 0.59175 0.59175 0.59275 0.59275 0.59337 0.5945 0.5955 0.59613 0.59713 0.59775 0.59775 0.59775 0.59825 0.6 0.6 0.6005 0.60162 0.60213 0.60325 0.60437 0.60562 0.60675 0.60725 0.60725 0.60788 0.609 0.60837 0.60837 0.60788 0.60837 0.61075 0.61013 0.61187 0.613 0.61413 0.6165 0.61713 0.61775 0.61775 0.61887 0.61887 0.62 0.62 0.62125 0.62187 0.62187 0.623 0.62362 0.62425 0.62487 0.62487 0.62487 0.62487 0.6255 0.62662 0.62725 0.62725 0.62725 0.62787 0.62787 0.62913 0.62975 0.63087 0.63087 0.63213 0.634 0.63338 0.63462 0.63587 0.63713 0.63775 0.63962 0.63962 0.64087 0.64087 0.64163 0.64225 0.64225 0.64287 0.6435 0.6435 0.64475 0.646 0.64738 0.64987 0.64987 0.65063 0.6525 0.6545 0.65587 0.74838 0.74925 0.75013 0.75013 0.75262 0.7535 0.75538 0.75538 0.75538 0.75438 0.75538 0.75538 0.75625 0.75438 0.75538 0.75625 0.75625 0.75625 0.75887 0.75975 0.76062 0.76062 0.7615 0.76425 0.766 0.767 0.76963 0.77063 0.77063 0.77063 0.7715 0.77238 0.77338 0.77338 0.77425 0.77425 0.77425 0.77525 0.77612 0.77612 0.78175 0.78175 0.78363 0.78363 0.78363 0.78463 0.7855 0.7865 0.78938 0.79038 0.79225 0.79138 0.79325 0.79612 0.79612 0.79612 0.79612 0.79712 0.79612 0.79525 0.79525 0.79712 0.79712 0.79912 0.80512 0.80512 0.80612 0.80712 0.80812 0.80912 0.81212 0.81212 0.81525 0.81525 0.81625 0.81837 0.81837 0.81725 0.81625 0.81625 0.81725 0.81837 0.81937 0.81937 0.81937 0.81937 0.8225 0.8225 0.8235 0.82563 0.82563 0.82775 0.82988 0.83088 0.83525 0.83625 0.83525 0.83525 0.83525 0.833 0.832 0.832 0.833 0.833 0.82988 0.82875 0.82775 0.82563 0.82775 0.82988 0.83088 0.8385 0.8395 0.84388 0.84388 0.845 0.8495 0.85062 0.85162 0.85275 0.85625 0.8585 0.8585 0.85625 0.85625 0.85625 0.85737 0.85737 0.85962 0.86187 0.86187 0.86075 0.85962 0.87238 0.87713 0.88187 0.88062
0.5395 0.539 0.5395 0.5395 0.5395 0.53863 0.53725 0.53675 0.53638 0.535 0.535 0.53463 0.53463 0.53463 0.53412 0.53463 0.53463 0.535 0.5355 0.5355 0.5355 0.535 0.535 0.5355 0.5355 0.5355 0.5355 0.53587 0.5355 0.53638 0.53675 0.53725 0.5395 0.5395 0.5395 0.54175 0.54175 0.54263 0.54312 0.5435 0.544 0.544 0.544 0.54538 0.54538 0.54538 0.54625 0.54675 0.54725 0.54725 0.54763 0.54812 0.54912 0.5495 0.5505 0.5505 0.551 0.551 0.55137 0.55237 0.55325 0.55325 0.55325 0.55375 0.55375 0.55612 0.55663 0.55763 0.55812 0.5585 0.559 0.5595 0.56 0.56 0.5605 0.5615 0.56237 0.56288 0.56388 0.56437 0.56488 0.56537 0.56588 0.56588 0.56788 0.56737 0.56737 0.56737 0.56788 0.56888 0.56888 0.56888 0.56937 0.56988 0.57037 0.57188 0.57188 0.57237 0.57288 0.57288 0.57388 0.57337 0.57437 0.57537 0.5765 0.5775 0.579 0.579 0.58062 0.58113 0.58213 0.58162 0.58162 0.58213 0.58325 0.58325 0.58375 0.58375 0.58375 0.58325 0.58325 0.58375 0.58475 0.58525 0.58525 0.58637 0.58737 0.5885 0.589 0.58962 0.59013 0.59062 0.59125 0.59225 0.59275 0.59337 0.59388 0.5945 0.5955 0.59662 0.59713 0.59888 0.59937 0.59937 0.6 0.59937 0.6005 0.6005 0.60162 0.60275 0.60325 0.60388 0.605 0.60613 0.60725 0.60788 0.60837 0.609 0.6095 0.6095 0.6095 0.6095 0.61013 0.61238 0.61238 0.61362 0.61475 0.61587 0.61713 0.61775 0.61825 0.6195 0.6195 0.6195 0.62062 0.62062 0.62187 0.6225 0.6225 0.62362 0.62425 0.62425 0.626 0.626 0.626 0.626 0.626 0.62725 0.62725 0.6285 0.62913 0.62913 0.62913 0.63038 0.63087 0.63213 0.63275 0.63338 0.63525 0.63525 0.63525 0.6365 0.63713 0.63838 0.639 0.63962 0.64087 0.64087 0.64163 0.6435 0.64287 0.64287 0.64287 0.6435 0.64538 0.646 0.64738 0.64987 0.65125 0.6525 0.6545 0.6565 0.65787 0.75175 0.75262 0.75438 0.75538 0.75713 0.75713 0.75713 0.75713 0.75713 0.75713 0.758 0.75887 0.75887 0.758 0.75887 0.758 0.75713 0.75713 0.75887 0.75975 0.7615 0.76062 0.76062 0.76425 0.76425 0.766 0.77063 0.77063 0.77063 0.7715 0.77238 0.77425 0.77525 0.77612 0.77712 0.77612 0.77712 0.77612 0.77712 0.778 0.78363 0.78363 0.78363 0.78463 0.78463 0.7855 0.7865 0.7875 0.79038 0.79038 0.79138 0.79225 0.79325 0.79525 0.79525 0.79525 0.79612 0.79612 0.79612 0.79612 0.79612 0.79712 0.79812 0.79912 0.80412 0.80512 0.80712 0.80912 0.80812 0.80912 0.81425 0.81425 0.81725 0.81725 0.81837 0.81937 0.82037 0.81837 0.81837 0.81837 0.81837 0.81937 0.82037 0.81937 0.81937 0.81937 0.82137 0.8225 0.8235 0.82463 0.82663 0.82775 0.82988 0.832 0.83625 0.83737 0.83737 0.83625 0.83525 0.832 0.83088 0.832 0.832 0.832 0.82875 0.82775 0.82775 0.82563 0.82663 0.82988 0.832 0.8385 0.8395 0.845 0.84725 0.8495 0.85737 0.85737 0.85737 0.86075 0.86413 0.8665 0.86538 0.86187 0.86187 0.86075 0.86187 0.863 0.86413 0.8665 0.86887 0.86887 0.87475 0.8795 0.8795 0.88187 0.88187
0.53987 0.53987 0.53987 0.54038 0.5395 0.5395 0.53763 0.53725 0.53675 0.53587 0.5355 0.5355 0.53463 0.53463 0.53463 0.53463 0.535 0.53463 0.53587 0.53587 0.5355 0.53587 0.5355 0.5355 0.53587 0.53638 0.53638 0.53638 0.53638 0.53725 0.53763 0.53812 0.53987 0.53987 0.54038 0.54125 0.54175 0.54312 0.5435 0.5435 0.5445 0.5445 0.5445 0.54538 0.54587 0.54587 0.54625 0.54625 0.54763 0.54725 0.54763 0.54863 0.54912 0.5495 0.55 0.55 0.5505 0.551 0.55137 0.55188 0.55288 0.55325 0.55325 0.55375 0.55375 0.55612 0.55663 0.55812 0.55812 0.55812 0.5595 0.5595 0.56 0.5605 0.561 0.562 0.56288 0.56288 0.56437 0.56437 0.56488 0.56588 0.56637 0.56688 0.56788 0.56788 0.56788 0.56788 0.56837 0.56937 0.56937 0.56937 0.56988 0.57037 0.57088 0.57188 0.57237 0.57288 0.57288 0.57337 0.57437 0.57437 0.57488 0.5765 0.577 0.5785 0.5795 0.5795 0.58162 0.58213 0.58213 0.58213 0.58213 0.58213 0.58325 0.58325 0.58375 0.58425 0.58325 0.58325 0.58375 0.58425 0.58475 0.58525 0.58588 0.58637 0.58737 0.589 0.589 0.58962 0.59062 0.59125 0.59125 0.59225 0.59337 0.59337 0.59388 0.595 0.59613 0.59713 0.59825 0.59937 0.6 0.6 0.6 0.6005 0.60113 0.60113 0.60213 0.60325 0.60388 0.60388 0.60562 0.60613 0.60788 0.60788 0.60837 0.6095 0.61013 0.609 0.6095 0.61013 0.61075 0.613 0.613 0.61413 0.61587 0.6165 0.61825 0.61825 0.61887 0.6195 0.62 0.6195 0.62062 0.62062 0.6225 0.6225 0.623 0.62362 0.62362 0.62487 0.626 0.626 0.62662 0.62662 0.62725 0.62787 0.62787 0.6285 0.63038 0.63038 0.63038 0.6315 0.63213 0.63275 0.63338 0.63462 0.63587 0.63587 0.6365 0.63713 0.63775 0.63838 0.64025 0.64025 0.64087 0.64163 0.64163 0.64287 0.64287 0.64287 0.6435 0.6435 0.64538 0.646 0.64738 0.64987 0.65125 0.6525 0.65525 0.65725 0.65987 0.75538 0.75438 0.75438 0.75625 0.758 0.758 0.75887 0.758 0.758 0.758 0.75887 0.75887 0.75975 0.75887 0.75887 0.75975 0.758 0.75887 0.75887 0.76062 0.76062 0.76062 0.7615 0.76425 0.76513 0.767 0.76963 0.77063 0.77063 0.77238 0.77238 0.77525 0.77612 0.77612 0.778 0.77712 0.77712 0.77712 0.77712 0.778 0.78363 0.78363 0.78463 0.78463 0.78463 0.7855 0.7855 0.7875 0.78838 0.78938 0.79138 0.79138 0.79325 0.79325 0.79425 0.79425 0.79612 0.79612 0.79712 0.79712 0.79812 0.79812 0.79912 0.80012 0.80412 0.80612 0.80712 0.80912 0.80912 0.80912 0.81425 0.81525 0.81725 0.81837 0.81837 0.82037 0.82137 0.81837 0.81837 0.81837 0.81837 0.82037 0.82037 0.82137 0.82137 0.82037 0.82137 0.8225 0.8235 0.82463 0.82663 0.82988 0.832 0.833 0.83737 0.83737 0.8385 0.83737 0.83525 0.833 0.832 0.832 0.832 0.832 0.82875 0.82775 0.82775 0.82663 0.82875 0.832 0.83525 0.84062 0.84175 0.84725 0.8495 0.85162 0.8585 0.8585 0.85962 0.86187 0.86538 0.86762 0.86762 0.863 0.863 0.863 0.863 0.86538 0.86762 0.86887 0.87 0.87113 0.87475 0.87825 0.88062 0.88187 0.883
0.54087 0.54087 0.54087 0.54087 0.54038 0.53987 0.53863 0.53812 0.53763 0.53675 0.53638 0.53638 0.535 0.53463 0.53412 0.535 0.53587 0.5355 0.53587 0.53638 0.53587 0.53587 0.53587 0.53638 0.53675 0.53725 0.53763 0.53725 0.53725 0.53812 0.53863 0.539 0.54038 0.54038 0.54087 0.54175 0.54175 0.54312 0.5435 0.544 0.54487 0.54538 0.54538 0.54625 0.54625 0.54625 0.54675 0.54675 0.54725 0.54763 0.54812 0.54912 0.5495 0.5495 0.55 0.5505 0.551 0.551 0.55188 0.55237 0.55288 0.55288 0.55288 0.55325 0.55375 0.55563 0.55612 0.55812 0.5585 0.5585 0.56 0.56 0.5605 0.5605 0.5615 0.56288 0.56388 0.56437 0.56488 0.56537 0.56588 0.56737 0.56788 0.56737 0.56837 0.56837 0.56837 0.56837 0.56937 0.56988 0.56988 0.56988 0.56988 0.57037 0.57037 0.57188 0.57237 0.57337 0.57388 0.57388 0.57537 0.576 0.5765 0.578 0.5785 0.58062 0.58162 0.58162 0.58325 0.58375 0.58375 0.58375 0.58325 0.58325 0.58425 0.58425 0.58375 0.58425 0.58375 0.58375 0.58425 0.58475 0.58588 0.58588 0.58637 0.58737 0.588 0.58962 0.58962 0.59013 0.59062 0.59175 0.59175 0.59337 0.59388 0.5945 0.595 0.59613 0.59775 0.59825 0.59888 0.6005 0.6005 0.60113 0.60162 0.60162 0.60213 0.60275 0.60275 0.60437 0.60437 0.60437 0.60562 0.60613 0.60837 0.609 0.609 0.6095 0.61013 0.6095 0.61013 0.61075 0.61125 0.61362 0.61413 0.61587 0.6165 0.61775 0.6195 0.6195 0.62 0.62 0.62 0.62062 0.62062 0.62062 0.62187 0.6225 0.6225 0.62425 0.62425 0.62425 0.62662 0.62662 0.62662 0.62725 0.62787 0.62913 0.62975 0.63038 0.63213 0.63275 0.634 0.63462 0.63462 0.63525 0.63462 0.63525 0.63713 0.63713 0.63775 0.639 0.639 0.639 0.64087 0.64087 0.64163 0.64163 0.64225 0.6435 0.6435 0.64287 0.6435 0.6435 0.64538 0.64538 0.64738 0.64987 0.65125 0.65325 0.6565 0.65787 0.65987 0.75538 0.75625 0.75538 0.75625 0.75887 0.75887 0.75887 0.75887 0.75887 0.758 0.75975 0.76062 0.76062 0.75975 0.75975 0.76062 0.75975 0.75887 0.76062 0.7615 0.7615 0.7615 0.76238 0.76338 0.76425 0.766 0.76963 0.7715 0.7715 0.77425 0.77338 0.77612 0.778 0.77712 0.77987 0.77987 0.779 0.779 0.779 0.77987 0.78463 0.78463 0.78463 0.7855 0.78463 0.7865 0.7865 0.7875 0.78938 0.78938 0.79038 0.79138 0.79225 0.79225 0.79325 0.79325 0.79612 0.79712 0.79812 0.79812 0.80012 0.80012 0.80112 0.80112 0.80312 0.80612 0.80712 0.80912 0.81012 0.81112 0.81525 0.81625 0.81725 0.81937 0.82037 0.82037 0.8225 0.82037 0.82037 0.82037 0.82037 0.8225 0.8225 0.8235 0.82463 0.8235 0.8235 0.8235 0.82463 0.82563 0.82775 0.83088 0.833 0.83525 0.8385 0.83737 0.8385 0.8385 0.83737 0.83413 0.832 0.82988 0.83088 0.83088 0.82875 0.82875 0.82875 0.82875 0.83413 0.83737 0.84175 0.84725 0.84837 0.85275 0.855 0.85737 0.85962 0.86075 0.86075 0.86413 0.86538 0.86887 0.86762 0.86538 0.8665 0.86762 0.86887 0.87 0.87238 0.87238 0.8735 0.8735 0.87713 0.8795 0.88062 0.883 0.88425
