1.0145 1.0112 1.0035 1.0004 0.99275 0.98662 0.98362 0.97925 0.97325 0.97188 0.97188 0.97188 0.97325 0.96888 0.966 0.96313 0.96313 0.96313 0.96025 0.95188 0.949 0.94625 0.94075 0.938 0.938 0.93675 0.93537 0.92863 0.926 0.922 0.91675 0.91425 0.91163 0.90775 0.90775 0.9065 0.90775 0.90775 0.9065 0.9065 0.90525 0.9065 0.90775 0.90775 0.90525 0.90525 0.90275 0.899 0.899 0.899 0.89775 0.894 0.88662 0.88425 0.88187 0.8795 0.87713 0.8735 0.86762 0.86413 0.86075 0.85625 0.85275 0.8495 0.84388 0.84388 0.84288 0.84288 0.84388 0.84062 0.8385 0.8385 0.83737 0.83625 0.83625 0.83737 0.83737 0.83525 0.83413 0.83413 0.83088 0.82988 0.82663 0.82137 0.81837 0.81625 0.81112 0.80912 0.80912 0.80612 0.80512 0.80412 0.80412 0.80412 0.80112 0.80012 0.79912 0.79525 0.79325 0.79225 0.78938 0.7875 0.7855 0.78463 0.78363 0.78175 0.77987 0.77987 0.77612 0.77612 0.77525 0.77238 0.7715 0.77063 0.766 0.76425 0.76238 0.7615 0.76062 0.75538 0.75262 0.75013 0.74838 0.74838 0.7475 0.744 0.74238 0.74062 0.73813 0.73725 0.73638 0.73562 0.73388 0.72975 0.729 0.72813 0.72737 0.729 0.72813 0.7265 0.72575 0.72413 0.72413 0.72488 0.72488 0.72325 0.72162 0.71762 0.71688 0.716 0.71288 0.71213 0.71213 0.7105 0.70975 0.70825 0.70825 0.70662 0.70513 0.70437 0.70212 0.69975 0.69825 0.696 0.69163 0.68937 0.68937 0.68788 0.68788 0.68788 0.68712 0.68575 0.6835 0.68288 0.68288 0.68137 0.68 0.67925 0.67637 0.67575 0.67363 0.67288 0.67225 0.66663 0.66525 0.66387 0.66125 0.6605 0.6605 0.65925 0.6585 0.6585 0.65587 0.65525 0.6545 0.6545 0.6545 0.65325 0.65187 0.65063 0.648 0.648 0.648 0.64738 0.64675 0.64287 0.64225 0.64163 0.63962 0.639 0.63838 0.63587 0.63587 0.63525 0.634 0.634 0.63338 0.63087 0.62913 0.62425 0.6225 0.62 0.62062 0.62187 0.62125 0.62062 0.62 0.6195 0.61887 0.61825 0.61775 0.6165 0.61475 0.61187 0.61125 0.61125 0.6095 0.60837 0.60725 0.60675 0.60725 0.60725 0.60675 0.60675 0.60213 0.60162 0 0.528 0.52712 0.52587 0.52375 0.52212 0.52125 0.52038 0.51712 0.51587 0.515 0.51338 0.513 0.51213 0.5105 0.5105 0.509 0.509 0.50813 0.5065 0.5065 0.50613 0.50375 0.50262 0.50262 0.5015 0.50113 0.4995 0.49912 0.49838 0.49838 0.49762 0.49725 0.49575 0.4945 0.49375 0.49262 0.49225 0.49075 0.48825 0.48712 0.48712 0.48712 0.48675 0.48562 0.48562 0.48562 0.48488 0.48462 0.4835 0.48313 0.48313 0.4835 0.48237 0.482 0.48163 0.481 0.47913 0.47637 0.47563 0.475 0.47325 0.4725 0.47225 0.47113 0.4705 0.47013 0.46913 0.46875 0.46737 0.46737 0.46675 0.46537 0.46475 0.46437 0.46375 0.46337 0.46313 0.46213 0.46137 0.46075 0.4605 0.46013 0.45913 0.45913 0.45887 0.45887 0.4585 0.45813 0.45787 0.45787 0.45787 0.45687 0.45587 0.453 0.45238 0.4515 0.4505 0.44988 0.44925 0.44925 0.44962 0.44862 0.44775 0.44738 0.44612 0.445 0.44225 0.441 0.44075 0.44012 0.4395 0.43975 0.43975
1.0176 1.0129 1.0066 1.0004 0.99425 0.98813 0.98362 0.97925 0.97188 0.97037 0.97037 0.97037 0.97037 0.96888 0.96462 0.96175 0.96313 0.96175 0.96175 0.95462 0.95188 0.95188 0.94763 0.94488 0.94625 0.94488 0.9435 0.93675 0.93263 0.92725 0.91938 0.91812 0.9155 0.91163 0.91163 0.91038 0.90912 0.91038 0.90912 0.90912 0.90775 0.90775 0.90775 0.90775 0.9065 0.90525 0.90275 0.899 0.899 0.899 0.89775 0.894 0.88662 0.88425 0.88187 0.8795 0.87825 0.87475 0.8665 0.86413 0.86187 0.85625 0.85388 0.85062 0.84613 0.84613 0.84388 0.845 0.845 0.84288 0.84175 0.8395 0.83737 0.83737 0.83737 0.8385 0.8385 0.83625 0.83625 0.83625 0.83525 0.833 0.83088 0.82463 0.8225 0.82137 0.81725 0.81525 0.81425 0.81112 0.80912 0.80712 0.80612 0.80612 0.80312 0.80212 0.80012 0.79525 0.79325 0.79138 0.78938 0.78838 0.7865 0.78363 0.78363 0.78175 0.78087 0.77987 0.779 0.778 0.77712 0.77525 0.77425 0.77238 0.76787 0.76425 0.76238 0.7615 0.7615 0.758 0.75625 0.7535 0.75175 0.75175 0.75175 0.74838 0.7475 0.74487 0.7415 0.74062 0.73975 0.73813 0.73725 0.73225 0.73062 0.729 0.72813 0.72975 0.72975 0.72813 0.72737 0.72488 0.72575 0.72575 0.72575 0.72413 0.72162 0.72 0.7185 0.716 0.71288 0.71213 0.71288 0.71137 0.71137 0.70975 0.709 0.70662 0.70437 0.70362 0.70212 0.69975 0.6975 0.696 0.69237 0.69012 0.68937 0.68863 0.68863 0.68863 0.68712 0.68712 0.68425 0.6835 0.68425 0.68288 0.68212 0.68137 0.68063 0.67925 0.67575 0.67363 0.67288 0.66663 0.66463 0.66387 0.66125 0.65987 0.6605 0.65925 0.6585 0.65787 0.6565 0.65587 0.65525 0.65525 0.6545 0.6525 0.65187 0.65063 0.64987 0.64925 0.64925 0.64863 0.64738 0.64538 0.64412 0.6435 0.64287 0.64163 0.64025 0.63775 0.63713 0.63713 0.63713 0.63713 0.63587 0.63338 0.63213 0.62362 0.62187 0.62062 0.62062 0.62362 0.623 0.62125 0.62062 0.62 0.62 0.62 0.6195 0.61775 0.6165 0.61362 0.613 0.613 0.6095 0.60788 0.60675 0.60613 0.60725 0.60675 0.60675 0.60675 0.60437 0.60325 0 0.528 0.52712 0.525 0.52338 0.52212 0.52125 0.52075 0.51825 0.51663 0.51538 0.51375 0.51375 0.513 0.51175 0.51138 0.51013 0.50975 0.509 0.50775 0.507 0.5065 0.505 0.50375 0.50338 0.50225 0.5015 0.4995 0.49912 0.49838 0.49838 0.49762 0.49762 0.49575 0.49538 0.49488 0.49338 0.49338 0.49225 0.48975 0.48788 0.48788 0.48788 0.48712 0.48562 0.48525 0.48525 0.48488 0.48462 0.48387 0.48313 0.4835 0.48387 0.4835 0.4835 0.48275 0.48163 0.47987 0.4785 0.47775 0.47713 0.47463 0.47387 0.47387 0.47287 0.47225 0.47187 0.4705 0.4705 0.46875 0.46875 0.4685 0.46637 0.46575 0.46537 0.46513 0.46475 0.46375 0.46275 0.46237 0.46137 0.46137 0.46113 0.46013 0.45975 0.45975 0.4595 0.45913 0.45887 0.45813 0.45813 0.45787 0.45687 0.4565 0.453 0.45212 0.4515 0.45088 0.45025 0.44988 0.44962 0.44988 0.44925 0.44838 0.448 0.44738 0.44738 0.44225 0.44162 0.44125 0.44075 0.44012 0.43975 0.44012
1.0192 1.0161 1.0097 1.0035 0.99575 0.98813 0.98362 0.97925 0.97188 0.97037 0.96888 0.97037 0.97037 0.966 0.96462 0.96175 0.96175 0.96175 0.96175 0.95462 0.95325 0.95325 0.94763 0.94625 0.94763 0.94763 0.949 0.94075 0.93537 0.92863 0.922 0.91938 0.91675 0.9155 0.9155 0.91287 0.91163 0.91038 0.91038 0.90912 0.91038 0.90912 0.90775 0.90775 0.90525 0.904 0.90275 0.90025 0.899 0.899 0.8965 0.89275 0.88662 0.88425 0.883 0.87825 0.87713 0.87475 0.8665 0.863 0.86187 0.85625 0.855 0.85275 0.84837 0.84837 0.84613 0.84725 0.84837 0.84388 0.84288 0.84062 0.83737 0.83737 0.83737 0.8385 0.8395 0.83625 0.83737 0.83737 0.83625 0.83413 0.832 0.82563 0.8235 0.8225 0.81837 0.81725 0.81625 0.81212 0.81112 0.80812 0.80912 0.80912 0.80412 0.80212 0.80012 0.79525 0.79225 0.79138 0.78838 0.7875 0.7855 0.78463 0.78363 0.78175 0.78175 0.77987 0.779 0.778 0.77712 0.77612 0.77425 0.77338 0.767 0.76338 0.76338 0.7615 0.7615 0.75887 0.75713 0.75438 0.75262 0.75262 0.75175 0.75013 0.74925 0.74662 0.74313 0.7415 0.74062 0.73975 0.739 0.73313 0.73137 0.72975 0.72975 0.72975 0.73062 0.729 0.72737 0.7265 0.7265 0.7265 0.72575 0.72488 0.72162 0.71925 0.7185 0.71525 0.71375 0.71213 0.71213 0.71137 0.71137 0.70975 0.70825 0.70662 0.70362 0.70212 0.70137 0.69825 0.69675 0.696 0.69312 0.69012 0.69012 0.68863 0.68863 0.68863 0.68788 0.68712 0.68425 0.685 0.685 0.6835 0.6835 0.6835 0.68212 0.68137 0.67637 0.675 0.67288 0.666 0.66463 0.66387 0.6605 0.6605 0.66125 0.65987 0.65987 0.65925 0.6565 0.65587 0.65525 0.65525 0.6545 0.6525 0.65187 0.65063 0.64987 0.64925 0.64987 0.64863 0.648 0.64475 0.64475 0.64412 0.64475 0.64287 0.64163 0.639 0.63838 0.63838 0.63838 0.63838 0.63775 0.63525 0.63338 0.62187 0.62187 0.62125 0.62125 0.62362 0.6225 0.62187 0.62062 0.62062 0.62 0.62062 0.62 0.61887 0.61713 0.61413 0.61362 0.61362 0.6095 0.60788 0.60675 0.60613 0.60675 0.60675 0.60675 0.60675 0.605 0.60562 0 0 0.52463 0.52463 0.52287 0.52163 0.52125 0.52038 0.51825 0.51663 0.51538 0.51425 0.51375 0.513 0.51213 0.51138 0.5105 0.51013 0.50975 0.50775 0.50775 0.50738 0.50575 0.50462 0.50413 0.50262 0.5015 0.49988 0.49912 0.49875 0.498 0.49762 0.49725 0.49612 0.49538 0.4945 0.49412 0.49338 0.49262 0.4905 0.48862 0.48862 0.48788 0.48712 0.486 0.48562 0.48525 0.48488 0.48462 0.48387 0.4835 0.4835 0.48387 0.48387 0.48387 0.48313 0.482 0.48025 0.47887 0.47813 0.47713 0.47537 0.47463 0.47425 0.47363 0.47287 0.47225 0.47187 0.47113 0.47013 0.46975 0.46913 0.46713 0.46637 0.46575 0.46513 0.46513 0.46413 0.46313 0.46275 0.46213 0.46175 0.46137 0.4605 0.46013 0.46013 0.4595 0.45913 0.45913 0.45813 0.45813 0.45787 0.4565 0.45625 0.453 0.45238 0.45175 0.45088 0.4505 0.45025 0.44988 0.45025 0.44962 0.44862 0.44838 0.44775 0.44775 0.44312 0.44162 0.44125 0.441 0.44038 0.44038 0.44012
1.0209 1.0192 1.0129 1.0066 1.0004 0.99113 0.98662 0.97188 0.97325 0.97188 0.97188 0.96888 0.97037 0.966 0.96462 0.96313 0.96175 0.96175 0.96025 0.956 0.95462 0.95325 0.949 0.94763 0.94763 0.949 0.9505 0.9435 0.94212 0.92863 0.926 0.922 0.92075 0.91812 0.91812 0.9155 0.91163 0.91038 0.91038 0.91038 0.91163 0.91038 0.90912 0.90775 0.9065 0.90525 0.904 0.90025 0.899 0.90025 0.8965 0.89275 0.88787 0.8855 0.883 0.8795 0.87713 0.87475 0.8665 0.86413 0.86187 0.85737 0.855 0.85275 0.8495 0.84837 0.84837 0.8495 0.85062 0.84613 0.845 0.84175 0.8385 0.8385 0.83737 0.8395 0.8395 0.83737 0.8385 0.8385 0.83625 0.83413 0.833 0.82663 0.8235 0.8225 0.82037 0.81837 0.81725 0.81312 0.81212 0.80912 0.81012 0.81012 0.80512 0.80412 0.80112 0.79525 0.79325 0.79138 0.78938 0.7875 0.7855 0.78463 0.78363 0.78275 0.78175 0.77987 0.779 0.778 0.778 0.77612 0.77525 0.77238 0.766 0.76338 0.76238 0.7615 0.7615 0.75975 0.758 0.75625 0.7535 0.75262 0.7535 0.75087 0.75013 0.74838 0.744 0.74313 0.7415 0.74062 0.739 0.73475 0.73225 0.73137 0.73062 0.73062 0.73137 0.729 0.72737 0.72737 0.7265 0.7265 0.7265 0.72413 0.72162 0.71925 0.7185 0.716 0.71288 0.71213 0.71213 0.71137 0.71213 0.7105 0.709 0.70662 0.70288 0.70137 0.70063 0.69825 0.69675 0.696 0.69312 0.69088 0.69012 0.68863 0.68863 0.68788 0.68712 0.6865 0.6835 0.68288 0.6835 0.6835 0.68288 0.68288 0.68212 0.68212 0.67637 0.675 0.67288 0.666 0.66387 0.66325 0.66125 0.6605 0.66125 0.65987 0.65925 0.6585 0.65725 0.65587 0.65587 0.65525 0.6545 0.65325 0.65187 0.65125 0.64987 0.64987 0.64987 0.64863 0.648 0.64538 0.64538 0.64475 0.64412 0.6435 0.64163 0.63962 0.639 0.639 0.63962 0.63962 0.63838 0.6365 0.63462 0.6225 0.62187 0.62062 0.62125 0.62362 0.62362 0.62125 0.62125 0.62062 0.62062 0.62062 0.62 0.6195 0.61825 0.61475 0.61413 0.61475 0.609 0.60725 0.60675 0.60613 0.60562 0.60613 0.60613 0.60675 0.60562 0.60562 0 0.52412 0.52375 0.52338 0.5225 0.52075 0.52038 0.52 0.51787 0.5175 0.51587 0.51462 0.51425 0.51338 0.51262 0.51213 0.511 0.511 0.51013 0.509 0.509 0.5085 0.507 0.50575 0.50538 0.50338 0.50187 0.49988 0.49912 0.49912 0.49838 0.49762 0.49725 0.49612 0.49575 0.49488 0.49412 0.49375 0.493 0.49075 0.48938 0.48938 0.48825 0.48638 0.48525 0.48525 0.48525 0.48488 0.48462 0.48387 0.4835 0.4835 0.4835 0.48387 0.48387 0.48237 0.48163 0.48063 0.47913 0.47887 0.47775 0.47563 0.475 0.47463 0.47387 0.47363 0.47325 0.4725 0.4725 0.47087 0.4705 0.46975 0.46737 0.46675 0.46637 0.46537 0.46537 0.46437 0.46337 0.46313 0.46275 0.46237 0.46213 0.46075 0.4605 0.4605 0.45975 0.4595 0.45913 0.45787 0.45787 0.45725 0.45625 0.45587 0.45275 0.45212 0.45175 0.45112 0.45088 0.4505 0.45025 0.4505 0.45025 0.44925 0.44862 0.44862 0.44775 0.44312 0.4425 0.44188 0.44125 0.44038 0.43975 0.43975
1.0225 1.0241 1.0209 1.0161 1.0112 1.0097 1.0097 0.97325 0.97325 0.97325 0.97325 0.97475 0.97325 0.97037 0.96888 0.9675 0.966 0.966 0.96462 0.95888 0.956 0.956 0.949 0.94625 0.94763 0.949 0.9505 0.9505 0.94763 0.9435 0.93675 0.93263 0.92725 0.92463 0.92725 0.92337 0.9155 0.91287 0.91163 0.91287 0.91287 0.9155 0.91425 0.91287 0.90912 0.90775 0.90775 0.90275 0.9015 0.9015 0.899 0.8965 0.8915 0.88787 0.8855 0.88187 0.87825 0.87475 0.86887 0.86538 0.863 0.85737 0.85625 0.85275 0.85062 0.8495 0.85062 0.85062 0.85062 0.84837 0.84613 0.845 0.84175 0.84062 0.84175 0.84062 0.84062 0.8395 0.8385 0.8395 0.83737 0.83625 0.83413 0.82875 0.82663 0.82463 0.82137 0.82037 0.81937 0.81625 0.81425 0.81012 0.81212 0.81312 0.80912 0.80712 0.80412 0.79812 0.79612 0.79425 0.79038 0.78938 0.7875 0.78363 0.78363 0.78363 0.78363 0.78175 0.77987 0.778 0.778 0.77712 0.77612 0.77238 0.767 0.76338 0.76338 0.76238 0.76238 0.76238 0.76062 0.75887 0.75625 0.75538 0.75625 0.7535 0.75262 0.75087 0.74575 0.744 0.744 0.74238 0.74062 0.73638 0.73475 0.73313 0.73225 0.73225 0.73313 0.72975 0.72813 0.72737 0.72737 0.72737 0.7265 0.72488 0.72325 0.72 0.71925 0.716 0.71288 0.71213 0.71213 0.71213 0.71213 0.71213 0.7105 0.709 0.70362 0.70288 0.70212 0.699 0.6975 0.69675 0.69375 0.69237 0.69088 0.68937 0.68937 0.68712 0.68712 0.6865 0.68288 0.68288 0.6835 0.68288 0.68288 0.68212 0.68212 0.68137 0.67712 0.675 0.67288 0.66463 0.66387 0.66263 0.66187 0.6605 0.6605 0.6605 0.65925 0.65925 0.65787 0.65725 0.65587 0.65525 0.65525 0.65325 0.65187 0.6525 0.65125 0.65125 0.65063 0.64925 0.64863 0.646 0.64538 0.64538 0.64475 0.64412 0.64225 0.64087 0.64087 0.64087 0.64087 0.64087 0.64025 0.63838 0.63587 0.6315 0.63087 0.63087 0.62662 0.62487 0.62487 0.623 0.6225 0.62187 0.62125 0.62125 0.62125 0.62 0.6195 0.61713 0.61587 0.6165 0.60788 0.609 0.60788 0.60613 0.60613 0.60613 0.60562 0.60562 0.60562 0.60613 0 0.52412 0.52412 0.52287 0.52163 0.52075 0.52038 0.52038 0.51912 0.51875 0.51787 0.51712 0.51663 0.515 0.51425 0.51338 0.513 0.513 0.51213 0.51175 0.51138 0.511 0.50975 0.509 0.50738 0.50462 0.503 0.50025 0.49988 0.4995 0.49875 0.49838 0.49725 0.49612 0.49575 0.49538 0.4945 0.49412 0.49375 0.49225 0.49188 0.4915 0.49112 0.48525 0.48562 0.48525 0.48562 0.48488 0.48462 0.48425 0.4835 0.4835 0.48387 0.48387 0.48387 0.48237 0.48163 0.481 0.4795 0.47913 0.47887 0.47713 0.47637 0.476 0.47463 0.47463 0.47463 0.47463 0.47425 0.47287 0.4725 0.47187 0.4685 0.46737 0.46775 0.46675 0.46613 0.46537 0.46413 0.46413 0.46375 0.46337 0.46313 0.46175 0.46113 0.46113 0.46013 0.4595 0.45913 0.45787 0.45787 0.4575 0.45587 0.45563 0.45275 0.45212 0.45212 0.45112 0.45112 0.45088 0.45088 0.45112 0.45088 0.4505 0.44988 0.45025 0.45112 0.44438 0.444 0.44438 0.44125 0.44038 0.44012 0.4395
1.0225 1.0241 1.0225 1.0192 1.0129 1.0112 1.0112 0.97775 0.97625 0.97475 0.97475 0.97625 0.97625 0.97188 0.97037 0.97037 0.9675 0.9675 0.966 0.96175 0.95888 0.9575 0.949 0.94763 0.94625 0.94763 0.949 0.949 0.94625 0.9435 0.93675 0.93263 0.92863 0.926 0.92725 0.92463 0.91675 0.91287 0.91163 0.91287 0.91425 0.9155 0.9155 0.91425 0.91038 0.90912 0.90775 0.90525 0.904 0.904 0.90025 0.89775 0.89275 0.89038 0.88787 0.883 0.8795 0.87475 0.86887 0.86538 0.86413 0.8585 0.85737 0.85388 0.8495 0.85062 0.85062 0.85162 0.85162 0.84837 0.84725 0.845 0.84175 0.84175 0.84175 0.84175 0.84175 0.8385 0.8385 0.8385 0.83737 0.83737 0.83525 0.82988 0.82775 0.82663 0.8235 0.82137 0.82037 0.81725 0.81525 0.81212 0.81312 0.81425 0.81112 0.80912 0.80612 0.80112 0.79712 0.79525 0.79138 0.78938 0.7875 0.78463 0.78363 0.78463 0.78275 0.78175 0.77987 0.778 0.778 0.77712 0.77712 0.77425 0.76787 0.76513 0.76425 0.76425 0.76338 0.76338 0.7615 0.75975 0.75625 0.75625 0.75625 0.75538 0.7535 0.75175 0.74838 0.74662 0.74487 0.74313 0.74238 0.73813 0.73638 0.73475 0.73313 0.73313 0.73313 0.73062 0.72813 0.72813 0.72813 0.72737 0.72575 0.72488 0.72325 0.72 0.71925 0.716 0.71288 0.71213 0.71137 0.71213 0.71288 0.71137 0.7105 0.70825 0.70513 0.70362 0.70212 0.69975 0.69825 0.69825 0.6945 0.69312 0.69012 0.69012 0.68937 0.68788 0.68788 0.6865 0.6835 0.68288 0.68288 0.68288 0.68212 0.68137 0.68137 0.68063 0.67712 0.67575 0.67425 0.66263 0.66325 0.66325 0.66187 0.66187 0.66187 0.65987 0.65987 0.65925 0.65787 0.65725 0.65587 0.65525 0.6545 0.6525 0.65187 0.65187 0.65187 0.65125 0.65063 0.64863 0.64863 0.64675 0.646 0.646 0.64538 0.64412 0.6435 0.64163 0.64087 0.64163 0.64163 0.64163 0.64025 0.63838 0.6365 0.63213 0.6315 0.63087 0.626 0.62487 0.62487 0.623 0.6225 0.6225 0.62187 0.62125 0.62187 0.62125 0.62062 0.61775 0.61775 0.61713 0.61475 0.61125 0.6095 0.60675 0.60675 0.60613 0.60437 0.60437 0.60388 0.60275 0 0 0.5225 0.52212 0.52125 0.52038 0.52038 0.52 0.5195 0.51912 0.51825 0.51787 0.5175 0.51625 0.51587 0.51538 0.51425 0.51375 0.513 0.51262 0.51213 0.511 0.50975 0.509 0.50775 0.50413 0.50262 0.50025 0.4995 0.49912 0.49838 0.498 0.49725 0.49612 0.49575 0.49575 0.49488 0.49488 0.4945 0.493 0.49262 0.49225 0.49338 0.48525 0.48562 0.48525 0.48525 0.48488 0.48462 0.48425 0.48387 0.48387 0.48387 0.48387 0.48387 0.48275 0.482 0.48163 0.47987 0.4795 0.47887 0.47775 0.47713 0.47637 0.475 0.475 0.475 0.475 0.47463 0.47325 0.47287 0.47225 0.4695 0.4685 0.46813 0.46737 0.46637 0.46537 0.46475 0.46437 0.46437 0.46437 0.46375 0.46275 0.46213 0.46175 0.46013 0.4595 0.45887 0.45813 0.45787 0.45725 0.45625 0.45563 0.45275 0.45238 0.45175 0.4515 0.45088 0.45088 0.4505 0.45112 0.45112 0.45088 0.4505 0.4505 0.4505 0.44988 0.45025 0.45025 0.44162 0.44038 0.43975 0.43888
1.0225 1.0225 1.0225 1.0192 1.0161 1.0129 1.0112 0.97925 0.97775 0.97625 0.97625 0.97625 0.97625 0.97325 0.97325 0.97037 0.96888 0.9675 0.9675 0.96313 0.96025 0.9575 0.9505 0.94763 0.94625 0.94763 0.94763 0.949 0.94625 0.9435 0.938 0.934 0.93 0.92725 0.93 0.926 0.91812 0.91425 0.91163 0.91287 0.9155 0.9155 0.91675 0.9155 0.91038 0.91038 0.90912 0.9065 0.904 0.904 0.9015 0.90025 0.894 0.8915 0.89038 0.883 0.8795 0.87587 0.86887 0.8665 0.86413 0.85962 0.85737 0.85388 0.85062 0.85062 0.85162 0.85162 0.85162 0.8495 0.84725 0.84613 0.84288 0.84175 0.84175 0.84175 0.84062 0.8385 0.8385 0.83737 0.83737 0.83737 0.83625 0.832 0.82988 0.82875 0.82463 0.8235 0.82137 0.81837 0.81625 0.81312 0.81312 0.81525 0.81212 0.81112 0.80912 0.80212 0.79912 0.79525 0.79038 0.7875 0.7865 0.78463 0.78363 0.78363 0.78363 0.78175 0.77987 0.779 0.779 0.778 0.779 0.77525 0.76963 0.766 0.76425 0.76425 0.76425 0.76238 0.7615 0.75975 0.75713 0.75625 0.75625 0.75438 0.7535 0.75262 0.75013 0.7475 0.74662 0.74487 0.744 0.73975 0.73813 0.73638 0.73475 0.73388 0.73388 0.73062 0.729 0.729 0.72813 0.72813 0.72488 0.72413 0.7225 0.72088 0.71925 0.71688 0.71288 0.71213 0.71213 0.71213 0.71375 0.71137 0.70975 0.70825 0.70588 0.70437 0.70288 0.70063 0.699 0.69825 0.696 0.69375 0.69163 0.69088 0.69012 0.68863 0.68712 0.6865 0.68288 0.68288 0.68288 0.68212 0.68212 0.68137 0.68 0.67925 0.6785 0.67712 0.67575 0.66263 0.66325 0.66325 0.66325 0.66263 0.66187 0.66125 0.65987 0.65987 0.65787 0.65725 0.65587 0.65525 0.6545 0.6525 0.65125 0.65187 0.65187 0.65125 0.65063 0.64863 0.64863 0.64675 0.64738 0.64738 0.64538 0.64538 0.64475 0.64225 0.64163 0.64225 0.64225 0.64225 0.64025 0.63775 0.63587 0.63275 0.6315 0.63038 0.62662 0.62487 0.62487 0.623 0.623 0.6225 0.62187 0.62125 0.62125 0.62187 0.62125 0.61825 0.61825 0.61825 0.61587 0.61413 0.61125 0.60788 0.60675 0.60613 0.60388 0.60275 0.60275 0.60275 0 0 0.5225 0.52163 0.52075 0.52038 0.52 0.52038 0.52 0.51912 0.51912 0.51787 0.51787 0.51712 0.51712 0.51663 0.51538 0.515 0.51375 0.513 0.51213 0.51138 0.509 0.50775 0.507 0.50413 0.503 0.50025 0.4995 0.49875 0.49762 0.49725 0.49688 0.49612 0.49612 0.49612 0.49575 0.49575 0.49488 0.4945 0.49375 0.49375 0.493 0.48525 0.48525 0.48562 0.48525 0.48462 0.48462 0.48462 0.48387 0.48387 0.4835 0.48387 0.48387 0.48313 0.48275 0.48163 0.48025 0.47987 0.47913 0.47813 0.47737 0.47675 0.47537 0.475 0.475 0.47463 0.47463 0.47363 0.47325 0.4725 0.47013 0.46975 0.46875 0.46737 0.46675 0.46613 0.46475 0.46475 0.46513 0.46475 0.46475 0.46313 0.46275 0.46237 0.4605 0.4595 0.45887 0.45787 0.4575 0.45687 0.45525 0.45425 0.45275 0.45238 0.45212 0.4515 0.45112 0.45088 0.4505 0.45112 0.45112 0.4505 0.44988 0.44962 0.44962 0.44925 0.44962 0.45025 0.44162 0.44012 0.43975 0.43888
1.0241 1.0241 1.0241 1.0209 1.0176 1.0145 1.0129 0.98362 0.98062 0.97925 0.97925 0.97775 0.97925 0.97625 0.97475 0.97325 0.97188 0.97037 0.96888 0.966 0.96462 0.96175 0.95325 0.949 0.94763 0.94763 0.94763 0.949 0.94763 0.94625 0.9435 0.94212 0.938 0.93675 0.938 0.934 0.926 0.91938 0.9155 0.9155 0.9155 0.91675 0.91675 0.9155 0.91038 0.91038 0.90912 0.9065 0.904 0.90525 0.9015 0.899 0.8965 0.89275 0.89038 0.8855 0.88187 0.87713 0.87 0.8665 0.86538 0.863 0.86075 0.8585 0.85275 0.85162 0.85275 0.85388 0.85275 0.8495 0.84725 0.84613 0.84388 0.84288 0.84388 0.84175 0.84062 0.8385 0.8385 0.83737 0.83737 0.8385 0.83737 0.833 0.83088 0.82988 0.82663 0.82463 0.8225 0.81837 0.81725 0.81312 0.81425 0.81425 0.81312 0.81112 0.80912 0.80312 0.79912 0.79525 0.78938 0.7865 0.7865 0.78463 0.78363 0.78463 0.78363 0.78275 0.78087 0.77987 0.77987 0.779 0.77987 0.77712 0.7715 0.767 0.766 0.76513 0.76425 0.76238 0.75975 0.75975 0.75625 0.75625 0.75538 0.75538 0.7535 0.75262 0.75175 0.75087 0.75087 0.75013 0.74925 0.74487 0.74313 0.7415 0.739 0.73813 0.73725 0.73313 0.73225 0.73137 0.73062 0.72975 0.72737 0.72575 0.72575 0.72325 0.7225 0.72 0.716 0.7145 0.71288 0.71213 0.71288 0.71137 0.70975 0.70825 0.70588 0.70437 0.70362 0.70063 0.69975 0.69975 0.6975 0.6945 0.69312 0.69237 0.69088 0.68937 0.68712 0.68712 0.6835 0.68288 0.68288 0.68212 0.68137 0.68137 0.67925 0.67788 0.6785 0.68063 0.67925 0.67225 0.67012 0.66875 0.66738 0.66663 0.66525 0.66325 0.66187 0.66187 0.65987 0.65925 0.65725 0.6565 0.65587 0.65325 0.6525 0.6525 0.6525 0.65187 0.65125 0.64987 0.64987 0.64738 0.64738 0.648 0.648 0.64675 0.646 0.6435 0.64225 0.6435 0.64225 0.64287 0.63962 0.63775 0.63587 0.63338 0.63213 0.63038 0.626 0.6255 0.62487 0.623 0.623 0.623 0.62187 0.62125 0.62125 0.62187 0.62187 0.62062 0.62062 0.62 0.61775 0.61587 0.61238 0.6095 0.60788 0.60675 0.60437 0.60325 0.60275 0.60275 0 0 0.5225 0.52212 0.52075 0.52038 0.52 0.52038 0.52 0.5195 0.5195 0.51825 0.51825 0.51712 0.5175 0.5175 0.51587 0.51538 0.51425 0.513 0.51213 0.511 0.5085 0.50775 0.50738 0.50462 0.50338 0.50113 0.50025 0.49912 0.498 0.49725 0.4965 0.49612 0.49688 0.49725 0.49725 0.49725 0.49688 0.49688 0.4965 0.49612 0.49612 0.486 0.48525 0.48525 0.48562 0.48488 0.48462 0.48488 0.48462 0.48462 0.48387 0.48387 0.48425 0.4835 0.48313 0.48275 0.48137 0.48063 0.47987 0.47887 0.47775 0.47675 0.47537 0.475 0.475 0.475 0.47463 0.47387 0.47363 0.47325 0.47087 0.47013 0.4695 0.46813 0.46737 0.46675 0.46575 0.46537 0.46537 0.46513 0.46513 0.46413 0.46375 0.46313 0.46113 0.46013 0.45913 0.45813 0.45787 0.45725 0.455 0.45363 0.45275 0.45275 0.45212 0.45175 0.45112 0.45112 0.45088 0.45175 0.45112 0.45025 0.44962 0.44925 0.449 0.44925 0.449 0.45025 0.445 0.44225 0.441 0.4395
1.0241 1.0241 1.0225 1.0209 1.0176 1.0129 1.0081 0.97925 0.98062 0.97925 0.97925 0.97775 0.97775 0.97775 0.97625 0.97325 0.97188 0.97037 0.96888 0.966 0.96313 0.96175 0.95462 0.9505 0.949 0.949 0.9505 0.949 0.949 0.949 0.94488 0.94212 0.938 0.93675 0.93675 0.934 0.926 0.92075 0.91675 0.91812 0.91812 0.91675 0.91675 0.9155 0.91163 0.91038 0.90912 0.9065 0.90525 0.90525 0.90275 0.90025 0.8965 0.89275 0.8915 0.88425 0.88062 0.87713 0.87 0.86762 0.8665 0.86413 0.863 0.85962 0.85388 0.85388 0.85388 0.855 0.85388 0.8495 0.84613 0.845 0.84288 0.84175 0.84388 0.84175 0.8395 0.8385 0.83737 0.8385 0.83737 0.83737 0.83625 0.832 0.83088 0.82875 0.82663 0.82463 0.8225 0.81937 0.81725 0.81525 0.81525 0.81525 0.81425 0.81212 0.81012 0.80212 0.79812 0.79425 0.7875 0.7855 0.78463 0.78463 0.78363 0.78363 0.78363 0.78175 0.78087 0.77987 0.78087 0.779 0.779 0.77712 0.7715 0.767 0.766 0.76513 0.76425 0.7615 0.76062 0.75887 0.75713 0.75625 0.75625 0.75438 0.75438 0.7535 0.75175 0.75013 0.75013 0.75013 0.74838 0.74487 0.74313 0.7415 0.739 0.73813 0.73638 0.73475 0.73388 0.73225 0.73225 0.73062 0.72813 0.7265 0.72575 0.72488 0.72413 0.72162 0.71762 0.716 0.71375 0.71213 0.71288 0.71213 0.7105 0.70825 0.70588 0.70437 0.70362 0.70063 0.69975 0.69975 0.6975 0.69525 0.69312 0.69312 0.69237 0.68937 0.68863 0.68788 0.6835 0.6835 0.68288 0.68212 0.68137 0.68137 0.67925 0.6785 0.6785 0.68 0.67925 0.67288 0.67075 0.67012 0.66875 0.668 0.66738 0.66387 0.66263 0.66263 0.66125 0.66125 0.65925 0.65787 0.6565 0.65387 0.65387 0.65325 0.6525 0.6525 0.65125 0.64987 0.64987 0.64738 0.64738 0.648 0.648 0.64738 0.64675 0.6435 0.64287 0.64287 0.64225 0.64225 0.639 0.63713 0.63525 0.634 0.63213 0.63038 0.62725 0.6255 0.62487 0.623 0.623 0.6225 0.62125 0.62062 0.62062 0.62125 0.62062 0.62062 0.62 0.62 0.61713 0.61538 0.613 0.6095 0.60837 0.60675 0.60437 0.60325 0.60275 0.60275 0.60437 0.60437 0.5225 0.52212 0.52038 0.52038 0.52038 0.52038 0.52 0.5195 0.51912 0.51875 0.51825 0.5175 0.51712 0.51712 0.51625 0.51538 0.51462 0.513 0.51213 0.51138 0.509 0.50775 0.507 0.50462 0.50338 0.5015 0.50025 0.4995 0.498 0.49762 0.4965 0.4965 0.49725 0.49725 0.49762 0.49762 0.49762 0.49762 0.49762 0.49688 0.49725 0.49538 0.486 0.48562 0.486 0.48525 0.48525 0.48525 0.48462 0.48462 0.48425 0.48387 0.48425 0.4835 0.48313 0.48275 0.482 0.481 0.48063 0.47887 0.47775 0.47675 0.47563 0.47563 0.475 0.475 0.47463 0.47387 0.47363 0.47325 0.4715 0.4705 0.47013 0.4685 0.46813 0.46737 0.46637 0.46613 0.46575 0.46575 0.46537 0.46475 0.46413 0.46337 0.46137 0.4605 0.45975 0.4585 0.45787 0.45725 0.45525 0.45363 0.453 0.45275 0.45238 0.45175 0.4515 0.45088 0.4505 0.4515 0.45112 0.44962 0.449 0.44862 0.449 0.44862 0.449 0.44775 0.444 0.4425 0.44075 0.43888
1.0241 1.0257 1.0241 1.0209 1.0176 1.0112 1.0097 0.97925 0.98062 0.98062 0.98062 0.98062 0.98062 0.97925 0.97625 0.97625 0.97188 0.97188 0.97037 0.96888 0.966 0.96313 0.956 0.95325 0.95325 0.9505 0.95188 0.95188 0.949 0.949 0.94488 0.94212 0.93675 0.93537 0.934 0.93125 0.92337 0.91938 0.91938 0.91938 0.92075 0.91938 0.91812 0.9155 0.91287 0.91163 0.91038 0.90775 0.9065 0.904 0.90025 0.89775 0.894 0.8915 0.88913 0.88187 0.87825 0.8735 0.86887 0.86762 0.8665 0.86538 0.86538 0.86187 0.85625 0.855 0.855 0.855 0.85388 0.84613 0.84388 0.84288 0.84062 0.8395 0.84062 0.84175 0.8395 0.8385 0.83625 0.83737 0.83625 0.83625 0.83525 0.83088 0.82875 0.82663 0.82563 0.8235 0.8225 0.81937 0.81837 0.81625 0.81625 0.81725 0.81525 0.81425 0.81112 0.80212 0.79712 0.79325 0.7875 0.78463 0.78363 0.78363 0.78363 0.78275 0.78275 0.78175 0.78087 0.77987 0.77987 0.779 0.77987 0.77712 0.7715 0.76875 0.766 0.766 0.766 0.76238 0.7615 0.76062 0.758 0.75713 0.75713 0.75438 0.75262 0.75262 0.75175 0.75087 0.75087 0.75087 0.74925 0.74575 0.744 0.74313 0.739 0.739 0.73725 0.73388 0.73388 0.73313 0.73225 0.73062 0.729 0.72813 0.72737 0.72575 0.72488 0.72325 0.72 0.7185 0.716 0.71288 0.71375 0.71288 0.71213 0.70975 0.70662 0.70513 0.70362 0.70212 0.70137 0.70137 0.699 0.6975 0.69675 0.696 0.69525 0.69237 0.69012 0.68937 0.685 0.685 0.685 0.68288 0.68212 0.68137 0.68 0.67925 0.67925 0.67925 0.6785 0.67425 0.67225 0.6715 0.67012 0.67012 0.66938 0.666 0.66525 0.66463 0.66325 0.66325 0.66187 0.6605 0.65925 0.65587 0.65587 0.65587 0.6545 0.65387 0.65325 0.65125 0.65125 0.648 0.64738 0.64738 0.64675 0.64675 0.646 0.6435 0.64225 0.64225 0.64163 0.64087 0.63838 0.63713 0.63525 0.63338 0.63275 0.63087 0.62725 0.626 0.6255 0.62362 0.623 0.6225 0.62062 0.6195 0.62 0.62 0.6195 0.6195 0.61887 0.61887 0.61538 0.61413 0.61238 0.6095 0.60837 0.60675 0.60437 0.60388 0.60213 0.60275 0.60388 0.60437 0.5225 0.52287 0.52 0.5195 0.52038 0.52 0.51912 0.51875 0.51825 0.51787 0.5175 0.51663 0.51663 0.51663 0.51625 0.515 0.51462 0.51338 0.51262 0.51175 0.50938 0.50813 0.50738 0.50538 0.50413 0.50225 0.5015 0.50025 0.49838 0.498 0.49725 0.49688 0.49838 0.49838 0.49838 0.49838 0.49838 0.49838 0.49838 0.49762 0.49725 0.49575 0.486 0.48638 0.48675 0.48638 0.486 0.48562 0.48525 0.48488 0.48488 0.48425 0.48425 0.48387 0.48387 0.4835 0.48313 0.48313 0.48237 0.47813 0.47713 0.47675 0.47563 0.47537 0.47537 0.475 0.47463 0.47425 0.47387 0.47363 0.47187 0.47113 0.47113 0.46975 0.46913 0.4685 0.46713 0.46675 0.46613 0.46537 0.46513 0.46437 0.46413 0.46375 0.46213 0.46075 0.45975 0.4585 0.45787 0.45725 0.45563 0.45463 0.45337 0.45337 0.453 0.45212 0.4515 0.45025 0.44988 0.45088 0.4505 0.449 0.44838 0.448 0.448 0.448 0.448 0.44712 0.44525 0.44275 0.44188 0.43712
1.0257 1.0257 1.0241 1.0225 1.0176 1.0112 1.0112 0.98362 0.98362 0.98362 0.98213 0.98362 0.98213 0.98062 0.97925 0.97775 0.97325 0.97325 0.97188 0.9675 0.9675 0.96462 0.9575 0.95462 0.95325 0.95325 0.95188 0.95188 0.9505 0.9505 0.94488 0.94075 0.93537 0.934 0.93263 0.93 0.922 0.91812 0.91812 0.92075 0.92075 0.92075 0.91938 0.9155 0.91425 0.91163 0.91038 0.9065 0.90525 0.904 0.89775 0.8965 0.89275 0.89038 0.88787 0.8795 0.87475 0.87238 0.86762 0.86538 0.86538 0.86538 0.86413 0.86075 0.85625 0.855 0.855 0.85388 0.85275 0.84613 0.84388 0.84288 0.8385 0.8385 0.84062 0.84062 0.8395 0.83737 0.83737 0.83625 0.83525 0.83525 0.83413 0.82988 0.82663 0.82663 0.82463 0.8235 0.8225 0.81937 0.81937 0.81625 0.81725 0.81725 0.81525 0.81425 0.81212 0.80312 0.79712 0.79425 0.78838 0.7855 0.78463 0.78275 0.78275 0.78363 0.78175 0.78087 0.78087 0.77987 0.77987 0.77987 0.779 0.77612 0.7715 0.76963 0.767 0.766 0.766 0.76338 0.7615 0.76062 0.75887 0.758 0.75713 0.75438 0.75262 0.75262 0.75262 0.75175 0.75175 0.75087 0.75013 0.74575 0.744 0.74313 0.73975 0.739 0.73725 0.73313 0.73225 0.73225 0.73137 0.72975 0.729 0.72813 0.72737 0.72575 0.72413 0.72325 0.72088 0.71925 0.71688 0.7145 0.71525 0.71375 0.71213 0.70975 0.70662 0.70588 0.70437 0.70288 0.70288 0.70288 0.69975 0.699 0.6975 0.6975 0.6975 0.69312 0.69088 0.68937 0.6865 0.68575 0.685 0.6835 0.68288 0.68137 0.68 0.68 0.67925 0.6785 0.6785 0.67425 0.67225 0.6715 0.67012 0.67012 0.66938 0.66663 0.66525 0.66525 0.66387 0.66387 0.66263 0.66187 0.65987 0.65725 0.65725 0.6565 0.65587 0.65525 0.65387 0.65187 0.65125 0.648 0.64738 0.64675 0.646 0.64538 0.64538 0.64287 0.64163 0.64163 0.64163 0.64087 0.63962 0.6365 0.63525 0.63275 0.6315 0.63087 0.62725 0.626 0.6255 0.62362 0.623 0.62187 0.62 0.61887 0.62 0.61887 0.61887 0.61825 0.61775 0.61775 0.61475 0.61238 0.61125 0.6095 0.60837 0.60675 0.60388 0.60325 0.60213 0.60213 0.60325 0.60325 0 0 0.51912 0.5195 0.52 0.52 0.51875 0.51825 0.51787 0.51712 0.51712 0.51663 0.51712 0.51712 0.51625 0.51538 0.51425 0.51338 0.513 0.51175 0.50938 0.50813 0.50775 0.50613 0.50538 0.50338 0.50225 0.50113 0.49875 0.498 0.49762 0.49725 0.49838 0.49838 0.49875 0.49875 0.49875 0.49838 0.49838 0.498 0.49725 0.49612 0.48638 0.48675 0.48712 0.48675 0.48675 0.48638 0.48562 0.48525 0.48488 0.48462 0.4835 0.4835 0.48425 0.48387 0.48425 0.48387 0.48313 0.476 0.47637 0.47637 0.476 0.47537 0.475 0.475 0.47463 0.47425 0.47387 0.47363 0.47225 0.47187 0.4715 0.47013 0.46975 0.46913 0.46713 0.46675 0.46575 0.46537 0.46475 0.46375 0.46337 0.46337 0.46213 0.46113 0.46013 0.45813 0.45787 0.45725 0.45563 0.45463 0.45363 0.45337 0.453 0.45212 0.4515 0.44988 0.44925 0.4505 0.44988 0.449 0.44838 0.448 0.448 0.448 0.448 0.44738 0.44525 0.44338 0.44275 0.44125
1.0257 1.0257 1.0257 1.0225 1.0192 1.0129 1.0112 0.98362 0.98513 0.98362 0.98362 0.98362 0.98513 0.98213 0.98062 0.97925 0.97475 0.97325 0.97188 0.96888 0.9675 0.966 0.9575 0.95462 0.95462 0.95325 0.95462 0.95325 0.95188 0.9505 0.9435 0.94075 0.93537 0.93263 0.93263 0.92863 0.92075 0.91675 0.91812 0.92075 0.92075 0.91938 0.91938 0.91812 0.91287 0.91287 0.91038 0.90775 0.90525 0.904 0.899 0.8965 0.89275 0.89038 0.88662 0.87825 0.87475 0.87238 0.86762 0.8665 0.8665 0.86538 0.86538 0.86187 0.85625 0.85625 0.855 0.855 0.85388 0.84613 0.84288 0.84175 0.8385 0.83737 0.8385 0.8385 0.83737 0.83525 0.83525 0.83525 0.83413 0.832 0.83088 0.82875 0.82775 0.82463 0.8225 0.82137 0.82137 0.81725 0.81725 0.81525 0.81525 0.81425 0.81425 0.81312 0.81212 0.80312 0.79712 0.79425 0.78838 0.7855 0.7855 0.78363 0.78363 0.78363 0.78363 0.78175 0.78175 0.78175 0.78087 0.77987 0.77987 0.77612 0.7715 0.77063 0.76875 0.767 0.766 0.76338 0.76238 0.7615 0.75887 0.758 0.75713 0.7535 0.75175 0.75175 0.75262 0.75262 0.75262 0.75087 0.75013 0.74487 0.74313 0.74313 0.73975 0.73813 0.73725 0.73313 0.73225 0.73225 0.73137 0.73062 0.72813 0.72813 0.72737 0.72575 0.72488 0.72325 0.72088 0.71925 0.71688 0.7145 0.71525 0.71375 0.71213 0.7105 0.70662 0.70662 0.70588 0.70288 0.70288 0.70288 0.70137 0.69975 0.69825 0.69825 0.69825 0.69312 0.69163 0.69012 0.68712 0.68575 0.685 0.68425 0.68288 0.68212 0.68137 0.68063 0.67925 0.67925 0.6785 0.675 0.67363 0.67225 0.6715 0.6715 0.67012 0.66738 0.666 0.66463 0.66463 0.66387 0.66187 0.66187 0.65987 0.6585 0.65787 0.65725 0.65587 0.6545 0.65387 0.65125 0.65063 0.64675 0.64675 0.646 0.646 0.64538 0.64475 0.64225 0.64087 0.64087 0.64025 0.63962 0.639 0.63713 0.63525 0.63338 0.63213 0.6315 0.62662 0.6255 0.62487 0.62362 0.62362 0.6225 0.62062 0.6195 0.6195 0.6195 0.61887 0.61887 0.61825 0.61775 0.61475 0.61362 0.61238 0.6095 0.60837 0.60725 0.60437 0.60325 0.60162 0.60213 0.60162 0.60162 0 0 0.51912 0.5195 0.5195 0.5195 0.51825 0.51825 0.51787 0.5175 0.51712 0.51663 0.51712 0.5175 0.51625 0.51538 0.51462 0.51375 0.513 0.51213 0.50938 0.50813 0.50813 0.507 0.50575 0.50375 0.50262 0.5015 0.4995 0.49912 0.49912 0.49912 0.4995 0.4995 0.49912 0.49912 0.49875 0.49912 0.49912 0.49838 0.49762 0.49612 0.48638 0.4875 0.4875 0.4875 0.48712 0.48675 0.48638 0.486 0.48562 0.48488 0.48425 0.48425 0.48425 0.48425 0.48425 0.48462 0.4835 0.47637 0.47675 0.47675 0.476 0.47537 0.475 0.47463 0.475 0.47387 0.47387 0.47363 0.4725 0.4715 0.4715 0.47013 0.4695 0.46875 0.46675 0.46613 0.46437 0.46375 0.46313 0.46237 0.46237 0.46275 0.46113 0.4595 0.45887 0.45813 0.45813 0.4575 0.45587 0.455 0.454 0.454 0.45363 0.45275 0.45175 0.45025 0.44925 0.44925 0.44925 0.44838 0.44775 0.44775 0.44738 0.44738 0.4465 0.44588 0.44525 0.44375 0.44338 0.44275
1.029 1.029 1.0257 1.0241 1.0209 1.0145 1.0112 1.005 0.98962 0.98513 0.98513 0.98513 0.98662 0.98362 0.98213 0.98062 0.97625 0.97475 0.97188 0.97188 0.96888 0.96888 0.96175 0.96025 0.9575 0.956 0.9575 0.95462 0.95325 0.9505 0.94488 0.94075 0.93675 0.934 0.934 0.93 0.92337 0.92075 0.92075 0.922 0.922 0.922 0.92075 0.92075 0.91675 0.9155 0.91287 0.90912 0.9065 0.90525 0.9015 0.90025 0.89275 0.89038 0.88662 0.87825 0.87587 0.8735 0.86887 0.86887 0.86762 0.8665 0.8665 0.86413 0.8585 0.85625 0.85737 0.85625 0.855 0.8495 0.84725 0.84388 0.84062 0.8385 0.8385 0.83737 0.83737 0.83525 0.83525 0.83413 0.833 0.832 0.83088 0.82775 0.82663 0.82463 0.8225 0.82137 0.82137 0.81725 0.81725 0.81525 0.81425 0.81425 0.81212 0.81112 0.80912 0.80212 0.79712 0.79425 0.78838 0.7855 0.7865 0.7855 0.7865 0.7855 0.7855 0.78463 0.78363 0.78363 0.78275 0.78275 0.78175 0.778 0.77338 0.7715 0.77063 0.76963 0.76787 0.76513 0.76338 0.76238 0.75975 0.75887 0.758 0.7535 0.75087 0.75175 0.75087 0.75175 0.75087 0.75013 0.74838 0.744 0.74313 0.74238 0.74062 0.739 0.73813 0.73475 0.73313 0.73313 0.73225 0.73137 0.72975 0.729 0.729 0.7265 0.72575 0.72488 0.72162 0.72 0.71762 0.71525 0.716 0.71288 0.71288 0.71137 0.70825 0.70662 0.70662 0.70437 0.70362 0.70362 0.70212 0.70063 0.69975 0.699 0.69825 0.6945 0.69312 0.69237 0.68863 0.68712 0.6865 0.685 0.6835 0.6835 0.68212 0.68212 0.67925 0.67925 0.6785 0.67637 0.67575 0.675 0.67363 0.67288 0.67225 0.66875 0.66738 0.666 0.66525 0.66387 0.66187 0.66187 0.6605 0.65925 0.65925 0.6585 0.65587 0.6545 0.65387 0.65187 0.65063 0.648 0.64675 0.646 0.64538 0.64475 0.64475 0.64163 0.64025 0.64025 0.64025 0.63962 0.639 0.6365 0.63525 0.63462 0.63338 0.63275 0.62725 0.626 0.626 0.62487 0.62425 0.623 0.6225 0.62125 0.62062 0.62 0.6195 0.61887 0.61825 0.61775 0.61538 0.61413 0.613 0.61013 0.60837 0.60675 0.60325 0.60275 0.6005 0.6005 0.6 0.60162 0 0 0.5195 0.52 0.52075 0.52038 0.5195 0.51912 0.51875 0.51875 0.51825 0.5175 0.5175 0.5175 0.51663 0.51587 0.51538 0.51425 0.51338 0.51262 0.51013 0.509 0.5085 0.507 0.50613 0.50375 0.503 0.50187 0.50025 0.50113 0.50262 0.50225 0.5015 0.5015 0.50062 0.50062 0.50025 0.50025 0.50025 0.498 0.49688 0.49612 0.489 0.489 0.489 0.48862 0.48825 0.48788 0.4875 0.48712 0.48675 0.486 0.48488 0.48525 0.48562 0.48562 0.48525 0.48488 0.48425 0.47775 0.47775 0.47675 0.47675 0.47563 0.47537 0.475 0.47537 0.47463 0.47463 0.47425 0.47287 0.4725 0.47225 0.4705 0.46975 0.46875 0.46675 0.46575 0.46437 0.46375 0.46337 0.46237 0.46213 0.46213 0.4605 0.45913 0.4585 0.4585 0.45887 0.45787 0.45687 0.45725 0.45525 0.45525 0.455 0.45363 0.45275 0.45112 0.44962 0.449 0.44925 0.44675 0.44675 0.4465 0.44712 0.44675 0.44612 0.44588 0.4455 0.44462 0.44462 0.44462
1.029 1.029 1.0257 1.0241 1.0209 1.0145 1.0112 1.005 0.98962 0.98362 0.98513 0.98513 0.98662 0.98362 0.98213 0.98062 0.97775 0.97625 0.97325 0.97325 0.97325 0.97188 0.966 0.966 0.9575 0.95888 0.96175 0.95462 0.95188 0.949 0.94212 0.93937 0.93537 0.93125 0.93537 0.93125 0.92863 0.926 0.922 0.922 0.92337 0.92337 0.92337 0.92075 0.91938 0.91675 0.9155 0.90912 0.90775 0.9065 0.90275 0.90025 0.89525 0.8915 0.88662 0.87825 0.87587 0.87238 0.86887 0.86762 0.86762 0.8665 0.86538 0.86413 0.8585 0.85737 0.85737 0.85737 0.855 0.85162 0.8495 0.84613 0.84062 0.8385 0.8395 0.8385 0.83737 0.83413 0.83413 0.83413 0.832 0.83088 0.82988 0.82775 0.82563 0.82463 0.8225 0.8225 0.82037 0.81837 0.81837 0.81525 0.81425 0.81312 0.81012 0.80912 0.80612 0.80012 0.79612 0.79425 0.78838 0.7865 0.7865 0.7865 0.7865 0.7865 0.7855 0.7855 0.78463 0.78463 0.78363 0.78363 0.78275 0.77987 0.77425 0.77338 0.77063 0.76963 0.76875 0.76513 0.76425 0.76338 0.75975 0.75887 0.758 0.7535 0.75087 0.75013 0.74925 0.74925 0.74925 0.7475 0.74575 0.744 0.74313 0.74238 0.74062 0.73975 0.73813 0.73562 0.73388 0.73388 0.73388 0.73225 0.72975 0.72975 0.729 0.7265 0.72575 0.72488 0.7225 0.72088 0.7185 0.71525 0.71525 0.71375 0.71213 0.71213 0.70825 0.7075 0.70588 0.70513 0.70437 0.70437 0.70288 0.70137 0.69975 0.69975 0.69825 0.69525 0.69375 0.69312 0.68937 0.68788 0.68788 0.68575 0.685 0.685 0.68288 0.68288 0.67925 0.67925 0.67925 0.67637 0.67575 0.675 0.67363 0.67288 0.67225 0.66938 0.668 0.666 0.66525 0.66463 0.66187 0.66187 0.65987 0.65987 0.6585 0.6585 0.65587 0.65525 0.65387 0.65187 0.65125 0.64863 0.64738 0.64675 0.64538 0.64475 0.6435 0.64163 0.64025 0.63962 0.63962 0.63962 0.63775 0.63587 0.63462 0.634 0.63338 0.63213 0.62787 0.62662 0.62662 0.6255 0.62425 0.62362 0.623 0.62187 0.62 0.62062 0.62 0.61887 0.61825 0.61775 0.61538 0.61413 0.613 0.6095 0.60837 0.60613 0.60213 0.60113 0.59937 0.59775 0.59713 0.58737 0.58688 0 0.52125 0.52125 0.52125 0.52125 0.52038 0.52 0.52 0.5195 0.51912 0.5175 0.5175 0.51787 0.51712 0.51663 0.51587 0.51462 0.51375 0.513 0.511 0.509 0.50813 0.5065 0.50538 0.50338 0.50262 0.50187 0.50025 0.5015 0.50375 0.50375 0.50262 0.50187 0.50113 0.5015 0.50062 0.50062 0.50062 0.4965 0.49575 0.49575 0.48825 0.489 0.489 0.489 0.48825 0.48825 0.48788 0.4875 0.48675 0.486 0.48525 0.48525 0.486 0.486 0.48525 0.48488 0.48462 0.48425 0.48425 0.47775 0.47713 0.476 0.47537 0.47537 0.47563 0.475 0.47463 0.47463 0.47325 0.47287 0.47287 0.47113 0.4705 0.46913 0.46713 0.46575 0.46413 0.46375 0.46337 0.46275 0.46213 0.46137 0.4595 0.45913 0.45887 0.4585 0.45887 0.45813 0.45787 0.4585 0.4565 0.45587 0.45563 0.45425 0.45363 0.45212 0.4505 0.44988 0.44438 0.445 0.44525 0.4455 0.44612 0.44612 0.44612 0.44612 0.4455 0.44525 0.44525 0.4455
1.0339 1.0306 1.029 1.0241 1.0209 1.0129 1.0081 1.0004 0.98962 0.98513 0.98362 0.98662 0.98662 0.98513 0.98362 0.98213 0.97925 0.97775 0.97475 0.97475 0.97625 0.97475 0.97037 0.9675 0.96313 0.96313 0.96462 0.9575 0.95325 0.94763 0.94075 0.93675 0.934 0.93 0.93 0.92725 0.92463 0.92337 0.92075 0.92075 0.92337 0.92337 0.92337 0.92075 0.91938 0.91675 0.9155 0.91038 0.90775 0.9065 0.904 0.90275 0.89525 0.8915 0.88787 0.87825 0.87475 0.87238 0.86762 0.8665 0.8665 0.86538 0.86538 0.86413 0.85962 0.85737 0.8585 0.85737 0.85625 0.85275 0.8495 0.84837 0.84388 0.84062 0.84175 0.8385 0.83737 0.83413 0.83413 0.83413 0.83088 0.82988 0.82875 0.82663 0.82563 0.82463 0.8225 0.8225 0.82037 0.81937 0.81837 0.81525 0.81425 0.81312 0.80812 0.80612 0.80412 0.79912 0.79612 0.79425 0.78938 0.7875 0.7865 0.7875 0.7875 0.7875 0.7865 0.7865 0.7855 0.7855 0.78463 0.78363 0.78463 0.78087 0.77612 0.77338 0.7715 0.77063 0.76875 0.766 0.76513 0.76338 0.75975 0.75887 0.75887 0.75438 0.75175 0.74925 0.74838 0.74838 0.7475 0.74662 0.74487 0.74313 0.74238 0.74238 0.7415 0.7415 0.739 0.73638 0.73562 0.73475 0.73388 0.73225 0.73137 0.72975 0.729 0.72737 0.72575 0.72575 0.72325 0.72162 0.716 0.71525 0.71525 0.71375 0.71213 0.71137 0.70825 0.7075 0.70662 0.70588 0.70513 0.70513 0.70362 0.70212 0.69975 0.699 0.699 0.69525 0.6945 0.69375 0.69012 0.68863 0.68863 0.6865 0.68575 0.685 0.68288 0.68288 0.68 0.67925 0.6785 0.67712 0.67575 0.675 0.67425 0.67363 0.67225 0.66938 0.668 0.66663 0.66525 0.66463 0.66263 0.66187 0.6605 0.65925 0.65925 0.6585 0.6565 0.65587 0.6545 0.6525 0.65125 0.64925 0.648 0.64675 0.646 0.64538 0.6435 0.64087 0.64025 0.63962 0.63962 0.639 0.63775 0.63525 0.63462 0.634 0.63338 0.63213 0.62975 0.6285 0.6285 0.626 0.6255 0.6255 0.623 0.6225 0.62125 0.62125 0.62 0.6195 0.61825 0.61775 0.61413 0.613 0.61238 0.6095 0.60788 0.60562 0.60113 0.6 0.59775 0.59662 0.5955 0.588 0.58688 0 0.52125 0.52125 0.52163 0.52163 0.52075 0.52038 0.52038 0.5195 0.51875 0.5175 0.51712 0.5175 0.51663 0.51663 0.51587 0.515 0.51462 0.51338 0.51138 0.51013 0.50938 0.5065 0.50538 0.50462 0.50338 0.50113 0.50025 0.49988 0.50613 0.50413 0.503 0.50225 0.50187 0.50187 0.50113 0.50113 0.50113 0.4945 0.49538 0.49575 0.48825 0.48938 0.48975 0.48938 0.48862 0.48862 0.48825 0.48788 0.48675 0.486 0.48525 0.48525 0.486 0.486 0.48562 0.48562 0.48462 0.48313 0.48163 0.47775 0.47713 0.47637 0.47563 0.47563 0.47563 0.475 0.47463 0.47463 0.47363 0.47287 0.47287 0.4715 0.47087 0.4695 0.46713 0.46537 0.46437 0.46375 0.46337 0.46313 0.46237 0.46137 0.46013 0.4595 0.45913 0.45913 0.45887 0.45813 0.45813 0.45813 0.45725 0.4565 0.45625 0.45563 0.45425 0.45175 0.44988 0.44988 0.44438 0.44438 0.44438 0.445 0.44588 0.44612 0.4455 0.4455 0.44588 0.4455 0.44588 0.44588
1.0456 1.0405 1.0339 1.0306 1.0257 1.0145 1.0081 1.0019 0.99113 0.98962 0.98662 0.98662 0.98813 0.98662 0.98513 0.98513 0.98362 0.98362 0.98213 0.98362 0.98813 0.98362 0.97925 0.97475 0.97037 0.96888 0.966 0.966 0.96462 0.9435 0.94075 0.938 0.934 0.92863 0.926 0.92463 0.92463 0.92337 0.92075 0.92075 0.922 0.92337 0.922 0.922 0.91938 0.91812 0.91675 0.91287 0.91038 0.90912 0.90525 0.904 0.89775 0.894 0.88913 0.8795 0.87587 0.8735 0.86762 0.8665 0.8665 0.86538 0.8665 0.86413 0.863 0.86075 0.85962 0.8585 0.85737 0.855 0.85275 0.85162 0.84837 0.845 0.84388 0.84062 0.8385 0.83625 0.83525 0.83525 0.83088 0.83088 0.82988 0.82663 0.82663 0.82563 0.8235 0.8235 0.82137 0.81937 0.81937 0.81525 0.81425 0.81212 0.80812 0.80612 0.80312 0.79812 0.79612 0.79525 0.79138 0.79038 0.78838 0.78938 0.78938 0.78938 0.78838 0.7875 0.7875 0.7875 0.7855 0.78463 0.7855 0.78175 0.778 0.77425 0.77238 0.77063 0.76963 0.767 0.766 0.76513 0.7615 0.76062 0.76062 0.758 0.75713 0.75262 0.75175 0.75087 0.74838 0.7475 0.74662 0.74487 0.744 0.74313 0.74238 0.74238 0.74062 0.73725 0.73725 0.73562 0.73475 0.73313 0.73137 0.73137 0.72975 0.72813 0.72737 0.7265 0.72488 0.72413 0.71762 0.71762 0.71688 0.7145 0.71288 0.71213 0.70825 0.7075 0.70662 0.70588 0.70588 0.70588 0.70437 0.70362 0.70063 0.69975 0.69975 0.69525 0.6945 0.6945 0.69237 0.69163 0.69012 0.68863 0.68712 0.68575 0.6835 0.68212 0.68 0.68 0.67925 0.67712 0.67637 0.67575 0.675 0.67425 0.67363 0.67012 0.66875 0.66738 0.66663 0.666 0.66387 0.66325 0.66187 0.65987 0.65925 0.65925 0.65725 0.6565 0.65587 0.65387 0.65325 0.64987 0.64925 0.64863 0.64675 0.646 0.64475 0.64163 0.64087 0.64025 0.639 0.639 0.63775 0.63587 0.63462 0.63462 0.634 0.63338 0.63275 0.63213 0.63213 0.62975 0.6285 0.62787 0.62487 0.62425 0.6225 0.6225 0.62187 0.62 0.61887 0.61713 0.61413 0.613 0.61238 0.6095 0.60788 0.60562 0.60162 0.6005 0.59825 0.59713 0.59662 0.58688 0.58688 0 0.52125 0.52163 0.52212 0.52212 0.52125 0.52125 0.52075 0.52 0.51912 0.5175 0.5175 0.51712 0.51663 0.51625 0.51587 0.515 0.51462 0.51375 0.513 0.51213 0.51213 0.511 0.505 0.507 0.5085 0.5085 0.50738 0.507 0.507 0.50538 0.50413 0.503 0.50262 0.50262 0.50225 0.50187 0.5015 0.49725 0.49688 0.4965 0.49375 0.49262 0.49262 0.4905 0.49012 0.48975 0.489 0.48862 0.48712 0.486 0.48525 0.48525 0.486 0.486 0.48562 0.48562 0.48462 0.48237 0.481 0.4795 0.47775 0.47675 0.476 0.476 0.476 0.475 0.475 0.47463 0.47363 0.47325 0.47287 0.47225 0.4715 0.4705 0.46775 0.46613 0.46437 0.46413 0.46413 0.46337 0.46313 0.46237 0.46137 0.46075 0.4605 0.45975 0.45913 0.45913 0.45813 0.45787 0.4575 0.4575 0.4575 0.45787 0.45787 0.45787 0.4575 0.4565 0.44438 0.44438 0.44438 0.445 0.4455 0.44612 0.4455 0.4455 0.4455 0.44588 0.44675 0.44712
1.049 1.0439 1.0356 1.0322 1.0274 1.0161 1.0097 1.0035 0.99575 0.99425 0.99113 0.98813 0.98813 0.98513 0.98662 0.98662 0.98513 0.98362 0.98513 0.98662 0.98962 0.98813 0.97925 0.97775 0.97325 0.97037 0.9675 0.9675 0.9675 0.9435 0.94075 0.938 0.93537 0.92863 0.92725 0.926 0.92337 0.92337 0.92075 0.92075 0.92075 0.922 0.922 0.92075 0.91938 0.91812 0.91675 0.91287 0.90912 0.90912 0.904 0.904 0.8965 0.89275 0.88913 0.88062 0.87713 0.8735 0.86887 0.8665 0.8665 0.8665 0.86538 0.86538 0.863 0.86187 0.85962 0.85962 0.85737 0.85625 0.855 0.85388 0.8495 0.84725 0.845 0.84175 0.84062 0.8385 0.83737 0.83625 0.832 0.83088 0.82988 0.82875 0.82663 0.82663 0.8235 0.8235 0.8235 0.82037 0.81937 0.81625 0.81425 0.81212 0.80712 0.80512 0.80212 0.79712 0.79525 0.79525 0.79225 0.79038 0.79038 0.79038 0.79038 0.78938 0.78938 0.78838 0.78938 0.78838 0.7875 0.7855 0.78463 0.78175 0.77712 0.77425 0.77063 0.76963 0.76875 0.767 0.76513 0.76425 0.76338 0.76238 0.76238 0.76062 0.75975 0.75713 0.75625 0.7535 0.75175 0.75087 0.74925 0.74662 0.74575 0.74487 0.744 0.74238 0.74062 0.73813 0.73725 0.73562 0.73475 0.73388 0.73137 0.73062 0.72975 0.729 0.72813 0.7265 0.72575 0.72488 0.72 0.71925 0.7185 0.716 0.7145 0.71288 0.70825 0.7075 0.70662 0.70662 0.70588 0.70513 0.70437 0.70288 0.70063 0.69975 0.699 0.69525 0.6945 0.69525 0.69237 0.69237 0.69088 0.68863 0.68788 0.6865 0.68288 0.68212 0.68 0.68 0.67925 0.67712 0.67637 0.67637 0.675 0.675 0.67425 0.67075 0.66938 0.668 0.66663 0.666 0.66387 0.66325 0.66125 0.6605 0.65987 0.65925 0.6585 0.65725 0.6565 0.6545 0.65387 0.65063 0.64987 0.64925 0.64675 0.646 0.64475 0.64225 0.64087 0.64087 0.639 0.639 0.63775 0.63525 0.63525 0.634 0.63462 0.63462 0.63275 0.63275 0.63275 0.63038 0.62913 0.62725 0.62487 0.62362 0.6225 0.62187 0.62125 0.62 0.6195 0.61775 0.61475 0.613 0.61238 0.61013 0.60837 0.60613 0.60275 0.60162 0.59937 0.59937 0.59825 0.59713 0.59713 0 0.52125 0.52163 0.52212 0.52212 0.52125 0.52075 0.52075 0.52 0.5195 0.51787 0.5175 0.5175 0.51663 0.51587 0.51587 0.515 0.51462 0.51425 0.513 0.513 0.51262 0.51213 0.50938 0.5085 0.5085 0.5085 0.50775 0.50738 0.50775 0.50575 0.505 0.50413 0.503 0.503 0.50225 0.5015 0.50113 0.49838 0.49762 0.49688 0.49488 0.49375 0.49338 0.4915 0.4905 0.4905 0.489 0.48862 0.4875 0.48638 0.48525 0.48525 0.486 0.486 0.486 0.48525 0.48425 0.48163 0.47987 0.4795 0.47775 0.47713 0.47675 0.47637 0.47637 0.475 0.475 0.475 0.47363 0.47363 0.47325 0.4725 0.47187 0.47013 0.46813 0.46637 0.46437 0.46437 0.46413 0.46413 0.46375 0.46275 0.46213 0.46175 0.46137 0.46013 0.4595 0.45913 0.4585 0.4585 0.4575 0.45787 0.45813 0.45787 0.45787 0.45787 0.45787 0.45813 0.444 0.444 0.44438 0.445 0.44588 0.44588 0.44588 0.4455 0.44588 0.44612 0.44712 0.44775
1.049 1.0439 1.0322 1.0274 1.0241 1.0161 1.0112 1.005 0.99887 0.99575 0.99425 0.99113 0.98962 0.98662 0.98662 0.98813 0.98662 0.98662 0.98813 0.98813 0.99275 0.98962 0.98213 0.98062 0.97475 0.97188 0.96888 0.96025 0.95325 0.9435 0.94075 0.93937 0.934 0.92863 0.926 0.926 0.92337 0.92337 0.91938 0.91938 0.92075 0.92075 0.922 0.92075 0.91938 0.91938 0.91675 0.91287 0.91038 0.90775 0.904 0.90275 0.89525 0.89275 0.88913 0.88062 0.87713 0.87475 0.86887 0.86762 0.86762 0.8665 0.86538 0.86538 0.863 0.86187 0.86075 0.85962 0.85737 0.85737 0.85737 0.855 0.85062 0.84837 0.84613 0.84388 0.84288 0.84062 0.8385 0.8385 0.833 0.832 0.83088 0.82875 0.82775 0.82663 0.82463 0.8235 0.8235 0.82137 0.82037 0.81525 0.81425 0.81212 0.80712 0.80512 0.80112 0.79712 0.79525 0.79425 0.79225 0.79138 0.79038 0.79038 0.79138 0.79038 0.79038 0.79038 0.79038 0.78938 0.78838 0.7855 0.7855 0.78275 0.77612 0.77338 0.77063 0.76963 0.76875 0.767 0.766 0.76513 0.76338 0.76425 0.76338 0.76238 0.76062 0.75887 0.758 0.75713 0.75438 0.75262 0.75175 0.74838 0.74662 0.74575 0.74487 0.74313 0.7415 0.73813 0.73638 0.73562 0.73562 0.73388 0.73137 0.73062 0.72975 0.72813 0.72737 0.72737 0.7265 0.7265 0.72162 0.72088 0.72 0.71688 0.71525 0.71375 0.709 0.709 0.7075 0.70662 0.70588 0.70588 0.70437 0.70362 0.70063 0.69975 0.699 0.6945 0.69375 0.6945 0.69312 0.69312 0.69237 0.68863 0.68788 0.6865 0.6835 0.68212 0.68 0.67925 0.6785 0.67788 0.67712 0.67637 0.67575 0.675 0.67425 0.67225 0.67012 0.66875 0.66738 0.66525 0.66387 0.66325 0.66187 0.6605 0.65987 0.65987 0.65925 0.65787 0.65725 0.6545 0.6545 0.65125 0.65063 0.64925 0.64675 0.646 0.64412 0.64225 0.64087 0.64087 0.639 0.639 0.63775 0.6365 0.63587 0.63462 0.63462 0.63462 0.63338 0.63338 0.63338 0.63087 0.63038 0.62787 0.62487 0.623 0.6225 0.62125 0.62062 0.62 0.6195 0.61887 0.61475 0.61362 0.613 0.61075 0.609 0.60675 0.60325 0.60213 0.60113 0.60113 0.6005 0.59775 0.52287 0.52287 0.52125 0.52163 0.5225 0.52212 0.52163 0.52125 0.52125 0.5195 0.51912 0.51787 0.5175 0.51712 0.51625 0.51587 0.51587 0.515 0.51462 0.51425 0.51338 0.51375 0.513 0.511 0.50938 0.5085 0.5085 0.5085 0.50813 0.50813 0.50813 0.5065 0.50575 0.505 0.50338 0.503 0.50225 0.5015 0.50062 0.49838 0.49762 0.49725 0.49575 0.49488 0.49412 0.49188 0.49112 0.4905 0.48975 0.489 0.4875 0.48638 0.48525 0.48562 0.486 0.486 0.486 0.48525 0.48387 0.48137 0.4795 0.4795 0.47813 0.47737 0.47713 0.47637 0.47637 0.47537 0.475 0.475 0.47363 0.47363 0.47325 0.4725 0.47225 0.47087 0.46875 0.46675 0.46513 0.46475 0.46437 0.46413 0.46375 0.46275 0.46237 0.46213 0.46175 0.4605 0.45975 0.45913 0.45887 0.4585 0.45787 0.45787 0.4585 0.45787 0.45787 0.45813 0.45813 0.45787 0.44375 0.444 0.44438 0.44525 0.44588 0.4465 0.44588 0.44588 0.44588 0.44612 0.44738 0.448
1.049 1.0439 1.0306 1.0257 1.0225 1.0145 1.0097 1.0066 0.99887 0.99725 0.99725 0.99113 0.98813 0.98813 0.98813 0.98962 0.98662 0.98662 0.98962 0.99113 0.99275 0.99113 0.98662 0.98362 0.97625 0.97325 0.96888 0.956 0.949 0.94488 0.94075 0.938 0.934 0.92863 0.926 0.92463 0.92463 0.92337 0.92337 0.922 0.922 0.92075 0.92075 0.92075 0.92075 0.91938 0.91675 0.91425 0.91038 0.90775 0.90525 0.904 0.8965 0.89275 0.88913 0.88062 0.87713 0.87587 0.86887 0.86762 0.86762 0.8665 0.86538 0.8665 0.863 0.863 0.86075 0.86075 0.85962 0.85737 0.8585 0.85737 0.85388 0.85162 0.84837 0.84613 0.845 0.84388 0.84175 0.84062 0.83525 0.83413 0.833 0.83088 0.82775 0.82775 0.82463 0.82463 0.82463 0.82463 0.82463 0.81937 0.81837 0.81625 0.81312 0.81012 0.80712 0.80312 0.80112 0.80012 0.79612 0.79612 0.79225 0.79325 0.79525 0.79325 0.79325 0.79425 0.79138 0.79038 0.79038 0.7875 0.7865 0.78463 0.779 0.77612 0.77238 0.77063 0.76963 0.76787 0.76787 0.767 0.76425 0.76338 0.76338 0.76338 0.76238 0.75887 0.758 0.75713 0.75538 0.7535 0.75262 0.74838 0.7475 0.7475 0.74575 0.744 0.74238 0.73813 0.73638 0.73562 0.73638 0.73562 0.73313 0.73225 0.73062 0.72813 0.72737 0.72737 0.72575 0.72575 0.72413 0.72325 0.72162 0.72 0.7185 0.71688 0.71288 0.71213 0.71137 0.7105 0.7105 0.70975 0.7075 0.70588 0.70437 0.70288 0.70137 0.6975 0.696 0.69525 0.69375 0.69312 0.69312 0.69163 0.69012 0.68937 0.685 0.68288 0.68063 0.68063 0.67925 0.67788 0.67712 0.67637 0.67637 0.67575 0.67425 0.67288 0.6715 0.67075 0.66875 0.666 0.66387 0.66325 0.66263 0.66187 0.66125 0.65987 0.65987 0.65925 0.6585 0.6565 0.65525 0.65325 0.65187 0.65063 0.64738 0.646 0.64412 0.64287 0.64225 0.64163 0.64087 0.64025 0.64025 0.63838 0.63775 0.63713 0.63775 0.63775 0.63587 0.63525 0.63462 0.63275 0.6315 0.63087 0.62662 0.62362 0.623 0.62187 0.62125 0.62 0.6195 0.62 0.61775 0.6165 0.61587 0.61362 0.61187 0.609 0.60437 0.60325 0.60275 0.60213 0.60162 0.59888 0.52287 0.52287 0.52287 0.52287 0.52338 0.52287 0.52212 0.52163 0.52125 0.52 0.51912 0.51825 0.5175 0.51712 0.51587 0.51587 0.51587 0.51462 0.51462 0.51425 0.51338 0.51375 0.513 0.51138 0.51013 0.5085 0.5085 0.509 0.50813 0.5085 0.50813 0.5065 0.50575 0.50538 0.50338 0.503 0.50187 0.50113 0.50062 0.49838 0.49725 0.49688 0.49612 0.49575 0.49488 0.49338 0.49262 0.49188 0.49075 0.49012 0.48825 0.48712 0.48638 0.486 0.48675 0.48675 0.486 0.48562 0.48425 0.48237 0.48163 0.48137 0.47887 0.47813 0.47713 0.47675 0.47637 0.47563 0.475 0.47463 0.47387 0.47363 0.47363 0.4725 0.47187 0.47113 0.46913 0.46737 0.46575 0.46575 0.46537 0.46437 0.46413 0.46337 0.46237 0.46213 0.46175 0.46075 0.4605 0.4595 0.45913 0.4585 0.45813 0.45813 0.4585 0.45813 0.45787 0.45813 0.45813 0.45787 0.44375 0.444 0.4465 0.44712 0.44775 0.44738 0.44712 0.44712 0.44675 0.44712 0.448 0.44838
1.049 1.0456 1.029 1.0257 1.0225 1.0145 1.0112 1.0066 1.0004 0.99887 0.99725 0.99275 0.98962 0.98962 0.99113 0.99113 0.98813 0.98662 0.98813 0.98962 0.99725 0.99275 0.98662 0.98362 0.97475 0.97325 0.96888 0.95462 0.949 0.94488 0.94212 0.93937 0.93675 0.92863 0.92725 0.926 0.92463 0.92337 0.92337 0.92337 0.922 0.92075 0.92075 0.92075 0.92075 0.91938 0.91812 0.91163 0.91038 0.90775 0.904 0.90275 0.8965 0.89275 0.88913 0.88187 0.8795 0.87825 0.87238 0.87113 0.87113 0.86887 0.86762 0.8665 0.86538 0.86413 0.863 0.86187 0.86075 0.8585 0.85737 0.8585 0.85388 0.85162 0.85062 0.84725 0.84725 0.84388 0.84388 0.84288 0.83737 0.83625 0.83525 0.832 0.82988 0.82988 0.82563 0.82563 0.82563 0.82563 0.82463 0.82037 0.81937 0.81937 0.81525 0.81312 0.81012 0.80712 0.80612 0.80412 0.79912 0.79812 0.79525 0.79525 0.79612 0.79525 0.79425 0.79525 0.79138 0.79138 0.78938 0.7875 0.7865 0.78463 0.779 0.77712 0.77238 0.7715 0.76963 0.76875 0.76787 0.767 0.76513 0.76425 0.76338 0.76338 0.7615 0.75887 0.75713 0.75713 0.75538 0.7535 0.75262 0.74925 0.7475 0.7475 0.74575 0.74487 0.74313 0.73975 0.73813 0.73725 0.73725 0.73638 0.73475 0.73388 0.73137 0.729 0.72813 0.72813 0.7265 0.72575 0.72413 0.7225 0.72162 0.72088 0.7185 0.71688 0.71375 0.71213 0.71137 0.71137 0.7105 0.70975 0.70825 0.7075 0.70437 0.70288 0.70212 0.6975 0.696 0.69525 0.6945 0.69375 0.69312 0.69163 0.69012 0.68937 0.68575 0.68425 0.68212 0.68137 0.68063 0.6785 0.6785 0.6785 0.67712 0.67712 0.67575 0.67363 0.67225 0.67225 0.66875 0.66663 0.66387 0.66325 0.66263 0.66187 0.66125 0.6605 0.65987 0.65987 0.6585 0.6565 0.6565 0.6545 0.65325 0.65187 0.64738 0.646 0.64475 0.64225 0.64163 0.64163 0.64087 0.64163 0.63962 0.639 0.63838 0.63775 0.63775 0.63713 0.6365 0.63587 0.63525 0.63275 0.63213 0.63087 0.62787 0.62487 0.62362 0.623 0.6225 0.62062 0.62062 0.62062 0.61825 0.61825 0.61775 0.61475 0.61187 0.6095 0.60562 0.60437 0.60437 0.60325 0.60213 0.60275 0.52338 0.52287 0.52287 0.52338 0.52463 0.52375 0.52212 0.52163 0.52125 0.5195 0.51912 0.51825 0.51787 0.5175 0.51625 0.51625 0.51587 0.51538 0.51462 0.51425 0.51375 0.51375 0.513 0.511 0.50975 0.509 0.5085 0.5085 0.50813 0.50813 0.50813 0.507 0.50613 0.50575 0.50375 0.503 0.50187 0.5015 0.50062 0.498 0.49725 0.49688 0.4965 0.49575 0.49538 0.49375 0.49338 0.49262 0.4915 0.4905 0.48825 0.4875 0.48638 0.486 0.48638 0.48638 0.486 0.48562 0.48462 0.48313 0.48237 0.48163 0.48025 0.47913 0.47737 0.47675 0.47675 0.47563 0.47537 0.47463 0.47363 0.47325 0.47325 0.4725 0.47187 0.4715 0.4695 0.46813 0.46675 0.46675 0.46613 0.46575 0.46513 0.46413 0.46275 0.46213 0.46175 0.46075 0.4605 0.4595 0.45913 0.4585 0.4585 0.4585 0.4585 0.45813 0.45787 0.45813 0.45813 0.45787 0.44738 0.44775 0.45088 0.449 0.44862 0.44862 0.44775 0.44738 0.44738 0.44775 0.44838 0.449
1.0508 1.0456 1.029 1.0241 1.0209 1.0129 1.0097 1.0066 1.0004 0.99887 0.99887 0.99425 0.99113 0.99113 0.99275 0.99275 0.99575 0.99575 0.99575 0.99575 1.0035 0.99887 0.98813 0.98662 0.97775 0.97325 0.966 0.95325 0.9505 0.94763 0.9435 0.94212 0.93937 0.93263 0.93125 0.92863 0.92725 0.92463 0.92463 0.92337 0.922 0.91938 0.92075 0.92075 0.91938 0.91812 0.91675 0.91038 0.90912 0.90775 0.90275 0.9015 0.8965 0.89275 0.88913 0.8855 0.883 0.883 0.8795 0.87825 0.8795 0.87587 0.87475 0.87 0.87 0.86887 0.86538 0.863 0.86075 0.85962 0.8585 0.8585 0.85625 0.85388 0.85275 0.85062 0.85062 0.84725 0.84725 0.84725 0.84288 0.84062 0.8385 0.83525 0.833 0.832 0.82875 0.82775 0.82775 0.82663 0.82463 0.8225 0.82137 0.82137 0.81837 0.81725 0.81425 0.81212 0.81112 0.80912 0.80412 0.80112 0.79912 0.80012 0.80012 0.79812 0.79712 0.79712 0.79225 0.79138 0.79038 0.78838 0.7865 0.78463 0.77987 0.778 0.77338 0.77238 0.7715 0.77063 0.76963 0.76875 0.767 0.766 0.76513 0.76338 0.76238 0.75887 0.758 0.75713 0.75713 0.75625 0.7535 0.75087 0.74925 0.74838 0.7475 0.74662 0.74575 0.74313 0.7415 0.74062 0.74062 0.73975 0.73813 0.73638 0.73562 0.73137 0.73062 0.73062 0.72813 0.72737 0.72488 0.72413 0.7225 0.72162 0.72088 0.7185 0.71525 0.71525 0.7145 0.71375 0.71288 0.71137 0.709 0.70825 0.70588 0.70437 0.70212 0.6975 0.6975 0.69675 0.6945 0.6945 0.69375 0.69163 0.69088 0.69012 0.68788 0.6865 0.6835 0.6835 0.68212 0.68 0.67925 0.68 0.67925 0.6785 0.67788 0.67575 0.67425 0.67363 0.67075 0.66738 0.66463 0.66325 0.66263 0.6605 0.65987 0.6605 0.65987 0.6605 0.65987 0.65787 0.6585 0.65587 0.65525 0.6545 0.65063 0.648 0.64675 0.6435 0.64225 0.64287 0.64163 0.64163 0.64087 0.63962 0.639 0.639 0.639 0.63838 0.63713 0.63587 0.63462 0.63338 0.6315 0.6315 0.62913 0.62787 0.626 0.62487 0.62425 0.6225 0.62187 0.62187 0.62125 0.62062 0.62 0.61775 0.61475 0.61187 0.60725 0.60675 0.60725 0.60613 0.60388 0.60275 0.52338 0.52638 0.52587 0.52638 0.52638 0.525 0.52338 0.52287 0.52212 0.52075 0.52038 0.5195 0.51912 0.51825 0.51663 0.51625 0.51625 0.51587 0.51538 0.515 0.51375 0.51375 0.513 0.51138 0.51013 0.50813 0.50813 0.50738 0.50738 0.507 0.507 0.5065 0.50575 0.50575 0.50413 0.50338 0.5015 0.5015 0.50062 0.49762 0.4965 0.4965 0.49612 0.49612 0.49575 0.49488 0.4945 0.49412 0.49262 0.49188 0.489 0.4875 0.48675 0.486 0.48638 0.48638 0.486 0.48525 0.48425 0.48275 0.48163 0.48137 0.48025 0.4795 0.47775 0.47737 0.47713 0.47637 0.47563 0.475 0.47363 0.47325 0.47325 0.47225 0.47187 0.47187 0.47013 0.46975 0.46875 0.46875 0.4685 0.4685 0.46775 0.46675 0.46475 0.46413 0.46275 0.46113 0.4605 0.45975 0.4595 0.45887 0.45887 0.4585 0.4585 0.45813 0.4575 0.45787 0.4575 0.45787 0.44738 0.44775 0.45088 0.45112 0.45088 0.4505 0.449 0.449 0.44925 0.44862 0.44862 0.44925
1.0508 1.0456 1.029 1.0241 1.0192 1.0129 1.0097 1.0066 1.0004 0.99887 0.99725 0.99425 0.99113 0.99113 0.99425 0.99575 0.99725 1.005 1.005 1.0035 1.0035 0.99887 0.99113 0.98813 0.98062 0.97325 0.96313 0.95462 0.9505 0.94763 0.9435 0.94212 0.93937 0.93537 0.934 0.93263 0.92863 0.92863 0.926 0.92463 0.922 0.92075 0.91938 0.92075 0.91938 0.91675 0.9155 0.90912 0.90775 0.90525 0.90275 0.9015 0.89525 0.8915 0.88913 0.8855 0.88425 0.883 0.883 0.88187 0.883 0.87825 0.87713 0.87238 0.87113 0.87113 0.86762 0.86538 0.86187 0.85962 0.85962 0.8585 0.85737 0.855 0.85388 0.85162 0.85162 0.8495 0.85062 0.84837 0.84388 0.84175 0.8395 0.83625 0.83413 0.833 0.82875 0.82875 0.82775 0.82663 0.82563 0.8225 0.8225 0.82137 0.81937 0.81725 0.81525 0.81212 0.81112 0.81012 0.80512 0.80112 0.80112 0.80112 0.80112 0.79912 0.79812 0.79712 0.79325 0.79138 0.79038 0.78838 0.7865 0.78463 0.77987 0.778 0.77525 0.77338 0.7715 0.7715 0.7715 0.76963 0.76787 0.767 0.767 0.76338 0.76238 0.75975 0.75887 0.75887 0.758 0.75713 0.75538 0.75175 0.75013 0.74925 0.74838 0.74838 0.7475 0.74487 0.74313 0.74238 0.7415 0.74062 0.739 0.73813 0.73638 0.73388 0.73225 0.73137 0.72975 0.72813 0.72575 0.72488 0.72325 0.7225 0.72162 0.71925 0.71688 0.716 0.71688 0.7145 0.7145 0.71213 0.70975 0.709 0.70662 0.70362 0.70137 0.6975 0.69675 0.69675 0.69525 0.6945 0.69375 0.69163 0.69012 0.69012 0.68788 0.68712 0.68425 0.68425 0.68288 0.68063 0.68 0.68 0.67925 0.67788 0.67788 0.67575 0.675 0.67425 0.6715 0.668 0.66463 0.66387 0.66263 0.6605 0.65987 0.65987 0.65987 0.6605 0.65987 0.6585 0.6585 0.65725 0.65587 0.65525 0.65187 0.65063 0.648 0.64475 0.64412 0.6435 0.64225 0.64225 0.64087 0.64087 0.63962 0.63962 0.639 0.63838 0.63775 0.6365 0.63525 0.63338 0.63213 0.63213 0.62975 0.62913 0.62662 0.626 0.62487 0.623 0.623 0.6225 0.62187 0.62187 0.62187 0.61887 0.61713 0.6095 0.60837 0.60725 0.60837 0.60788 0.60437 0.59825 0.5285 0.528 0.528 0.52763 0.52675 0.5255 0.52375 0.52338 0.52287 0.52125 0.52075 0.52038 0.5195 0.51875 0.51625 0.51625 0.51625 0.51587 0.51538 0.515 0.51375 0.51425 0.51338 0.511 0.50975 0.50813 0.50738 0.507 0.5065 0.50613 0.5065 0.50575 0.50538 0.50538 0.50375 0.50338 0.50113 0.50113 0.50113 0.49725 0.4965 0.49575 0.49575 0.49612 0.49575 0.4945 0.49488 0.4945 0.49338 0.49225 0.48975 0.48825 0.48675 0.48638 0.48675 0.48675 0.486 0.48525 0.48462 0.482 0.481 0.48063 0.4795 0.47913 0.47775 0.47775 0.47737 0.47637 0.47563 0.475 0.47363 0.47325 0.47325 0.47225 0.47187 0.47113 0.47087 0.47087 0.4695 0.4695 0.46975 0.4695 0.46875 0.46775 0.46613 0.46513 0.46375 0.46137 0.46075 0.46013 0.4595 0.45913 0.45887 0.45887 0.45887 0.45787 0.45725 0.45725 0.45687 0.45625 0.45275 0.45275 0.45112 0.45112 0.4515 0.45112 0.44925 0.44925 0.44988 0.44925 0.44862 0.44925
1.049 1.0439 1.029 1.0225 1.0176 1.0112 1.0066 1.0035 1.0004 0.99887 0.99725 0.99275 0.98962 0.98962 0.99275 0.99425 0.99887 1.0081 1.0081 1.0066 1.005 1.0004 0.99425 0.99113 0.98362 0.98062 0.96025 0.95325 0.949 0.94625 0.94212 0.94212 0.938 0.934 0.93263 0.93125 0.92725 0.926 0.92725 0.92463 0.922 0.91938 0.91938 0.91938 0.91812 0.91675 0.91425 0.91038 0.90775 0.9065 0.90275 0.9015 0.89525 0.89275 0.88913 0.88662 0.88662 0.8855 0.88425 0.8855 0.88425 0.88062 0.87825 0.8735 0.87238 0.87238 0.86887 0.86538 0.863 0.86075 0.85962 0.85962 0.85737 0.85625 0.85388 0.85275 0.85275 0.85162 0.85162 0.85062 0.84613 0.84288 0.84175 0.83737 0.83525 0.83413 0.82988 0.82875 0.82775 0.82663 0.82563 0.8235 0.8235 0.8225 0.81937 0.81725 0.81525 0.81312 0.81312 0.81112 0.80712 0.80412 0.80212 0.80212 0.80312 0.80012 0.79912 0.79712 0.79325 0.79038 0.79038 0.7875 0.7855 0.78275 0.779 0.77712 0.77525 0.77338 0.77238 0.77238 0.77238 0.77063 0.76875 0.76787 0.766 0.76425 0.76238 0.75887 0.75887 0.758 0.75887 0.758 0.75625 0.75262 0.75175 0.75087 0.74925 0.74838 0.74838 0.74575 0.744 0.74238 0.74238 0.74062 0.739 0.73813 0.73725 0.73475 0.73313 0.73225 0.72975 0.729 0.72575 0.72488 0.72413 0.72325 0.72162 0.72 0.71688 0.716 0.716 0.71525 0.7145 0.71213 0.709 0.70825 0.70588 0.70362 0.70137 0.69825 0.69675 0.696 0.6945 0.69375 0.69312 0.69163 0.69088 0.69012 0.68712 0.6865 0.685 0.68425 0.6835 0.68063 0.68063 0.68063 0.67925 0.6785 0.67788 0.67637 0.67575 0.675 0.67225 0.668 0.666 0.66463 0.66325 0.66125 0.6605 0.6605 0.6605 0.6605 0.6605 0.6585 0.6585 0.6565 0.6565 0.65525 0.6525 0.65125 0.64925 0.64538 0.6435 0.64412 0.64287 0.64287 0.64163 0.64163 0.64087 0.64025 0.63962 0.639 0.63838 0.63713 0.63587 0.63338 0.63275 0.63213 0.63038 0.62913 0.62725 0.6255 0.62425 0.6225 0.6225 0.6225 0.62187 0.62125 0.62187 0.6195 0.61775 0.61187 0.61013 0.60837 0.609 0.61075 0.60275 0.59825 0.5285 0.5285 0.52675 0.52675 0.52712 0.52587 0.52375 0.52338 0.52338 0.52163 0.52125 0.52038 0.5195 0.51912 0.51712 0.51663 0.51712 0.51625 0.51587 0.515 0.51425 0.51375 0.51262 0.511 0.50975 0.50813 0.50738 0.5065 0.50613 0.5065 0.5065 0.50613 0.50538 0.50538 0.50375 0.503 0.50062 0.50062 0.50025 0.49725 0.4965 0.49612 0.49612 0.49612 0.49575 0.49538 0.49488 0.4945 0.49225 0.4905 0.48675 0.48638 0.486 0.48562 0.486 0.48638 0.486 0.48562 0.48425 0.482 0.48137 0.481 0.47987 0.4795 0.47813 0.47775 0.47737 0.47675 0.476 0.47563 0.47425 0.47363 0.47363 0.47287 0.47225 0.4715 0.47113 0.47087 0.46975 0.4695 0.46975 0.46913 0.46875 0.46813 0.46637 0.46537 0.46413 0.46213 0.46137 0.4605 0.45975 0.4595 0.45887 0.45887 0.45887 0.4575 0.45725 0.45687 0.45625 0.45563 0.454 0.45212 0.4515 0.4515 0.45112 0.45112 0.44962 0.44988 0.4505 0.44988 0.44925 0.44962
1.049 1.0456 1.0274 1.0225 1.0192 1.0129 1.0097 1.0066 0.99887 0.99887 0.99887 0.99275 0.98962 0.98962 0.99425 0.99575 1.0004 1.0081 1.0081 1.0081 1.0066 1.0035 0.99575 0.99425 0.98813 0.98962 0.96025 0.95325 0.9505 0.94763 0.9435 0.94212 0.938 0.934 0.93263 0.93125 0.92863 0.92725 0.92725 0.926 0.92337 0.91938 0.92075 0.91938 0.91812 0.9155 0.91425 0.90912 0.90775 0.9065 0.90275 0.9015 0.8965 0.894 0.8915 0.88913 0.88787 0.88787 0.88662 0.88913 0.88787 0.88425 0.88062 0.87713 0.87587 0.87587 0.87113 0.86762 0.86538 0.86187 0.86075 0.86075 0.85962 0.8585 0.85737 0.855 0.855 0.855 0.855 0.85625 0.8495 0.84613 0.84388 0.84175 0.8385 0.83625 0.83088 0.82988 0.82988 0.82875 0.82775 0.82563 0.82463 0.82463 0.82137 0.82037 0.81937 0.81625 0.81625 0.81525 0.81212 0.80812 0.80612 0.80612 0.80612 0.80412 0.80212 0.79912 0.79425 0.79138 0.79038 0.7875 0.78463 0.78275 0.779 0.778 0.77425 0.77425 0.77425 0.77238 0.77238 0.7715 0.76875 0.76875 0.76787 0.76425 0.76338 0.75975 0.75887 0.75887 0.758 0.758 0.758 0.75438 0.7535 0.7535 0.75175 0.75175 0.75013 0.74662 0.74487 0.74238 0.74238 0.74062 0.739 0.73813 0.73725 0.73388 0.73313 0.73313 0.73062 0.729 0.7265 0.72575 0.72413 0.72325 0.72162 0.72 0.71762 0.71688 0.71688 0.71525 0.7145 0.71213 0.70975 0.70825 0.70513 0.70362 0.70137 0.6975 0.6975 0.696 0.6945 0.69375 0.69312 0.69163 0.69088 0.68937 0.68788 0.68712 0.68575 0.68575 0.685 0.68288 0.68212 0.68137 0.68063 0.68 0.67925 0.67788 0.67712 0.67575 0.67288 0.66938 0.66663 0.666 0.66463 0.66187 0.66187 0.66187 0.66125 0.66125 0.66125 0.65925 0.65987 0.65725 0.6565 0.65587 0.65387 0.6525 0.65125 0.64675 0.64538 0.64538 0.64475 0.64412 0.64287 0.64287 0.64287 0.64287 0.64225 0.64087 0.639 0.63838 0.63775 0.63525 0.634 0.63338 0.6315 0.63087 0.62725 0.626 0.62425 0.623 0.6225 0.6225 0.62187 0.62187 0.62187 0.62062 0.6195 0.6165 0.61413 0.61238 0.61238 0.61187 0.61013 0.59825 0.59825 0 0.52675 0.52712 0.52712 0.52638 0.52463 0.52412 0.52375 0.52212 0.52163 0.52075 0.52038 0.52038 0.51825 0.51787 0.5175 0.51663 0.51625 0.51538 0.51425 0.51375 0.51262 0.511 0.51013 0.5085 0.50775 0.507 0.50613 0.5065 0.5065 0.50613 0.50538 0.505 0.50375 0.50262 0.50113 0.50062 0.50025 0.49725 0.4965 0.4965 0.4965 0.4965 0.49612 0.49538 0.49538 0.49488 0.49225 0.4905 0.4875 0.48712 0.48675 0.48675 0.48675 0.48675 0.48638 0.486 0.48462 0.48313 0.48237 0.482 0.481 0.48025 0.4785 0.47813 0.47775 0.47737 0.47737 0.47713 0.47563 0.47463 0.47425 0.47287 0.4725 0.47225 0.4715 0.47113 0.46975 0.46975 0.46975 0.46913 0.46875 0.4685 0.46637 0.46575 0.46437 0.46275 0.46213 0.46113 0.46013 0.45975 0.45913 0.45913 0.45887 0.4575 0.45687 0.45687 0.45625 0.45563 0.45425 0.45275 0.45238 0.45238 0.45175 0.4515 0.45088 0.4505 0.45112 0.4505 0.45025 0.45025
1.049 1.0456 1.029 1.0225 1.0192 1.0161 1.0145 1.0081 1.0004 0.99887 0.99887 0.99275 0.98962 0.98962 0.99275 0.99575 1.0004 1.0097 1.0097 1.0066 1.0066 1.0035 0.99725 0.99425 0.98662 0.98362 0.95462 0.95325 0.95188 0.949 0.94488 0.94212 0.93937 0.93537 0.93263 0.93125 0.93 0.93 0.92863 0.92725 0.92463 0.91938 0.91938 0.92075 0.91675 0.9155 0.91287 0.90775 0.9065 0.90525 0.9015 0.899 0.8965 0.894 0.8915 0.88913 0.88913 0.88913 0.88913 0.88913 0.88913 0.8855 0.88425 0.8795 0.8795 0.87825 0.8735 0.87 0.86538 0.863 0.86187 0.86075 0.85962 0.8585 0.85737 0.85625 0.85625 0.855 0.85625 0.85625 0.85162 0.84837 0.84725 0.84288 0.84062 0.8385 0.832 0.83088 0.83088 0.82988 0.82988 0.82663 0.82563 0.82563 0.8225 0.82037 0.82037 0.81837 0.81837 0.81625 0.81312 0.80912 0.80712 0.80612 0.80612 0.80412 0.80312 0.80112 0.79425 0.79138 0.79038 0.7865 0.78463 0.78275 0.778 0.778 0.77525 0.77425 0.77425 0.77338 0.77238 0.7715 0.76963 0.76963 0.76787 0.76513 0.76338 0.76062 0.75975 0.75975 0.758 0.758 0.758 0.75625 0.75438 0.7535 0.75262 0.75175 0.75087 0.74662 0.744 0.7415 0.74062 0.73975 0.739 0.73813 0.73725 0.73388 0.73225 0.73137 0.729 0.72813 0.7265 0.72488 0.72325 0.7225 0.72088 0.71925 0.71688 0.716 0.716 0.71525 0.71375 0.71137 0.709 0.7075 0.70588 0.70437 0.70137 0.6975 0.69675 0.696 0.6945 0.69312 0.69312 0.69163 0.69088 0.69012 0.68788 0.68712 0.6865 0.68575 0.68575 0.68288 0.68212 0.68288 0.68137 0.68 0.67925 0.6785 0.67788 0.67575 0.67363 0.66938 0.66738 0.666 0.66463 0.66263 0.66187 0.66187 0.66187 0.66125 0.6605 0.65987 0.65987 0.65787 0.65725 0.65587 0.65387 0.65325 0.65187 0.648 0.646 0.646 0.64538 0.64475 0.64412 0.64412 0.6435 0.64287 0.64287 0.64225 0.63962 0.639 0.63838 0.63587 0.63462 0.634 0.63213 0.63087 0.62787 0.626 0.62487 0.6225 0.6225 0.623 0.62187 0.6225 0.62187 0.62187 0.62 0.61775 0.61587 0.61475 0.61362 0.61238 0.6095 0.609 0.60837 0 0.52763 0.52712 0.52763 0.52638 0.52463 0.52463 0.52375 0.5225 0.52163 0.52125 0.52038 0.52 0.51825 0.51787 0.5175 0.51663 0.51625 0.51587 0.51375 0.51338 0.51262 0.511 0.5105 0.5085 0.50738 0.5065 0.50613 0.5065 0.5065 0.50613 0.505 0.505 0.50338 0.50262 0.5015 0.50113 0.50062 0.49725 0.4965 0.49612 0.49612 0.4965 0.49612 0.49575 0.49538 0.49488 0.49225 0.49075 0.489 0.48862 0.48825 0.48712 0.48712 0.4875 0.48675 0.48638 0.48562 0.4835 0.48275 0.48237 0.48137 0.48063 0.47887 0.4785 0.47775 0.47737 0.47737 0.47737 0.47637 0.47537 0.47463 0.47287 0.47225 0.47225 0.4715 0.47113 0.47013 0.46975 0.4695 0.4695 0.46875 0.4685 0.46675 0.46613 0.46513 0.46313 0.46237 0.46137 0.4605 0.45975 0.4595 0.45913 0.45887 0.4575 0.45687 0.4565 0.45587 0.45525 0.45425 0.453 0.45275 0.45238 0.45238 0.45212 0.4515 0.4515 0.4515 0.45025 0.44988 0.44988
1.0473 1.0405 1.0257 1.0225 1.0192 1.0192 1.0176 1.0097 1.0019 1.0004 1.0004 0.99425 0.98962 0.98962 0.99275 0.99425 0.99725 1.0097 1.0097 1.0066 1.005 1.0019 0.99425 0.98962 0.98362 0.98213 0.95462 0.95325 0.95188 0.95188 0.94625 0.94488 0.94212 0.93537 0.93537 0.934 0.93125 0.93125 0.93125 0.93 0.926 0.92337 0.922 0.922 0.91812 0.91675 0.91163 0.9065 0.9065 0.904 0.9015 0.899 0.8965 0.894 0.8915 0.89038 0.89038 0.89038 0.88913 0.89038 0.89038 0.88662 0.88425 0.88062 0.88062 0.8795 0.87587 0.87113 0.86762 0.863 0.863 0.86187 0.85962 0.8585 0.85737 0.85625 0.85737 0.855 0.85625 0.85625 0.85162 0.8495 0.84837 0.84388 0.84288 0.84062 0.83413 0.833 0.832 0.83088 0.82988 0.82875 0.82663 0.82663 0.8225 0.82137 0.82037 0.81937 0.81837 0.81837 0.81312 0.81012 0.80612 0.80612 0.80612 0.80512 0.80312 0.80012 0.79425 0.79225 0.79038 0.7865 0.78463 0.78175 0.779 0.77712 0.77525 0.77425 0.77425 0.77238 0.77238 0.7715 0.77063 0.76963 0.76875 0.766 0.76425 0.7615 0.76062 0.75975 0.758 0.758 0.758 0.75625 0.75438 0.75438 0.75262 0.75262 0.74925 0.74575 0.74313 0.74062 0.73975 0.739 0.73813 0.73638 0.73562 0.73225 0.73137 0.73062 0.72813 0.72737 0.72575 0.72413 0.72325 0.72162 0.72088 0.71762 0.71525 0.71525 0.71525 0.7145 0.71288 0.71137 0.709 0.70662 0.70513 0.70362 0.70137 0.69825 0.69675 0.696 0.69375 0.69312 0.69312 0.69237 0.69163 0.68863 0.68863 0.68788 0.68712 0.6865 0.68575 0.6835 0.68288 0.68288 0.68212 0.68137 0.68 0.67788 0.67788 0.67575 0.67363 0.67012 0.668 0.66738 0.666 0.66387 0.66325 0.66325 0.66263 0.66263 0.66187 0.6605 0.6605 0.6585 0.65787 0.65725 0.6545 0.65325 0.6525 0.64863 0.64738 0.64738 0.646 0.646 0.64475 0.64412 0.6435 0.6435 0.64287 0.64225 0.64087 0.639 0.63838 0.63713 0.63587 0.63525 0.63275 0.63213 0.62787 0.62662 0.6255 0.623 0.6225 0.6225 0.6225 0.623 0.623 0.62187 0.62125 0.61825 0.61775 0.61713 0.61538 0.61413 0.60837 0.6095 0.53238 0.53238 0.52763 0.52763 0.528 0.52675 0.525 0.525 0.52412 0.5225 0.52163 0.52125 0.52075 0.52 0.51875 0.51825 0.51712 0.51587 0.51538 0.51538 0.51425 0.51375 0.51213 0.51013 0.50975 0.50813 0.50775 0.5065 0.50613 0.5065 0.5065 0.50575 0.50538 0.505 0.50338 0.50262 0.50113 0.50113 0.50062 0.49725 0.4965 0.4965 0.49612 0.49612 0.49612 0.49488 0.49488 0.49375 0.49188 0.49075 0.48975 0.48938 0.48862 0.48788 0.4875 0.48788 0.48712 0.48675 0.486 0.48425 0.4835 0.48313 0.48163 0.481 0.47913 0.4785 0.4785 0.47775 0.47775 0.47813 0.47637 0.47537 0.47425 0.47287 0.47225 0.47225 0.4715 0.47113 0.4705 0.47013 0.46975 0.4695 0.46913 0.4685 0.46713 0.46637 0.46537 0.46337 0.46275 0.46137 0.46075 0.46013 0.45975 0.4595 0.45887 0.45725 0.4565 0.4565 0.45525 0.455 0.45425 0.453 0.453 0.45238 0.45238 0.45212 0.45212 0.45175 0.4515 0.44962 0.449 0.44925
1.0473 1.0405 1.0257 1.0241 1.0241 1.0192 1.0176 1.0145 1.0066 1.005 1.005 1.0004 0.99575 0.99113 0.99275 0.99425 0.99725 1.0066 1.0081 1.0066 1.005 1.0004 0.99275 0.98962 0.98213 0.98062 0.97775 0.95888 0.956 0.9575 0.95188 0.9505 0.949 0.94212 0.94075 0.93937 0.93675 0.93675 0.93537 0.934 0.93125 0.93 0.93 0.92863 0.92337 0.91938 0.91425 0.90775 0.90775 0.90525 0.904 0.90275 0.90025 0.899 0.89775 0.894 0.89275 0.8915 0.8915 0.89038 0.89038 0.88787 0.8855 0.88187 0.88187 0.88062 0.87713 0.8735 0.87113 0.8665 0.86538 0.86538 0.86187 0.86075 0.8585 0.85737 0.8585 0.85625 0.85625 0.85737 0.85275 0.85062 0.8495 0.84613 0.845 0.84288 0.83625 0.83413 0.83413 0.833 0.832 0.82875 0.82875 0.82875 0.8235 0.8225 0.82137 0.82037 0.81937 0.81937 0.81725 0.81425 0.80712 0.80712 0.80812 0.80512 0.80412 0.80112 0.79525 0.79325 0.79225 0.7875 0.7865 0.78363 0.77987 0.778 0.77612 0.77525 0.77425 0.77338 0.77238 0.77238 0.77238 0.7715 0.76963 0.766 0.76425 0.7615 0.7615 0.75975 0.75887 0.75887 0.75887 0.75713 0.75538 0.75538 0.75438 0.7535 0.75013 0.7475 0.74487 0.74062 0.74062 0.739 0.73813 0.73638 0.73562 0.73225 0.73137 0.72975 0.729 0.72813 0.72575 0.72488 0.72325 0.72162 0.72 0.71762 0.7145 0.7145 0.7145 0.7145 0.71288 0.71137 0.709 0.70662 0.70513 0.70362 0.70212 0.699 0.69825 0.69675 0.6945 0.69312 0.69312 0.69375 0.69375 0.69088 0.69088 0.69012 0.68937 0.68788 0.68712 0.68425 0.68425 0.6835 0.68288 0.68137 0.68063 0.6785 0.67712 0.67637 0.675 0.67363 0.67225 0.67075 0.66938 0.66663 0.666 0.66525 0.66463 0.66325 0.66325 0.66187 0.66125 0.6605 0.6585 0.65787 0.65587 0.6545 0.65325 0.64925 0.648 0.648 0.64738 0.64738 0.64675 0.64538 0.64412 0.64412 0.6435 0.64287 0.64025 0.63962 0.63838 0.63775 0.6365 0.63587 0.63462 0.63338 0.62975 0.62787 0.62662 0.62362 0.62362 0.623 0.623 0.62425 0.62425 0.62362 0.6225 0.62125 0.62 0.62 0.62 0.61887 0.61825 0.60837 0.53238 0.53238 0.52763 0.52938 0.52938 0.528 0.52638 0.5255 0.52463 0.52287 0.52163 0.52163 0.52075 0.52038 0.51912 0.51787 0.51712 0.51538 0.51538 0.515 0.51462 0.51375 0.51262 0.51013 0.50975 0.509 0.50813 0.50738 0.5065 0.507 0.507 0.5065 0.50575 0.505 0.50338 0.503 0.50113 0.50113 0.50062 0.49762 0.4965 0.4965 0.49612 0.49612 0.49612 0.49488 0.4945 0.49338 0.49188 0.49075 0.49012 0.48975 0.489 0.48825 0.48788 0.48788 0.4875 0.48712 0.48675 0.48488 0.48462 0.48425 0.48313 0.482 0.47987 0.4795 0.4795 0.47887 0.47887 0.4785 0.47675 0.47563 0.475 0.47325 0.4725 0.47225 0.47187 0.47113 0.47113 0.47087 0.47087 0.4705 0.46975 0.46913 0.46737 0.46675 0.46637 0.46475 0.46413 0.46237 0.46175 0.46137 0.4605 0.46013 0.4595 0.4575 0.4565 0.45625 0.45563 0.455 0.45463 0.45337 0.45337 0.45275 0.45275 0.45238 0.45238 0.45175 0.45112 0.44962 0.449 0.449
1.0473 1.0389 1.0257 1.0241 1.0241 1.0192 1.0176 1.0129 1.0066 1.005 1.005 1.0004 0.99725 0.98962 0.99113 0.99275 0.99425 1.0035 1.0066 1.0066 1.005 1.0004 0.99113 0.98813 0.98213 0.97925 0.97325 0.96025 0.95888 0.95888 0.95462 0.95325 0.9505 0.9435 0.94075 0.94075 0.938 0.93675 0.93537 0.934 0.93263 0.93 0.93 0.93 0.92463 0.92075 0.9155 0.91038 0.90912 0.9065 0.90525 0.904 0.9015 0.899 0.89775 0.894 0.89275 0.89275 0.8915 0.8915 0.89038 0.88913 0.88662 0.883 0.88187 0.88187 0.87713 0.8735 0.86887 0.8665 0.86538 0.86538 0.86187 0.86075 0.85962 0.8585 0.8585 0.85737 0.85737 0.85737 0.85275 0.85062 0.84837 0.84613 0.845 0.84288 0.83625 0.83413 0.83413 0.832 0.832 0.82988 0.82875 0.82875 0.8235 0.8225 0.82137 0.82137 0.82137 0.82037 0.81837 0.81725 0.80912 0.80912 0.81012 0.80712 0.80512 0.80212 0.79712 0.79425 0.79325 0.78838 0.7875 0.78175 0.78087 0.779 0.77612 0.77612 0.77525 0.77238 0.77238 0.77238 0.7715 0.77238 0.7715 0.767 0.76513 0.76238 0.7615 0.76062 0.75975 0.75975 0.75975 0.758 0.75713 0.75625 0.75538 0.75538 0.75175 0.74925 0.74662 0.74238 0.74062 0.739 0.73813 0.73725 0.73638 0.73313 0.73225 0.73062 0.72975 0.72813 0.7265 0.72488 0.72325 0.72088 0.71925 0.71688 0.7145 0.71375 0.7145 0.71288 0.71213 0.71137 0.70825 0.70662 0.70513 0.70362 0.70212 0.699 0.69825 0.6975 0.6945 0.69375 0.69375 0.6945 0.69375 0.69163 0.69088 0.69012 0.68937 0.68863 0.68788 0.685 0.68425 0.68425 0.68288 0.68137 0.68063 0.6785 0.67712 0.67575 0.675 0.67425 0.67288 0.6715 0.67075 0.66663 0.666 0.666 0.66463 0.66387 0.66325 0.66263 0.66187 0.65987 0.65925 0.65787 0.65587 0.65525 0.65325 0.64987 0.64863 0.64863 0.648 0.64738 0.64675 0.64538 0.64475 0.64412 0.6435 0.6435 0.64025 0.63962 0.639 0.63713 0.6365 0.63587 0.634 0.63275 0.63087 0.62913 0.62787 0.626 0.62487 0.62487 0.62487 0.62487 0.62425 0.62362 0.6225 0.62062 0.62062 0.62 0.62 0.6195 0.61825 0.61713 0.53638 0.53675 0.53375 0.5315 0.53112 0.52975 0.52675 0.52587 0.525 0.52287 0.52212 0.52125 0.52075 0.52038 0.51912 0.51825 0.51663 0.51587 0.51587 0.515 0.51462 0.51425 0.51262 0.511 0.5105 0.50938 0.509 0.50813 0.50738 0.507 0.50775 0.5065 0.50613 0.50575 0.50375 0.50338 0.50113 0.50113 0.50113 0.49725 0.4965 0.49612 0.49612 0.49612 0.49575 0.49538 0.4945 0.49338 0.49188 0.49112 0.49075 0.4905 0.48938 0.48862 0.48825 0.48788 0.48712 0.48712 0.48675 0.48525 0.48462 0.48462 0.48387 0.48313 0.48063 0.48025 0.4795 0.4795 0.47913 0.47887 0.47737 0.47675 0.476 0.47363 0.47287 0.47287 0.4725 0.47225 0.47113 0.47113 0.4715 0.4705 0.47013 0.46913 0.46775 0.46713 0.46675 0.46513 0.46475 0.46313 0.46237 0.46175 0.4605 0.46013 0.4595 0.45725 0.4565 0.45625 0.45563 0.45525 0.45463 0.454 0.45363 0.45337 0.453 0.45275 0.45238 0.45175 0.45112 0.44925 0.44862 0.449
1.0456 1.0389 1.0257 1.0241 1.0241 1.0209 1.0192 1.0145 1.0081 1.0035 1.0035 1.0004 0.99725 0.99113 0.99113 0.99113 0.99275 0.99575 1.0019 1.005 1.0019 1.0004 0.99113 0.98662 0.98362 0.97925 0.97188 0.96175 0.96025 0.96025 0.956 0.95325 0.95188 0.94625 0.94212 0.94075 0.938 0.93675 0.93537 0.934 0.93125 0.93125 0.93125 0.93125 0.926 0.922 0.91812 0.91163 0.91038 0.90775 0.9065 0.90525 0.90275 0.90025 0.899 0.89525 0.894 0.89275 0.8915 0.89275 0.8915 0.88913 0.88662 0.883 0.88187 0.88062 0.87587 0.87238 0.86887 0.8665 0.86538 0.86538 0.863 0.86187 0.85962 0.85962 0.85962 0.85737 0.85737 0.85737 0.85275 0.85062 0.8495 0.84613 0.84613 0.84288 0.83737 0.83525 0.833 0.832 0.832 0.82988 0.82988 0.82875 0.8235 0.8225 0.8235 0.82137 0.82137 0.82037 0.81725 0.81625 0.81012 0.81012 0.81112 0.80912 0.80612 0.80412 0.79712 0.79525 0.79425 0.78938 0.7875 0.78463 0.78175 0.77987 0.77712 0.77612 0.77525 0.77238 0.77238 0.77238 0.7715 0.7715 0.7715 0.76787 0.766 0.76238 0.76238 0.7615 0.76062 0.7615 0.76062 0.75975 0.75713 0.75713 0.75713 0.75625 0.7535 0.75087 0.7475 0.74313 0.74062 0.73975 0.73813 0.73813 0.73725 0.73388 0.73313 0.73225 0.72975 0.729 0.7265 0.72488 0.7225 0.72088 0.7185 0.716 0.71375 0.71288 0.71288 0.71213 0.71213 0.7105 0.7075 0.70437 0.70362 0.70288 0.70137 0.69975 0.699 0.6975 0.69525 0.6945 0.69375 0.6945 0.6945 0.69163 0.69088 0.69012 0.69012 0.68937 0.68788 0.68575 0.685 0.68425 0.68288 0.68137 0.68063 0.6785 0.67712 0.67575 0.67575 0.675 0.67363 0.67288 0.6715 0.66738 0.66663 0.66663 0.66525 0.66387 0.66325 0.66187 0.66263 0.65925 0.6585 0.65787 0.65587 0.65525 0.6525 0.65063 0.64925 0.64925 0.64738 0.64675 0.646 0.64538 0.64412 0.64412 0.6435 0.64287 0.64025 0.639 0.639 0.63713 0.63587 0.63587 0.634 0.63275 0.6315 0.63038 0.62975 0.62787 0.62662 0.626 0.626 0.6255 0.6255 0.62425 0.623 0.62125 0.62062 0.62 0.61825 0.61713 0.6165 0.60613 0.53638 0.53587 0.53463 0.53238 0.53187 0.53025 0.52763 0.52638 0.525 0.52338 0.52212 0.52163 0.52125 0.52038 0.51912 0.51825 0.51712 0.51625 0.51587 0.51538 0.51462 0.51425 0.51213 0.51138 0.5105 0.5105 0.50975 0.509 0.50738 0.507 0.50738 0.50738 0.5065 0.50575 0.50375 0.503 0.5015 0.50113 0.50062 0.49725 0.4965 0.49612 0.49612 0.49575 0.49488 0.49488 0.4945 0.49375 0.49225 0.49188 0.49112 0.49075 0.49012 0.489 0.48825 0.48825 0.48712 0.48675 0.48675 0.48562 0.48488 0.48488 0.48462 0.48387 0.48163 0.48063 0.48025 0.4795 0.4795 0.47913 0.47775 0.47713 0.47675 0.47463 0.47363 0.47363 0.47325 0.4725 0.47187 0.47187 0.4715 0.47087 0.47013 0.4695 0.46775 0.46713 0.46675 0.46613 0.46537 0.46375 0.46313 0.46213 0.46075 0.46013 0.4595 0.45687 0.45625 0.45587 0.45525 0.45525 0.45463 0.454 0.454 0.45337 0.453 0.45275 0.45238 0.45212 0.4515 0.44925 0.44862 0.449
1.0439 1.0439 1.0356 1.0339 1.0322 1.0274 1.0241 1.0192 1.0112 1.005 1.005 1.0004 0.99725 0.99275 0.99113 0.99113 0.99113 0.99575 0.99887 1.0019 1.0004 0.99887 0.99425 0.99113 0.98813 0.98513 0.97925 0.97037 0.966 0.96462 0.956 0.95462 0.95188 0.949 0.94625 0.94488 0.94075 0.94075 0.93675 0.93537 0.93263 0.934 0.93263 0.93263 0.92725 0.92463 0.91812 0.91287 0.91163 0.91038 0.9065 0.9065 0.904 0.904 0.90025 0.89775 0.89525 0.894 0.89275 0.89275 0.89275 0.88787 0.8855 0.883 0.88187 0.88062 0.87475 0.87238 0.86887 0.8665 0.8665 0.86538 0.863 0.863 0.86075 0.85962 0.86075 0.8585 0.8585 0.85737 0.85625 0.855 0.85275 0.8495 0.84837 0.845 0.8395 0.83625 0.83413 0.83413 0.832 0.83088 0.83088 0.83088 0.82463 0.8225 0.82463 0.8225 0.82137 0.82037 0.81625 0.81425 0.80912 0.80912 0.81012 0.80912 0.80812 0.80612 0.80012 0.79712 0.79612 0.79138 0.78938 0.7855 0.78363 0.78175 0.778 0.77712 0.77612 0.77338 0.77238 0.77238 0.77238 0.77238 0.7715 0.76963 0.766 0.76338 0.76338 0.76238 0.76238 0.76238 0.76238 0.75975 0.75975 0.75887 0.758 0.758 0.7535 0.75175 0.74925 0.744 0.7415 0.74062 0.73975 0.739 0.739 0.73562 0.73475 0.73388 0.73137 0.72975 0.72737 0.72488 0.7225 0.72 0.7185 0.71525 0.71288 0.71288 0.71213 0.71213 0.71213 0.71137 0.7075 0.70437 0.70362 0.70288 0.70212 0.70137 0.70063 0.699 0.6975 0.696 0.69525 0.6945 0.69525 0.69237 0.69237 0.69163 0.69088 0.69012 0.68863 0.68575 0.68575 0.685 0.68288 0.68212 0.68137 0.67925 0.67788 0.67712 0.67637 0.67575 0.67425 0.67363 0.67288 0.67012 0.66938 0.66938 0.66738 0.666 0.66463 0.66325 0.66325 0.65987 0.65925 0.65787 0.65725 0.6565 0.65525 0.6525 0.65187 0.65063 0.64738 0.64675 0.646 0.64538 0.64412 0.6435 0.6435 0.64287 0.64087 0.63962 0.639 0.63775 0.63713 0.63587 0.63462 0.63338 0.6315 0.63038 0.62913 0.6285 0.62787 0.62725 0.62725 0.62787 0.62787 0.626 0.62487 0.6225 0.62187 0.62 0.61775 0.61713 0.61475 0.609 0.53675 0.53638 0.53275 0.53187 0.5315 0.53025 0.52712 0.52675 0.5255 0.52412 0.52287 0.5225 0.52212 0.52163 0.52038 0.5195 0.51912 0.51787 0.51787 0.5175 0.51538 0.51425 0.51262 0.51213 0.51175 0.51138 0.5105 0.50938 0.50775 0.507 0.50738 0.507 0.507 0.50575 0.50375 0.503 0.50113 0.50113 0.50062 0.49762 0.4965 0.4965 0.49575 0.49575 0.49488 0.4945 0.49538 0.49488 0.49375 0.49338 0.49225 0.49188 0.4915 0.4905 0.48975 0.489 0.4875 0.48675 0.48712 0.48638 0.48562 0.48562 0.48525 0.48525 0.4835 0.48313 0.48237 0.48137 0.481 0.48025 0.47913 0.47887 0.47813 0.47737 0.47637 0.476 0.47563 0.475 0.47325 0.47287 0.47187 0.47087 0.47013 0.4695 0.46813 0.46737 0.46713 0.46675 0.46613 0.46513 0.46437 0.46337 0.46175 0.46075 0.4595 0.45687 0.45625 0.45625 0.45525 0.455 0.45463 0.45425 0.454 0.454 0.45363 0.45337 0.453 0.45275 0.45238 0.44962 0.44925 0.448
1.0439 1.0422 1.0389 1.0356 1.0339 1.029 1.0257 1.0225 1.0097 1.005 1.005 1.0019 0.99887 0.99425 0.99275 0.99275 0.99275 0.99425 0.99887 1.0004 1.0004 0.99887 0.99425 0.99113 0.98962 0.98513 0.98062 0.97475 0.97037 0.966 0.9575 0.956 0.95325 0.9505 0.94763 0.94488 0.94212 0.94075 0.938 0.93537 0.934 0.934 0.93537 0.93263 0.92863 0.92725 0.92075 0.9155 0.91425 0.91163 0.90912 0.90775 0.90775 0.90525 0.90275 0.89775 0.8965 0.89525 0.89525 0.894 0.8915 0.88787 0.8855 0.88062 0.88062 0.8795 0.8735 0.87113 0.86762 0.8665 0.86538 0.86538 0.863 0.863 0.86075 0.86075 0.85962 0.8585 0.8585 0.85737 0.85625 0.855 0.85275 0.84837 0.84725 0.845 0.84062 0.8385 0.83525 0.83525 0.83413 0.833 0.832 0.833 0.82663 0.82563 0.82563 0.82463 0.8225 0.81837 0.81725 0.81525 0.80912 0.80912 0.80912 0.80912 0.80812 0.80512 0.80012 0.79812 0.79612 0.79138 0.78938 0.7855 0.78363 0.78175 0.779 0.77712 0.77612 0.77425 0.77338 0.77238 0.77238 0.77238 0.77238 0.76875 0.767 0.76425 0.76425 0.76425 0.76338 0.76338 0.76338 0.76062 0.76062 0.75975 0.75887 0.75887 0.75538 0.75262 0.75013 0.74487 0.74238 0.74062 0.73975 0.73813 0.73813 0.73562 0.73475 0.73313 0.73137 0.72975 0.72737 0.72488 0.7225 0.71925 0.71688 0.71525 0.71288 0.71213 0.71213 0.71137 0.71213 0.71137 0.70825 0.70662 0.70437 0.70513 0.70437 0.70212 0.70137 0.70063 0.69825 0.6975 0.696 0.696 0.69675 0.69312 0.69237 0.69237 0.69163 0.69088 0.68937 0.68712 0.6865 0.6865 0.68425 0.68425 0.68288 0.68 0.67925 0.67788 0.67712 0.67637 0.67425 0.67425 0.67288 0.6715 0.67075 0.67075 0.66875 0.66738 0.66463 0.66463 0.66325 0.66125 0.65987 0.6585 0.65725 0.65725 0.65587 0.65387 0.65325 0.65187 0.64925 0.648 0.64738 0.646 0.64475 0.6435 0.6435 0.6435 0.64087 0.63962 0.63962 0.63775 0.63713 0.6365 0.63462 0.63338 0.6315 0.63087 0.62975 0.6285 0.62787 0.62787 0.62725 0.62787 0.62787 0.626 0.62487 0.6225 0.62125 0.62 0.6195 0.6225 0.60788 0.60788 0.60613 0 0.53275 0.53238 0.53187 0.53025 0.52763 0.52638 0.5255 0.52375 0.52338 0.5225 0.52212 0.52163 0.52038 0.52 0.5195 0.51825 0.51787 0.51787 0.51538 0.51462 0.51262 0.51213 0.51213 0.51138 0.511 0.50975 0.50813 0.50738 0.50775 0.5065 0.50613 0.505 0.50375 0.50262 0.5015 0.50113 0.50062 0.498 0.49725 0.49688 0.49612 0.49575 0.49538 0.4945 0.49412 0.4945 0.49338 0.49262 0.49262 0.49188 0.4915 0.49075 0.48975 0.489 0.4875 0.48712 0.48712 0.48675 0.486 0.48562 0.48562 0.48525 0.48387 0.48313 0.48237 0.48163 0.48137 0.48063 0.4795 0.47887 0.4785 0.47713 0.47675 0.476 0.47563 0.47537 0.47325 0.4725 0.47187 0.47013 0.46975 0.46875 0.46813 0.46737 0.46713 0.46675 0.46637 0.46537 0.46437 0.46375 0.46213 0.46075 0.4595 0.45725 0.4565 0.45625 0.45525 0.455 0.45463 0.454 0.454 0.45363 0.45363 0.454 0.45363 0.454 0.45363 0.454 0.45425 0.453
1.0439 1.0405 1.0356 1.0356 1.0339 1.0274 1.0241 1.0225 1.0129 1.0081 1.0081 1.0035 1.0019 0.99725 0.99725 0.99725 0.99725 1.0004 1.0019 1.0004 0.99887 0.99725 0.99425 0.99113 0.98962 0.98662 0.98362 0.97775 0.97475 0.97188 0.96175 0.95888 0.9575 0.95188 0.9505 0.949 0.94488 0.9435 0.94212 0.94075 0.93937 0.938 0.93937 0.93675 0.934 0.93263 0.92863 0.92075 0.91938 0.91425 0.91287 0.91038 0.91038 0.90912 0.90775 0.9015 0.90025 0.89775 0.8965 0.8965 0.89275 0.88787 0.88425 0.88062 0.8795 0.87825 0.87475 0.87113 0.86887 0.86762 0.86762 0.8665 0.86413 0.863 0.86187 0.86075 0.85962 0.85962 0.8585 0.85737 0.855 0.85388 0.85275 0.84837 0.84725 0.84613 0.84175 0.84062 0.83737 0.83737 0.83625 0.83625 0.83625 0.83737 0.83088 0.82775 0.82663 0.82563 0.8235 0.81837 0.81725 0.81525 0.81012 0.81012 0.81012 0.80812 0.80712 0.80512 0.80012 0.79812 0.79612 0.79225 0.79038 0.7865 0.78463 0.78275 0.77987 0.778 0.77712 0.77338 0.77338 0.77238 0.7715 0.7715 0.7715 0.76875 0.767 0.76513 0.76513 0.76513 0.76513 0.76425 0.76425 0.76238 0.76238 0.7615 0.7615 0.76062 0.758 0.75538 0.75262 0.7475 0.74575 0.74313 0.74062 0.73975 0.739 0.73638 0.73562 0.73475 0.73137 0.73062 0.72737 0.72413 0.72088 0.71762 0.71688 0.716 0.71375 0.71375 0.71288 0.71288 0.71213 0.71288 0.71137 0.7105 0.709 0.70825 0.7075 0.70437 0.70362 0.70288 0.70063 0.69975 0.69825 0.6975 0.6975 0.69375 0.69312 0.69312 0.69312 0.69237 0.69012 0.68937 0.68863 0.68863 0.68712 0.6865 0.68575 0.68288 0.68212 0.67925 0.6785 0.67788 0.67575 0.675 0.67425 0.67363 0.67225 0.67225 0.67075 0.66938 0.66663 0.66525 0.66463 0.66187 0.66125 0.6605 0.6585 0.6585 0.65725 0.65587 0.65525 0.65387 0.65125 0.65063 0.64863 0.64675 0.64475 0.64412 0.6435 0.6435 0.64087 0.64025 0.64087 0.639 0.63775 0.63713 0.63525 0.63338 0.6315 0.63087 0.63087 0.62975 0.62913 0.6285 0.62787 0.6285 0.62787 0.62725 0.626 0.623 0.62187 0.62062 0.62 0.6225 0.60788 0.60675 0.60613 0 0.53275 0.53275 0.53275 0.52887 0.52675 0.52638 0.5255 0.52375 0.52338 0.5225 0.5225 0.52212 0.52075 0.52038 0.5195 0.51875 0.51825 0.51875 0.51625 0.51462 0.51338 0.513 0.513 0.51213 0.51175 0.511 0.509 0.5085 0.50813 0.50613 0.50575 0.50462 0.50375 0.503 0.50225 0.50113 0.50113 0.49875 0.498 0.49762 0.4965 0.49612 0.49575 0.49488 0.4945 0.49412 0.49375 0.493 0.49262 0.49262 0.49188 0.4905 0.48975 0.489 0.48788 0.48788 0.48788 0.48675 0.48638 0.486 0.48562 0.48525 0.48425 0.48387 0.48313 0.482 0.48137 0.48063 0.4795 0.47887 0.4785 0.47775 0.47713 0.47675 0.47637 0.47563 0.47363 0.47287 0.47187 0.46975 0.4695 0.46875 0.46775 0.46713 0.46713 0.46713 0.46713 0.46637 0.46575 0.46537 0.46337 0.46213 0.45913 0.4575 0.45725 0.4565 0.45587 0.45563 0.45525 0.45463 0.45463 0.45425 0.45463 0.45463 0.45525 0.455 0.45525 0.455 0.45463 0.454
1.0405 1.0389 1.0306 1.0306 1.0306 1.0241 1.0209 1.0192 1.0145 1.0112 1.0097 1.0081 1.005 1.0004 1.0004 1.0004 1.0004 1.0035 1.0035 1.0019 0.99887 0.99887 0.99425 0.98962 0.98813 0.98513 0.98362 0.97925 0.97625 0.97325 0.96462 0.96175 0.95888 0.956 0.95188 0.9505 0.94625 0.94625 0.94488 0.9435 0.9435 0.94212 0.94075 0.93937 0.93675 0.934 0.93125 0.926 0.92337 0.91425 0.91425 0.91163 0.91163 0.91038 0.90775 0.904 0.90275 0.90025 0.89775 0.8965 0.894 0.88787 0.88425 0.88187 0.88062 0.8795 0.87587 0.87238 0.87 0.86762 0.86762 0.8665 0.86538 0.86413 0.863 0.86075 0.86075 0.8585 0.8585 0.85737 0.85625 0.85388 0.85162 0.8495 0.84837 0.84613 0.84288 0.84062 0.8385 0.8385 0.83737 0.83625 0.83737 0.8385 0.83088 0.82775 0.82775 0.82463 0.82137 0.82037 0.81525 0.81425 0.81012 0.81012 0.80912 0.80712 0.80612 0.80512 0.80112 0.79912 0.79712 0.79225 0.78938 0.7865 0.78463 0.78363 0.77987 0.779 0.77712 0.77338 0.77238 0.7715 0.7715 0.77063 0.77063 0.76875 0.767 0.766 0.766 0.76513 0.76513 0.76425 0.76425 0.76338 0.76238 0.76238 0.7615 0.7615 0.75887 0.75625 0.7535 0.75013 0.7475 0.74487 0.7415 0.74062 0.73975 0.73725 0.73638 0.73475 0.73137 0.73062 0.72737 0.72413 0.72 0.71762 0.71688 0.71525 0.71525 0.7145 0.71375 0.71288 0.71288 0.71288 0.71213 0.71213 0.70975 0.70975 0.70825 0.70513 0.70437 0.70362 0.70212 0.70063 0.69975 0.69825 0.6975 0.69375 0.69375 0.69375 0.69312 0.69312 0.69163 0.68937 0.68937 0.68863 0.68788 0.68712 0.68575 0.6835 0.68212 0.68063 0.67925 0.6785 0.67575 0.675 0.67425 0.67363 0.67288 0.67288 0.67075 0.67012 0.66738 0.66663 0.666 0.66325 0.66187 0.6605 0.65925 0.65925 0.6585 0.65587 0.65525 0.65387 0.65187 0.65125 0.64987 0.648 0.64538 0.6435 0.6435 0.64412 0.64163 0.64025 0.64087 0.63962 0.63838 0.63713 0.63525 0.63338 0.6315 0.6315 0.6315 0.63038 0.62975 0.62913 0.6285 0.6285 0.6285 0.62662 0.62662 0.62362 0.6225 0.62187 0.6195 0.61887 0.60562 0.60613 0.54863 0.54912 0.53325 0.53325 0.53375 0.52638 0.52638 0.52587 0.525 0.52375 0.52338 0.5225 0.5225 0.52163 0.52125 0.52075 0.52 0.51825 0.51825 0.51875 0.51663 0.515 0.51375 0.51338 0.513 0.51262 0.51175 0.51138 0.50975 0.509 0.5085 0.50613 0.50538 0.505 0.50375 0.503 0.50225 0.5015 0.50113 0.49912 0.49838 0.498 0.49688 0.4965 0.49612 0.49488 0.4945 0.4945 0.49375 0.49338 0.493 0.49262 0.49225 0.4905 0.48938 0.489 0.48862 0.48825 0.48825 0.48712 0.48675 0.486 0.48525 0.48525 0.48425 0.48387 0.4835 0.482 0.48163 0.481 0.47913 0.4785 0.4785 0.47737 0.47713 0.47713 0.47675 0.47563 0.47387 0.47287 0.47187 0.47013 0.4695 0.46875 0.46813 0.46737 0.46737 0.46737 0.46737 0.46713 0.46675 0.46637 0.46413 0.46375 0.4575 0.4575 0.4575 0.45725 0.45587 0.45563 0.45525 0.455 0.45463 0.455 0.455 0.45525 0.455 0.455 0.455 0.45525 0.45525 0.45463
1.0405 1.0373 1.029 1.0274 1.0257 1.0209 1.0209 1.0192 1.0129 1.0112 1.0097 1.0081 1.005 1.0035 1.0035 1.0035 1.0035 1.005 1.0035 0.99887 0.99725 0.99575 0.99275 0.98962 0.98513 0.98513 0.98362 0.97925 0.97775 0.97325 0.9675 0.96462 0.96313 0.956 0.95462 0.95188 0.94763 0.94625 0.94625 0.94488 0.9435 0.9435 0.94212 0.94075 0.938 0.93675 0.93263 0.92725 0.92463 0.9155 0.91287 0.91163 0.91163 0.91163 0.90912 0.90525 0.904 0.9015 0.89775 0.8965 0.894 0.88787 0.88425 0.88187 0.88062 0.8795 0.87475 0.8735 0.87 0.86887 0.86887 0.8665 0.86413 0.86413 0.863 0.86075 0.86075 0.85962 0.8585 0.855 0.85388 0.85388 0.85162 0.84837 0.84725 0.84613 0.84288 0.8395 0.8385 0.83737 0.83625 0.83525 0.83413 0.83413 0.82875 0.82463 0.8235 0.82137 0.82037 0.81837 0.81525 0.81312 0.80912 0.80912 0.80812 0.80612 0.80512 0.80412 0.80112 0.80012 0.79812 0.79425 0.79138 0.78838 0.7865 0.78463 0.78087 0.779 0.77712 0.77338 0.77238 0.77338 0.7715 0.77063 0.77063 0.76787 0.766 0.766 0.766 0.766 0.76513 0.76513 0.76425 0.76338 0.76238 0.76238 0.76338 0.76238 0.75887 0.75713 0.75438 0.75087 0.7475 0.74487 0.7415 0.74062 0.73975 0.73725 0.73638 0.73475 0.73225 0.73137 0.72737 0.72413 0.72088 0.71925 0.71762 0.71688 0.71688 0.716 0.71525 0.71375 0.7145 0.71375 0.71375 0.71288 0.7105 0.70975 0.70825 0.70513 0.70437 0.70362 0.70212 0.70063 0.69975 0.6975 0.69825 0.6945 0.6945 0.69375 0.69375 0.69375 0.69237 0.69012 0.69088 0.69012 0.68863 0.68863 0.68712 0.68425 0.6835 0.68063 0.67925 0.67925 0.67637 0.67575 0.67425 0.67288 0.67288 0.67288 0.67075 0.67012 0.668 0.66738 0.666 0.66387 0.66187 0.6605 0.65925 0.6585 0.65787 0.65587 0.65525 0.65387 0.65187 0.65187 0.64987 0.648 0.64538 0.64412 0.6435 0.6435 0.64163 0.64087 0.64087 0.64025 0.639 0.6365 0.63525 0.634 0.63213 0.6315 0.63213 0.63038 0.62975 0.62913 0.6285 0.6285 0.62787 0.62662 0.626 0.62362 0.623 0.6225 0.62125 0.61825 0.60613 0.551 0.54863 0.54912 0.53325 0.535 0.53375 0.52638 0.52587 0.525 0.525 0.52412 0.52338 0.5225 0.5225 0.52212 0.52163 0.52075 0.52 0.51912 0.51875 0.51912 0.51712 0.51538 0.51425 0.51425 0.51338 0.51262 0.51213 0.51175 0.51013 0.50938 0.5085 0.507 0.50613 0.50538 0.50413 0.50338 0.50225 0.5015 0.50113 0.4995 0.49875 0.49838 0.49725 0.4965 0.4965 0.49538 0.49538 0.49488 0.49375 0.49375 0.49225 0.49188 0.4915 0.49012 0.48938 0.48862 0.48825 0.48825 0.48825 0.4875 0.48675 0.48638 0.486 0.48525 0.48462 0.48387 0.4835 0.48237 0.48163 0.481 0.4795 0.47887 0.4785 0.47775 0.47737 0.47737 0.47713 0.47637 0.47463 0.47363 0.47287 0.47087 0.47013 0.4695 0.4685 0.46737 0.46737 0.46737 0.46737 0.46713 0.46675 0.46637 0.46475 0.46375 0.4575 0.45787 0.4575 0.4575 0.45587 0.45525 0.45525 0.455 0.455 0.45525 0.45525 0.45563 0.45525 0.45525 0.45525 0.45563 0.45563 0.455
