0.35988 0.35962 0.35925 0.3595 0.35988 0.36062 0.36112 0.36088 0.3605 0.3605 0.3605 0.3605 0.36062 0.36025 0.3605 0.3605 0.36012 0.36012 0.36012 0.36012 0.36012 0.35962 0.35962 0.3595 0.35925 0.35887 0.35913 0.35863 0.35863 0.35863 0.35825 0.35813 0.35787 0.35763 0.3575 0.3575 0.35713 0.35713 0.3565 0.3565 0.35625 0.3565 0.35675 0.35687 0.35675 0.35687 0.35675 0.35687 0.35687 0.35687 0.35687 0.35713 0.35675 0.3565 0.3565 0.35625 0.35675 0.35625 0.35613 0.35587 0.35613 0.35613 0.35625 0.35625 0.35675 0.35675 0.3565 0.35625 0.35625 0.35575 0.35537 0.355 0.3545 0.35437 0.35413 0.35437 0.35437 0.35437 0.35475 0.35475 0.35513 0.35513 0.355 0.3545 0.35475 0.354 0.354 0.35375 0.35337 0.35325 0.353 0.35237 0.35263 0.35263 0.35263 0.35237 0.35187 0.3515 0.3515 0.35113 0.35125 0.35113 0.35075 0.35013 0.35013 0.35 0.34975 0.35013 0.35 0.35 0.34963 0.34963 0.34937 0.349 0.349 0.349 0.34863 0.34825 0.34813 0.34813 0.34813 0.34813 0.34825 0.34825 0.3485 0.34825 0.34825 0.34825 0.34825 0.34787 0.34787 0.34787 0.34737 0.34737 0.347 0.34663 0.34663 0.34637 0.34625 0.34637 0.34637 0.34637 0.34625 0.34637 0.34663 0.34675 0.34675 0.347 0.347 0.34637 0.34625 0.34625 0.346 0.346 0.34563 0.3455 0.3455 0.34475 0.3445 0.34437 0.34387 0.34363 0.34363 0.3435 0.34325 0.34287 0.34287 0.34275 0.34275 0.3425 0.34275 0.34275 0.3425 0.3425 0.3425 0.34237 0.3425 0.34275 0.34275 0.3425 0.34237 0.342 0.34163 0.3415 0.34163 0.3415 0.34163 0.34113 0.34125 0.3415 0.34163 0.34163 0.342 0.34187 0.34187 0.34163 0.34163 0.34163 0.34087 0.34075 0.34063 0.34037 0.34025 0.34 0.3395 0.33863 0.33787 0.33875 0.33863 0.33837 0.33863 0.33863 0.33863 0.339 0.339 0.33875 0.3395 0.3395 0.3395 0.3395 0.33937 0.33937 0.33913 0.339 0.339 0.33837 0.33787 0.33775 0.3375 0.33725 0.33725 0.33663 0.33687 0.33663 0.3365 0.3365 0.33637 0.33613 0.33613 0.33637 0.33663 0.33663 0.33663 0.33637 0.33613 0.33613 0.336 0.336 0.33575 0.33575 0.33563 0.33513 0.33487 0.33513 0.33475 0.33463 0.33463 0.33425 0.33413 0.33387 0.33375 0.33375 0.33375 0.33387 0.33387 0.3335 0.3335 0.33325 0.33325 0.33325 0.333 0.33287 0.33287 0.33275 0.33287 0.33287 0.33287 0.33275 0.3325 0.3325 0.33237 0.33213 0.332 0.33187 0.33163 0.33163 0.3315 0.3315 0.33163 0.3315 0.3315 0.33163 0.33163 0.33187 0.3315 0.331 0.33087 0.33087 0.33063 0.33063 0.3305 0.3305 0.3305 0.3305 0.3305 0.3305 0.33037 0.33037 0.33013 0.33013 0.33 0.33 0.32963 0.3295 0.32913 0.329 0.329 0.32863 0.3285 0.32863 0.32825 0.32825 0.32812 0.32812 0.32812 0.32825 0.32825 0.32825 0.32825 0.32812 0.328 0.32775 0.328 0.32775 0.328 0.328 0.32775 0.32775 0.32762 0.32762 0.32725 0.32725 0.32562 0.32612 0.326 0.32512 0.3265 0.32662 0.32662 0.32662 0.32688 0.32712 0.32712 0.32688 0.327 0.32638 0.32612 0.326 0.32562 0.3255
0.35913 0.35913 0.35887 0.35887 0.35887 0.3595 0.36012 0.36012 0.35925 0.35925 0.35925 0.35913 0.35925 0.35913 0.35887 0.35913 0.35913 0.35925 0.35913 0.35913 0.35887 0.35887 0.3585 0.3585 0.35813 0.3575 0.3575 0.35725 0.35725 0.35725 0.35725 0.35713 0.35687 0.3565 0.3565 0.3565 0.35587 0.35575 0.35537 0.35513 0.35513 0.35513 0.3555 0.35587 0.35587 0.35575 0.35575 0.35587 0.35613 0.35587 0.35587 0.35587 0.35575 0.3555 0.35575 0.3555 0.35575 0.35537 0.35537 0.35537 0.35537 0.35537 0.3555 0.3555 0.35587 0.35587 0.35575 0.3555 0.35513 0.355 0.35437 0.35375 0.35363 0.35325 0.35237 0.35237 0.35263 0.35263 0.35263 0.35263 0.35263 0.35287 0.35263 0.35263 0.35263 0.35237 0.35225 0.352 0.352 0.35187 0.35163 0.35125 0.35125 0.3515 0.35163 0.3515 0.35087 0.3505 0.3505 0.35037 0.35037 0.35013 0.34963 0.34937 0.34937 0.34925 0.34925 0.349 0.349 0.349 0.34887 0.34863 0.34825 0.34787 0.34775 0.34775 0.34737 0.347 0.34637 0.34637 0.34637 0.34663 0.347 0.347 0.34713 0.3475 0.34737 0.34737 0.34737 0.347 0.347 0.347 0.34637 0.34625 0.346 0.3455 0.34525 0.34513 0.34525 0.34525 0.34487 0.34475 0.34475 0.3445 0.3445 0.34475 0.3445 0.34487 0.34487 0.34475 0.3445 0.3445 0.3445 0.34437 0.34387 0.34387 0.34387 0.3435 0.34325 0.34287 0.3425 0.34237 0.34237 0.342 0.342 0.34187 0.34163 0.34163 0.3415 0.3415 0.3415 0.34125 0.34125 0.34113 0.34113 0.34087 0.34087 0.34087 0.34087 0.34087 0.34087 0.34063 0.34025 0.34 0.34 0.34 0.34 0.33987 0.33987 0.34025 0.34037 0.34063 0.34063 0.34063 0.34063 0.34063 0.34037 0.34037 0.33987 0.33987 0.3395 0.33913 0.33875 0.33863 0.33775 0.3375 0.33725 0.33737 0.33737 0.337 0.33725 0.33737 0.33725 0.33737 0.33737 0.33737 0.3375 0.33775 0.33775 0.3375 0.3375 0.3375 0.33725 0.33725 0.33725 0.33687 0.3365 0.33637 0.33637 0.33613 0.33613 0.33563 0.33563 0.3355 0.33525 0.3355 0.33513 0.33487 0.33487 0.33513 0.33513 0.33513 0.33525 0.33513 0.33487 0.33513 0.33513 0.33513 0.33487 0.33463 0.33437 0.33387 0.33375 0.33375 0.3335 0.3335 0.33337 0.33337 0.33325 0.33287 0.333 0.333 0.33325 0.333 0.33325 0.33275 0.3325 0.3325 0.3325 0.33275 0.3325 0.33237 0.33213 0.332 0.33213 0.332 0.33187 0.3315 0.33137 0.33113 0.331 0.33087 0.33087 0.33087 0.33063 0.33087 0.33087 0.33063 0.33063 0.33087 0.33087 0.33087 0.33087 0.33087 0.3305 0.33013 0.32975 0.32975 0.3295 0.3295 0.3295 0.3295 0.3295 0.32963 0.32963 0.32975 0.32963 0.32963 0.32963 0.32963 0.3295 0.32925 0.329 0.32863 0.3285 0.32812 0.32812 0.32775 0.32762 0.32775 0.32762 0.32762 0.32725 0.32725 0.3275 0.32725 0.32762 0.32775 0.32762 0.32762 0.32725 0.327 0.327 0.32662 0.32662 0.32688 0.32662 0.32662 0.32638 0.32612 0.32612 0.326 0.32538 0.325 0.32488 0.325 0.32512 0.325 0.325 0.325 0.32512 0.3255 0.32562 0.3255 0.3255 0.325 0.325 0.325 0.32488 0.32462
0.35887 0.3585 0.3585 0.3585 0.35863 0.35913 0.3595 0.35925 0.35913 0.35887 0.35863 0.35887 0.35863 0.35863 0.3585 0.35863 0.3585 0.35887 0.35863 0.35863 0.3585 0.3585 0.35825 0.35787 0.3575 0.35687 0.35687 0.35675 0.35675 0.3565 0.35675 0.3565 0.35625 0.35613 0.35587 0.35587 0.3555 0.35537 0.35475 0.3545 0.3545 0.35475 0.35513 0.35537 0.35537 0.35537 0.35537 0.3555 0.35575 0.35537 0.3555 0.35575 0.35513 0.35513 0.35513 0.35513 0.35537 0.35513 0.35475 0.355 0.35513 0.35513 0.35513 0.35513 0.3555 0.3555 0.35537 0.35513 0.355 0.35413 0.35413 0.35325 0.353 0.35263 0.35187 0.35187 0.352 0.35187 0.35187 0.35163 0.35187 0.35187 0.35163 0.35187 0.35187 0.35163 0.35163 0.3515 0.35125 0.35113 0.35113 0.35075 0.35087 0.35087 0.35113 0.35113 0.35013 0.35013 0.35013 0.35 0.34975 0.34975 0.34925 0.34925 0.349 0.34887 0.34863 0.34863 0.3485 0.3485 0.34825 0.34787 0.34775 0.34713 0.34713 0.34713 0.34663 0.34625 0.34563 0.34587 0.34587 0.346 0.34637 0.34637 0.34663 0.34675 0.34675 0.34675 0.34663 0.34637 0.34625 0.34625 0.34563 0.3455 0.34525 0.34487 0.34475 0.34437 0.3445 0.34475 0.344 0.34425 0.344 0.34387 0.34387 0.34363 0.34387 0.344 0.344 0.344 0.34387 0.34387 0.34387 0.3435 0.34325 0.34325 0.34325 0.34287 0.34275 0.34237 0.34187 0.34187 0.34187 0.34163 0.3415 0.34125 0.34125 0.34125 0.34087 0.34113 0.34087 0.34075 0.34075 0.34063 0.34063 0.34037 0.34037 0.34037 0.34025 0.34037 0.34025 0.34 0.33963 0.33963 0.3395 0.33937 0.33937 0.33937 0.33937 0.33963 0.33987 0.33987 0.34 0.33987 0.33987 0.33987 0.34037 0.34025 0.3395 0.33913 0.339 0.33837 0.33825 0.33787 0.33725 0.33687 0.33687 0.33687 0.337 0.33687 0.33687 0.337 0.337 0.337 0.33687 0.33687 0.33725 0.33725 0.337 0.33687 0.33687 0.33687 0.3365 0.3365 0.33637 0.33637 0.33575 0.33575 0.336 0.33575 0.33563 0.33525 0.33513 0.33513 0.33513 0.33487 0.33475 0.33463 0.33437 0.33463 0.33475 0.33475 0.33463 0.33475 0.33463 0.33463 0.33463 0.33463 0.33437 0.33425 0.33387 0.3335 0.33337 0.33325 0.33287 0.33287 0.33287 0.33275 0.3325 0.33237 0.3325 0.3325 0.3325 0.33275 0.3325 0.3325 0.33213 0.332 0.332 0.33237 0.332 0.332 0.33163 0.3315 0.33163 0.33163 0.33137 0.33113 0.33087 0.33087 0.33063 0.33037 0.3305 0.3305 0.33037 0.33037 0.33037 0.3305 0.3305 0.3305 0.33063 0.3305 0.33063 0.3305 0.33037 0.32975 0.32963 0.3295 0.32925 0.32913 0.329 0.32925 0.32913 0.32925 0.32925 0.3295 0.3295 0.32925 0.3295 0.32925 0.32925 0.329 0.32875 0.3285 0.32812 0.328 0.32775 0.32725 0.32712 0.32725 0.32712 0.32725 0.32688 0.32688 0.32688 0.327 0.32712 0.32725 0.32725 0.32712 0.32688 0.32662 0.3265 0.32612 0.32612 0.32638 0.326 0.326 0.32588 0.3255 0.3255 0.32538 0.325 0.32462 0.32462 0.3245 0.32462 0.3245 0.3245 0.32462 0.32462 0.32512 0.32512 0.325 0.325 0.32488 0.3245 0.3245 0.32438 0.32438
0.3585 0.3585 0.35825 0.35825 0.35825 0.35863 0.35913 0.35887 0.3585 0.3585 0.35825 0.3585 0.35825 0.35825 0.35825 0.35825 0.35813 0.3585 0.3585 0.35825 0.35825 0.35813 0.35787 0.3575 0.35713 0.35675 0.35625 0.35613 0.35613 0.35587 0.35587 0.35587 0.35575 0.3555 0.3555 0.35537 0.35537 0.355 0.35437 0.35413 0.354 0.354 0.3545 0.35475 0.355 0.3545 0.3545 0.355 0.355 0.355 0.35513 0.355 0.35475 0.3545 0.35475 0.3545 0.355 0.35475 0.3545 0.3545 0.35475 0.35475 0.35475 0.355 0.35513 0.35513 0.355 0.355 0.3545 0.35363 0.35363 0.35337 0.35237 0.35225 0.3515 0.3515 0.3515 0.3515 0.35125 0.35125 0.35113 0.35113 0.35113 0.35113 0.35113 0.35113 0.35113 0.35087 0.35087 0.35075 0.3505 0.35037 0.3505 0.35037 0.3505 0.35037 0.34963 0.34937 0.34937 0.34937 0.34925 0.349 0.34887 0.34887 0.34863 0.34825 0.34825 0.34787 0.34813 0.34787 0.3475 0.34737 0.347 0.34663 0.34637 0.34625 0.34587 0.3455 0.34525 0.3455 0.3455 0.34563 0.34563 0.34563 0.34587 0.346 0.34587 0.34563 0.34563 0.3455 0.34513 0.34525 0.3445 0.3445 0.3445 0.344 0.344 0.344 0.34363 0.344 0.34363 0.3435 0.3435 0.34313 0.34313 0.34313 0.34313 0.34313 0.3435 0.34325 0.34325 0.34325 0.34325 0.34313 0.34287 0.34287 0.34287 0.3425 0.34237 0.342 0.34163 0.3415 0.3415 0.34125 0.34113 0.34087 0.34075 0.34087 0.34063 0.34037 0.34063 0.34037 0.34037 0.34037 0.34025 0.34 0.33987 0.34 0.34 0.33987 0.33987 0.33963 0.33937 0.33937 0.339 0.339 0.339 0.33875 0.339 0.33937 0.33937 0.3395 0.33937 0.33913 0.339 0.339 0.33837 0.33663 0.33687 0.33813 0.33775 0.3375 0.33725 0.33725 0.33663 0.3365 0.3365 0.3365 0.33687 0.3365 0.33663 0.33687 0.33687 0.33687 0.33663 0.33663 0.33663 0.33663 0.3365 0.33637 0.33637 0.33613 0.33575 0.33575 0.33575 0.33563 0.33563 0.3355 0.33563 0.33563 0.3355 0.33525 0.33487 0.33487 0.33475 0.33487 0.33475 0.33437 0.33437 0.33437 0.33437 0.33425 0.33425 0.33425 0.33413 0.33413 0.33413 0.33387 0.33387 0.33375 0.33337 0.333 0.33287 0.33275 0.33237 0.33213 0.332 0.332 0.33187 0.33163 0.33187 0.33187 0.33187 0.33187 0.332 0.33163 0.33163 0.3315 0.3315 0.3315 0.3315 0.33137 0.33137 0.331 0.33137 0.33113 0.331 0.33063 0.33063 0.3305 0.33037 0.33013 0.33013 0.33013 0.33 0.33013 0.33013 0.33 0.33013 0.33013 0.33037 0.33013 0.33037 0.33013 0.33013 0.3295 0.32925 0.32925 0.32913 0.329 0.32875 0.329 0.32913 0.329 0.32913 0.32913 0.32913 0.32925 0.32913 0.32913 0.32913 0.32875 0.3285 0.32812 0.32775 0.32762 0.32725 0.32688 0.32662 0.3265 0.3265 0.32638 0.32638 0.32612 0.32612 0.32612 0.32638 0.3265 0.32662 0.32662 0.32638 0.32588 0.32588 0.32588 0.3255 0.3255 0.3255 0.32538 0.325 0.32488 0.32488 0.32462 0.32438 0.32438 0.32425 0.32438 0.32438 0.32425 0.32438 0.32438 0.3245 0.325 0.325 0.32488 0.32488 0.32462 0.32438 0.32425 0.32425 0.324
0.35713 0.35713 0.35687 0.3565 0.3565 0.35675 0.35713 0.35713 0.35675 0.35687 0.35687 0.35687 0.35713 0.35687 0.35687 0.35713 0.35675 0.35687 0.35725 0.35725 0.3575 0.3575 0.35687 0.35675 0.35625 0.35587 0.35575 0.355 0.35475 0.35475 0.35475 0.3545 0.35437 0.35413 0.35413 0.354 0.35437 0.35437 0.35363 0.35363 0.35325 0.35325 0.35337 0.35363 0.35337 0.35337 0.35337 0.35325 0.35325 0.35337 0.35375 0.35375 0.35325 0.353 0.353 0.353 0.35375 0.35375 0.35375 0.35375 0.35337 0.35337 0.35337 0.35325 0.35237 0.35125 0.3515 0.3515 0.34975 0.35 0.3515 0.35187 0.3515 0.35087 0.3505 0.35037 0.35013 0.35 0.35 0.34975 0.34963 0.34963 0.34975 0.34975 0.34975 0.34975 0.35 0.34975 0.34937 0.34937 0.34937 0.34925 0.34937 0.34925 0.34887 0.3485 0.34787 0.34787 0.34813 0.34787 0.34775 0.34737 0.347 0.34737 0.34713 0.347 0.34713 0.347 0.34675 0.34663 0.34625 0.346 0.34587 0.3455 0.34525 0.34525 0.34487 0.34475 0.3445 0.3445 0.34475 0.34487 0.34513 0.34475 0.3445 0.34437 0.34437 0.344 0.344 0.34363 0.34325 0.34325 0.34313 0.34287 0.34287 0.3425 0.3425 0.3425 0.34275 0.3425 0.34237 0.34213 0.34213 0.34213 0.34187 0.342 0.34187 0.342 0.34213 0.34237 0.34237 0.34213 0.34213 0.34213 0.342 0.34237 0.34213 0.342 0.34187 0.3415 0.34087 0.34087 0.34075 0.34063 0.34063 0.34 0.33987 0.33987 0.3395 0.33937 0.33937 0.33913 0.33913 0.33913 0.33937 0.33937 0.33913 0.33913 0.33913 0.33913 0.33937 0.33913 0.33863 0.33863 0.33825 0.33787 0.33787 0.33775 0.33775 0.33813 0.33813 0.33787 0.33775 0.3375 0.3375 0.3375 0.337 0.33637 0.3365 0.3365 0.33637 0.33575 0.33575 0.33563 0.33563 0.3355 0.3355 0.33563 0.336 0.33575 0.336 0.33613 0.33613 0.3365 0.33637 0.336 0.33563 0.3355 0.33513 0.33487 0.33475 0.33463 0.33425 0.33413 0.33413 0.33413 0.33413 0.33425 0.33437 0.33463 0.33463 0.33463 0.33425 0.33413 0.33413 0.33425 0.33425 0.33413 0.33375 0.3335 0.33325 0.33337 0.33337 0.33337 0.33337 0.33287 0.33287 0.33287 0.33275 0.3325 0.33237 0.33213 0.33213 0.33187 0.33113 0.331 0.33087 0.33087 0.33087 0.33063 0.33063 0.33087 0.33063 0.33063 0.33087 0.33087 0.33087 0.33063 0.33063 0.33087 0.33063 0.33037 0.33037 0.33 0.33013 0.33013 0.33 0.32963 0.32963 0.32975 0.32963 0.32963 0.3295 0.3295 0.3295 0.32913 0.32925 0.32913 0.32913 0.32913 0.329 0.32913 0.329 0.329 0.329 0.32863 0.32825 0.32825 0.328 0.32775 0.32775 0.32775 0.328 0.32775 0.32775 0.328 0.328 0.32812 0.32825 0.32812 0.32812 0.328 0.32762 0.32725 0.32712 0.32688 0.3265 0.326 0.32588 0.3255 0.32512 0.32512 0.32512 0.325 0.32512 0.32488 0.325 0.32538 0.3255 0.3255 0.32538 0.325 0.32488 0.32488 0.3245 0.32438 0.32425 0.324 0.32375 0.32338 0.32325 0.32288 0.32275 0.32262 0.32262 0.32312 0.32338 0.32338 0.32375 0.32388 0.32425 0.32438 0.3245 0.32438 0.32425 0.324 0.32375 0.32338 0.32312 0.32288
0.3565 0.35625 0.35613 0.35575 0.3555 0.35575 0.35613 0.35613 0.35613 0.35587 0.35613 0.35625 0.35625 0.35625 0.35625 0.35625 0.35587 0.35625 0.35675 0.35675 0.35687 0.35687 0.3565 0.35613 0.35587 0.3555 0.35537 0.35437 0.35437 0.35413 0.35413 0.35413 0.354 0.35363 0.35375 0.35375 0.35363 0.354 0.35375 0.35325 0.353 0.353 0.353 0.35325 0.35287 0.35263 0.35263 0.35263 0.35237 0.35287 0.353 0.35325 0.35237 0.35225 0.35225 0.35237 0.353 0.35325 0.35325 0.35337 0.35263 0.35237 0.35237 0.35225 0.35237 0.35125 0.35125 0.3515 0.34975 0.35 0.35075 0.35163 0.35163 0.35013 0.35 0.34975 0.34937 0.34937 0.34925 0.34925 0.34925 0.349 0.34925 0.34925 0.34937 0.34937 0.34963 0.34937 0.34887 0.34887 0.34887 0.34887 0.34863 0.34863 0.34813 0.3475 0.347 0.34737 0.3475 0.34737 0.347 0.34663 0.34637 0.34663 0.34663 0.34663 0.34663 0.34663 0.34663 0.346 0.346 0.34563 0.3455 0.34513 0.34487 0.34513 0.3445 0.34437 0.34437 0.3445 0.34475 0.34475 0.34475 0.3445 0.344 0.344 0.344 0.34363 0.34325 0.34325 0.3425 0.3425 0.34237 0.3425 0.3425 0.34213 0.342 0.342 0.342 0.342 0.34187 0.34187 0.34163 0.34163 0.3415 0.34163 0.3415 0.34163 0.34163 0.34163 0.342 0.342 0.34187 0.34187 0.34187 0.34213 0.342 0.34163 0.3415 0.34125 0.34075 0.34075 0.34037 0.34037 0.34025 0.3395 0.3395 0.3395 0.339 0.339 0.33875 0.33863 0.33863 0.33875 0.33875 0.33875 0.33875 0.339 0.33863 0.33875 0.33913 0.33875 0.33825 0.33813 0.33775 0.3375 0.33737 0.33725 0.33737 0.33737 0.33737 0.33737 0.33725 0.33687 0.337 0.337 0.33637 0.33613 0.336 0.336 0.33575 0.3355 0.3355 0.33525 0.33513 0.33513 0.33513 0.33513 0.3355 0.3355 0.33563 0.33575 0.33575 0.33613 0.336 0.3355 0.33513 0.33487 0.33463 0.33425 0.33437 0.33387 0.33375 0.33337 0.33325 0.33337 0.33337 0.33375 0.33375 0.33413 0.33413 0.33413 0.33387 0.33375 0.33387 0.33387 0.33387 0.3335 0.33337 0.33325 0.33287 0.33287 0.33287 0.333 0.33287 0.3325 0.33237 0.33237 0.33213 0.332 0.33187 0.33187 0.33163 0.3315 0.33087 0.33037 0.33037 0.3305 0.3305 0.33037 0.3305 0.3305 0.33037 0.33037 0.3305 0.3305 0.33063 0.3305 0.3305 0.3305 0.3305 0.33013 0.33 0.32963 0.32975 0.32963 0.32963 0.32913 0.32925 0.32925 0.32925 0.32913 0.32913 0.32925 0.329 0.32875 0.32875 0.32863 0.32863 0.32863 0.32863 0.32863 0.3285 0.3285 0.3285 0.328 0.32775 0.32762 0.32725 0.32712 0.32712 0.32712 0.32712 0.32712 0.32712 0.32712 0.32725 0.3275 0.32762 0.32775 0.32762 0.32762 0.32725 0.327 0.32662 0.3265 0.32612 0.32562 0.32538 0.325 0.32488 0.32488 0.3245 0.32488 0.32488 0.3245 0.32462 0.325 0.32512 0.325 0.325 0.3245 0.3245 0.32438 0.32425 0.324 0.32375 0.3235 0.32325 0.32262 0.32225 0.32212 0.32175 0.32175 0.32175 0.32225 0.32262 0.32275 0.32338 0.3235 0.32375 0.32425 0.32425 0.32425 0.324 0.32388 0.32325 0.32288 0.32262 0.32225
0.35575 0.3555 0.35537 0.35513 0.355 0.35475 0.35513 0.35537 0.35537 0.3555 0.35575 0.35575 0.35575 0.35587 0.35587 0.35587 0.35575 0.35613 0.35625 0.35625 0.35625 0.35625 0.3555 0.35537 0.35537 0.35475 0.3545 0.35437 0.35363 0.35363 0.35363 0.35375 0.35337 0.35337 0.35325 0.35337 0.35325 0.35375 0.35337 0.353 0.35287 0.35263 0.35287 0.35263 0.35237 0.352 0.352 0.35187 0.352 0.352 0.35237 0.35225 0.35163 0.3515 0.3515 0.35163 0.352 0.35225 0.352 0.35113 0.35 0.3515 0.3515 0.35087 0.34937 0.34887 0.35 0.3485 0.34813 0.349 0.34825 0.34825 0.34825 0.34787 0.34925 0.34925 0.349 0.349 0.34887 0.34887 0.34863 0.3485 0.34863 0.34887 0.349 0.34925 0.349 0.349 0.3485 0.3485 0.34863 0.34863 0.34863 0.3485 0.34775 0.34737 0.34663 0.34675 0.347 0.347 0.34663 0.346 0.34587 0.34625 0.346 0.346 0.34625 0.34625 0.346 0.34563 0.34525 0.34525 0.34513 0.34475 0.3445 0.34475 0.34425 0.34425 0.344 0.34425 0.34425 0.34437 0.34437 0.34437 0.34387 0.34363 0.34387 0.34325 0.34313 0.34287 0.3425 0.34237 0.34237 0.34213 0.34213 0.34187 0.34187 0.34187 0.34163 0.34187 0.3415 0.3415 0.3415 0.34125 0.3415 0.34125 0.34125 0.3415 0.3415 0.3415 0.34163 0.34163 0.3415 0.34163 0.34163 0.34163 0.34187 0.34125 0.34087 0.34087 0.34063 0.34063 0.34037 0.33987 0.33987 0.33913 0.33913 0.33913 0.33863 0.33837 0.33825 0.33813 0.33787 0.33813 0.33825 0.33837 0.33837 0.33825 0.33813 0.33825 0.33837 0.33825 0.33787 0.33775 0.3375 0.33725 0.33725 0.337 0.33687 0.33687 0.33687 0.33663 0.33663 0.3365 0.3365 0.3365 0.33613 0.33575 0.33575 0.33563 0.33563 0.33525 0.33513 0.33513 0.33513 0.33487 0.33513 0.33487 0.33513 0.33525 0.33513 0.33525 0.33525 0.33563 0.3355 0.33475 0.33463 0.33437 0.33387 0.33387 0.33387 0.3335 0.33337 0.33325 0.333 0.33287 0.333 0.3335 0.3335 0.33387 0.33375 0.3335 0.33337 0.33325 0.33337 0.33337 0.33337 0.33287 0.33275 0.3325 0.33213 0.33213 0.332 0.33213 0.33213 0.332 0.33187 0.3315 0.33137 0.331 0.33087 0.33087 0.33113 0.33087 0.33013 0.32963 0.32975 0.33 0.33013 0.33 0.32975 0.33 0.33013 0.33 0.33037 0.33037 0.33037 0.33013 0.33013 0.33037 0.33 0.32975 0.3295 0.32925 0.32913 0.32925 0.329 0.32875 0.32875 0.32875 0.32875 0.32863 0.32875 0.32875 0.32863 0.32863 0.32863 0.3285 0.3285 0.3285 0.3285 0.3285 0.32812 0.32812 0.32812 0.32775 0.32725 0.32725 0.32688 0.32662 0.32662 0.3265 0.3265 0.32662 0.32688 0.32688 0.32688 0.327 0.32712 0.32712 0.32712 0.32712 0.3265 0.32612 0.326 0.32588 0.3255 0.325 0.32488 0.32462 0.3245 0.3245 0.32438 0.3245 0.3245 0.32425 0.3245 0.32462 0.32462 0.32462 0.3245 0.32438 0.32425 0.324 0.32388 0.3235 0.3235 0.32325 0.32312 0.32225 0.322 0.32175 0.3215 0.3215 0.3215 0.32162 0.32212 0.32225 0.32288 0.32325 0.3235 0.32375 0.32375 0.3235 0.32338 0.32338 0.32262 0.32225 0.322 0.322
0.3545 0.3545 0.35437 0.354 0.35375 0.35363 0.35363 0.354 0.35413 0.3545 0.35475 0.35475 0.35475 0.355 0.35513 0.35537 0.35513 0.35475 0.35475 0.35575 0.3555 0.35537 0.35475 0.3545 0.35437 0.35363 0.35225 0.35225 0.35187 0.352 0.352 0.35237 0.35237 0.35237 0.35237 0.35237 0.35225 0.35287 0.35237 0.35225 0.352 0.35187 0.352 0.35187 0.35125 0.35113 0.35113 0.35087 0.35087 0.35087 0.35087 0.35075 0.3505 0.35037 0.35037 0.35037 0.35037 0.3505 0.3505 0.3505 0.35013 0.34975 0.34975 0.34925 0.34887 0.34863 0.34813 0.34787 0.34775 0.34737 0.3475 0.34775 0.34737 0.34713 0.34775 0.34813 0.34825 0.34813 0.34787 0.34787 0.3475 0.34737 0.3475 0.34775 0.34775 0.34787 0.34787 0.34775 0.34737 0.34713 0.34737 0.3475 0.34775 0.3475 0.34637 0.346 0.3455 0.34563 0.34587 0.34563 0.3455 0.34513 0.34487 0.34513 0.34487 0.34487 0.34487 0.34475 0.3445 0.34437 0.344 0.34387 0.344 0.3435 0.3435 0.34363 0.34325 0.34313 0.34287 0.34313 0.34313 0.34313 0.34313 0.34313 0.34287 0.34287 0.34275 0.3425 0.34213 0.342 0.342 0.34187 0.34163 0.34163 0.3415 0.34125 0.34113 0.34113 0.34087 0.34113 0.34075 0.34075 0.34075 0.34075 0.34063 0.34063 0.34037 0.34063 0.34063 0.34037 0.34037 0.34037 0.34025 0.34025 0.34 0.34 0.34025 0.33987 0.33963 0.33937 0.33913 0.33937 0.33913 0.33875 0.33863 0.33825 0.33813 0.33813 0.33787 0.3375 0.3375 0.337 0.33687 0.33687 0.337 0.337 0.33725 0.337 0.33687 0.33687 0.337 0.337 0.337 0.33687 0.33663 0.3365 0.33637 0.33613 0.33613 0.336 0.336 0.33563 0.3355 0.3355 0.3355 0.3355 0.33513 0.33487 0.33487 0.33487 0.33475 0.33463 0.33463 0.33437 0.33437 0.33425 0.33437 0.33463 0.33463 0.33463 0.33425 0.33425 0.33425 0.33437 0.33437 0.33375 0.3335 0.33337 0.333 0.33287 0.33287 0.33275 0.3325 0.33237 0.33213 0.33213 0.33187 0.33237 0.3325 0.3325 0.33275 0.3325 0.33213 0.33237 0.332 0.33213 0.33237 0.33163 0.33137 0.33113 0.331 0.331 0.331 0.33087 0.331 0.33087 0.3305 0.33 0.32975 0.32963 0.3295 0.3295 0.32963 0.32963 0.32913 0.32863 0.32863 0.32875 0.329 0.32875 0.32875 0.32875 0.329 0.32913 0.32925 0.3295 0.3295 0.3295 0.32925 0.3295 0.32925 0.32913 0.32863 0.32825 0.32812 0.32812 0.32812 0.328 0.32775 0.32775 0.32775 0.32762 0.32775 0.32762 0.32762 0.32762 0.32762 0.32762 0.32762 0.32762 0.32775 0.328 0.32762 0.3275 0.3275 0.32688 0.32662 0.32638 0.32588 0.32562 0.3255 0.3255 0.3255 0.32562 0.32588 0.32588 0.32562 0.32562 0.32588 0.32588 0.32588 0.32562 0.32512 0.32488 0.32488 0.3245 0.32438 0.32425 0.324 0.32388 0.32375 0.32375 0.3235 0.32375 0.32375 0.32325 0.32325 0.32338 0.32325 0.32325 0.32325 0.32325 0.32312 0.32288 0.32275 0.32262 0.32238 0.32225 0.322 0.32125 0.32112 0.321 0.32062 0.3205 0.32038 0.32038 0.3205 0.32062 0.32162 0.32175 0.322 0.32212 0.32212 0.32212 0.32212 0.32212 0.3215 0.32125 0.32088 0.32062
0.35413 0.35413 0.35413 0.35375 0.35337 0.35337 0.35337 0.35363 0.354 0.35437 0.3545 0.3545 0.3545 0.35475 0.35475 0.35513 0.355 0.35437 0.354 0.35237 0.35237 0.352 0.3515 0.35163 0.35125 0.35075 0.35113 0.35113 0.35113 0.35113 0.35125 0.35163 0.35187 0.352 0.35187 0.35187 0.35187 0.35225 0.352 0.35163 0.35163 0.3515 0.3515 0.3515 0.35075 0.35075 0.3505 0.3505 0.3505 0.3505 0.3505 0.35013 0.35013 0.35 0.34975 0.34975 0.34975 0.35 0.35 0.35 0.34963 0.34937 0.34937 0.34863 0.3485 0.34813 0.34775 0.34713 0.347 0.347 0.34675 0.347 0.34675 0.34675 0.34713 0.34775 0.34775 0.34775 0.34775 0.3475 0.347 0.347 0.34713 0.34713 0.34713 0.34737 0.34713 0.347 0.34637 0.34663 0.34637 0.34663 0.34713 0.347 0.34563 0.34525 0.34525 0.34513 0.34513 0.34475 0.3445 0.3445 0.34437 0.34437 0.34425 0.34437 0.34437 0.34425 0.34387 0.34363 0.3435 0.3435 0.34325 0.34287 0.34275 0.34275 0.3425 0.3425 0.34237 0.34213 0.34237 0.34213 0.34237 0.3425 0.34213 0.34213 0.34237 0.34187 0.34163 0.34187 0.34163 0.34163 0.34125 0.34125 0.34125 0.34087 0.34087 0.34075 0.34075 0.34063 0.34037 0.34037 0.34037 0.34037 0.34025 0.34 0.34 0.34 0.33987 0.33987 0.33963 0.33963 0.3395 0.3395 0.33913 0.33937 0.33937 0.339 0.33863 0.33837 0.33837 0.33837 0.33825 0.33787 0.33787 0.33775 0.33775 0.33775 0.33737 0.33737 0.33725 0.33687 0.33663 0.33663 0.33663 0.33663 0.33663 0.33663 0.3365 0.3365 0.3365 0.33663 0.33663 0.33663 0.3365 0.33613 0.33613 0.336 0.336 0.336 0.33563 0.3355 0.33525 0.33513 0.33513 0.33513 0.33463 0.33437 0.33437 0.33463 0.33437 0.33425 0.33413 0.33413 0.33387 0.33413 0.33413 0.33425 0.33437 0.33413 0.33413 0.33413 0.33413 0.33413 0.33413 0.33337 0.33325 0.33287 0.33275 0.33237 0.33237 0.33213 0.332 0.33163 0.3315 0.3315 0.33137 0.3315 0.33187 0.33187 0.33187 0.33163 0.33163 0.33187 0.33137 0.33163 0.33187 0.33137 0.33113 0.33087 0.33063 0.33063 0.3305 0.33063 0.33063 0.33037 0.33 0.32963 0.3295 0.32925 0.32925 0.32913 0.32925 0.32913 0.32875 0.32825 0.32825 0.3285 0.32863 0.3285 0.32825 0.32825 0.3285 0.32863 0.32875 0.32913 0.32913 0.329 0.32913 0.329 0.32913 0.32875 0.32825 0.328 0.32775 0.32775 0.32762 0.32762 0.32762 0.32725 0.32725 0.32712 0.32712 0.327 0.32712 0.32725 0.32725 0.32712 0.32712 0.32712 0.3275 0.32762 0.3275 0.32725 0.32712 0.32662 0.32638 0.326 0.32538 0.32538 0.32512 0.32512 0.32512 0.32538 0.32538 0.32538 0.32512 0.32512 0.32512 0.32512 0.32538 0.325 0.32462 0.3245 0.32425 0.324 0.324 0.324 0.32388 0.32375 0.3235 0.32338 0.32325 0.32312 0.32312 0.32275 0.32262 0.32262 0.32238 0.32262 0.32275 0.32238 0.32262 0.32238 0.32225 0.32212 0.322 0.32162 0.3215 0.32062 0.32062 0.32062 0.32038 0.32038 0.32 0.31975 0.31975 0.32 0.32088 0.32112 0.32112 0.3215 0.32112 0.32112 0.32125 0.32125 0.32088 0.32062 0.3205 0.32025
0.353 0.353 0.35325 0.353 0.353 0.353 0.353 0.35325 0.35325 0.35375 0.35375 0.354 0.35375 0.35413 0.35413 0.3545 0.35413 0.35325 0.35263 0.35163 0.3515 0.35113 0.35087 0.35075 0.35075 0.35037 0.35037 0.35037 0.3505 0.3505 0.3505 0.35075 0.35075 0.35087 0.35125 0.35113 0.35113 0.35125 0.35113 0.35087 0.35087 0.35075 0.3505 0.3505 0.35013 0.35 0.34975 0.34963 0.34975 0.34963 0.34963 0.34937 0.34925 0.34925 0.349 0.349 0.34925 0.34925 0.34925 0.34925 0.349 0.3485 0.34863 0.34775 0.34775 0.34737 0.34675 0.34663 0.34625 0.346 0.346 0.34625 0.346 0.34563 0.346 0.34637 0.34625 0.34625 0.34637 0.34625 0.346 0.34587 0.34587 0.34587 0.346 0.34625 0.34625 0.346 0.34513 0.34513 0.34487 0.34487 0.34487 0.34487 0.344 0.34363 0.3435 0.34325 0.34325 0.34313 0.34287 0.34313 0.34313 0.34313 0.34287 0.34275 0.34313 0.34287 0.3425 0.34237 0.34237 0.34213 0.34213 0.342 0.342 0.342 0.34187 0.34163 0.34187 0.3415 0.34163 0.34087 0.34113 0.34125 0.34087 0.34087 0.34113 0.34087 0.34075 0.34075 0.34075 0.34075 0.34063 0.34037 0.34037 0.34 0.34 0.34 0.34 0.34 0.33987 0.33987 0.33963 0.33963 0.33937 0.33913 0.33875 0.339 0.33863 0.33863 0.33837 0.33825 0.33813 0.33813 0.33787 0.33787 0.33787 0.3375 0.3375 0.33737 0.33725 0.33737 0.33737 0.337 0.33687 0.33687 0.33663 0.33687 0.3365 0.33637 0.33637 0.33563 0.33563 0.33563 0.33575 0.33575 0.33575 0.33563 0.33563 0.33563 0.33563 0.3355 0.3355 0.33563 0.3355 0.3355 0.33513 0.33487 0.33487 0.33487 0.33487 0.33487 0.33475 0.33463 0.33437 0.33425 0.33413 0.33387 0.33375 0.3335 0.33337 0.33325 0.333 0.333 0.333 0.333 0.333 0.333 0.33287 0.33275 0.33275 0.33275 0.33275 0.33237 0.33213 0.332 0.332 0.33163 0.3315 0.33137 0.33113 0.331 0.33087 0.3305 0.33063 0.3305 0.3305 0.33037 0.3305 0.3305 0.3305 0.3305 0.33037 0.3305 0.33037 0.33037 0.3305 0.33037 0.33013 0.33 0.32963 0.32963 0.3295 0.3295 0.3295 0.3295 0.32913 0.32875 0.32863 0.32863 0.32863 0.3285 0.3285 0.32825 0.32775 0.3275 0.32725 0.3275 0.3275 0.32712 0.32712 0.32712 0.32712 0.32725 0.3275 0.3275 0.3275 0.3275 0.3275 0.3275 0.3275 0.32725 0.32712 0.32688 0.32688 0.32662 0.3265 0.32662 0.32662 0.32638 0.3265 0.32612 0.326 0.32562 0.3255 0.3255 0.3255 0.32538 0.3255 0.32512 0.3245 0.3245 0.32438 0.3245 0.32538 0.325 0.32462 0.3245 0.32438 0.32425 0.324 0.324 0.32388 0.32338 0.3235 0.3235 0.32338 0.3235 0.32338 0.32338 0.32325 0.32325 0.32325 0.32325 0.32338 0.32325 0.32325 0.32325 0.32312 0.32312 0.32275 0.32275 0.32238 0.32225 0.32225 0.32162 0.32125 0.32088 0.32062 0.32088 0.321 0.32088 0.32062 0.32062 0.32038 0.32038 0.32038 0.32025 0.31988 0.31925 0.31925 0.31925 0.31925 0.31938 0.31925 0.31925 0.31912 0.3195 0.31988 0.32025 0.32 0.31988 0.31975 0.31938 0.31975 0.31975 0.31938 0.31925 0.31875 0.31862
0.35237 0.35263 0.35263 0.35263 0.35263 0.35237 0.35263 0.35287 0.353 0.35325 0.35337 0.35337 0.35337 0.35337 0.35363 0.35375 0.35337 0.35263 0.352 0.35113 0.35113 0.35075 0.35075 0.3505 0.3505 0.35 0.35 0.35 0.35013 0.35013 0.35013 0.35037 0.35037 0.35037 0.35075 0.3505 0.3505 0.35075 0.3505 0.35037 0.35037 0.35037 0.35013 0.35 0.34963 0.34937 0.349 0.349 0.349 0.34925 0.349 0.34887 0.34887 0.34863 0.34863 0.3485 0.34887 0.34863 0.34863 0.34863 0.34825 0.34813 0.34787 0.34737 0.347 0.34675 0.34637 0.34625 0.346 0.34587 0.34587 0.34587 0.34563 0.34525 0.3455 0.34587 0.34563 0.34563 0.346 0.34587 0.3455 0.3455 0.34525 0.34525 0.34563 0.34563 0.3455 0.34525 0.34475 0.3445 0.3445 0.34437 0.3445 0.34437 0.34363 0.34325 0.34325 0.34313 0.34287 0.34275 0.34275 0.34275 0.34275 0.34275 0.34275 0.3425 0.34275 0.3425 0.34213 0.34213 0.34187 0.34187 0.34187 0.34163 0.34163 0.34163 0.3415 0.3415 0.3415 0.34125 0.34125 0.34063 0.34075 0.34075 0.34063 0.34063 0.34063 0.34025 0.34025 0.34 0.34 0.34025 0.33987 0.33963 0.33963 0.33963 0.3395 0.3395 0.3395 0.3395 0.33937 0.3395 0.3395 0.33937 0.339 0.33875 0.33837 0.33863 0.33825 0.33825 0.33813 0.33813 0.33775 0.33775 0.3375 0.33737 0.33737 0.337 0.33725 0.337 0.337 0.337 0.337 0.33663 0.3365 0.33637 0.3365 0.3365 0.33613 0.336 0.33575 0.33525 0.33525 0.33525 0.33513 0.33525 0.33513 0.33513 0.33487 0.33487 0.33487 0.33513 0.33487 0.33513 0.33513 0.33487 0.33475 0.33475 0.33463 0.33463 0.33437 0.33437 0.33437 0.33425 0.33413 0.33375 0.3335 0.3335 0.33337 0.33325 0.333 0.33287 0.33275 0.33275 0.33275 0.3325 0.3325 0.33237 0.33213 0.332 0.33213 0.332 0.332 0.33163 0.33137 0.33137 0.33137 0.33137 0.331 0.331 0.33087 0.3305 0.33037 0.33013 0.33013 0.33013 0.33 0.33 0.32975 0.32975 0.32975 0.32975 0.32975 0.32975 0.32963 0.32963 0.32963 0.32963 0.3295 0.3295 0.32913 0.32913 0.32913 0.32913 0.329 0.32913 0.32875 0.3285 0.32825 0.32812 0.32812 0.328 0.328 0.328 0.3275 0.327 0.327 0.327 0.327 0.32662 0.32662 0.32662 0.32662 0.32688 0.32688 0.32688 0.32688 0.32688 0.32688 0.327 0.32688 0.32688 0.32662 0.3265 0.32638 0.32612 0.326 0.32612 0.326 0.32588 0.326 0.32588 0.32538 0.325 0.325 0.325 0.32488 0.325 0.32488 0.3245 0.32425 0.324 0.324 0.32425 0.3245 0.32462 0.32388 0.32388 0.3235 0.3235 0.3235 0.32338 0.32325 0.32312 0.32312 0.32312 0.32312 0.32312 0.32288 0.32288 0.32275 0.32275 0.32288 0.32275 0.32288 0.32288 0.32275 0.32288 0.32275 0.32275 0.32262 0.32238 0.32212 0.32212 0.322 0.32112 0.32062 0.32025 0.32 0.32038 0.32038 0.32025 0.32 0.31988 0.31988 0.31975 0.31975 0.31975 0.31938 0.31888 0.31875 0.31888 0.31912 0.31912 0.31912 0.31875 0.31875 0.31912 0.31938 0.3195 0.31938 0.31925 0.31888 0.31875 0.31875 0.31888 0.31875 0.3185 0.3185 0.318
0.35187 0.35225 0.35225 0.352 0.35225 0.352 0.35225 0.35237 0.35263 0.35287 0.353 0.35263 0.35263 0.35263 0.35263 0.353 0.35263 0.35187 0.35125 0.35075 0.35075 0.3505 0.35037 0.35037 0.35013 0.34975 0.34975 0.34975 0.34963 0.35 0.34975 0.34975 0.34975 0.35 0.35013 0.35 0.35 0.35 0.35 0.34975 0.34975 0.34963 0.34963 0.34937 0.349 0.34887 0.34863 0.3485 0.34863 0.34863 0.3485 0.3485 0.3485 0.34825 0.34825 0.34813 0.34825 0.34825 0.34813 0.34813 0.34775 0.34737 0.34737 0.347 0.34637 0.34625 0.34625 0.346 0.34587 0.34563 0.3455 0.34563 0.34525 0.34513 0.34513 0.34513 0.34513 0.34513 0.3455 0.3455 0.34513 0.34513 0.34487 0.34487 0.34513 0.34513 0.34487 0.34475 0.34437 0.34437 0.34425 0.34425 0.34425 0.344 0.3435 0.34325 0.34325 0.34287 0.34287 0.34275 0.34275 0.34275 0.3425 0.3425 0.3425 0.34237 0.34237 0.34213 0.34187 0.34163 0.3415 0.34125 0.34125 0.34125 0.34125 0.3415 0.34125 0.34125 0.34113 0.34113 0.34087 0.34025 0.34025 0.34025 0.33987 0.33987 0.33987 0.33963 0.3395 0.33937 0.33913 0.33937 0.33937 0.33937 0.33913 0.339 0.33913 0.33913 0.339 0.339 0.339 0.339 0.33913 0.339 0.33863 0.33837 0.33825 0.33813 0.33787 0.33787 0.33775 0.33775 0.33737 0.33737 0.33725 0.337 0.33687 0.33687 0.33687 0.33663 0.33687 0.33663 0.33663 0.33637 0.33613 0.336 0.33613 0.336 0.33575 0.33563 0.3355 0.33475 0.33463 0.33463 0.33463 0.33475 0.33475 0.33437 0.33425 0.33413 0.33425 0.33437 0.33437 0.33437 0.33437 0.33463 0.33437 0.33437 0.33437 0.33425 0.33413 0.33425 0.33413 0.33375 0.3335 0.33337 0.333 0.333 0.333 0.33287 0.33275 0.33237 0.3325 0.3325 0.33237 0.33213 0.33237 0.33187 0.33163 0.3315 0.3315 0.3315 0.33137 0.33113 0.33087 0.33063 0.33063 0.33087 0.33087 0.33087 0.3305 0.33 0.32975 0.32975 0.32963 0.33 0.3295 0.3295 0.3295 0.32913 0.32913 0.32913 0.32913 0.329 0.32913 0.32875 0.329 0.329 0.329 0.32875 0.32875 0.32875 0.32863 0.32863 0.32863 0.32863 0.32825 0.32812 0.328 0.32775 0.32775 0.3275 0.32762 0.3275 0.327 0.32662 0.32688 0.32662 0.32662 0.32612 0.32612 0.32612 0.32612 0.32612 0.32638 0.32612 0.32612 0.32612 0.32638 0.3265 0.32638 0.32612 0.32638 0.32588 0.32562 0.32562 0.3255 0.3255 0.32538 0.3255 0.32562 0.32512 0.32488 0.3245 0.3245 0.32462 0.3245 0.3245 0.32438 0.324 0.32375 0.3235 0.32338 0.3235 0.32375 0.32262 0.32312 0.32312 0.32312 0.32312 0.32288 0.32288 0.32275 0.32275 0.32275 0.32275 0.32262 0.32275 0.32262 0.32238 0.32262 0.32238 0.32238 0.32238 0.32225 0.32238 0.32225 0.32238 0.32262 0.32262 0.32212 0.322 0.322 0.32175 0.32162 0.321 0.32038 0.3195 0.3195 0.31975 0.31988 0.3195 0.31938 0.31938 0.31925 0.31925 0.31925 0.31925 0.31912 0.31875 0.31862 0.31875 0.31875 0.31875 0.31875 0.3185 0.3185 0.31862 0.31888 0.31875 0.31875 0.3185 0.31812 0.318 0.318 0.318 0.318 0.318 0.31788 0.3175
0.35125 0.35163 0.35163 0.3515 0.35125 0.3515 0.3515 0.35163 0.35163 0.35187 0.35187 0.3515 0.3515 0.3515 0.35125 0.35163 0.3515 0.35087 0.3505 0.35 0.35013 0.35 0.35 0.34975 0.34963 0.34925 0.34887 0.349 0.34863 0.34863 0.34863 0.34863 0.3485 0.34825 0.3485 0.3485 0.34787 0.34787 0.34775 0.34787 0.34787 0.34787 0.34775 0.34775 0.3475 0.3475 0.3475 0.34737 0.34737 0.34737 0.34713 0.34737 0.34737 0.34713 0.34713 0.34713 0.34713 0.34713 0.347 0.34675 0.34675 0.34625 0.34625 0.34587 0.34563 0.34525 0.34525 0.34487 0.34487 0.34437 0.34437 0.34425 0.34425 0.34425 0.34425 0.34437 0.34425 0.34425 0.34425 0.3445 0.34425 0.344 0.34387 0.34387 0.344 0.344 0.344 0.344 0.34325 0.3435 0.34325 0.34325 0.3435 0.34325 0.34287 0.34275 0.34275 0.3425 0.3425 0.34237 0.34237 0.34213 0.342 0.34187 0.34163 0.34163 0.3415 0.34125 0.34075 0.34063 0.34 0.34 0.34 0.33987 0.33987 0.33987 0.34 0.34 0.34 0.34 0.34 0.33913 0.339 0.339 0.33863 0.33863 0.33863 0.33837 0.33825 0.33825 0.33813 0.33787 0.33813 0.33787 0.33787 0.33787 0.33787 0.33813 0.33775 0.33775 0.33787 0.3375 0.3375 0.33775 0.3375 0.33737 0.33687 0.33687 0.33663 0.3365 0.33637 0.33637 0.33637 0.33613 0.33613 0.33575 0.33563 0.33563 0.336 0.336 0.33575 0.336 0.336 0.3355 0.33525 0.33513 0.33513 0.33513 0.33487 0.33475 0.33463 0.33413 0.33375 0.33375 0.3335 0.3335 0.33337 0.33287 0.33237 0.33213 0.3325 0.33275 0.33287 0.33287 0.33287 0.33287 0.33287 0.33287 0.33287 0.33287 0.33275 0.33275 0.33275 0.33237 0.33213 0.332 0.33187 0.33163 0.332 0.33187 0.33163 0.33163 0.33163 0.332 0.33187 0.33163 0.33163 0.33113 0.331 0.331 0.33063 0.33087 0.33063 0.33037 0.32975 0.32975 0.32975 0.32975 0.33 0.33 0.32963 0.32925 0.32913 0.32913 0.32913 0.32925 0.329 0.32863 0.3285 0.32825 0.32825 0.32825 0.328 0.32775 0.328 0.32775 0.32775 0.32775 0.32812 0.32812 0.32812 0.328 0.328 0.32762 0.3275 0.3275 0.327 0.327 0.32662 0.32688 0.32662 0.32638 0.32638 0.32638 0.32612 0.326 0.32588 0.326 0.32588 0.3255 0.3255 0.3255 0.32562 0.3255 0.32562 0.32538 0.32538 0.32512 0.32512 0.32538 0.325 0.32512 0.32538 0.325 0.32488 0.32462 0.3245 0.3245 0.32438 0.32438 0.32438 0.32425 0.32388 0.3235 0.32338 0.32375 0.3235 0.32338 0.32338 0.32312 0.32275 0.32288 0.32238 0.32262 0.32238 0.32212 0.32212 0.32225 0.32225 0.32262 0.32225 0.32225 0.32212 0.32212 0.32225 0.32212 0.32212 0.32175 0.32162 0.32112 0.3215 0.32125 0.3215 0.32125 0.321 0.321 0.32112 0.32125 0.32212 0.32212 0.32162 0.32125 0.321 0.32088 0.32062 0.31988 0.31925 0.31862 0.3185 0.31862 0.31862 0.3185 0.3185 0.3185 0.3185 0.31862 0.31862 0.31825 0.31825 0.31812 0.318 0.318 0.31812 0.31812 0.31788 0.3175 0.3175 0.3175 0.31788 0.31762 0.3175 0.31725 0.31725 0.31688 0.31688 0.317 0.31688 0.31675 0.31675 0.31638
0.35125 0.35125 0.35113 0.35113 0.35113 0.35113 0.35113 0.35113 0.35125 0.35125 0.35125 0.35113 0.35087 0.35075 0.35087 0.35113 0.35087 0.35013 0.35 0.34963 0.34963 0.34963 0.34963 0.34937 0.34925 0.34863 0.3485 0.3485 0.3485 0.34813 0.34813 0.34813 0.34787 0.34775 0.34775 0.34775 0.34737 0.34713 0.34713 0.347 0.34713 0.34713 0.347 0.34713 0.34675 0.347 0.347 0.347 0.347 0.34675 0.34675 0.34675 0.347 0.34675 0.34675 0.34675 0.34663 0.34663 0.34637 0.34637 0.346 0.34587 0.34587 0.3455 0.34513 0.34487 0.34487 0.34475 0.34437 0.344 0.34387 0.34387 0.34363 0.34363 0.34387 0.344 0.34387 0.34363 0.344 0.344 0.34387 0.34363 0.34325 0.34313 0.3435 0.3435 0.34325 0.34325 0.34275 0.34287 0.34287 0.34275 0.34325 0.34313 0.3425 0.34213 0.342 0.3425 0.34237 0.34237 0.34237 0.342 0.3415 0.3415 0.3415 0.34113 0.34113 0.34075 0.34025 0.34025 0.33937 0.3395 0.3395 0.33937 0.33937 0.3395 0.33937 0.33963 0.3395 0.33963 0.3395 0.33863 0.33863 0.33837 0.33825 0.33825 0.33813 0.33813 0.33787 0.33787 0.33775 0.3375 0.33775 0.3375 0.33737 0.3375 0.3375 0.3375 0.33725 0.337 0.33737 0.33725 0.337 0.337 0.337 0.33687 0.33637 0.33637 0.33637 0.336 0.33575 0.336 0.33575 0.33575 0.33563 0.3355 0.33525 0.3355 0.3355 0.33563 0.3355 0.3355 0.33525 0.33487 0.33463 0.33437 0.33463 0.33437 0.33437 0.33425 0.33425 0.3335 0.33337 0.33325 0.33325 0.33325 0.333 0.33237 0.33187 0.33163 0.332 0.33213 0.33213 0.33237 0.33213 0.33213 0.33237 0.33237 0.33237 0.33213 0.332 0.332 0.332 0.33187 0.33163 0.3315 0.33137 0.33137 0.33137 0.3315 0.3315 0.33113 0.33137 0.3315 0.3315 0.33137 0.33137 0.33063 0.3305 0.3305 0.33037 0.33037 0.33037 0.32975 0.32925 0.32925 0.3295 0.3295 0.3295 0.3295 0.32925 0.32875 0.32863 0.32863 0.32875 0.32863 0.32863 0.32825 0.32812 0.328 0.32775 0.32775 0.32762 0.32762 0.3275 0.3275 0.3275 0.3275 0.32762 0.32762 0.3275 0.3275 0.3275 0.32712 0.327 0.327 0.3265 0.3265 0.32638 0.32612 0.32612 0.32588 0.32588 0.32588 0.32562 0.32562 0.32562 0.3255 0.32562 0.32512 0.32538 0.32538 0.32538 0.32538 0.32538 0.325 0.325 0.32488 0.32488 0.325 0.3245 0.32488 0.325 0.3245 0.32438 0.32425 0.32425 0.324 0.324 0.32388 0.324 0.32375 0.3235 0.32312 0.32325 0.32325 0.32325 0.32312 0.32312 0.32262 0.32238 0.32238 0.32225 0.322 0.322 0.32175 0.32162 0.32175 0.32212 0.32225 0.32212 0.32175 0.32175 0.322 0.32175 0.32175 0.32175 0.3215 0.321 0.321 0.321 0.32112 0.321 0.32088 0.32062 0.32062 0.32062 0.32112 0.32175 0.322 0.32125 0.32112 0.32062 0.32 0.32 0.3195 0.31875 0.318 0.31812 0.318 0.318 0.318 0.31812 0.31812 0.31812 0.31812 0.31812 0.318 0.318 0.31762 0.31788 0.31788 0.31788 0.31762 0.31738 0.31725 0.31725 0.31725 0.31738 0.31738 0.31688 0.31688 0.31675 0.31662 0.31662 0.31662 0.31662 0.31638 0.31638 0.31612
0.35087 0.35087 0.35087 0.35075 0.35075 0.35075 0.35037 0.3505 0.3505 0.35075 0.3505 0.3505 0.35013 0.34963 0.34825 0.35013 0.35 0.34937 0.34925 0.34887 0.34887 0.34863 0.34887 0.34887 0.34887 0.34825 0.34813 0.34825 0.34787 0.34775 0.34775 0.3475 0.34737 0.34713 0.34713 0.34713 0.34675 0.34675 0.34663 0.34663 0.34663 0.34663 0.34663 0.34663 0.34637 0.34637 0.34637 0.34637 0.34663 0.34637 0.34637 0.34637 0.34637 0.34663 0.34637 0.346 0.346 0.346 0.34563 0.34563 0.34563 0.3455 0.3455 0.34513 0.34475 0.34475 0.34437 0.34437 0.344 0.3435 0.3435 0.3435 0.34325 0.34325 0.3435 0.34325 0.34325 0.34325 0.3435 0.3435 0.3435 0.34325 0.34275 0.34237 0.3425 0.3425 0.34237 0.34213 0.34213 0.342 0.342 0.342 0.34163 0.3395 0.33963 0.34087 0.34087 0.33937 0.33913 0.33937 0.33937 0.34037 0.34075 0.34087 0.34087 0.34075 0.34037 0.34025 0.33987 0.33987 0.3395 0.33913 0.339 0.33875 0.33875 0.33875 0.33875 0.339 0.339 0.339 0.339 0.33875 0.33825 0.33813 0.33787 0.33787 0.33787 0.33775 0.33775 0.3375 0.33725 0.33737 0.33725 0.33737 0.337 0.33725 0.33737 0.33737 0.33663 0.33687 0.33687 0.33687 0.33687 0.33687 0.33663 0.33663 0.33637 0.33613 0.336 0.33575 0.33575 0.33575 0.33563 0.33563 0.3355 0.33525 0.33487 0.33513 0.33525 0.33513 0.33475 0.33437 0.33425 0.33287 0.33375 0.33375 0.3335 0.33387 0.3335 0.33375 0.33375 0.33325 0.33287 0.333 0.33287 0.33287 0.33287 0.332 0.33163 0.3315 0.3315 0.33163 0.33187 0.33187 0.33163 0.33163 0.33187 0.33187 0.33187 0.33187 0.33163 0.33163 0.33163 0.33137 0.33137 0.331 0.331 0.33087 0.331 0.331 0.331 0.33087 0.33087 0.331 0.33087 0.33087 0.33063 0.33 0.32975 0.32963 0.32963 0.32963 0.32963 0.32925 0.32875 0.329 0.32875 0.329 0.32875 0.329 0.32863 0.32825 0.328 0.328 0.32812 0.32812 0.328 0.32775 0.32762 0.32762 0.3275 0.32762 0.32725 0.32712 0.32712 0.327 0.327 0.32688 0.32688 0.32688 0.32688 0.32688 0.32688 0.3265 0.32638 0.32638 0.326 0.32588 0.326 0.326 0.32588 0.3255 0.32538 0.3255 0.32512 0.32512 0.32538 0.32538 0.32538 0.325 0.325 0.32512 0.325 0.325 0.32488 0.32462 0.3245 0.32438 0.3245 0.3245 0.324 0.32425 0.3245 0.32425 0.324 0.324 0.32375 0.32375 0.32375 0.32375 0.32375 0.32375 0.32325 0.32288 0.32288 0.32288 0.32288 0.32262 0.32262 0.32212 0.32175 0.322 0.32175 0.32162 0.3215 0.32125 0.32125 0.3215 0.32162 0.32175 0.32162 0.3215 0.32125 0.3215 0.32125 0.3215 0.32112 0.32112 0.32088 0.32062 0.32062 0.32088 0.32062 0.32062 0.32062 0.32038 0.3205 0.32088 0.32162 0.32162 0.32125 0.32062 0.32025 0.31938 0.31925 0.31888 0.318 0.31762 0.3175 0.31762 0.3175 0.31738 0.31762 0.31762 0.31788 0.31762 0.31762 0.31738 0.31738 0.31738 0.31738 0.3175 0.31738 0.31738 0.317 0.31688 0.31688 0.317 0.317 0.31688 0.31675 0.31662 0.31638 0.31638 0.31638 0.31638 0.31625 0.31612 0.316 0.31588
0.34975 0.34963 0.34963 0.34937 0.34937 0.34925 0.34863 0.3485 0.34863 0.34863 0.3485 0.3485 0.3485 0.34775 0.34775 0.34787 0.34775 0.34775 0.3475 0.3475 0.3475 0.34737 0.3475 0.34787 0.34787 0.3475 0.3475 0.34775 0.34713 0.34675 0.34675 0.34637 0.34625 0.346 0.346 0.346 0.34587 0.34587 0.34587 0.34563 0.34563 0.3455 0.3455 0.3455 0.34525 0.3455 0.3455 0.3455 0.3455 0.3455 0.34525 0.3455 0.3455 0.34563 0.34563 0.34487 0.34475 0.3445 0.34437 0.3445 0.34475 0.3445 0.3445 0.34437 0.344 0.344 0.34387 0.34363 0.34325 0.34275 0.3425 0.3425 0.34237 0.34237 0.34237 0.342 0.342 0.342 0.34237 0.34213 0.34213 0.34213 0.34163 0.34087 0.34087 0.34075 0.34037 0.34037 0.34037 0.34037 0.34025 0.34025 0.34 0.3395 0.33913 0.339 0.33937 0.339 0.33875 0.33875 0.339 0.33937 0.33937 0.33963 0.33987 0.33963 0.33937 0.33913 0.339 0.339 0.33863 0.33825 0.33813 0.33787 0.33787 0.33787 0.33787 0.33787 0.33787 0.33813 0.33813 0.33787 0.33775 0.33737 0.33725 0.337 0.337 0.337 0.33687 0.3365 0.336 0.33575 0.336 0.33613 0.33613 0.33613 0.33637 0.33637 0.33613 0.336 0.33613 0.33613 0.33613 0.33613 0.33613 0.336 0.33575 0.33563 0.3355 0.33525 0.33525 0.33513 0.33513 0.33487 0.33475 0.33437 0.33425 0.33425 0.33425 0.33387 0.33337 0.333 0.33287 0.3325 0.33213 0.33213 0.33213 0.3325 0.33237 0.33237 0.33237 0.33237 0.33213 0.33237 0.33237 0.33237 0.33237 0.33163 0.33113 0.33113 0.33113 0.33113 0.33137 0.33113 0.33087 0.33087 0.331 0.33113 0.331 0.33113 0.331 0.331 0.331 0.33087 0.33087 0.33063 0.3305 0.3305 0.33037 0.33013 0.33 0.33 0.32975 0.32975 0.32963 0.3295 0.32913 0.32825 0.328 0.328 0.32812 0.328 0.32812 0.328 0.32775 0.32762 0.32762 0.32762 0.32762 0.32762 0.32725 0.32688 0.32662 0.32662 0.32688 0.327 0.327 0.32688 0.32662 0.3265 0.3265 0.32662 0.3265 0.32638 0.32638 0.326 0.326 0.32588 0.32588 0.32588 0.3255 0.32538 0.3255 0.32512 0.325 0.32488 0.32462 0.3245 0.32462 0.32462 0.3245 0.32438 0.32425 0.32425 0.324 0.324 0.32425 0.32438 0.32425 0.324 0.324 0.324 0.32425 0.324 0.324 0.32375 0.32375 0.3235 0.3235 0.3235 0.32312 0.32312 0.32325 0.32338 0.32325 0.32325 0.32288 0.32288 0.32275 0.32275 0.32288 0.32312 0.32262 0.32238 0.32225 0.32212 0.322 0.32175 0.3215 0.32112 0.32088 0.32088 0.32062 0.32038 0.32025 0.32025 0.32025 0.32038 0.32038 0.32062 0.3205 0.32038 0.32025 0.32025 0.32025 0.32025 0.32 0.31988 0.31975 0.31975 0.31975 0.31975 0.31975 0.31975 0.31975 0.31975 0.31975 0.32 0.321 0.32125 0.31888 0.31938 0.31912 0.31812 0.318 0.31788 0.31738 0.31688 0.31688 0.31675 0.31662 0.31662 0.31675 0.31675 0.31688 0.31688 0.31675 0.31675 0.31662 0.31662 0.31675 0.31675 0.31625 0.31612 0.316 0.316 0.31612 0.31612 0.31638 0.31612 0.31612 0.31612 0.31612 0.316 0.316 0.31588 0.31538 0.315 0.31488 0.31475
0.34925 0.349 0.349 0.349 0.34887 0.34863 0.34787 0.3475 0.3475 0.34775 0.3475 0.3475 0.3475 0.34713 0.347 0.347 0.34675 0.347 0.347 0.347 0.347 0.347 0.34713 0.3475 0.3475 0.34737 0.34737 0.34737 0.34675 0.34663 0.34663 0.346 0.346 0.3455 0.3455 0.34563 0.3455 0.3455 0.3455 0.3455 0.3455 0.34513 0.34513 0.34487 0.34487 0.34487 0.34487 0.34487 0.34513 0.34487 0.34487 0.34487 0.34487 0.34513 0.34513 0.3445 0.34425 0.344 0.34387 0.344 0.34425 0.34425 0.34425 0.344 0.34387 0.34387 0.34363 0.34325 0.34287 0.34237 0.34237 0.34237 0.342 0.34187 0.34187 0.34163 0.34163 0.3415 0.34163 0.34163 0.34187 0.3415 0.34113 0.34037 0.34025 0.34025 0.33963 0.33963 0.33987 0.33987 0.3395 0.3395 0.33937 0.33913 0.33863 0.33863 0.33863 0.33875 0.33863 0.33837 0.33837 0.33863 0.33875 0.33937 0.3395 0.33913 0.339 0.339 0.33863 0.33863 0.33837 0.33775 0.33787 0.3375 0.3375 0.3375 0.33737 0.33775 0.33775 0.33775 0.33775 0.33775 0.33737 0.33725 0.33663 0.33663 0.33663 0.3365 0.33637 0.336 0.33525 0.33513 0.33513 0.33563 0.33563 0.33575 0.33575 0.33575 0.33575 0.33575 0.33575 0.33575 0.336 0.33575 0.336 0.33575 0.33563 0.33525 0.33525 0.33513 0.33487 0.33487 0.33475 0.33463 0.33437 0.33387 0.33375 0.33375 0.33413 0.3335 0.33287 0.3325 0.3325 0.332 0.33187 0.33187 0.33187 0.332 0.332 0.332 0.33187 0.33187 0.332 0.332 0.332 0.33213 0.332 0.3315 0.331 0.331 0.331 0.331 0.33087 0.33063 0.33063 0.3305 0.33063 0.33087 0.331 0.33087 0.33087 0.33063 0.33063 0.33063 0.3305 0.3305 0.33037 0.33037 0.33013 0.33 0.32975 0.32963 0.32963 0.32925 0.32925 0.32875 0.3285 0.32762 0.32725 0.32725 0.3275 0.32725 0.32725 0.32725 0.32725 0.32712 0.32712 0.32712 0.32712 0.32712 0.32688 0.32638 0.326 0.32612 0.32638 0.3265 0.3265 0.32638 0.32612 0.326 0.32612 0.32638 0.32612 0.326 0.326 0.32562 0.3255 0.3255 0.3255 0.3255 0.325 0.325 0.325 0.32462 0.3245 0.32438 0.324 0.32388 0.324 0.32388 0.32375 0.32375 0.3235 0.3235 0.3235 0.3235 0.32375 0.32375 0.32375 0.3235 0.3235 0.32375 0.32375 0.3235 0.3235 0.32325 0.32325 0.32312 0.32325 0.32325 0.32275 0.32288 0.32275 0.32288 0.32288 0.32275 0.32275 0.32262 0.32225 0.32212 0.32238 0.32262 0.32225 0.32212 0.322 0.32175 0.32162 0.32112 0.321 0.32062 0.32038 0.32038 0.32025 0.31988 0.31988 0.31975 0.31975 0.31988 0.31988 0.32 0.32 0.31988 0.31975 0.31988 0.31975 0.31975 0.3195 0.31938 0.31925 0.31912 0.31912 0.31912 0.31912 0.31912 0.31912 0.31925 0.31925 0.31938 0.32038 0.32162 0.31888 0.31875 0.3185 0.31788 0.31762 0.3175 0.317 0.31675 0.31662 0.31638 0.31625 0.31638 0.31638 0.31662 0.31638 0.31638 0.31625 0.31625 0.31625 0.31625 0.31638 0.31662 0.31588 0.31588 0.31562 0.31562 0.31562 0.316 0.316 0.31588 0.31562 0.31588 0.31588 0.31562 0.3155 0.3155 0.31475 0.31462 0.31462 0.31425
0.349 0.349 0.34887 0.34887 0.34863 0.34825 0.3475 0.34737 0.34737 0.34713 0.347 0.347 0.34713 0.34675 0.34637 0.34663 0.34663 0.34663 0.34663 0.34663 0.34663 0.34663 0.34675 0.34737 0.34737 0.347 0.347 0.347 0.34663 0.34637 0.34625 0.346 0.34587 0.34525 0.34513 0.34513 0.34513 0.34513 0.34513 0.34475 0.34475 0.34475 0.34437 0.34437 0.34437 0.34425 0.34437 0.34437 0.34437 0.34437 0.34425 0.34437 0.3445 0.3445 0.3445 0.34425 0.34387 0.34387 0.34363 0.34387 0.34425 0.344 0.34387 0.34387 0.34387 0.34363 0.3435 0.34313 0.34275 0.342 0.34187 0.34187 0.34163 0.3415 0.3415 0.34113 0.34113 0.34113 0.34113 0.34113 0.34113 0.34075 0.34037 0.33987 0.33963 0.33963 0.3395 0.3395 0.33963 0.3395 0.33913 0.33913 0.33937 0.339 0.33863 0.33863 0.33863 0.33863 0.33825 0.33825 0.33813 0.33825 0.33825 0.33875 0.33875 0.33863 0.33837 0.33837 0.33813 0.33813 0.33787 0.3375 0.3375 0.337 0.337 0.337 0.33725 0.337 0.33725 0.33725 0.33737 0.3375 0.337 0.33687 0.3365 0.33637 0.33637 0.33637 0.336 0.3355 0.33475 0.33463 0.33475 0.33513 0.33525 0.33525 0.3355 0.3355 0.33525 0.33525 0.3355 0.33525 0.3355 0.3355 0.33525 0.33525 0.33475 0.33487 0.33487 0.33487 0.33487 0.33475 0.33437 0.33425 0.33437 0.33337 0.33287 0.33325 0.33325 0.33037 0.3305 0.33187 0.33163 0.3315 0.3315 0.3315 0.3315 0.33187 0.33187 0.33187 0.33163 0.33163 0.3315 0.3315 0.3315 0.33163 0.3315 0.33087 0.33063 0.33063 0.33037 0.3305 0.33037 0.33037 0.33013 0.33 0.33013 0.33037 0.33037 0.33037 0.33037 0.33037 0.33037 0.33037 0.33013 0.33013 0.33 0.33013 0.33 0.32975 0.32963 0.32963 0.3295 0.32925 0.329 0.32863 0.32812 0.32725 0.327 0.327 0.32688 0.32688 0.32688 0.32662 0.32662 0.32662 0.3265 0.3265 0.3265 0.3265 0.32638 0.32588 0.32562 0.32588 0.32588 0.326 0.326 0.326 0.32588 0.32562 0.32588 0.32588 0.32588 0.3255 0.3255 0.3255 0.32538 0.32512 0.32512 0.32512 0.32488 0.32462 0.32462 0.32438 0.32425 0.324 0.32375 0.32375 0.32375 0.3235 0.32338 0.32338 0.32325 0.32325 0.32325 0.32338 0.3235 0.32338 0.3235 0.32338 0.32338 0.32338 0.32338 0.32338 0.32325 0.32288 0.32312 0.32288 0.32288 0.32288 0.32275 0.32238 0.32238 0.32238 0.32262 0.32238 0.32212 0.322 0.32175 0.32162 0.32162 0.32162 0.32162 0.3215 0.32125 0.32112 0.321 0.32088 0.3205 0.32038 0.32 0.31988 0.32 0.31988 0.31975 0.31975 0.3195 0.31975 0.31975 0.31988 0.31988 0.31975 0.3195 0.3195 0.31938 0.31938 0.31912 0.31875 0.31875 0.31862 0.3185 0.31862 0.3185 0.3185 0.3185 0.31862 0.3185 0.31888 0.31788 0.31762 0.31762 0.31825 0.318 0.31738 0.31725 0.317 0.31675 0.31638 0.31612 0.31612 0.316 0.316 0.31612 0.31625 0.31612 0.31612 0.31612 0.316 0.316 0.316 0.31625 0.31625 0.31562 0.3155 0.31538 0.31538 0.31538 0.3155 0.3155 0.31538 0.3155 0.31538 0.3155 0.31525 0.315 0.31488 0.31438 0.31412 0.31412 0.314
0.34825 0.3485 0.34825 0.34825 0.34813 0.34775 0.347 0.34675 0.34675 0.34663 0.34637 0.34625 0.34637 0.346 0.34587 0.34587 0.34587 0.3455 0.3455 0.3455 0.3455 0.3455 0.34563 0.346 0.346 0.346 0.346 0.346 0.34587 0.34587 0.34563 0.3455 0.34513 0.34475 0.3445 0.3445 0.3445 0.34437 0.34437 0.344 0.34387 0.34363 0.3435 0.3435 0.34325 0.34325 0.34325 0.34325 0.3435 0.34325 0.3435 0.3435 0.34363 0.34363 0.34363 0.3435 0.34313 0.34275 0.34237 0.3435 0.344 0.34387 0.3435 0.34325 0.34387 0.34363 0.34313 0.34313 0.3425 0.34087 0.34063 0.34037 0.34025 0.34 0.34025 0.34025 0.34 0.34 0.33987 0.33963 0.3395 0.33913 0.33913 0.33863 0.33837 0.33863 0.33837 0.33837 0.33863 0.339 0.33875 0.33875 0.33875 0.33863 0.33813 0.33813 0.33813 0.33775 0.33737 0.33737 0.33725 0.33725 0.337 0.33737 0.33737 0.33725 0.33725 0.33725 0.337 0.337 0.33663 0.3365 0.3365 0.33613 0.336 0.33575 0.33575 0.336 0.33575 0.336 0.33613 0.33637 0.33613 0.33575 0.33525 0.33513 0.33487 0.33487 0.33475 0.33425 0.33375 0.33337 0.3335 0.33387 0.33425 0.33437 0.33437 0.33425 0.33425 0.33425 0.33425 0.33437 0.33437 0.33437 0.33375 0.3335 0.333 0.33387 0.33475 0.33463 0.33475 0.33437 0.33413 0.33413 0.33413 0.33187 0.33187 0.333 0.33325 0.33037 0.33013 0.33037 0.33037 0.33037 0.3305 0.33063 0.33063 0.33087 0.331 0.33113 0.33113 0.33063 0.33063 0.33063 0.33063 0.33063 0.3305 0.33 0.3295 0.3295 0.32925 0.32925 0.329 0.32863 0.32863 0.3285 0.3285 0.3285 0.3285 0.32863 0.32863 0.329 0.329 0.32913 0.32913 0.32925 0.32913 0.32925 0.32925 0.32875 0.32875 0.32863 0.3285 0.32825 0.32875 0.32875 0.3275 0.32638 0.326 0.32588 0.32588 0.32562 0.32562 0.32562 0.32562 0.32562 0.32562 0.3255 0.32538 0.3255 0.32538 0.32538 0.32512 0.32538 0.32538 0.32538 0.32512 0.32512 0.325 0.32488 0.325 0.32488 0.32488 0.32488 0.32462 0.32462 0.32462 0.3245 0.32462 0.3245 0.3245 0.32438 0.32425 0.32388 0.32375 0.3235 0.32338 0.32325 0.32312 0.32312 0.32275 0.32275 0.32275 0.32275 0.32275 0.32275 0.32275 0.32288 0.32312 0.32312 0.32288 0.32312 0.32288 0.32288 0.32288 0.32238 0.32238 0.32225 0.32212 0.32212 0.322 0.32162 0.32162 0.3215 0.32125 0.32112 0.321 0.32088 0.32062 0.32038 0.32038 0.32038 0.32025 0.32038 0.32025 0.32 0.31975 0.31975 0.3195 0.31938 0.31912 0.31912 0.31925 0.3195 0.31938 0.31938 0.3195 0.3195 0.31938 0.31938 0.31938 0.31912 0.31875 0.31862 0.3185 0.3185 0.318 0.31788 0.31788 0.3175 0.3175 0.3175 0.3175 0.3175 0.31738 0.3175 0.31738 0.31725 0.31738 0.31725 0.31688 0.31762 0.317 0.31612 0.316 0.316 0.31562 0.3155 0.31538 0.31538 0.31538 0.3155 0.31562 0.31562 0.3155 0.31538 0.31525 0.315 0.31525 0.31525 0.31525 0.31525 0.31488 0.31488 0.31475 0.31475 0.31488 0.31488 0.31475 0.31462 0.31475 0.31475 0.31475 0.31438 0.31425 0.31412 0.31362 0.31362 0.3135 0.31362
0.34813 0.34825 0.34813 0.34813 0.34787 0.34775 0.34675 0.34663 0.34675 0.34637 0.34625 0.34625 0.34625 0.34587 0.34587 0.34563 0.34563 0.34513 0.34513 0.34513 0.34487 0.34475 0.34513 0.3455 0.3455 0.34525 0.3455 0.34563 0.3455 0.34525 0.3455 0.34525 0.34513 0.3445 0.34437 0.34437 0.34437 0.34425 0.34425 0.34363 0.34363 0.3435 0.34325 0.34313 0.34325 0.34313 0.34325 0.34313 0.34313 0.34313 0.34313 0.34325 0.3435 0.3435 0.3435 0.34313 0.3425 0.34187 0.34163 0.3415 0.33987 0.33987 0.34287 0.34287 0.33963 0.33963 0.339 0.339 0.34063 0.34025 0.34 0.33963 0.33937 0.3395 0.33963 0.3395 0.3395 0.33963 0.33937 0.33913 0.33875 0.33863 0.33863 0.33813 0.33825 0.33813 0.33813 0.33825 0.33825 0.33837 0.33863 0.33863 0.33837 0.33825 0.33787 0.33787 0.33775 0.33737 0.337 0.337 0.33687 0.33687 0.3365 0.33663 0.33687 0.33663 0.33687 0.33663 0.3365 0.33613 0.33613 0.336 0.336 0.33563 0.3355 0.33525 0.33513 0.33525 0.33513 0.33525 0.33563 0.33563 0.3355 0.33525 0.33425 0.33425 0.33413 0.33387 0.33387 0.33375 0.33325 0.333 0.33287 0.33337 0.3335 0.33375 0.33387 0.33387 0.33375 0.33375 0.33375 0.33387 0.33387 0.33387 0.33325 0.33275 0.33237 0.332 0.3315 0.33113 0.33113 0.33087 0.3305 0.33063 0.33037 0.33 0.33013 0.32975 0.32963 0.33 0.32963 0.32963 0.32963 0.32963 0.33 0.33 0.33 0.33037 0.3305 0.33087 0.33087 0.33037 0.33037 0.33037 0.33037 0.33013 0.33013 0.3295 0.32913 0.329 0.32875 0.32863 0.32825 0.32812 0.328 0.32762 0.32775 0.32775 0.32775 0.32775 0.328 0.32812 0.3285 0.32825 0.3285 0.32863 0.32863 0.32875 0.32875 0.32825 0.32825 0.328 0.32762 0.3275 0.3265 0.3265 0.32588 0.32562 0.32562 0.3255 0.32538 0.3255 0.32538 0.32538 0.32538 0.32538 0.32538 0.32512 0.32512 0.325 0.32512 0.325 0.32488 0.325 0.325 0.325 0.325 0.32488 0.3245 0.3245 0.32462 0.32462 0.3245 0.3245 0.3245 0.32438 0.32425 0.32438 0.32438 0.3245 0.32425 0.32425 0.324 0.32388 0.3235 0.32338 0.32325 0.32325 0.32312 0.32275 0.32262 0.32262 0.32262 0.32275 0.32262 0.32262 0.32262 0.32262 0.32275 0.32275 0.32275 0.32275 0.32275 0.32275 0.32262 0.32238 0.32212 0.322 0.32175 0.32162 0.3215 0.32112 0.32125 0.32088 0.32088 0.32062 0.3205 0.32038 0.32038 0.32 0.31988 0.31988 0.31988 0.31988 0.31988 0.31975 0.3195 0.31925 0.31925 0.31888 0.31875 0.31875 0.31888 0.31925 0.31912 0.31925 0.31925 0.31925 0.31925 0.31925 0.31925 0.31875 0.3185 0.31812 0.31788 0.31788 0.31762 0.3175 0.31738 0.317 0.317 0.31725 0.31725 0.31725 0.31738 0.317 0.317 0.31688 0.31675 0.31675 0.31638 0.31612 0.315 0.31525 0.31538 0.31538 0.31525 0.315 0.315 0.315 0.31525 0.31538 0.3155 0.3155 0.31538 0.315 0.31488 0.31462 0.31488 0.31475 0.31475 0.31475 0.31462 0.31438 0.31425 0.31438 0.31462 0.31462 0.31438 0.31438 0.31438 0.31462 0.31462 0.31438 0.31412 0.314 0.31362 0.3135 0.3135 0.31338
0.34713 0.34713 0.34713 0.34675 0.34663 0.34637 0.346 0.34587 0.34587 0.34525 0.34487 0.34487 0.34487 0.34475 0.34475 0.3445 0.3445 0.34425 0.34387 0.34387 0.34425 0.34425 0.34425 0.34437 0.34437 0.344 0.344 0.34425 0.34437 0.3445 0.34437 0.344 0.3435 0.34287 0.34313 0.34287 0.34313 0.34287 0.34287 0.34275 0.3425 0.34275 0.34287 0.3425 0.34275 0.3425 0.34275 0.34237 0.34237 0.34237 0.342 0.34187 0.34163 0.34113 0.34063 0.3395 0.33937 0.33937 0.33963 0.3395 0.33937 0.339 0.33875 0.3395 0.339 0.339 0.339 0.33863 0.33863 0.33825 0.33825 0.33825 0.33813 0.33813 0.33787 0.33787 0.33787 0.33825 0.33813 0.33787 0.33775 0.33737 0.33725 0.337 0.337 0.337 0.337 0.337 0.33725 0.33737 0.33737 0.3375 0.3375 0.33737 0.33687 0.33687 0.33687 0.33637 0.336 0.33575 0.33575 0.33575 0.3355 0.33563 0.33563 0.3355 0.33525 0.33525 0.33487 0.33475 0.33463 0.33437 0.33437 0.33425 0.33425 0.33413 0.33387 0.33387 0.33387 0.33375 0.33375 0.33387 0.33187 0.33187 0.33187 0.332 0.33187 0.33187 0.33163 0.33187 0.33163 0.33163 0.33113 0.3305 0.33287 0.33213 0.33237 0.33213 0.33237 0.33237 0.33237 0.33237 0.3325 0.33237 0.33187 0.33137 0.331 0.33087 0.3305 0.3305 0.3305 0.33037 0.33013 0.33 0.33 0.32975 0.32963 0.32963 0.3295 0.3295 0.32913 0.32913 0.32913 0.329 0.329 0.32913 0.32913 0.32913 0.32925 0.3295 0.3295 0.32925 0.32925 0.3295 0.32925 0.32925 0.32913 0.32825 0.328 0.32775 0.3275 0.3275 0.327 0.32688 0.32662 0.3265 0.32662 0.32688 0.3265 0.32638 0.3265 0.3265 0.32662 0.3265 0.3265 0.32662 0.32688 0.327 0.327 0.32688 0.32688 0.3265 0.32638 0.32612 0.32588 0.32562 0.32538 0.32512 0.325 0.32462 0.32462 0.3245 0.32438 0.32438 0.32438 0.32425 0.32438 0.32438 0.32438 0.32438 0.32438 0.324 0.32425 0.32425 0.32425 0.32425 0.324 0.324 0.32375 0.32375 0.32388 0.32375 0.32375 0.32375 0.3235 0.32325 0.32325 0.32312 0.32312 0.32338 0.32312 0.32312 0.32288 0.32238 0.32238 0.32238 0.32225 0.322 0.32175 0.32112 0.32112 0.32088 0.32088 0.321 0.321 0.32088 0.32088 0.32062 0.322 0.32175 0.322 0.32175 0.322 0.322 0.322 0.32175 0.32162 0.32112 0.321 0.32088 0.32062 0.32025 0.32025 0.32025 0.32 0.31988 0.31988 0.31988 0.31988 0.31938 0.31925 0.31925 0.31925 0.31925 0.31875 0.3185 0.3185 0.31812 0.31812 0.31788 0.31788 0.31788 0.318 0.3185 0.31825 0.31825 0.31825 0.31825 0.31825 0.31812 0.31812 0.31788 0.3175 0.31725 0.31662 0.31638 0.31638 0.31638 0.31638 0.316 0.316 0.316 0.316 0.31612 0.31625 0.316 0.31588 0.31562 0.3155 0.3155 0.31525 0.31488 0.31475 0.31462 0.31488 0.31475 0.31488 0.31488 0.31475 0.31475 0.31475 0.31475 0.31488 0.31475 0.31462 0.31425 0.31412 0.314 0.31412 0.31412 0.31412 0.31412 0.31412 0.31412 0.314 0.314 0.31425 0.31412 0.31425 0.31412 0.31425 0.31412 0.31412 0.31388 0.31362 0.31338 0.31288 0.31288 0.31288 0.31288
0.34637 0.34637 0.34637 0.34625 0.34587 0.34563 0.3455 0.34525 0.3455 0.34475 0.3445 0.34437 0.3445 0.34437 0.34437 0.34425 0.34425 0.34363 0.3435 0.34325 0.34363 0.34363 0.34387 0.34425 0.344 0.34387 0.34387 0.344 0.344 0.34425 0.34425 0.3435 0.34287 0.34237 0.34237 0.34237 0.34213 0.342 0.342 0.34187 0.34187 0.34187 0.34187 0.34187 0.34187 0.34187 0.34187 0.34163 0.34163 0.34163 0.34113 0.34113 0.34087 0.34037 0.34 0.33987 0.33913 0.33913 0.33913 0.33913 0.33875 0.33863 0.33863 0.339 0.33875 0.33863 0.33863 0.33825 0.33813 0.33787 0.33787 0.33787 0.33787 0.33787 0.33775 0.33775 0.33775 0.33775 0.33775 0.3375 0.33737 0.337 0.33687 0.33663 0.33663 0.33663 0.33663 0.33663 0.337 0.337 0.337 0.33725 0.337 0.337 0.33663 0.3365 0.33637 0.336 0.33563 0.3355 0.3355 0.33513 0.33513 0.33487 0.33487 0.33475 0.33475 0.33463 0.33425 0.33413 0.33387 0.33375 0.33375 0.33375 0.3335 0.33337 0.3335 0.33337 0.33337 0.33325 0.33325 0.33337 0.3325 0.33187 0.33163 0.3315 0.33113 0.33113 0.331 0.331 0.331 0.331 0.3305 0.33013 0.33113 0.33137 0.33187 0.33163 0.33163 0.33163 0.33163 0.33163 0.33163 0.33163 0.331 0.33063 0.3305 0.33013 0.33013 0.33 0.33 0.33 0.32975 0.32963 0.32963 0.32963 0.3295 0.32925 0.32913 0.3295 0.32875 0.329 0.32875 0.32875 0.32875 0.32863 0.32863 0.32875 0.32875 0.3295 0.32925 0.32925 0.32913 0.32925 0.32925 0.32925 0.32863 0.32775 0.32725 0.32712 0.327 0.327 0.32662 0.3265 0.32638 0.32612 0.3265 0.3265 0.32638 0.32612 0.32612 0.32612 0.32612 0.32612 0.32612 0.32612 0.32638 0.3265 0.3265 0.32638 0.32638 0.32612 0.32588 0.32588 0.32562 0.32538 0.32512 0.325 0.32488 0.32462 0.32438 0.32438 0.324 0.324 0.324 0.32388 0.32425 0.32425 0.324 0.324 0.324 0.32388 0.32388 0.32388 0.32375 0.32388 0.3235 0.3235 0.32338 0.32338 0.3235 0.32338 0.3235 0.32338 0.32325 0.32288 0.32275 0.32275 0.32288 0.32288 0.32262 0.32262 0.32225 0.32175 0.32175 0.32175 0.32162 0.32125 0.32112 0.3205 0.32062 0.32025 0.32038 0.3205 0.3205 0.32038 0.32038 0.32025 0.32112 0.32112 0.32112 0.32112 0.32125 0.32125 0.32125 0.321 0.32088 0.32062 0.32038 0.32038 0.32025 0.31988 0.31988 0.31975 0.31975 0.3195 0.3195 0.3195 0.3195 0.31925 0.31912 0.31912 0.31888 0.31888 0.3185 0.31825 0.318 0.318 0.31788 0.3175 0.3175 0.3175 0.31788 0.31788 0.318 0.318 0.318 0.31788 0.31762 0.318 0.31788 0.31738 0.31725 0.31675 0.31625 0.31612 0.316 0.316 0.316 0.31562 0.31562 0.3155 0.3155 0.31562 0.31562 0.3155 0.3155 0.31525 0.315 0.315 0.31462 0.31438 0.31425 0.31425 0.31462 0.31462 0.31475 0.31462 0.31438 0.31438 0.31425 0.31438 0.31438 0.31425 0.31412 0.31412 0.314 0.31388 0.314 0.314 0.314 0.314 0.314 0.314 0.31388 0.31388 0.314 0.314 0.314 0.31412 0.31412 0.31412 0.314 0.31388 0.3135 0.31325 0.31312 0.31312 0.31288 0.31288
0.34563 0.34563 0.34563 0.34525 0.34513 0.34487 0.34475 0.34475 0.34475 0.34437 0.34387 0.344 0.34387 0.34387 0.34387 0.34387 0.34363 0.34287 0.34275 0.34275 0.34313 0.34325 0.3435 0.34387 0.34387 0.34363 0.3435 0.34387 0.34387 0.34387 0.34387 0.34287 0.34237 0.34213 0.34163 0.34187 0.34125 0.34113 0.34087 0.34075 0.34087 0.34087 0.34075 0.34063 0.34075 0.34075 0.34075 0.34063 0.34063 0.34075 0.34037 0.34037 0.34025 0.33987 0.33963 0.33937 0.339 0.33875 0.33875 0.33875 0.33837 0.33825 0.33825 0.33837 0.33837 0.33825 0.33813 0.33787 0.33787 0.33775 0.33775 0.33775 0.33775 0.33775 0.3375 0.3375 0.3375 0.3375 0.3375 0.33725 0.33725 0.33687 0.33663 0.3365 0.33637 0.33637 0.33637 0.3365 0.3365 0.33687 0.33687 0.33663 0.33663 0.33663 0.3365 0.33613 0.336 0.33563 0.33525 0.33513 0.33487 0.33475 0.33475 0.33437 0.33425 0.33387 0.33375 0.33375 0.33337 0.33337 0.33325 0.333 0.333 0.333 0.333 0.333 0.333 0.333 0.33325 0.33287 0.33275 0.33287 0.332 0.33163 0.3315 0.33063 0.3305 0.3305 0.3305 0.33037 0.33037 0.33013 0.33 0.32975 0.3305 0.33063 0.331 0.331 0.331 0.33113 0.331 0.331 0.331 0.331 0.33037 0.33 0.32975 0.32963 0.32963 0.32925 0.32963 0.32963 0.3295 0.32925 0.32925 0.32913 0.32913 0.329 0.32913 0.32913 0.32863 0.32863 0.32863 0.3285 0.3285 0.3285 0.32812 0.32812 0.32775 0.32712 0.3265 0.3265 0.32638 0.32638 0.32638 0.3265 0.32588 0.32562 0.3265 0.32662 0.3265 0.32662 0.32612 0.32612 0.326 0.326 0.32638 0.32638 0.326 0.32588 0.326 0.32588 0.32588 0.32562 0.32588 0.32588 0.326 0.326 0.32612 0.326 0.32588 0.32588 0.32562 0.32562 0.3255 0.32538 0.32512 0.32462 0.3245 0.32438 0.32425 0.324 0.324 0.32375 0.32375 0.32375 0.32388 0.32388 0.32388 0.32375 0.32375 0.32375 0.3235 0.32338 0.32325 0.32338 0.32325 0.32288 0.32288 0.32288 0.32312 0.32312 0.32312 0.32312 0.32288 0.32238 0.32238 0.32262 0.32262 0.32262 0.32225 0.322 0.32175 0.32125 0.32125 0.32112 0.321 0.32088 0.3205 0.32 0.32 0.31975 0.31988 0.32 0.32 0.31988 0.31975 0.31988 0.32025 0.32038 0.3205 0.3205 0.32038 0.3205 0.3205 0.32025 0.32 0.32 0.31988 0.31988 0.31975 0.3195 0.3195 0.31938 0.31938 0.31938 0.31938 0.31925 0.31925 0.31912 0.31875 0.31875 0.31875 0.31875 0.31825 0.31812 0.31788 0.31788 0.31762 0.3175 0.31725 0.31738 0.3175 0.3175 0.31762 0.3175 0.3175 0.31738 0.31738 0.3175 0.3175 0.317 0.31675 0.31638 0.316 0.31562 0.31562 0.31562 0.31562 0.31525 0.31525 0.31525 0.31525 0.31525 0.31525 0.31488 0.31488 0.31475 0.31462 0.31462 0.31425 0.31412 0.314 0.314 0.31438 0.31425 0.31438 0.31425 0.31412 0.314 0.31388 0.31388 0.31412 0.314 0.31362 0.31362 0.3135 0.31362 0.31362 0.31388 0.31388 0.314 0.31388 0.31388 0.31388 0.31362 0.314 0.31388 0.31388 0.314 0.31412 0.314 0.314 0.31362 0.31338 0.31325 0.31288 0.31312 0.31312 0.31275
0.34513 0.34513 0.34513 0.34437 0.34437 0.344 0.34387 0.344 0.344 0.34363 0.3435 0.34313 0.34313 0.34313 0.34287 0.34275 0.3425 0.34163 0.34125 0.34125 0.3415 0.34113 0.34063 0.34063 0.3425 0.34275 0.34275 0.34275 0.34275 0.34287 0.34275 0.34163 0.34087 0.34075 0.34037 0.34037 0.33987 0.33963 0.3395 0.33937 0.3395 0.3395 0.3395 0.3395 0.3395 0.33963 0.3395 0.33963 0.3395 0.33963 0.33937 0.33913 0.339 0.33875 0.33875 0.33863 0.33837 0.33837 0.33837 0.33825 0.33787 0.33775 0.33775 0.3375 0.33737 0.33725 0.33687 0.3365 0.3365 0.33637 0.3365 0.3365 0.33663 0.33725 0.337 0.337 0.337 0.33687 0.33687 0.33663 0.3365 0.336 0.33563 0.3355 0.3355 0.33525 0.3355 0.3355 0.3355 0.33525 0.33525 0.33487 0.33437 0.3335 0.33375 0.3355 0.33487 0.33437 0.33387 0.33387 0.33387 0.33375 0.3335 0.33337 0.33325 0.333 0.33287 0.33287 0.3325 0.33237 0.33213 0.33213 0.332 0.332 0.332 0.332 0.332 0.33187 0.33187 0.33187 0.33163 0.33163 0.3315 0.33113 0.33087 0.33 0.3295 0.3295 0.3295 0.3295 0.32925 0.32913 0.32925 0.32913 0.3295 0.32963 0.33 0.32975 0.32975 0.32975 0.33 0.32975 0.32963 0.32963 0.329 0.32875 0.32875 0.32863 0.32863 0.3285 0.32863 0.32863 0.32863 0.3285 0.3285 0.32812 0.328 0.328 0.32812 0.32825 0.32775 0.32775 0.32775 0.32762 0.32762 0.32762 0.32712 0.327 0.32662 0.32612 0.32588 0.3255 0.3255 0.3255 0.32538 0.32512 0.325 0.325 0.32512 0.32512 0.32538 0.3255 0.32538 0.32538 0.325 0.32512 0.32512 0.32512 0.32512 0.32488 0.32488 0.32488 0.32462 0.32462 0.32462 0.32462 0.32488 0.32488 0.32488 0.32488 0.32462 0.32462 0.32488 0.32488 0.32462 0.32438 0.32425 0.32388 0.32388 0.32375 0.3235 0.32338 0.32325 0.32312 0.32312 0.32312 0.32312 0.32312 0.32312 0.32312 0.32312 0.32275 0.32262 0.32225 0.32212 0.322 0.322 0.32162 0.32162 0.32162 0.32175 0.32175 0.322 0.32212 0.322 0.32162 0.3215 0.32162 0.32212 0.322 0.32162 0.32125 0.321 0.32088 0.32088 0.32088 0.32038 0.32025 0.31988 0.3195 0.3195 0.31938 0.31938 0.3195 0.31938 0.31938 0.31925 0.31925 0.31938 0.3195 0.31975 0.3195 0.31925 0.31925 0.31938 0.31912 0.31912 0.31912 0.31888 0.31875 0.31875 0.3185 0.3185 0.31812 0.31812 0.318 0.31812 0.31762 0.3155 0.31562 0.31562 0.31688 0.31738 0.31738 0.31738 0.31738 0.317 0.317 0.31688 0.31675 0.31662 0.31675 0.317 0.317 0.31725 0.317 0.31675 0.31662 0.31625 0.31638 0.31638 0.31612 0.316 0.31562 0.31525 0.31525 0.315 0.31488 0.31488 0.31475 0.31475 0.31462 0.31438 0.31438 0.31438 0.31438 0.31425 0.31425 0.31412 0.31412 0.31388 0.31362 0.31338 0.31338 0.31362 0.31362 0.3135 0.3135 0.31325 0.31288 0.31312 0.31288 0.31325 0.31325 0.31312 0.31325 0.31312 0.31325 0.31325 0.31338 0.3135 0.3135 0.3135 0.3135 0.3135 0.3135 0.3135 0.31362 0.31362 0.31388 0.31388 0.31388 0.31362 0.3135 0.31325 0.31312 0.31288 0.31312 0.31312 0.31288
0.34475 0.34475 0.34475 0.34425 0.344 0.34387 0.34363 0.34387 0.34387 0.34325 0.34313 0.34275 0.34275 0.34275 0.3425 0.34213 0.34187 0.34113 0.34075 0.34063 0.34063 0.34087 0.34075 0.34063 0.3425 0.3425 0.34275 0.34237 0.342 0.3425 0.34213 0.34113 0.34037 0.34025 0.34 0.33987 0.3395 0.33937 0.339 0.339 0.33913 0.33913 0.33913 0.33913 0.33913 0.33937 0.33937 0.33937 0.33937 0.33937 0.339 0.33875 0.33875 0.33837 0.33825 0.33825 0.33813 0.33813 0.33813 0.33787 0.3375 0.33725 0.337 0.337 0.33663 0.3365 0.33637 0.336 0.33575 0.33575 0.336 0.33575 0.336 0.33663 0.33663 0.33663 0.33663 0.3365 0.33637 0.33613 0.33575 0.3355 0.33513 0.33487 0.33475 0.33487 0.33475 0.33487 0.33475 0.33463 0.33463 0.33413 0.33387 0.3335 0.33387 0.3355 0.33463 0.33375 0.3335 0.3335 0.3335 0.33337 0.33337 0.333 0.333 0.33287 0.33275 0.33275 0.33213 0.33213 0.33213 0.33163 0.33187 0.33163 0.33163 0.33163 0.3315 0.33163 0.3315 0.33137 0.33137 0.33137 0.331 0.331 0.33037 0.32963 0.32913 0.32913 0.32925 0.32913 0.329 0.32875 0.32875 0.329 0.32913 0.32925 0.32925 0.32925 0.32913 0.32913 0.32925 0.32925 0.32913 0.32913 0.3285 0.32825 0.3285 0.32825 0.32825 0.32825 0.32825 0.3285 0.32825 0.3285 0.32812 0.32775 0.32762 0.3275 0.32762 0.32775 0.32725 0.32725 0.32712 0.32712 0.327 0.327 0.32688 0.3265 0.32638 0.3255 0.32538 0.32538 0.32512 0.325 0.325 0.32488 0.32462 0.32462 0.32462 0.32488 0.32462 0.325 0.325 0.32488 0.32488 0.32462 0.32462 0.32462 0.32462 0.3245 0.32462 0.32438 0.32438 0.32438 0.32425 0.32425 0.32438 0.3245 0.3245 0.32438 0.32425 0.32425 0.32425 0.3245 0.32425 0.324 0.32388 0.32338 0.32338 0.32338 0.32325 0.32325 0.32288 0.32275 0.32262 0.32288 0.32262 0.32262 0.32262 0.32275 0.32262 0.32225 0.322 0.32175 0.3215 0.32125 0.32112 0.32112 0.321 0.32112 0.32125 0.32125 0.3215 0.3215 0.3215 0.32125 0.32112 0.3215 0.3215 0.32162 0.32125 0.32112 0.321 0.3205 0.3205 0.3205 0.32025 0.32 0.31975 0.31938 0.31938 0.31925 0.31925 0.31925 0.31912 0.31912 0.31888 0.31875 0.31912 0.31912 0.31912 0.31912 0.31912 0.31912 0.31925 0.31912 0.31888 0.31888 0.31862 0.31862 0.31825 0.31788 0.31788 0.3175 0.3175 0.31738 0.31738 0.31688 0.31588 0.3155 0.316 0.31612 0.31662 0.31675 0.31675 0.31675 0.31662 0.31662 0.31662 0.31638 0.31625 0.31662 0.31675 0.31675 0.31675 0.31662 0.31638 0.316 0.31588 0.31588 0.316 0.31562 0.3155 0.31525 0.31488 0.31488 0.31475 0.31475 0.31475 0.31462 0.31462 0.31462 0.31425 0.31412 0.31412 0.31412 0.314 0.314 0.31412 0.314 0.31388 0.3135 0.31338 0.31325 0.31338 0.31338 0.31325 0.31325 0.31288 0.31262 0.31262 0.31275 0.31288 0.31288 0.31288 0.31312 0.31288 0.31312 0.31312 0.31325 0.31338 0.31338 0.3135 0.3135 0.31338 0.3135 0.3135 0.3135 0.31388 0.31388 0.31388 0.31388 0.31362 0.3135 0.31338 0.31325 0.31325 0.31312 0.31312 0.31312
0.34437 0.3445 0.34437 0.34387 0.3435 0.34363 0.3435 0.3435 0.34363 0.34313 0.34275 0.3425 0.3425 0.34237 0.342 0.34187 0.3415 0.34063 0.34037 0.34025 0.34 0.34037 0.34025 0.33987 0.3395 0.33913 0.33937 0.34025 0.34113 0.342 0.34187 0.34063 0.34 0.33987 0.3395 0.33963 0.33913 0.339 0.33875 0.33875 0.339 0.339 0.339 0.33875 0.339 0.33913 0.339 0.33913 0.33913 0.339 0.33875 0.33863 0.33863 0.33813 0.33813 0.33775 0.33737 0.33737 0.33725 0.337 0.33663 0.33613 0.33613 0.33613 0.336 0.33575 0.33563 0.33563 0.33563 0.33525 0.33525 0.33525 0.3355 0.33575 0.336 0.336 0.33575 0.33575 0.33525 0.33525 0.33513 0.33487 0.33463 0.33437 0.33425 0.33425 0.33437 0.33425 0.33413 0.33413 0.33387 0.33375 0.33337 0.33325 0.33337 0.33275 0.33237 0.33325 0.333 0.33325 0.33325 0.333 0.333 0.33287 0.33287 0.33275 0.33275 0.3325 0.33213 0.33187 0.332 0.3315 0.3315 0.33137 0.33137 0.33137 0.33137 0.33113 0.33113 0.33087 0.331 0.33087 0.3305 0.33037 0.32975 0.32913 0.32875 0.32875 0.32875 0.32875 0.32863 0.3285 0.32863 0.32863 0.32863 0.32875 0.32863 0.32863 0.32863 0.3285 0.32863 0.32863 0.3285 0.32825 0.328 0.32775 0.32812 0.32812 0.32812 0.328 0.32812 0.32812 0.32825 0.32812 0.328 0.3275 0.32725 0.327 0.32712 0.32725 0.32688 0.32662 0.32662 0.3265 0.3265 0.3265 0.32612 0.326 0.32562 0.32512 0.325 0.325 0.32488 0.32488 0.32488 0.32462 0.3245 0.32438 0.32462 0.3245 0.3245 0.32488 0.32462 0.32462 0.3245 0.3245 0.3245 0.32462 0.3245 0.32438 0.32425 0.32425 0.32425 0.324 0.32388 0.324 0.32425 0.32425 0.324 0.32388 0.32388 0.32388 0.32375 0.324 0.32388 0.3235 0.3235 0.32312 0.32288 0.32288 0.32288 0.32288 0.32262 0.32238 0.32238 0.32238 0.32225 0.322 0.322 0.32212 0.32212 0.32162 0.32125 0.32112 0.32088 0.32062 0.32062 0.3205 0.32062 0.32062 0.321 0.321 0.321 0.32112 0.321 0.32062 0.32062 0.32088 0.32112 0.32112 0.32088 0.3205 0.3205 0.32025 0.32025 0.32025 0.31975 0.3195 0.31938 0.31912 0.31912 0.31862 0.31862 0.31875 0.3185 0.3185 0.3185 0.31812 0.31825 0.3185 0.3185 0.31762 0.31625 0.31625 0.31612 0.31625 0.31612 0.316 0.31562 0.31562 0.31638 0.317 0.31688 0.317 0.31675 0.31688 0.31662 0.31612 0.31562 0.31538 0.3155 0.31562 0.316 0.316 0.31612 0.31612 0.316 0.316 0.31612 0.316 0.31588 0.316 0.31612 0.31625 0.31625 0.31612 0.31562 0.31538 0.315 0.315 0.31525 0.315 0.31488 0.31462 0.31438 0.31438 0.31462 0.31438 0.31462 0.31438 0.31438 0.31425 0.31425 0.31412 0.31412 0.31388 0.31388 0.31388 0.31388 0.31388 0.31362 0.31338 0.31312 0.31312 0.31325 0.31312 0.31312 0.31288 0.31262 0.3125 0.3125 0.31262 0.31262 0.31275 0.31275 0.31288 0.31312 0.31288 0.31312 0.31325 0.31325 0.31338 0.31338 0.31362 0.3135 0.3135 0.3135 0.31362 0.31362 0.31388 0.31388 0.314 0.314 0.31338 0.31338 0.31325 0.31325 0.31312 0.31325 0.31312
0.34275 0.3425 0.34237 0.34237 0.342 0.342 0.342 0.34187 0.34187 0.34187 0.3415 0.34125 0.34125 0.34113 0.34075 0.34063 0.34063 0.33987 0.33987 0.33963 0.3395 0.3395 0.33937 0.33913 0.33875 0.33863 0.33875 0.339 0.33825 0.33825 0.33825 0.3375 0.33837 0.33837 0.33837 0.33863 0.33813 0.33787 0.33775 0.33775 0.33787 0.33787 0.33775 0.33787 0.33775 0.33825 0.33825 0.33813 0.33825 0.33813 0.33813 0.33787 0.33787 0.33737 0.337 0.33663 0.33613 0.33613 0.336 0.33563 0.33525 0.33487 0.33475 0.33475 0.33475 0.33475 0.33475 0.33487 0.33513 0.33475 0.33475 0.33437 0.33437 0.33463 0.33463 0.33463 0.33437 0.33425 0.33375 0.3335 0.3335 0.3335 0.3335 0.3335 0.3335 0.33337 0.33337 0.33337 0.33325 0.33325 0.333 0.33287 0.33275 0.33275 0.33237 0.33213 0.33213 0.33213 0.33237 0.3325 0.3325 0.3325 0.3325 0.3325 0.3325 0.33237 0.33213 0.332 0.33163 0.3315 0.3315 0.331 0.331 0.33087 0.3305 0.33063 0.33037 0.3305 0.3305 0.33013 0.33 0.32975 0.32963 0.32925 0.329 0.32825 0.32812 0.328 0.328 0.32775 0.32762 0.32762 0.32762 0.32775 0.32775 0.32775 0.32762 0.32762 0.3275 0.3275 0.32725 0.32712 0.32712 0.32712 0.327 0.327 0.32725 0.3275 0.32762 0.32725 0.3275 0.32762 0.32762 0.3275 0.32712 0.32662 0.3265 0.3265 0.32612 0.32638 0.326 0.32588 0.3255 0.32538 0.32538 0.32538 0.32512 0.32488 0.32462 0.32438 0.32425 0.32425 0.32425 0.32425 0.32438 0.32425 0.324 0.32388 0.32388 0.32388 0.32388 0.324 0.324 0.324 0.32375 0.32388 0.32375 0.32388 0.32388 0.32388 0.32375 0.32338 0.32325 0.32325 0.32288 0.32288 0.32288 0.32325 0.32312 0.32288 0.32275 0.32275 0.32275 0.32312 0.32288 0.32262 0.32238 0.322 0.322 0.322 0.32175 0.32225 0.32212 0.322 0.322 0.32175 0.32162 0.32125 0.32125 0.32125 0.32112 0.32062 0.3205 0.32025 0.31988 0.31988 0.31988 0.31975 0.3195 0.31975 0.32 0.32 0.32025 0.32025 0.32 0.31988 0.31988 0.32 0.32 0.31988 0.3195 0.31938 0.31925 0.31925 0.31888 0.31875 0.3185 0.31825 0.31812 0.318 0.31812 0.3175 0.3175 0.31762 0.3175 0.31738 0.31738 0.31725 0.31738 0.31738 0.317 0.31688 0.31638 0.31588 0.31562 0.31538 0.31525 0.31538 0.315 0.315 0.31525 0.31538 0.31538 0.31538 0.3155 0.3155 0.31538 0.31525 0.31475 0.31462 0.31462 0.31462 0.31475 0.31475 0.315 0.315 0.315 0.31525 0.31525 0.31525 0.31488 0.31488 0.315 0.315 0.31488 0.31462 0.31425 0.31412 0.31388 0.31388 0.314 0.31388 0.31388 0.31362 0.3135 0.31362 0.31388 0.314 0.31412 0.31412 0.31412 0.31412 0.314 0.31388 0.31388 0.3135 0.31362 0.31362 0.31362 0.31362 0.31325 0.31312 0.31288 0.31275 0.31288 0.31288 0.31288 0.31275 0.3125 0.31212 0.31238 0.31238 0.3125 0.3125 0.31262 0.31275 0.31288 0.31288 0.31288 0.31312 0.31325 0.31325 0.31338 0.31362 0.31362 0.3135 0.31362 0.31362 0.31388 0.31388 0.314 0.314 0.314 0.3135 0.31338 0.31325 0.31325 0.31325 0.31325 0.31325
0.34163 0.34163 0.3415 0.3415 0.3415 0.34125 0.34113 0.34113 0.34113 0.34087 0.34075 0.34075 0.34075 0.34075 0.34025 0.34025 0.34 0.33987 0.3395 0.33937 0.33937 0.33937 0.33913 0.33863 0.33837 0.33813 0.33813 0.33813 0.33825 0.33825 0.33825 0.33775 0.3375 0.33775 0.33787 0.33787 0.33775 0.33737 0.33737 0.33725 0.33725 0.33725 0.337 0.33725 0.33725 0.3375 0.3375 0.33775 0.3375 0.33775 0.3375 0.3375 0.33737 0.337 0.33663 0.33637 0.33575 0.33575 0.3355 0.33513 0.33487 0.33437 0.33463 0.33463 0.33437 0.33437 0.33437 0.33463 0.33487 0.33475 0.33463 0.33425 0.33413 0.33425 0.33413 0.33413 0.33387 0.3335 0.333 0.33287 0.333 0.33325 0.33337 0.33325 0.33325 0.333 0.33325 0.333 0.333 0.33275 0.33287 0.3325 0.33237 0.3325 0.332 0.332 0.332 0.332 0.33213 0.33237 0.33237 0.33213 0.33213 0.33237 0.33237 0.33213 0.332 0.33187 0.33137 0.3315 0.33113 0.33087 0.33063 0.33037 0.33037 0.33037 0.33 0.33 0.33013 0.32975 0.32975 0.32963 0.32925 0.32875 0.3285 0.328 0.32762 0.32775 0.3275 0.32725 0.32725 0.32725 0.32712 0.32725 0.3275 0.32725 0.32725 0.32712 0.32712 0.327 0.327 0.32662 0.32688 0.32662 0.32662 0.32688 0.32688 0.327 0.32712 0.32712 0.32712 0.32725 0.32725 0.32712 0.327 0.32612 0.32612 0.326 0.326 0.326 0.32562 0.32588 0.32512 0.32462 0.32488 0.32488 0.32462 0.3245 0.32425 0.32388 0.32375 0.32388 0.32388 0.32388 0.324 0.32388 0.32375 0.3235 0.3235 0.32338 0.3235 0.3235 0.3235 0.32375 0.3235 0.32338 0.3235 0.3235 0.3235 0.3235 0.32338 0.32288 0.32275 0.32262 0.32225 0.32225 0.32238 0.32262 0.32238 0.32238 0.32225 0.32238 0.32225 0.32262 0.32238 0.32212 0.32212 0.3215 0.3215 0.32125 0.3215 0.322 0.32175 0.32162 0.32162 0.32162 0.3215 0.32112 0.32112 0.321 0.321 0.32038 0.32025 0.32 0.31975 0.3195 0.3195 0.3195 0.31925 0.31938 0.3195 0.31975 0.31975 0.31975 0.31975 0.3195 0.3195 0.31975 0.3195 0.3195 0.31888 0.31888 0.31875 0.31875 0.3185 0.31812 0.31762 0.3175 0.31738 0.31738 0.3175 0.3175 0.31738 0.31738 0.317 0.317 0.317 0.317 0.31688 0.317 0.31675 0.31625 0.31612 0.31538 0.31538 0.31475 0.31488 0.31475 0.31475 0.31462 0.31462 0.31462 0.31488 0.31475 0.31488 0.315 0.31488 0.31462 0.31425 0.31412 0.31425 0.31425 0.31425 0.31438 0.31462 0.31488 0.31475 0.31488 0.31488 0.31488 0.31438 0.31462 0.31462 0.31438 0.31425 0.31412 0.31388 0.3135 0.3135 0.31338 0.31338 0.3135 0.31338 0.31338 0.31325 0.3135 0.3135 0.31362 0.31388 0.314 0.314 0.314 0.31388 0.31388 0.31362 0.3135 0.31338 0.3135 0.3135 0.3135 0.31312 0.31275 0.31262 0.31275 0.31288 0.31312 0.31312 0.31325 0.31288 0.3125 0.31262 0.31275 0.31312 0.31312 0.31325 0.31288 0.31288 0.31288 0.31312 0.31325 0.3135 0.3135 0.31362 0.314 0.314 0.314 0.31438 0.31438 0.31462 0.31425 0.31438 0.31438 0.31438 0.31438 0.31475 0.31438 0.31438 0.31438 0.31438 0.315
0.34125 0.34125 0.34113 0.34113 0.34125 0.34087 0.34087 0.34087 0.34087 0.34075 0.34063 0.34037 0.34063 0.34037 0.34 0.34 0.33987 0.33963 0.33937 0.33913 0.33913 0.339 0.33875 0.33813 0.33787 0.33775 0.33775 0.33775 0.3375 0.3375 0.33775 0.33725 0.337 0.33725 0.33737 0.33725 0.33725 0.337 0.33687 0.33663 0.33663 0.33637 0.33613 0.3365 0.33663 0.33687 0.337 0.33663 0.33687 0.337 0.33687 0.33687 0.33687 0.3365 0.33613 0.33575 0.3355 0.3355 0.33525 0.33475 0.33463 0.33437 0.33437 0.33425 0.33437 0.33425 0.33437 0.33437 0.33463 0.33463 0.33437 0.33425 0.33413 0.33413 0.33413 0.33375 0.3335 0.33337 0.33287 0.33275 0.33275 0.33287 0.33287 0.33275 0.33275 0.33275 0.33275 0.33275 0.3325 0.33237 0.33237 0.33213 0.33187 0.332 0.33163 0.33163 0.33163 0.3315 0.33163 0.33187 0.33187 0.33163 0.33163 0.33087 0.32875 0.32762 0.32762 0.3295 0.32825 0.32825 0.32812 0.32762 0.32762 0.328 0.32925 0.3295 0.32913 0.3295 0.3295 0.32963 0.3295 0.3295 0.329 0.32863 0.32825 0.32762 0.3275 0.3275 0.32712 0.32712 0.327 0.327 0.327 0.327 0.327 0.327 0.327 0.32688 0.32688 0.32688 0.32662 0.3265 0.3265 0.3265 0.3265 0.32662 0.32662 0.32662 0.32688 0.32662 0.32688 0.32688 0.3265 0.3265 0.32612 0.3255 0.32538 0.32538 0.32512 0.32425 0.32238 0.32238 0.3235 0.32425 0.32425 0.32425 0.32162 0.32162 0.32288 0.32338 0.32338 0.32325 0.32338 0.32338 0.3235 0.32338 0.32338 0.32338 0.32325 0.32338 0.32325 0.32325 0.32338 0.32338 0.32338 0.32288 0.32312 0.32312 0.32312 0.32288 0.32275 0.32225 0.32212 0.322 0.32162 0.32162 0.32162 0.322 0.32175 0.32162 0.32175 0.32175 0.32175 0.32175 0.32162 0.3215 0.32125 0.32112 0.321 0.321 0.32112 0.3215 0.32162 0.3215 0.3215 0.32162 0.32112 0.32088 0.321 0.32088 0.32062 0.32 0.32 0.31988 0.31938 0.31925 0.31925 0.31912 0.31888 0.31888 0.31912 0.31925 0.31925 0.31925 0.31912 0.31912 0.31925 0.31938 0.31925 0.31925 0.31862 0.3185 0.31825 0.31812 0.318 0.3175 0.31738 0.31725 0.31725 0.317 0.317 0.317 0.317 0.317 0.31688 0.31675 0.31675 0.31638 0.31638 0.31638 0.31612 0.316 0.31562 0.315 0.31488 0.31438 0.31438 0.31438 0.31438 0.31425 0.31438 0.31438 0.31462 0.31462 0.31462 0.31462 0.31438 0.31425 0.314 0.31388 0.31388 0.314 0.314 0.314 0.31412 0.31438 0.31438 0.31438 0.31462 0.31462 0.31425 0.31438 0.31425 0.31425 0.31425 0.314 0.31362 0.3135 0.31338 0.31338 0.31338 0.31325 0.31325 0.31312 0.31325 0.31325 0.31325 0.3135 0.31362 0.31362 0.314 0.314 0.31388 0.31388 0.31362 0.3135 0.3135 0.31362 0.3135 0.31362 0.31312 0.31275 0.31275 0.31262 0.31288 0.31288 0.31325 0.31325 0.31288 0.31275 0.31275 0.31288 0.31312 0.31325 0.31325 0.31325 0.31288 0.31288 0.31312 0.31338 0.31388 0.314 0.31412 0.31425 0.31425 0.31425 0.31462 0.31462 0.31475 0.31475 0.31462 0.31475 0.31462 0.31488 0.315 0.31488 0.31488 0.31488 0.315 0.3155
0.34037 0.34063 0.34063 0.34063 0.34063 0.34063 0.34037 0.34037 0.34037 0.34025 0.34 0.34 0.34 0.34 0.33963 0.33963 0.3395 0.33913 0.33875 0.33863 0.33825 0.33825 0.33787 0.337 0.3365 0.3365 0.33637 0.3365 0.336 0.33613 0.33637 0.33637 0.33613 0.33613 0.33613 0.33613 0.33613 0.33613 0.33613 0.336 0.33563 0.33525 0.33513 0.33513 0.3355 0.33563 0.33575 0.33525 0.33525 0.33563 0.33563 0.33575 0.33575 0.33525 0.33513 0.33487 0.33463 0.33463 0.33425 0.33413 0.33375 0.33375 0.3335 0.3335 0.3335 0.33375 0.33375 0.33387 0.33387 0.33387 0.33375 0.3335 0.3335 0.33337 0.3335 0.333 0.33275 0.3325 0.33237 0.33213 0.33213 0.33213 0.33213 0.33187 0.33187 0.332 0.332 0.33187 0.33163 0.33113 0.331 0.33087 0.33063 0.33063 0.33037 0.33037 0.33037 0.33013 0.33013 0.33013 0.33013 0.33013 0.33 0.33087 0.32875 0.32762 0.328 0.32825 0.32762 0.32762 0.3275 0.32725 0.32725 0.32725 0.32762 0.32762 0.32762 0.328 0.32812 0.32825 0.32863 0.32863 0.32812 0.328 0.32762 0.32712 0.327 0.32688 0.32662 0.32662 0.32638 0.32638 0.32612 0.32612 0.32612 0.32638 0.32612 0.32612 0.326 0.326 0.32588 0.32588 0.32588 0.32588 0.32588 0.32588 0.326 0.326 0.326 0.32588 0.32588 0.32588 0.32538 0.32512 0.32488 0.32425 0.324 0.324 0.32388 0.3235 0.32312 0.32275 0.32288 0.32275 0.32275 0.32275 0.322 0.32175 0.32212 0.32212 0.32238 0.32225 0.32212 0.32212 0.32225 0.32238 0.32262 0.32238 0.32238 0.32238 0.32225 0.32225 0.32238 0.32238 0.32262 0.32175 0.32175 0.322 0.32175 0.32162 0.3215 0.32112 0.321 0.32088 0.3205 0.32038 0.32038 0.32062 0.3205 0.3205 0.3205 0.3205 0.3205 0.3205 0.32025 0.32 0.32 0.31988 0.31988 0.31988 0.32 0.3205 0.32062 0.32088 0.32088 0.321 0.32088 0.3205 0.3205 0.32038 0.32025 0.31975 0.31938 0.31925 0.31888 0.31875 0.31875 0.31825 0.31812 0.31812 0.31812 0.31812 0.31812 0.31812 0.31788 0.31788 0.31812 0.31812 0.31825 0.31812 0.3175 0.31738 0.31725 0.317 0.31688 0.31662 0.31638 0.31638 0.31638 0.31625 0.31638 0.31625 0.31638 0.31638 0.31612 0.316 0.316 0.3155 0.3155 0.3155 0.31525 0.315 0.31488 0.31438 0.31438 0.314 0.314 0.31388 0.31388 0.31388 0.31388 0.31388 0.31388 0.31388 0.31388 0.31388 0.3135 0.31338 0.31325 0.31312 0.31288 0.31288 0.31312 0.31312 0.31312 0.31325 0.31325 0.3135 0.31362 0.31388 0.31388 0.31388 0.314 0.31388 0.314 0.31362 0.3135 0.31338 0.31325 0.31325 0.31312 0.31288 0.31275 0.31262 0.31275 0.31312 0.31312 0.31338 0.3135 0.3135 0.31388 0.31388 0.31388 0.314 0.31388 0.31362 0.31362 0.31388 0.31362 0.31362 0.31325 0.31288 0.31275 0.31275 0.31288 0.31312 0.31325 0.31338 0.31312 0.31312 0.31288 0.31312 0.31325 0.31338 0.3135 0.3135 0.31325 0.31325 0.31362 0.314 0.31475 0.31488 0.31488 0.31488 0.31488 0.31488 0.31525 0.31525 0.31525 0.31488 0.31488 0.315 0.31525 0.31538 0.31588 0.31562 0.31562 0.31562 0.316 0.31662
0.34 0.34037 0.34037 0.34037 0.34063 0.34037 0.34025 0.34025 0.34025 0.33987 0.33987 0.33963 0.33987 0.33963 0.3395 0.33937 0.33937 0.33863 0.33825 0.33825 0.33775 0.3375 0.33725 0.33637 0.336 0.336 0.33575 0.336 0.33525 0.3355 0.33575 0.33575 0.33575 0.336 0.33575 0.33563 0.33563 0.336 0.33575 0.33563 0.3355 0.33513 0.33475 0.33487 0.33513 0.33525 0.33525 0.33487 0.33513 0.33513 0.33513 0.3355 0.33563 0.33487 0.33487 0.33463 0.33425 0.33425 0.33413 0.33375 0.3335 0.333 0.333 0.333 0.333 0.33337 0.33337 0.33337 0.33337 0.3335 0.33325 0.333 0.333 0.333 0.33325 0.3325 0.33213 0.33213 0.332 0.332 0.332 0.33187 0.33187 0.3315 0.33163 0.33163 0.33163 0.3315 0.33113 0.33063 0.3305 0.33013 0.33 0.33 0.3295 0.3295 0.3295 0.32925 0.32913 0.32913 0.32913 0.32913 0.329 0.32812 0.32812 0.32775 0.32725 0.32725 0.327 0.327 0.327 0.32688 0.32688 0.327 0.32712 0.32725 0.32725 0.3275 0.32762 0.32762 0.328 0.328 0.32762 0.3275 0.32725 0.327 0.32662 0.32662 0.32638 0.32638 0.32612 0.326 0.326 0.326 0.326 0.326 0.326 0.32588 0.32588 0.3255 0.3255 0.3255 0.32538 0.3255 0.32538 0.3255 0.3255 0.32562 0.32562 0.32562 0.32538 0.32538 0.32512 0.32488 0.3245 0.32388 0.32375 0.32388 0.32338 0.32325 0.32288 0.32238 0.32238 0.32212 0.32212 0.32225 0.32162 0.3215 0.3215 0.32175 0.32175 0.32175 0.32162 0.32162 0.3215 0.322 0.322 0.32212 0.32175 0.32175 0.32162 0.32175 0.32175 0.322 0.322 0.32125 0.32125 0.32125 0.32125 0.32112 0.321 0.32062 0.32062 0.3205 0.32025 0.32 0.32025 0.32025 0.32025 0.32025 0.32025 0.32025 0.31988 0.31975 0.3195 0.3195 0.31938 0.3195 0.3195 0.3195 0.3195 0.32025 0.32038 0.32038 0.3205 0.32062 0.3205 0.32038 0.32038 0.32 0.31988 0.31938 0.31925 0.31888 0.31862 0.31862 0.31825 0.31812 0.31788 0.31762 0.31788 0.31762 0.31762 0.31762 0.3175 0.31738 0.3175 0.3175 0.31738 0.31762 0.31725 0.31675 0.31662 0.31638 0.31625 0.31612 0.316 0.31612 0.316 0.316 0.316 0.31612 0.316 0.31612 0.316 0.31588 0.31588 0.31538 0.31538 0.31525 0.315 0.31488 0.31462 0.31425 0.31425 0.314 0.31388 0.31362 0.31362 0.31362 0.31388 0.31362 0.31362 0.31362 0.3135 0.3135 0.3135 0.31325 0.31288 0.31275 0.31275 0.31262 0.31262 0.3125 0.3125 0.31262 0.31275 0.31288 0.31325 0.3135 0.3135 0.31362 0.31362 0.31362 0.31388 0.31362 0.31338 0.31338 0.31325 0.31325 0.31312 0.31262 0.31262 0.31262 0.31262 0.31288 0.31288 0.31325 0.31338 0.3135 0.31388 0.314 0.314 0.31388 0.314 0.31388 0.31362 0.31388 0.31388 0.31388 0.31338 0.31312 0.31288 0.31288 0.31312 0.31312 0.31338 0.31338 0.31312 0.31288 0.31312 0.31312 0.31338 0.3135 0.31362 0.31362 0.31338 0.31338 0.314 0.31425 0.315 0.31538 0.31538 0.31538 0.31525 0.31525 0.31538 0.31538 0.31525 0.315 0.315 0.31525 0.31538 0.31538 0.31612 0.316 0.31588 0.316 0.31612 0.31675
0.33875 0.33937 0.3395 0.33913 0.33913 0.33937 0.33913 0.33937 0.33937 0.33613 0.33613 0.33613 0.33613 0.3375 0.33787 0.33775 0.33775 0.337 0.33663 0.33687 0.33663 0.33687 0.33637 0.33525 0.33487 0.33487 0.33475 0.33487 0.33463 0.33437 0.33463 0.33437 0.33463 0.33475 0.33475 0.33463 0.33475 0.33487 0.33513 0.33475 0.33463 0.33437 0.33413 0.33413 0.33437 0.33463 0.33463 0.33425 0.33375 0.33387 0.33375 0.33375 0.33387 0.33325 0.333 0.33287 0.3325 0.3325 0.3325 0.33237 0.33237 0.33187 0.33187 0.33187 0.33163 0.33163 0.3315 0.3315 0.33137 0.33137 0.33137 0.33113 0.33137 0.33137 0.33137 0.3315 0.33137 0.33137 0.33113 0.331 0.331 0.33137 0.33137 0.33087 0.33087 0.33063 0.33063 0.33037 0.33013 0.32925 0.32913 0.329 0.32875 0.32875 0.3285 0.3285 0.3285 0.32825 0.32825 0.32812 0.32812 0.32812 0.32775 0.3275 0.3275 0.32712 0.32688 0.3265 0.32638 0.32612 0.32612 0.32612 0.32612 0.32612 0.32612 0.3265 0.3265 0.3265 0.32662 0.32662 0.32688 0.32662 0.3265 0.32638 0.32612 0.32588 0.3255 0.3255 0.32538 0.32538 0.325 0.325 0.32488 0.32488 0.32488 0.325 0.325 0.325 0.32488 0.32462 0.3245 0.32438 0.32438 0.32438 0.3245 0.32438 0.32438 0.32438 0.3245 0.32462 0.3245 0.32438 0.32438 0.324 0.32388 0.3235 0.32325 0.32338 0.32312 0.32275 0.32262 0.322 0.322 0.32175 0.32175 0.32175 0.32125 0.32125 0.321 0.321 0.32125 0.32112 0.32088 0.32088 0.32088 0.32112 0.32112 0.32112 0.321 0.321 0.321 0.321 0.321 0.32125 0.32125 0.321 0.32088 0.32088 0.32062 0.3205 0.32038 0.31988 0.31975 0.31975 0.31925 0.31912 0.31912 0.31925 0.31938 0.31938 0.3195 0.3195 0.31912 0.31912 0.31888 0.31875 0.31875 0.31888 0.31875 0.31862 0.31875 0.31888 0.31925 0.31938 0.31975 0.31988 0.31975 0.3195 0.31925 0.31912 0.31875 0.31825 0.31812 0.31825 0.318 0.318 0.31762 0.31738 0.317 0.31688 0.31675 0.317 0.31688 0.31662 0.31625 0.31625 0.31612 0.31612 0.316 0.31638 0.31612 0.31562 0.3155 0.31538 0.31538 0.31525 0.315 0.315 0.315 0.315 0.315 0.31525 0.31488 0.31488 0.31462 0.31438 0.31438 0.31438 0.31425 0.31425 0.31388 0.31362 0.3135 0.3135 0.31338 0.31338 0.31325 0.31288 0.31288 0.31325 0.31338 0.3135 0.3135 0.3135 0.3135 0.31338 0.31338 0.31312 0.31288 0.3125 0.3125 0.3125 0.3125 0.3125 0.31238 0.31238 0.3125 0.31262 0.31312 0.31325 0.31338 0.31338 0.31338 0.31338 0.31338 0.3135 0.31338 0.31325 0.31325 0.31325 0.31312 0.31275 0.31275 0.31262 0.31275 0.31312 0.31312 0.31338 0.31362 0.31362 0.314 0.314 0.31412 0.314 0.31412 0.314 0.31412 0.31412 0.314 0.314 0.3135 0.31338 0.31325 0.31312 0.31338 0.31338 0.3135 0.3135 0.31338 0.31325 0.31325 0.31338 0.3135 0.31388 0.31388 0.31388 0.31388 0.31362 0.31425 0.31438 0.31538 0.31562 0.31562 0.31562 0.3155 0.3155 0.31562 0.3155 0.3155 0.3155 0.31538 0.3155 0.31562 0.31588 0.31638 0.31625 0.31625 0.31625 0.31638 0.317
0.33937 0.33863 0.33875 0.33863 0.33863 0.33863 0.33875 0.33863 0.33863 0.33613 0.33613 0.336 0.33637 0.33687 0.33687 0.33687 0.33663 0.33637 0.336 0.33613 0.336 0.33637 0.33563 0.33513 0.33487 0.33475 0.33463 0.33475 0.33425 0.33425 0.33425 0.33425 0.33437 0.33437 0.33437 0.33437 0.33437 0.33463 0.33463 0.33437 0.33425 0.33413 0.3335 0.3335 0.33375 0.33387 0.33387 0.33375 0.33325 0.33337 0.33325 0.33325 0.33325 0.33275 0.3325 0.33237 0.33213 0.33213 0.33213 0.332 0.33187 0.33163 0.3315 0.33137 0.33137 0.33113 0.331 0.33087 0.331 0.33087 0.33063 0.3305 0.33063 0.33063 0.33063 0.33063 0.33063 0.3305 0.33037 0.33013 0.33037 0.33113 0.33113 0.33087 0.33087 0.33063 0.33037 0.3305 0.32963 0.3285 0.3285 0.32825 0.32825 0.32825 0.32812 0.32825 0.32812 0.328 0.32775 0.32775 0.32762 0.32762 0.32725 0.32712 0.327 0.32662 0.32638 0.32612 0.32588 0.32588 0.326 0.32588 0.32588 0.326 0.326 0.32612 0.32638 0.32638 0.32638 0.3265 0.32638 0.32638 0.32638 0.32612 0.32588 0.3255 0.32538 0.32512 0.32488 0.32462 0.32438 0.32425 0.32425 0.32425 0.32438 0.32438 0.3245 0.32438 0.32438 0.324 0.32388 0.32375 0.32388 0.32375 0.32375 0.32375 0.3235 0.3235 0.3235 0.32375 0.3245 0.32438 0.32425 0.324 0.32375 0.32275 0.32275 0.32288 0.32238 0.32225 0.32212 0.32162 0.3215 0.3215 0.3215 0.3215 0.321 0.32088 0.32062 0.32062 0.32062 0.32062 0.3205 0.3205 0.32038 0.32062 0.32088 0.32062 0.32062 0.32062 0.3205 0.32088 0.32088 0.32088 0.321 0.3205 0.3205 0.3205 0.32 0.32 0.31975 0.3195 0.31938 0.31925 0.31888 0.31888 0.31862 0.31862 0.31862 0.31925 0.31938 0.31938 0.31888 0.31888 0.31875 0.31862 0.31875 0.31888 0.3185 0.31825 0.31812 0.31825 0.31862 0.31938 0.3195 0.32 0.31988 0.3195 0.31912 0.31862 0.3185 0.31762 0.3175 0.31738 0.3175 0.3175 0.31738 0.31675 0.31662 0.31638 0.31625 0.31638 0.31625 0.31625 0.31612 0.31588 0.31588 0.31562 0.31562 0.316 0.31588 0.31538 0.315 0.315 0.315 0.31475 0.31462 0.31462 0.31475 0.31462 0.31475 0.31475 0.31462 0.31462 0.31425 0.31425 0.31412 0.314 0.314 0.31388 0.3135 0.31325 0.31325 0.31312 0.31325 0.31288 0.31288 0.31275 0.31275 0.31312 0.31338 0.31338 0.31338 0.3135 0.31338 0.3135 0.31325 0.31325 0.31288 0.31262 0.31262 0.3125 0.3125 0.3125 0.3125 0.3125 0.31262 0.31262 0.31312 0.31338 0.3135 0.31338 0.31338 0.31325 0.31338 0.31338 0.31338 0.31338 0.31325 0.31338 0.31325 0.31325 0.31325 0.31325 0.31312 0.31325 0.31338 0.31362 0.314 0.31412 0.31425 0.31438 0.31438 0.31438 0.31438 0.31438 0.31438 0.31438 0.31438 0.31462 0.314 0.31412 0.31412 0.31362 0.31362 0.314 0.314 0.314 0.31362 0.31362 0.31362 0.31362 0.31388 0.31425 0.31425 0.31425 0.31425 0.31412 0.3155 0.3155 0.31612 0.31638 0.31638 0.31625 0.31625 0.31625 0.31638 0.31625 0.31612 0.31612 0.31625 0.31638 0.31688 0.317 0.3175 0.31762 0.3175 0.3175 0.31762 0.318
0.33725 0.33787 0.33813 0.33813 0.33813 0.33787 0.33813 0.33825 0.33825 0.33613 0.33613 0.33563 0.3355 0.33575 0.33575 0.33563 0.33563 0.3355 0.3355 0.3355 0.3355 0.33563 0.33525 0.33475 0.33475 0.33437 0.33437 0.33437 0.33413 0.33413 0.33413 0.33413 0.33425 0.33425 0.33413 0.33413 0.33413 0.33425 0.33425 0.33413 0.33375 0.33375 0.333 0.333 0.33325 0.33325 0.33325 0.33287 0.33275 0.33275 0.33275 0.33287 0.33287 0.33237 0.33213 0.33213 0.33187 0.332 0.33187 0.33187 0.33163 0.33137 0.33137 0.33113 0.331 0.33087 0.3305 0.33037 0.33037 0.33013 0.33 0.33 0.33013 0.33 0.33 0.32975 0.32975 0.32963 0.3295 0.32925 0.32925 0.32825 0.3285 0.328 0.32775 0.3275 0.3275 0.32762 0.3275 0.32775 0.32775 0.32762 0.32762 0.328 0.32775 0.328 0.328 0.3275 0.3275 0.32725 0.32725 0.32712 0.327 0.3265 0.3265 0.32638 0.326 0.32588 0.3255 0.3255 0.3255 0.3255 0.3255 0.3255 0.32562 0.326 0.326 0.32612 0.32612 0.32612 0.32612 0.32612 0.326 0.32562 0.32562 0.325 0.32488 0.32488 0.32438 0.32425 0.32375 0.3235 0.3235 0.32338 0.32375 0.3235 0.32375 0.32375 0.3235 0.32325 0.32325 0.32312 0.32325 0.32312 0.32312 0.32288 0.32288 0.32262 0.32262 0.32262 0.322 0.322 0.32162 0.3215 0.3215 0.322 0.32212 0.32212 0.322 0.32175 0.32162 0.32125 0.32125 0.32112 0.321 0.321 0.32062 0.3205 0.32025 0.32025 0.32025 0.32025 0.31988 0.31988 0.31988 0.32025 0.32038 0.32025 0.32025 0.32025 0.32025 0.3205 0.32038 0.3205 0.3205 0.32025 0.32025 0.31988 0.31975 0.31938 0.31938 0.31888 0.31888 0.31875 0.31862 0.31825 0.31812 0.31788 0.318 0.31688 0.31688 0.31612 0.31538 0.3155 0.31538 0.3155 0.3155 0.31825 0.31812 0.3175 0.3175 0.31762 0.31788 0.31688 0.317 0.31562 0.31562 0.31625 0.31725 0.318 0.31825 0.31688 0.31675 0.31662 0.31675 0.31688 0.31675 0.31638 0.31612 0.31588 0.31588 0.31588 0.31588 0.31562 0.31562 0.31538 0.3155 0.31538 0.3155 0.31562 0.31562 0.315 0.31488 0.31475 0.31462 0.31438 0.31425 0.31425 0.31425 0.31438 0.31425 0.31438 0.31438 0.31438 0.31412 0.31412 0.31388 0.31388 0.31362 0.3135 0.31288 0.31288 0.31275 0.31275 0.31275 0.31275 0.31262 0.31238 0.3125 0.31288 0.31325 0.31338 0.3135 0.3135 0.3135 0.31338 0.31338 0.31325 0.31312 0.31262 0.3125 0.3125 0.3125 0.31262 0.3125 0.31262 0.31275 0.31288 0.31338 0.3135 0.3135 0.31338 0.31338 0.31338 0.31325 0.31325 0.31338 0.31325 0.31325 0.31325 0.31325 0.31325 0.31325 0.31325 0.31325 0.31325 0.31325 0.31388 0.31388 0.314 0.31438 0.31462 0.31462 0.31462 0.31462 0.31438 0.31475 0.31475 0.31475 0.31475 0.31438 0.31462 0.31462 0.31525 0.31625 0.31675 0.31662 0.31688 0.31675 0.31688 0.317 0.31675 0.31675 0.31725 0.31688 0.31688 0.31725 0.31738 0.317 0.31638 0.31662 0.31675 0.31688 0.31675 0.31662 0.31638 0.31662 0.31662 0.31662 0.31662 0.31662 0.31725 0.3175 0.31762 0.31825 0.31825 0.3185 0.31862 0.31862 0.31875
