0.021985 0.022865 0.0238 0 0 0 0 0 0 0 0 0 0 0 0 0 0 0 0 0 0 0 0 0 0 0 0 0 0 0 0 0 0 0 0 0 0 0 0 0 0 0 0 0 0 0 0 0 0 0 0 0.60812 0.62047 0.58877 0.60029 0.77679 0.74417 0.72551 0.71852 0.68734 0.78163 0.80975 0.84609 0.85599 0.72902 0.7636 0.78908 0.80966 0.83087 0.82151 0.79543 0.80394 0.82402 0.83861 0.83533 0.85599 0.85247 0.84903 0.85748 0.88444 0.77694 0.79429 0.82252 0.83568 0.75993 0.767 0.78319 0.83467 0.86376 0.88853 0.93291 0.94756 0.93666 0.93847 0.95288 0.96745 0.98224 0.97722 0.97876 0.99344 1.0015 1.0165 1.011 1.0191 1.0203 1.0352 1.0364 1.0583 1.0664 1.0534 1.0545 1.0764 1.1063 1.107 1.1004 1.1084 1.1091 1.1098 1.1324 1.148 1.156 1.1641 1.1722 1.1881 1.1804 1.173 1.1732 1.181 1.1813 1.1967 1.2204 1.2365 1.2527 1.2608 1.2859 1.2855 1.2936 1.3193 1.3276 1.3179 1.3172 1.3079 1.3073 1.3066 1.2894 1.2972 1.3132 1.3126 1.3202 1.3196 1.3273 1.3607 1.3684 1.3762 1.3841 1.3919 1.4087 1.4075 1.4152 1.4322 1.4401 1.4386 1.4372 1.4636 1.4811 1.489 1.4872 1.495 1.4932 1.4914 1.4992 1.507 1.505 1.5224 1.4828 1.4631 1.4442 1.4176 1.4246 1.4317 1.4388 1.4374 1.4701 1.4772 1.4757 1.4742 1.4641 1.4711 1.4781 1.4851 1.4667 1.4571 1.4721 1.4707 1.4693 1.5359 1.589 1.6155 1.6034 1.6107 1.678 1.6752 1.6422 1.6299 1.6371 1.5788 1.559 1.5571 1.5638 1.5619 1.5686 1.5754 1.5821 1.58 1.5955 1.5934 1.5826 1.5892 1.7587 1.7555 1.7523 1.7187 1.7257 1.7327 1.7297 1.7367 1.7337 1.6922 1.671 1.6869 1.6843 1.6818 1.6792 1.7043 1.7203 1.7463 1.7628 1.7696 1.7764 1.7832 1.8001 1.7968 1.8137 1.8206 1.8274 1.8342 1.8206 1.8172 1.8138 1.8106 1.8172 1.8339 1.8009 1.7881 1.7757 1.7916 1.8075 1.8044 1.8109 1.8173 1.8237 1.8205 1.8269 1.843 1.8593 1.8364 1.8428 1.8491 1.8458 1.8521 1.8488 1.836 1.8329 1.8485 1.8643 1.8706 1.8769 1.9028 1.9091 1.9255 1.9524 1.9588 1.9757 2.0144 1.9994 2.0059 2.0016 1.9869 1.9933 1.9892 1.9955 1.9915 1.9874 1.9732 1.9794 1.9755 1.9716 1.9778 1.984 2.021 2.0273 2.0335 2.0504 2.0675 2.0314 2.017 2.0231 2.0088 2.0049 1.9716 1.9873 2.0031 2.0191 2.0151 2.0211 2.0072 2.0131 2.0191 2.025 2.0309 2.0074 1.994 1.9904 1.9961 2.0114 2.0269 2.023 2.0288 2.0345 2.0307 2.0364 2.0717 2.1289 2.1455 2.1303 2.1052 2.0909 2.0476 2.0436 2.0589 2.0646 2.0606 2.0567 2.0528 2.0584 2.0451 2.0601 2.0657 2.0808 2.0864 2.1017 2.1171 2.1328 2.1485 2.1747 2.2014 2.2178 2.213 2.2082 2.193
0.022129 0.024011 0.025011 0 0 0 0 0 0 0 0 0 0 0 0 0 0 0 0 0 0 0 0 0 0 0 0 0 0 0 0 0 0 0 0 0 0 0 0 0 0 0 0 0 0 0 0 0 0 0 0 0.60923 0.62159 0.76457 0.77456 0.77814 0.73411 0.7109 0.69446 0.69323 0.80147 0.81751 0.84057 0.84356 0.73015 0.76477 0.78455 0.80495 0.83839 0.82878 0.81958 0.83438 0.84937 0.871 0.88002 0.85109 0.85972 0.85018 0.85863 0.91156 0.81851 0.83732 0.84532 0.84221 0.7609 0.77246 0.78417 0.82542 0.86482 0.88961 0.93403 0.94225 0.94406 0.95223 0.96039 0.97514 0.97673 0.97832 0.97986 0.99455 1.0027 1.0245 1.0327 1.0409 1.0421 1.0646 1.0729 1.0886 1.1122 1.0977 1.0766 1.0919 1.1225 1.1081 1.1015 1.1095 1.1101 1.1181 1.126 1.134 1.1571 1.1652 1.1732 1.1813 1.1815 1.174 1.1743 1.1745 1.1823 1.2056 1.2296 1.2376 1.2456 1.2619 1.2871 1.2866 1.3034 1.3386 1.3469 1.3369 1.3361 1.3264 1.3169 1.3162 1.2905 1.2982 1.3143 1.3136 1.3298 1.329 1.3283 1.3617 1.3783 1.3773 1.3941 1.4019 1.4189 1.4176 1.4254 1.4521 1.4506 1.449 1.4568 1.4743 1.4918 1.4998 1.5078 1.5058 1.5039 1.5021 1.5099 1.4984 1.4872 1.5043 1.4931 1.4465 1.4366 1.4352 1.434 1.4327 1.4231 1.4468 1.471 1.5048 1.5305 1.5194 1.4909 1.4893 1.4963 1.486 1.4845 1.4914 1.5157 1.514 1.521 1.6517 1.6389 1.5972 1.5855 1.6117 1.6687 1.666 1.6334 1.6213 1.6284 1.5797 1.5599 1.5667 1.5561 1.5628 1.5695 1.5763 1.583 1.5985 1.6143 1.5943 1.5749 1.5901 1.7921 1.7565 1.7327 1.7097 1.7167 1.7237 1.711 1.7179 1.7248 1.6931 1.6719 1.6878 1.7039 1.7106 1.7174 1.7337 1.77 1.787 1.7939 1.8008 1.7974 1.8043 1.8216 1.8389 1.8459 1.8318 1.8387 1.8456 1.8317 1.8283 1.8249 1.8214 1.8181 1.8348 1.8018 1.7987 1.7955 1.8117 1.8182 1.8247 1.8214 1.8278 1.8343 1.8408 1.8472 1.8537 1.8602 1.847 1.8534 1.8598 1.8564 1.8627 1.8691 1.856 1.8526 1.8686 1.8652 1.8812 1.9073 1.934 1.9404 1.9468 1.943 1.9701 1.9766 2.0044 2.0002 1.9854 2.0025 1.9773 1.9837 1.9901 1.9964 2.0028 2.0091 1.9946 2.0009 2.0072 2.0031 2.0093 2.0261 2.043 2.0493 2.0557 2.0513 2.0683 2.0322 2.028 2.0239 2.0097 2.0057 1.9724 1.9979 2.0139 2.0099 2.006 2.0119 2.0179 2.0139 2.0199 2.016 2.0317 1.9986 1.9948 1.9911 1.9969 2.0027 2.0277 2.0335 2.0393 2.0353 2.0608 2.0667 2.0927 2.1297 2.157 2.1311 2.1061 2.0816 2.0293 2.0255 2.0406 2.0462 2.0518 2.0574 2.0535 2.0591 2.0459 2.0514 2.0664 2.0816 2.0968 2.1025 2.1279 2.1436 2.1393 2.1652 2.1916 2.1974 2.1928 2.1985 2.1835
0.022463 0.024144 0.025144 0 0 0 0 0 0 0 0 0 0 0 0 0 0 0 0 0 0 0 0 0 0 0 0 0 0 0 0 0 0 0 0 0 0 0 0 0 0 0 0 0 0 0 0 0 0 0 0 0.59047 0.60228 0.63093 0.63484 0.7859 0.7298 0.70694 0.69562 0.68961 0.80277 0.8254 0.83515 0.85172 0.7795 0.77699 0.79148 0.81813 0.83964 0.83 0.82676 0.84169 0.85685 0.87877 0.88785 0.91059 0.97938 0.92903 0.93825 0.99276 0.85875 0.84963 0.89359 0.76368 0.77542 0.78727 0.78981 0.83154 0.86036 0.89069 0.93515 0.93701 0.93886 0.94067 0.96151 0.96967 0.97784 0.97942 0.98096 0.99565 1.0038 1.0256 1.0409 1.0492 1.0502 1.0657 1.0814 1.0972 1.1211 1.1297 1.1071 1.1154 1.1237 1.1092 1.1026 1.1106 1.1112 1.1192 1.1346 1.1426 1.1506 1.1663 1.1744 1.1746 1.1826 1.1828 1.183 1.1832 1.1834 1.2146 1.2307 1.2469 1.2549 1.2715 1.2882 1.2877 1.3045 1.3306 1.3481 1.338 1.3372 1.3453 1.3267 1.3259 1.3082 1.3076 1.3153 1.3231 1.3308 1.33 1.3463 1.3628 1.3794 1.3873 1.3862 1.403 1.4293 1.4373 1.4358 1.4532 1.4516 1.4595 1.4579 1.485 1.4929 1.4911 1.5088 1.5069 1.5148 1.5032 1.5013 1.49 1.479 1.4959 1.4848 1.4563 1.4376 1.4448 1.4434 1.4337 1.4407 1.4563 1.4896 1.5149 1.5409 1.5295 1.5095 1.5078 1.4973 1.5044 1.494 1.501 1.508 1.5063 1.4961 1.5837 1.6005 1.5887 1.5772 1.6031 1.6596 1.667 1.6247 1.6127 1.6104 1.5806 1.5696 1.5589 1.5657 1.5637 1.5792 1.586 1.5839 1.5995 1.6335 1.613 1.5931 1.6448 1.6897 1.7266 1.7135 1.6912 1.6981 1.705 1.7022 1.6995 1.7159 1.6941 1.6728 1.6887 1.7048 1.7115 1.7183 1.7443 1.7709 1.7879 1.7949 1.8018 1.7984 1.8053 1.8121 1.8294 1.8363 1.8327 1.8293 1.8258 1.8224 1.8191 1.8157 1.8124 1.819 1.8157 1.8027 1.7995 1.7964 1.8126 1.8191 1.8256 1.8321 1.8287 1.8352 1.8417 1.8481 1.8546 1.8611 1.8577 1.8641 1.8705 1.8671 1.8735 1.87 1.8763 1.8729 1.8792 1.8855 1.9018 1.9183 1.9349 1.9516 1.9375 1.9542 1.971 1.9775 1.9839 1.9904 1.9759 1.9823 1.9679 1.9742 1.9909 1.9869 2.0036 1.9995 1.9954 2.0017 1.9976 2.0143 2.0206 2.0375 2.0439 2.061 2.0565 2.0629 2.0692 2.0435 2.0289 2.035 2.0105 1.9966 1.9829 1.9889 2.0047 2.0207 2.0167 2.0128 2.0187 2.0247 2.0207 2.0168 2.0325 1.9898 1.9862 1.9825 1.9882 2.0034 2.0187 2.0245 2.0303 2.0361 2.0616 2.0876 2.1037 2.1517 2.1578 2.1112 2.0967 2.0627 2.0301 2.0263 2.0413 2.0469 2.0431 2.0487 2.0449 2.0505 2.056 2.0711 2.0863 2.092 2.0976 2.113 2.1387 2.1444 2.1501 2.1659 2.182 2.1982 2.1936 2.1993 2.1946
0.022591 0.024277 0.025277 0 0 0 0 0 0 0 0 0 0 0 0 0 0 0 0 0 0 0 0 0 0 0 0 0 0 0 0 0 0 0 0 0 0 0 0 0 0 0 0 0 0 0 0 0 0 0 0 0.59154 0.62809 0.64516 0.63596 0.78725 0.70448 0.7133 0.68241 0.69075 0.80408 0.82014 0.83647 0.84621 0.78647 0.79542 0.79848 0.81332 0.82227 0.82513 0.83402 0.86184 0.88418 0.8934 0.8958 0.94043 0.98072 0.95946 0.96897 0.99407 0.86578 0.89252 0.89474 0.76465 0.7764 0.82781 0.82506 0.84834 0.8725 0.89176 0.93627 0.93812 0.93997 0.95445 0.96262 0.98405 0.9856 1.0006 0.99528 1.0034 1.0185 1.0553 1.0638 1.0722 1.0732 1.0968 1.1131 1.1217 1.1547 1.1719 1.1474 1.1478 1.1483 1.1254 1.1184 1.119 1.1271 1.1203 1.1357 1.1437 1.1517 1.1674 1.1677 1.1835 1.1916 1.1917 1.1918 1.1998 1.1999 1.2318 1.2399 1.248 1.2645 1.2726 1.3069 1.2974 1.3056 1.3409 1.3585 1.3483 1.3383 1.3556 1.3546 1.3537 1.3263 1.3342 1.3421 1.35 1.3491 1.3482 1.356 1.3816 1.3986 1.3974 1.3962 1.4224 1.4304 1.4384 1.4559 1.4639 1.4719 1.4606 1.459 1.4861 1.494 1.4922 1.4904 1.508 1.5061 1.5139 1.5024 1.5005 1.4893 1.5064 1.5045 1.4751 1.4735 1.4719 1.4704 1.4601 1.4587 1.4922 1.5178 1.5439 1.561 1.5493 1.5379 1.5359 1.5249 1.5141 1.5124 1.5019 1.5089 1.4987 1.5056 1.5387 1.5548 1.571 1.569 1.5853 1.6306 1.6379 1.6257 1.6137 1.602 1.5906 1.5795 1.5686 1.5754 1.5821 1.5801 1.5869 1.5848 1.5915 1.6252 1.6139 1.6207 1.6365 1.6619 1.6783 1.6852 1.6637 1.6705 1.6587 1.6654 1.6722 1.6789 1.6763 1.6738 1.6896 1.7152 1.722 1.7384 1.765 1.782 1.7889 1.7958 1.8027 1.7993 1.8062 1.8131 1.8097 1.8165 1.8131 1.8098 1.8166 1.8133 1.82 1.8267 1.8133 1.8199 1.8266 1.8035 1.8101 1.8069 1.8232 1.8397 1.8362 1.8428 1.8493 1.8361 1.8525 1.849 1.8655 1.872 1.8684 1.8749 1.8813 1.8878 1.9045 1.9007 1.9072 1.9036 1.9201 1.9266 1.9435 1.9605 1.9565 1.963 1.9589 1.955 1.9719 1.9679 1.9639 1.96 1.9459 1.9522 1.9484 1.9546 1.9711 1.9672 1.9941 1.99 1.9963 2.0131 2.0089 2.0152 2.0321 2.0491 2.0554 2.0618 2.0682 2.0745 2.0701 2.0549 2.0297 2.0359 2.0215 2.0174 1.9838 2.0095 2.0155 2.0115 2.0275 2.0235 2.0195 2.0355 2.0215 2.0078 2.0235 1.9906 1.9964 1.9927 1.989 2.0042 2.0293 2.0449 2.0507 2.0467 2.0825 2.1089 2.1253 2.1313 2.1373 2.112 2.0874 2.0635 2.0215 2.0177 2.0233 2.0383 2.0439 2.0495 2.0742 2.0799 2.0954 2.101 2.1067 2.0927 2.0984 2.1138 2.1394 2.1655 2.1509 2.1667 2.1725 2.1782 2.2154 2.2212 2.2378
0.023681 0.02469 0.025678 0 0 0 0 0 0 0 0 0 0 0 0 0 0 0 0 0 0 0 0 0 0 0 0 0 0 0 0 0 0 0 0 0 0 0 0 0 0 0 0 0 0 0 0 0 0 0 0 0.63836 0.64687 0.66472 0.68804 0.65854 0.66688 0.7145 0.78621 0.7958 0.81179 0.82145 0.82456 0.83414 0.79353 0.79664 0.79388 0.8027 0.82349 0.82634 0.84139 0.88292 0.89221 0.90151 0.89033 0.93441 1.0065 0.99187 0.99365 1.0115 0.94483 0.91289 0.89589 0.8739 0.8478 0.85017 0.85248 0.85475 0.8792 0.89868 0.94379 0.94561 0.95383 0.96205 0.97027 0.98518 0.98672 1.0017 1.017 1.0114 1.0266 1.0639 1.0877 1.0809 1.0894 1.1136 1.1222 1.1308 1.1559 1.1904 1.1567 1.1654 1.1575 1.142 1.1271 1.1277 1.1282 1.1288 1.1368 1.1448 1.1604 1.1685 1.1765 1.1846 1.2007 1.1928 1.2008 1.2009 1.2088 1.2329 1.241 1.2491 1.2571 1.2822 1.308 1.3074 1.3067 1.342 1.3597 1.3587 1.3485 1.3567 1.3649 1.3639 1.3449 1.3529 1.3609 1.3599 1.359 1.3669 1.3659 1.3917 1.3997 1.3985 1.4064 1.4235 1.441 1.4394 1.457 1.465 1.473 1.4617 1.4601 1.4775 1.4854 1.4836 1.4914 1.5091 1.5071 1.5053 1.5131 1.5112 1.5092 1.5267 1.5344 1.5037 1.4927 1.491 1.4893 1.4876 1.4859 1.5022 1.5281 1.5449 1.5717 1.5598 1.5482 1.5556 1.5442 1.524 1.5134 1.5029 1.5099 1.5082 1.5151 1.5487 1.5649 1.5629 1.5608 1.577 1.6316 1.6291 1.6267 1.6147 1.6124 1.6007 1.5985 1.5873 1.5852 1.5831 1.5899 1.579 1.5857 1.5924 1.6081 1.6238 1.6306 1.6374 1.6535 1.6793 1.6766 1.6646 1.6529 1.6504 1.6481 1.6547 1.6614 1.6589 1.6565 1.6813 1.7162 1.7325 1.7491 1.776 1.7931 1.8001 1.7967 1.8036 1.8003 1.8071 1.8038 1.8209 1.8175 1.804 1.8007 1.8075 1.8142 1.8209 1.8276 1.8343 1.8209 1.8175 1.8241 1.8208 1.8274 1.834 1.8405 1.8371 1.8437 1.8502 1.8468 1.8434 1.8499 1.8663 1.8728 1.8693 1.8758 1.8822 1.8887 1.9156 1.9119 1.9184 1.9249 1.9417 1.9483 1.9654 1.972 1.9679 1.9744 1.9704 1.9663 1.9728 1.9688 1.9648 1.9506 1.9367 1.9429 1.9492 1.9454 1.9517 1.968 1.9949 1.9908 1.9971 2.0245 2.0202 2.016 2.0329 2.0499 2.0563 2.0627 2.08 2.0754 2.0818 2.0558 2.0305 2.0367 2.0223 2.0182 1.9846 2.0004 2.0163 2.0223 2.0284 2.0243 2.0303 2.0263 2.0223 2.0086 2.0145 2.001 1.9877 1.9935 1.9992 2.0145 2.0398 2.0656 2.0715 2.0574 2.0934 2.1097 2.1157 2.1216 2.1276 2.1026 2.0882 2.0643 2.0222 2.0093 2.0241 2.0297 2.0352 2.0502 2.0848 2.1003 2.106 2.1018 2.1075 2.0935 2.0894 2.1048 2.1503 2.1663 2.1516 2.1573 2.163 2.1894 2.2162 2.2435 2.2603
0.022849 0.024701 0.025684 0.027536 0.028577 0 0 0 0 0 0 0 0 0 0 0 0 0 0 0 0 0 0 0 0 0 0 0 0 0 0 0 0 0 0 0 0 0 0 0 0 0 0 0 0 0 0 0 0 0 0 0.63952 0.6716 0.6854 0.68924 0.60941 0.61711 0.73165 0.76928 0.7971 0.80035 0.80357 0.79446 0.79164 0.77744 0.78057 0.7781 0.79808 0.82471 0.82755 0.83036 0.83918 0.90738 0.85062 0.86564 0.90065 0.99958 0.99321 0.99498 0.9967 0.9753 0.91407 0.90335 0.87501 0.84887 0.86795 0.87591 0.85042 0.88027 0.88242 0.9514 0.95974 0.95495 0.96975 0.98474 0.97961 0.99458 1.0029 1.0181 1.0194 1.0348 1.0726 1.0966 1.0897 1.0983 1.1227 1.1479 1.1401 1.1741 1.1829 1.1662 1.1264 1.127 1.1125 1.1132 1.1212 1.1219 1.1224 1.1379 1.1459 1.1693 1.1774 1.1776 1.1857 1.1938 1.2018 1.2099 1.202 1.202 1.2179 1.2258 1.2419 1.2582 1.2833 1.3092 1.2997 1.2991 1.3432 1.3608 1.3598 1.3496 1.3578 1.366 1.365 1.3371 1.3451 1.362 1.37 1.3689 1.3679 1.3759 1.3928 1.41 1.4087 1.4167 1.4246 1.4326 1.4405 1.4485 1.4758 1.4741 1.4627 1.4611 1.4786 1.4865 1.4847 1.4829 1.5004 1.4986 1.4967 1.5045 1.5026 1.4914 1.5375 1.5257 1.5237 1.5029 1.5104 1.4994 1.4976 1.4959 1.5217 1.548 1.5555 1.5727 1.5705 1.5683 1.5662 1.5452 1.5341 1.5232 1.5125 1.5108 1.5091 1.5161 1.5318 1.5477 1.5547 1.5528 1.5688 1.6228 1.6399 1.6276 1.6252 1.6228 1.611 1.6087 1.5973 1.5951 1.5929 1.5908 1.5976 1.5955 1.6022 1.618 1.6247 1.6225 1.6383 1.6451 1.6706 1.6681 1.6563 1.6447 1.6423 1.64 1.6556 1.6623 1.6598 1.6664 1.6822 1.7267 1.7335 1.7501 1.7769 1.7838 1.7908 1.7977 1.7943 1.8012 1.7979 1.8149 1.8218 1.8287 1.815 1.8218 1.8286 1.8151 1.8218 1.8285 1.8251 1.8318 1.8184 1.8152 1.8217 1.8184 1.8349 1.8414 1.838 1.8347 1.8511 1.8477 1.8443 1.8607 1.8672 1.8838 1.8802 1.8867 1.8831 1.8998 1.9165 1.923 1.9192 1.9361 1.9532 1.9491 1.977 1.9729 1.9795 1.9861 1.9713 1.9672 1.9736 1.9697 1.9657 1.9514 1.9375 1.9338 1.9203 1.9363 1.9425 1.9587 1.9751 1.9712 1.9774 1.9939 2.0106 2.0169 2.0338 2.0508 2.0681 2.0636 2.0809 2.0763 2.0937 2.0673 2.0523 2.048 2.0334 2.0292 1.9952 2.0111 2.0171 2.0232 2.0292 2.0352 2.0311 2.0271 2.0133 2.0094 2.0153 2.0017 1.998 2.0038 1.9905 2.0153 2.0505 2.0765 2.0927 2.0883 2.1046 2.121 2.127 2.133 2.1389 2.1239 2.1092 2.0749 2.0324 2.0193 2.0342 2.0492 2.0454 2.0605 2.0953 2.1109 2.1167 2.1224 2.1282 2.1239 2.1196 2.1253 2.1511 2.1671 2.1625 2.1683 2.1638 2.1695 2.1959 2.2335 2.2502
0.022978 0.024835 0.025817 0.027674 0.028715 0 0 0 0 0 0 0 0 0 0 0 0 0 0 0 0 0 0 0 0 0 0 0 0 0 0 0 0 0 0 0 0 0 0 0 0 0 0 0 0 0 0 0 0 0 0 0.705 0.71436 0.72373 0.73309 0.61045 0.61816 0.7169 0.78882 0.79841 0.80164 0.80485 0.79572 0.78697 0.79599 0.79322 0.79051 0.8051 0.83205 0.83487 0.83765 0.84038 0.97709 0.85181 0.86684 0.99918 1.0177 0.99455 0.98836 1.006 0.98416 0.90875 0.91089 1.0621 0.88429 0.90465 0.91293 0.94044 1.0355 0.9848 0.97259 0.96751 0.9626 0.98429 0.9996 0.99421 0.99571 1.0109 1.0263 1.0275 1.043 1.0891 1.1138 1.1065 1.1152 1.1403 1.166 1.1495 1.1839 1.1755 1.1591 1.1199 1.1055 1.1062 1.0997 1.1076 1.1083 1.1162 1.1315 1.1469 1.1704 1.1785 1.1787 1.1868 1.187 1.195 1.203 1.203 1.2031 1.2189 1.2269 1.243 1.2593 1.2845 1.3014 1.3008 1.3002 1.3536 1.3715 1.3703 1.3693 1.3682 1.3672 1.3754 1.3651 1.3641 1.3813 1.3802 1.3791 1.3871 1.3951 1.4031 1.4111 1.4191 1.4271 1.4446 1.4625 1.4608 1.4688 1.4868 1.4849 1.4638 1.4717 1.4893 1.4875 1.4857 1.4936 1.4918 1.4996 1.5074 1.5055 1.5133 1.521 1.5386 1.5365 1.5443 1.5421 1.5115 1.5096 1.5078 1.5246 1.5415 1.5587 1.5662 1.5738 1.5715 1.5889 1.5865 1.5746 1.5629 1.5514 1.5403 1.5474 1.5275 1.5257 1.5416 1.5486 1.5557 1.5537 1.5789 1.6047 1.6311 1.6383 1.6456 1.643 1.6308 1.6284 1.6166 1.6143 1.612 1.6097 1.6166 1.6053 1.6212 1.6372 1.6349 1.6234 1.6485 1.6647 1.6716 1.669 1.6664 1.6547 1.6523 1.6499 1.6565 1.6723 1.679 1.6951 1.7018 1.7373 1.7442 1.7609 1.7983 1.795 1.802 1.7986 1.8055 1.792 1.7988 1.8159 1.8437 1.8506 1.8365 1.833 1.8398 1.8261 1.8227 1.8294 1.8361 1.8227 1.8293 1.8259 1.8325 1.8292 1.8358 1.8324 1.8489 1.8454 1.852 1.8486 1.8551 1.8616 1.8681 1.8847 1.8912 1.8876 1.8941 1.9108 1.9383 1.9449 1.9409 1.9581 1.9755 1.9713 1.9888 1.9954 2.0021 1.9978 1.9935 1.9893 1.9958 1.9705 1.977 1.9626 1.9384 1.9346 1.9211 1.9471 1.9533 1.9697 1.976 1.9721 1.9885 2.0051 2.0114 2.0177 2.0346 2.0517 2.0689 2.0753 2.0817 2.0881 2.0945 2.0899 2.0853 2.07 2.0656 2.0612 2.0159 2.0219 2.028 2.0442 2.0401 2.0564 2.032 2.0279 2.0141 2.0102 2.0259 2.0122 2.0084 2.0142 2.0008 2.0258 2.0613 2.0978 2.1248 2.1203 2.1263 2.1323 2.149 2.1767 2.1828 2.1564 2.1306 2.0856 2.0426 2.0388 2.0539 2.079 2.0847 2.0904 2.106 2.1117 2.1276 2.1435 2.17 2.1759 2.1608 2.1461 2.1724 2.1992 2.2051 2.1898 2.1646 2.1602 2.1863 2.2025 2.2294
0.023107 0.024969 0.025951 0.027812 0.028853 0 0 0 0 0 0 0 0 0 0 0 0 0 0 0 0 0 0 0 0 0 0 0 0 0 0 0 0 0 0 0 0 0 0 0 0 0 0 0 0 0 0 0 0 0 0 0.70627 0.71564 0.725 0.73437 0.6115 0.6192 0.6269 0.79012 0.80607 0.8093 0.81245 0.79697 0.7882 0.80925 0.80623 0.80924 0.81819 0.83328 0.8423 0.84504 0.90757 0.98673 0.853 0.86804 0.87686 0.88568 0.93531 0.85955 0.86794 0.87633 0.89715 0.89934 0.87723 0.8854 0.912 0.90785 0.90382 1.0368 0.97898 0.96695 0.96201 0.96372 0.9923 1.0008 1.0022 1.0106 1.019 1.0346 1.0287 1.0515 1.0982 1.115 1.1077 1.1084 1.1332 1.1587 1.1425 1.1765 1.1682 1.136 1.1134 1.0993 1.0857 1.0865 1.0943 1.1094 1.11 1.1179 1.1331 1.1561 1.1718 1.1643 1.1723 1.1881 1.1882 1.1962 1.2041 1.2042 1.2281 1.228 1.2524 1.2604 1.2856 1.3025 1.2932 1.3101 1.3641 1.3822 1.3908 1.3895 1.3788 1.3776 1.3859 1.3754 1.3743 1.3917 1.3905 1.3893 1.3882 1.4055 1.4135 1.4216 1.4392 1.4473 1.4554 1.4734 1.4816 1.4897 1.4979 1.496 1.4745 1.4824 1.5003 1.4886 1.4965 1.4947 1.5025 1.5104 1.5085 1.5163 1.5143 1.5319 1.5397 1.5376 1.5355 1.5432 1.5219 1.52 1.5181 1.5256 1.5425 1.5597 1.5672 1.5748 1.5823 1.5801 1.5778 1.5853 1.5734 1.5617 1.5504 1.5576 1.5465 1.5355 1.5426 1.5587 1.5657 1.5547 1.5799 1.6057 1.6224 1.6393 1.6368 1.644 1.6318 1.6294 1.6269 1.6061 1.6038 1.6107 1.6085 1.6153 1.6221 1.6382 1.6358 1.6334 1.6588 1.6752 1.6821 1.6794 1.6768 1.6742 1.6624 1.6599 1.6665 1.6732 1.6987 1.696 1.7217 1.7383 1.755 1.7719 1.8097 1.8063 1.8133 1.8098 1.8065 1.8031 1.7998 1.8168 1.8341 1.8516 1.8374 1.8339 1.8408 1.827 1.8338 1.8303 1.8269 1.8236 1.8302 1.8268 1.8334 1.84 1.8467 1.8432 1.8498 1.8564 1.8529 1.8594 1.846 1.8525 1.879 1.8856 1.8921 1.8986 1.9052 1.9117 1.9498 1.9565 1.9524 1.9806 1.9764 1.9939 1.9897 2.0073 2.014 2.0207 2.0053 2.001 1.9967 1.9714 1.9778 1.9634 1.9292 1.9256 1.9318 1.938 1.9643 1.9808 1.9871 1.9831 1.9894 2.006 2.0019 2.0186 2.0355 2.0526 2.0589 2.0653 2.0716 2.1001 2.0954 2.1018 2.0862 2.0925 2.0771 2.0727 2.0268 2.0329 2.0389 2.0553 2.0511 2.0572 2.0328 2.0388 2.0051 2.0208 2.0466 2.013 2.0189 2.015 2.0111 2.0364 2.0621 2.0883 2.1256 2.1211 2.1166 2.1226 2.1391 2.1886 2.1836 2.1679 2.142 2.0964 2.053 2.049 2.0741 2.0798 2.0855 2.101 2.1168 2.1226 2.1385 2.1546 2.1708 2.1872 2.172 2.1572 2.1732 2.2214 2.2059 2.1906 2.1553 2.1609 2.1666 2.1825 2.1882
0.022948 0.02411 0.025053 0.02795 0.028991 0 0 0 0 0 0 0 0 0 0 0 0 0 0 0 0 0 0 0 0 0 0 0 0 0 0 0 0 0 0 0 0 0 0 0 0 0 0 0 0 0 0 0 0 0 0 0.70755 0.71691 0.73192 0.73564 0.61255 0.62824 0.62795 0.76134 0.77646 0.79798 0.81375 0.80434 0.79535 0.81667 0.81965 0.81046 0.78467 0.80461 0.83731 0.85894 0.86802 0.84543 0.85419 0.86924 0.8717 0.88046 0.88921 0.88521 0.89384 0.89609 0.89831 0.89426 0.88431 0.86896 0.87697 0.88497 0.89298 0.90098 0.91502 0.93551 0.94368 0.9583 1.0075 1.0161 1.0104 1.0188 1.0345 1.043 1.0442 1.06 1.1074 1.1244 1.101 1.1018 1.1263 1.1431 1.1437 1.1606 1.161 1.1293 1.0996 1.0931 1.0868 1.0806 1.0884 1.1033 1.0969 1.0907 1.0984 1.1202 1.1352 1.1357 1.1508 1.1661 1.1739 1.1972 1.1974 1.2053 1.2292 1.229 1.2452 1.2532 1.2696 1.3036 1.2943 1.3024 1.3465 1.3642 1.3726 1.381 1.3705 1.3788 1.387 1.3765 1.3847 1.3928 1.3917 1.3904 1.3985 1.416 1.4146 1.4227 1.4403 1.4582 1.4763 1.4745 1.4827 1.4809 1.499 1.4971 1.4853 1.4835 1.4915 1.4897 1.4783 1.4861 1.4844 1.4921 1.4999 1.498 1.4963 1.4945 1.5116 1.5192 1.5269 1.5345 1.495 1.4933 1.5007 1.508 1.5435 1.5607 1.5683 1.5661 1.5639 1.5714 1.5788 1.5766 1.584 1.5627 1.57 1.5586 1.5565 1.5365 1.5435 1.5688 1.5667 1.5738 1.5809 1.6066 1.6234 1.6306 1.6378 1.645 1.6424 1.6399 1.6279 1.6162 1.6139 1.6208 1.6277 1.6254 1.6322 1.6485 1.646 1.6436 1.6787 1.6954 1.7123 1.6996 1.6872 1.6845 1.6819 1.6793 1.6861 1.7023 1.7091 1.7159 1.7324 1.749 1.7559 1.783 1.8002 1.8072 1.8038 1.8005 1.7971 1.7939 1.8007 1.8075 1.8246 1.8315 1.8178 1.8144 1.8314 1.8178 1.8245 1.8112 1.8178 1.8145 1.8113 1.808 1.8244 1.831 1.8376 1.8441 1.8407 1.8472 1.8439 1.8504 1.8569 1.8634 1.8901 1.8967 1.9033 1.8995 1.9061 1.923 1.9724 1.9681 1.9533 2.0036 1.9882 1.9949 2.0015 1.9972 2.0039 1.9996 1.9739 1.9594 1.9659 1.9313 1.9276 1.9239 1.9301 1.9264 1.9131 1.929 1.955 1.9714 1.9777 1.9737 1.98 1.9965 2.0028 2.009 2.0153 2.0216 2.049 2.0447 2.0617 2.101 2.0963 2.0916 2.087 2.0825 2.078 2.0735 2.0378 2.044 2.0605 2.0562 2.0728 2.0684 2.0538 2.0396 2.0255 2.0118 2.0474 2.0138 2.0196 2.0061 2.0119 2.0372 2.0629 2.0891 2.1264 2.1219 2.1279 2.134 2.1506 2.1784 2.1845 2.1688 2.1534 2.1175 2.0634 2.0595 2.0846 2.0903 2.0961 2.1018 2.1176 2.1437 2.1393 2.1553 2.1821 2.188 2.1728 2.1477 2.1637 2.2115 2.1961 2.1706 2.1459 2.1416 2.1472 2.1629 2.1787
0.023075 0.024238 0.025182 0 0 0 0 0 0 0 0 0 0 0 0 0 0 0 0 0 0 0 0 0 0 0 0 0 0 0 0 0 0 0 0 0 0 0 0 0 0 0 0 0 0 0 0 0 0 0 0 0.70882 0.70726 0.72755 0.76039 0.65079 0.65896 0.66712 0.7626 0.76598 0.79927 0.80871 0.82455 0.82758 0.83702 0.85309 0.80574 0.77487 0.80007 0.83239 0.85377 0.86925 0.84663 0.85538 0.86414 0.86664 0.87534 0.87775 0.89272 0.94193 0.94393 0.91228 0.8954 0.87945 0.86433 0.87228 0.88023 0.89407 0.90207 0.91008 0.93037 0.94479 0.95942 1.0231 1.0318 1.0258 1.0271 1.0579 1.0821 1.0753 1.0918 1.1249 1.1423 1.1181 1.103 1.1275 1.1361 1.1367 1.1535 1.1458 1.1226 1.1007 1.0942 1.0878 1.0817 1.0965 1.1043 1.091 1.0782 1.0925 1.1141 1.1362 1.1295 1.1445 1.1671 1.175 1.1983 1.2063 1.2142 1.2222 1.2301 1.2381 1.2543 1.2623 1.2959 1.2954 1.3035 1.3385 1.3468 1.3643 1.3727 1.3623 1.3799 1.3882 1.3776 1.3765 1.394 1.3928 1.4009 1.3996 1.4171 1.4252 1.4238 1.4511 1.4495 1.4774 1.4658 1.4641 1.4624 1.4901 1.4982 1.4864 1.4846 1.4926 1.4811 1.4699 1.4683 1.476 1.4837 1.482 1.4803 1.4695 1.4679 1.5031 1.5107 1.5279 1.5259 1.496 1.4943 1.5017 1.509 1.5446 1.5521 1.5596 1.5671 1.5649 1.5533 1.5702 1.5776 1.585 1.5732 1.571 1.5689 1.5668 1.5555 1.5626 1.579 1.5956 1.5933 1.61 1.6172 1.634 1.6413 1.6485 1.6657 1.6531 1.6505 1.6384 1.6359 1.6335 1.6499 1.657 1.664 1.6519 1.6684 1.6851 1.6824 1.7395 1.7571 1.775 1.7716 1.7476 1.7343 1.7313 1.7284 1.7353 1.7523 1.7593 1.7462 1.7531 1.77 1.7669 1.7738 1.8012 1.8082 1.7843 1.7912 1.7981 1.7847 1.7915 1.7983 1.8153 1.8221 1.8187 1.8255 1.8221 1.8187 1.8154 1.8121 1.8088 1.8056 1.8023 1.8089 1.8154 1.822 1.8384 1.835 1.8416 1.8383 1.8448 1.8513 1.8677 1.8845 1.891 1.9079 1.9042 1.9211 1.9278 1.945 1.9843 1.969 1.9649 2.0045 2.0002 1.9958 1.9915 1.9982 1.9938 1.9896 1.9539 1.95 1.9564 1.9221 1.9087 1.9149 1.9211 1.9175 1.9237 1.9397 1.966 1.9723 1.9786 1.9848 1.9808 1.9973 2.0036 2.0099 2.0058 2.0329 2.0392 2.0455 2.0626 2.1018 2.0861 2.0816 2.077 2.0833 2.0681 2.0744 2.07 2.0762 2.0718 2.0675 2.0841 2.0798 2.0859 2.071 2.0565 2.0423 2.0584 2.0244 2.0302 2.0263 2.0127 2.0282 2.0537 2.0797 2.1167 2.1227 2.1393 2.1561 2.1622 2.1792 2.1743 2.1804 2.1649 2.1286 2.0937 2.0995 2.1154 2.1212 2.1169 2.1329 2.1387 2.1549 2.1607 2.177 2.2042 2.1888 2.1632 2.1485 2.1645 2.2016 2.1864 2.1612 2.1367 2.1325 2.158 2.1636 2.1795
0.023098 0 0 0 0 0 0 0 0 0 0 0 0 0 0 0 0 0 0 0 0 0 0 0 0 0 0 0 0 0 0 0 0 0 0 0 0 0 0 0 0 0 0 0 0 0 0 0 0 0 0 0.66878 0.6927 0.71774 0.7617 0.63067 0.63857 0.83039 0.73587 0.75582 0.79438 0.80999 0.81943 0.82886 0.83184 0.8412 0.73188 0.77065 0.79557 0.82155 0.83636 0.87049 0.74086 0.74851 0.847 0.84957 0.86414 0.87271 0.88756 0.89619 0.91129 0.90063 0.89039 0.88057 0.86541 0.87336 0.88132 0.88927 0.89722 0.91117 0.93147 0.9459 0.96054 1.0243 1.0405 1.027 1.0211 1.0591 1.0993 1.0921 1.1172 1.1345 1.1435 1.1193 1.112 1.1286 1.1292 1.1298 1.1384 1.131 1.1085 1.0873 1.0881 1.0818 1.0897 1.0905 1.1054 1.092 1.0792 1.0936 1.1223 1.1373 1.1305 1.1455 1.1533 1.176 1.1994 1.2074 1.2074 1.2233 1.2312 1.2311 1.2471 1.2634 1.2798 1.2879 1.3046 1.3216 1.3388 1.347 1.3552 1.3634 1.3624 1.3706 1.3695 1.3685 1.3858 1.3939 1.402 1.3915 1.3903 1.4168 1.4249 1.4235 1.4315 1.4588 1.4475 1.4459 1.4539 1.4715 1.4795 1.4681 1.476 1.4839 1.4632 1.4524 1.4509 1.4585 1.4661 1.4555 1.463 1.4615 1.4511 1.5042 1.5118 1.5194 1.5174 1.4879 1.4953 1.4936 1.51 1.5456 1.5436 1.5415 1.549 1.5469 1.5543 1.5712 1.5786 1.586 1.5838 1.572 1.5698 1.5585 1.5565 1.5728 1.5799 1.606 1.6133 1.611 1.6278 1.6448 1.6521 1.6694 1.687 1.664 1.6515 1.6489 1.6368 1.6439 1.6509 1.6774 1.6747 1.6624 1.6693 1.686 1.703 1.7509 1.7687 1.7759 1.7726 1.7693 1.766 1.7628 1.7596 1.7666 1.7737 1.7704 1.7571 1.764 1.771 1.7678 1.7849 1.7918 1.7988 1.7752 1.772 1.769 1.7757 1.7825 1.7992 1.8162 1.8231 1.8196 1.8163 1.823 1.8196 1.8063 1.813 1.8097 1.8065 1.8032 1.8001 1.8066 1.8131 1.8294 1.8359 1.8326 1.8391 1.8457 1.8521 1.8686 1.8854 1.9022 1.9088 1.9051 1.9221 1.9287 1.9459 1.9852 1.9809 1.9766 2.0055 1.99 1.9858 1.9924 1.9881 1.9948 1.9797 1.9547 1.9406 1.9469 1.923 1.9095 1.9157 1.9219 1.9281 1.9344 1.9505 1.9669 1.9834 1.9794 1.996 1.9919 2.0086 2.0149 2.0212 2.0275 2.0338 2.0508 2.0464 2.0634 2.0916 2.087 2.0609 2.0565 2.0734 2.0584 2.0541 2.0603 2.0665 2.0726 2.0788 2.0956 2.0911 2.0867 2.0718 2.0676 2.0634 2.0694 2.035 2.031 2.0271 2.0329 2.0388 2.0446 2.0604 2.1175 2.1236 2.1296 2.1462 2.1523 2.1691 2.1752 2.1704 2.1765 2.1398 2.0945 2.1104 2.1264 2.1323 2.1381 2.1543 2.1707 2.1872 2.1932 2.2099 2.2379 2.2002 2.1538 2.1595 2.1966 2.2131 2.1871 2.162 2.1276 2.1332 2.1587 2.1746 2.1701
0.022962 0 0 0 0 0 0 0 0 0 0 0 0 0 0 0 0 0 0 0 0 0 0 0 0 0 0 0 0 0 0 0 0 0 0 0 0 0 0 0 0 0 0 0 0 0 0 0 0 0 0.69662 0.66998 0.68377 0.71356 0.757 0.63175 0.63965 0.83178 0.72642 0.64243 0.65008 0.8241 0.82714 0.83015 0.83311 0.84248 0.70488 0.73131 0.75411 0.75715 0.74061 0.75324 0.73264 0.74485 0.80818 0.82189 0.85323 0.8801 0.87014 0.87859 0.88704 0.88929 0.88545 0.87579 0.8665 0.87445 0.87666 0.89035 0.8983 0.89453 0.91421 0.94069 0.96166 1.011 1.0268 1.0281 1.0223 1.0679 1.1087 1.1177 1.1267 1.1357 1.1363 1.1045 1.1053 1.1218 1.1224 1.1231 1.1237 1.1014 1.0948 1.0812 1.0892 1.0829 1.0908 1.0986 1.1065 1.0862 1.0802 1.0946 1.1162 1.1384 1.1316 1.1393 1.1543 1.1696 1.1927 1.2006 1.2164 1.2164 1.2243 1.2242 1.2401 1.2562 1.2725 1.2805 1.297 1.3138 1.322 1.339 1.3472 1.3463 1.3544 1.3625 1.3706 1.3696 1.3868 1.3857 1.3937 1.3925 1.3913 1.4179 1.4072 1.4152 1.4231 1.4311 1.4391 1.4283 1.4269 1.4534 1.4518 1.4503 1.4488 1.4566 1.4458 1.4265 1.434 1.4326 1.4401 1.43 1.4373 1.4447 1.4433 1.5052 1.5128 1.5204 1.5185 1.4799 1.4872 1.5037 1.5019 1.5184 1.5074 1.5057 1.5129 1.5112 1.5366 1.5627 1.57 1.5774 1.5657 1.5636 1.5523 1.5595 1.5575 1.5738 1.5903 1.607 1.6047 1.6119 1.6191 1.636 1.6531 1.6909 1.6983 1.665 1.6623 1.6499 1.6474 1.6448 1.6615 1.6784 1.6757 1.6729 1.68 1.6969 1.7139 1.7518 1.7803 1.7877 1.795 1.7915 1.7988 1.7847 1.7919 1.7884 1.7956 1.7817 1.7784 1.7752 1.7719 1.7688 1.7757 1.7826 1.7895 1.7762 1.7631 1.7601 1.757 1.7637 1.7803 1.8172 1.8343 1.8104 1.8071 1.8239 1.8206 1.8172 1.804 1.8008 1.7976 1.8041 1.7914 1.8075 1.814 1.8303 1.8368 1.8335 1.84 1.8366 1.853 1.8595 1.8862 1.9031 1.8994 1.906 1.9125 1.9402 1.9468 1.9861 1.9818 1.9775 1.9842 1.98 1.9758 1.9824 1.989 1.9741 1.9595 1.9453 1.9414 1.9478 1.9239 1.9104 1.9166 1.9228 1.9389 1.9352 1.9615 1.9779 1.9842 1.9905 1.9968 2.0031 2.0094 2.0157 2.022 2.0389 2.0453 2.0516 2.0472 2.0643 2.0706 2.0555 2.0406 2.0364 2.053 2.0488 2.0446 2.0507 2.0569 2.0735 2.0796 2.1072 2.1135 2.0876 2.0831 2.0787 2.0848 2.0702 2.0457 2.0417 2.0476 2.0337 2.0396 2.0454 2.0513 2.1184 2.1244 2.1199 2.1364 2.1424 2.1484 2.1545 2.1712 2.1773 2.1406 2.1054 2.1214 2.1375 2.1538 2.1703 2.1762 2.2037 2.2207 2.2267 2.2438 2.2611 2.1488 2.1443 2.0907 2.1356 2.1514 2.1369 2.1228 2.0993 2.1048 2.1396 2.1353 2.1409
0.023105 0 0 0 0 0 0 0 0 0 0 0 0 0 0 0 0 0 0 0 0 0 0 0 0 0 0 0 0 0 0 0 0 0 0 0 0 0 0 0 0 0 0 0 0 0 0 0 0 0 0.69789 0.71265 0.72201 0.74283 0.76433 0.64976 0.65787 0.83316 0.72762 0.64347 0.65112 0.83198 0.835 0.83143 0.84087 0.86376 0.70594 0.72291 0.73553 0.73388 0.74167 0.74947 0.74294 0.74589 0.78805 0.812 0.86647 0.9005 0.89627 0.90497 0.92696 0.89664 0.88658 0.8769 0.86758 0.87553 0.88348 0.88564 0.89354 0.88985 0.90934 0.93552 0.95629 1.0122 1.028 1.0221 1.0234 1.0615 1.1182 1.1107 1.1196 1.1286 1.1292 1.0902 1.091 1.1072 1.1236 1.1242 1.117 1.1026 1.1033 1.0967 1.1047 1.0982 1.099 1.1068 1.1148 1.0941 1.088 1.0956 1.1244 1.1321 1.1326 1.1403 1.1554 1.1631 1.1938 1.1939 1.2017 1.2175 1.2096 1.2253 1.2412 1.2572 1.2736 1.2816 1.2981 1.315 1.3231 1.3492 1.3483 1.3474 1.3646 1.3728 1.3626 1.3706 1.388 1.3868 1.3948 1.3936 1.4016 1.419 1.4177 1.4257 1.4242 1.4322 1.4308 1.4293 1.4372 1.445 1.4436 1.4421 1.4406 1.4483 1.4378 1.4364 1.4262 1.4336 1.4323 1.4309 1.4383 1.4457 1.462 1.5351 1.5429 1.5214 1.5101 1.472 1.4793 1.4956 1.5029 1.5011 1.4994 1.4889 1.496 1.5121 1.5284 1.5542 1.5807 1.5688 1.5762 1.5553 1.5625 1.5604 1.5676 1.5841 1.6008 1.5985 1.6057 1.6034 1.6201 1.637 1.6541 1.6919 1.7098 1.6964 1.6633 1.6606 1.658 1.6651 1.6821 1.6892 1.6865 1.6739 1.6908 1.7078 1.7353 1.774 1.8032 1.8217 1.8405 1.8254 1.8328 1.8291 1.8364 1.8326 1.8289 1.8037 1.8002 1.7969 1.7831 1.7798 1.7868 1.7937 1.8007 1.7771 1.7739 1.7708 1.7677 1.7843 1.7812 1.8181 1.8352 1.8114 1.808 1.8148 1.8215 1.8282 1.8148 1.8115 1.8083 1.805 1.8116 1.828 1.8246 1.8312 1.8377 1.8442 1.8508 1.8474 1.8639 1.8806 1.8974 1.9145 1.9211 1.9172 1.9239 1.9517 1.9693 1.987 1.9718 1.9784 1.9851 1.9809 1.9767 1.9942 1.9792 1.975 1.9604 1.9565 1.9526 1.9487 1.955 1.9511 1.9575 1.9435 1.9498 1.9662 1.9828 1.9996 1.9955 2.0018 2.0082 2.004 2.0208 2.0271 2.0229 2.0292 2.0461 2.0525 2.0588 2.0652 2.0715 2.067 2.0415 2.0373 2.0644 2.0601 2.0558 2.062 2.0681 2.0743 2.0805 2.1081 2.1143 2.1097 2.1159 2.1113 2.1068 2.113 2.0874 2.0934 2.0995 2.0745 2.0805 2.0762 2.0924 2.1192 2.1252 2.1312 2.1372 2.1433 2.1493 2.166 2.1721 2.189 2.1842 2.1686 2.1639 2.1914 2.2083 2.2367 2.2428 2.2718 2.278 2.2726 2.2903 2.3082 2.291 2.2628 2.0915 2.1067 2.1221 2.1082 2.1041 2.0906 2.1056 2.1208 2.1166 2.1222
0.023212 0.024372 0.025301 0 0 0 0 0 0 0 0 0 0 0 0 0 0 0 0 0 0 0 0 0 0 0 0 0 0 0 0 0 0 0 0 0 0 0 0 0 0 0 0 0 0 0 0 0 0 0 0 0 0.74043 0.7215 0.69884 0.65087 0.65898 0.66709 0 0.64451 0.65216 0.82022 0.73212 0.74567 0.75943 0.77336 0.73517 0.73347 0.74633 0.73968 0.74752 0.76031 0.74398 0.74225 0.79963 0.81857 0.86155 0.88876 0.89108 0.90615 0.91484 0.89158 0.8877 0.878 0.86866 0.87091 0.87881 0.88671 0.88881 0.87959 0.90451 0.93044 0.9574 1.0062 1.0292 1.0232 1.0175 1.0476 1.103 1.1038 1.1046 1.1134 1.1141 1.0913 1.0846 1.1006 1.1169 1.1254 1.1105 1.0962 1.0897 1.0978 1.1058 1.0993 1.1 1.1079 1.1158 1.1022 1.0959 1.1106 1.1183 1.126 1.1337 1.1487 1.1564 1.1717 1.1795 1.1949 1.2028 1.2185 1.2185 1.2185 1.2422 1.2583 1.2663 1.2742 1.2907 1.3073 1.3153 1.3234 1.3404 1.3395 1.3476 1.3647 1.3637 1.3718 1.3798 1.3879 1.4053 1.3947 1.412 1.4296 1.4094 1.4174 1.4253 1.4333 1.4319 1.4212 1.4199 1.4461 1.4446 1.434 1.4509 1.4494 1.4479 1.4374 1.4185 1.4347 1.4333 1.4407 1.4393 1.4467 1.4541 1.5073 1.5149 1.5036 1.4927 1.4555 1.4714 1.4876 1.5039 1.5021 1.5004 1.4811 1.497 1.5042 1.5478 1.5647 1.5817 1.5891 1.5772 1.5656 1.5635 1.5614 1.5686 1.5851 1.5923 1.5995 1.6067 1.6043 1.6115 1.6283 1.6452 1.6929 1.7108 1.6871 1.6643 1.6616 1.659 1.6759 1.683 1.7104 1.6973 1.6945 1.7016 1.7188 1.7677 1.7858 1.8153 1.834 1.8415 1.849 1.8451 1.8526 1.8487 1.8448 1.841 1.8154 1.8118 1.8083 1.784 1.791 1.7877 1.7947 1.8016 1.778 1.765 1.7717 1.7687 1.7952 1.802 1.8088 1.8362 1.8123 1.809 1.8258 1.8224 1.8393 1.8358 1.8223 1.829 1.8256 1.8124 1.8289 1.8455 1.842 1.8486 1.8451 1.8517 1.8582 1.8647 1.8815 1.9087 1.9154 1.9115 1.9287 1.9247 1.942 1.9593 1.988 1.9836 1.9793 1.986 1.9818 1.9669 1.9735 1.9801 1.9759 1.9613 1.947 1.9534 1.9598 1.9559 1.952 1.9482 1.9444 1.9506 1.967 1.9837 2.0004 2.0068 2.0132 2.009 2.0048 2.0112 2.0175 2.0238 2.0301 2.0364 2.0533 2.049 2.0553 2.0723 2.0572 2.0423 2.0591 2.0653 2.061 2.0671 2.0628 2.069 2.0858 2.092 2.1089 2.1261 2.1106 2.106 2.1122 2.097 2.1031 2.0986 2.1047 2.1108 2.0753 2.061 2.0669 2.0829 2.12 2.1155 2.1215 2.1275 2.1441 2.1608 2.1668 2.1837 2.2008 2.185 2.1802 2.1754 2.1922 2.2202 2.2263 2.255 2.2726 2.2673 2.285 2.2912 2.3091 2.2919 2.2749 2.0922 2.1075 2.1131 2.1187 2.1049 2.1008 2.1063 2.1215 2.1174 2.1133
0.023391 0.024406 0.025427 0 0 0 0 0 0 0 0 0 0 0 0 0 0 0 0 0 0 0 0 0 0 0 0 0 0 0 0 0 0 0 0 0 0 0 0 0 0 0 0 0 0 0 0 0 0 0 0 0 0.74764 0.69122 0.6851 0.68399 0.6736 0.66819 0 0.64555 0.6532 0.82151 0.73326 0.73657 0.7449 0.7481 0.7412 0.75435 0.75238 0.74074 0.74859 0.78176 0.72668 0.73868 0.82825 0.83659 0.85669 0.87737 0.87973 0.88204 0.89049 0.87458 0.87685 0.8675 0.86409 0.87199 0.87418 0.87078 0.87853 0.85883 0.88833 0.92541 0.95212 1.0004 1.0159 1.0244 1.0186 1.0342 1.0649 1.0812 1.0821 1.0908 1.0994 1.0774 1.0783 1.0866 1.095 1.1109 1.1041 1.09 1.0908 1.0989 1.1069 1.0932 1.1011 1.1018 1.1169 1.1103 1.1181 1.126 1.1338 1.1342 1.1347 1.1571 1.1649 1.1727 1.173 1.1883 1.1885 1.2117 1.2195 1.2274 1.2514 1.2512 1.2591 1.267 1.2833 1.2998 1.3078 1.3158 1.3326 1.3318 1.331 1.3567 1.3648 1.3638 1.3718 1.389 1.4064 1.4051 1.4131 1.4307 1.4198 1.4278 1.4264 1.4344 1.4236 1.4132 1.4119 1.4107 1.4273 1.426 1.4427 1.4504 1.4581 1.4475 1.4282 1.4357 1.4431 1.4596 1.4581 1.4566 1.4551 1.4714 1.4698 1.4507 1.4407 1.431 1.4381 1.4622 1.4781 1.4853 1.4925 1.4821 1.498 1.5051 1.5583 1.5753 1.5924 1.5999 1.6073 1.5952 1.5928 1.5905 1.5789 1.5861 1.5933 1.591 1.6077 1.5959 1.603 1.6196 1.6268 1.6734 1.7013 1.6779 1.6457 1.6432 1.6503 1.6769 1.694 1.7012 1.6983 1.6955 1.7126 1.7403 1.8125 1.8313 1.8389 1.8581 1.8425 1.8616 1.8691 1.8651 1.8726 1.8685 1.8532 1.8272 1.8128 1.82 1.8058 1.8024 1.799 1.7956 1.8026 1.779 1.7757 1.7727 1.7794 1.7961 1.8029 1.8097 1.8268 1.8132 1.82 1.8267 1.8335 1.8609 1.847 1.8435 1.8399 1.8466 1.8331 1.8498 1.8463 1.8631 1.8698 1.8561 1.8626 1.8692 1.8758 1.8926 1.9096 1.9268 1.9229 1.919 1.9362 1.9429 1.9495 1.9562 1.9628 1.9587 1.9547 1.9612 1.9572 1.9532 1.9702 1.9557 1.9518 1.9276 1.944 1.9504 1.9364 1.9427 1.949 1.9553 1.9515 1.9578 1.9845 2.0119 1.9972 2.0035 1.9994 1.9953 2.0016 2.0079 2.0141 2.01 2.0162 2.033 2.0498 2.0561 2.0732 2.058 2.0537 2.0706 2.0876 2.0831 2.0894 2.0956 2.0911 2.0973 2.1035 2.1098 2.127 2.1223 2.1176 2.1238 2.13 2.1254 2.1208 2.1161 2.1223 2.0761 2.0719 2.0778 2.0837 2.1314 2.1268 2.1328 2.1283 2.1449 2.1833 2.2006 2.2179 2.2129 2.2078 2.1919 2.187 2.193 2.2322 2.2383 2.2559 2.2851 2.2797 2.2858 2.3155 2.3099 2.2697 2.2872 2.093 2.0986 2.1042 2.1195 2.1251 2.1209 2.1265 2.132 2.1181 2.1237
0.023499 0.024662 0.025592 0 0 0 0 0 0 0 0 0 0 0 0 0 0 0 0 0 0 0 0 0 0 0 0 0 0 0 0 0 0 0 0 0 0 0 0 0 0 0 0 0 0 0 0 0 0 0 0 0 0 0.68741 0.70125 0.70492 0.68881 0.69727 0 0.65486 0.66261 0.79176 0.71463 0.72279 0.73592 0.74923 0.74231 0.75546 0.75348 0.74665 0.74966 0.78287 0.84164 0.83834 0.84685 0.84351 0.85784 0.87854 0.87474 0.87708 0.88547 0.86979 0.86629 0.86287 0.85955 0.87306 0.86964 0.86083 0.86304 0.86521 0.89508 0.92047 0.95322 0.99457 1.0099 1.0184 1.0197 1.0353 1.0585 1.0747 1.0681 1.0766 1.0928 1.0711 1.0721 1.0803 1.0886 1.1044 1.0977 1.0985 1.1066 1.1074 1.108 1.1014 1.1022 1.1101 1.1253 1.1186 1.1264 1.1343 1.1276 1.1353 1.1431 1.1582 1.1735 1.1738 1.1816 1.1818 1.1972 1.205 1.2128 1.2365 1.2444 1.2523 1.2602 1.2764 1.2843 1.3009 1.3175 1.3256 1.3337 1.3329 1.3321 1.3489 1.3569 1.3649 1.3729 1.3901 1.4169 1.4156 1.4142 1.4318 1.4304 1.4289 1.4275 1.4354 1.4247 1.4143 1.3953 1.4029 1.4105 1.4181 1.4438 1.4608 1.45 1.4485 1.4292 1.4456 1.4621 1.4697 1.4681 1.4665 1.4472 1.4546 1.4531 1.4262 1.4166 1.4237 1.4307 1.4462 1.4532 1.4863 1.4847 1.4918 1.499 1.5151 1.5593 1.5859 1.5934 1.6009 1.6183 1.6158 1.6134 1.6011 1.5893 1.5965 1.5848 1.6015 1.6182 1.5969 1.604 1.6111 1.6182 1.6644 1.692 1.6689 1.6276 1.6252 1.6512 1.668 1.695 1.7022 1.6993 1.7065 1.7136 1.7518 1.8135 1.8439 1.8399 1.8591 1.855 1.8626 1.8701 1.8661 1.8621 1.8811 1.8655 1.8174 1.8138 1.8103 1.8174 1.8245 1.7896 1.7966 1.8035 1.7799 1.7767 1.7935 1.7903 1.8072 1.8038 1.8006 1.8074 1.8041 1.8209 1.8276 1.8344 1.8619 1.8582 1.8444 1.8409 1.8475 1.834 1.8507 1.8574 1.8538 1.8605 1.8671 1.8635 1.8701 1.8665 1.9039 1.9105 1.9277 1.9238 1.9305 1.9371 1.9438 1.9504 1.9571 1.9637 1.9596 1.9556 1.9515 1.9476 1.9541 1.9501 1.9462 1.9322 1.9184 1.9247 1.9411 1.9273 1.9236 1.9398 1.9562 1.9523 1.9586 1.9854 2.0128 1.9877 1.9837 1.9797 1.9758 1.9922 1.9882 1.9944 2.0006 1.9966 2.0338 2.0507 2.0677 2.0741 2.0696 2.0652 2.0822 2.0885 2.1057 2.1011 2.1074 2.1027 2.109 2.1044 2.1216 2.1278 2.1341 2.1293 2.1356 2.1418 2.1371 2.1324 2.1385 2.1339 2.0976 2.0932 2.0888 2.0948 2.1322 2.1382 2.1443 2.1397 2.1564 2.1842 2.2126 2.2188 2.2249 2.2199 2.2036 2.1987 2.2158 2.233 2.2506 2.2567 2.2977 2.2805 2.2867 2.3164 2.299 2.248 2.2102 2.123 2.109 2.1146 2.1301 2.1258 2.1216 2.1272 2.1426 2.1286 2.1244
0.02318 0 0 0 0 0 0 0 0 0 0 0 0 0 0 0 0 0 0 0 0 0 0 0 0 0 0 0 0 0 0 0 0 0 0 0 0 0 0 0 0 0 0 0 0 0 0 0 0 0 0 0.71224 0.72711 0.6886 0.70245 0.71647 0.68997 0.69842 0.73773 0.65591 0.66366 0.78121 0.71096 0.72391 0.73704 0.75035 0.75863 0.76691 0.76993 0.73812 0.74592 0.78397 0.83098 0.83949 0.84801 0.84465 0.86503 0.87971 0.86386 0.86625 0.87453 0.86509 0.86167 0.85834 0.85511 0.87986 0.8707 0.86187 0.86953 0.87168 0.89614 0.92154 0.95432 0.98889 0.99722 1.0056 1.0139 1.0293 1.0449 1.0683 1.0693 1.0854 1.094 1.0796 1.0732 1.0815 1.0898 1.1056 1.1063 1.107 1.1077 1.1159 1.1166 1.1025 1.1033 1.1184 1.1264 1.127 1.1275 1.1354 1.1359 1.1437 1.1441 1.1744 1.19 1.1824 1.1827 1.1905 1.1983 1.2218 1.2297 1.2376 1.2619 1.2452 1.2613 1.2775 1.2854 1.2934 1.2929 1.3008 1.3259 1.3252 1.3331 1.35 1.358 1.366 1.374 1.3912 1.4181 1.4073 1.4153 1.4329 1.4314 1.43 1.438 1.4179 1.4076 1.4063 1.379 1.3865 1.4027 1.4103 1.4178 1.4254 1.4419 1.4405 1.448 1.4556 1.4632 1.48 1.4691 1.4676 1.4483 1.4468 1.4454 1.4271 1.4094 1.4164 1.4153 1.4222 1.4457 1.4785 1.4769 1.4668 1.4654 1.4983 1.5603 1.587 1.6043 1.6019 1.6094 1.6168 1.6045 1.6119 1.5902 1.5975 1.5952 1.593 1.6001 1.5885 1.5956 1.6027 1.6192 1.6554 1.6626 1.6502 1.6285 1.6261 1.6522 1.669 1.696 1.7032 1.7003 1.7074 1.7248 1.7633 1.8145 1.8449 1.8525 1.8601 1.8677 1.8636 1.8712 1.8556 1.8517 1.8478 1.8329 1.8076 1.8041 1.8112 1.8078 1.8148 1.8009 1.8079 1.8045 1.7808 1.7776 1.7945 1.7912 1.8081 1.8048 1.8015 1.7983 1.795 1.8017 1.8184 1.8353 1.8628 1.8591 1.8556 1.852 1.8484 1.845 1.8516 1.8583 1.8649 1.8716 1.868 1.8746 1.871 1.8776 1.9048 1.9219 1.9286 1.9247 1.9314 1.938 1.9341 1.9407 1.9473 1.9539 1.9393 1.9355 1.9316 1.9381 1.9445 1.9407 1.9368 1.9229 1.9093 1.9156 1.9219 1.9281 1.9244 1.9406 1.9469 1.9431 1.9494 1.9657 1.9822 1.9885 1.9845 1.9805 1.9868 1.993 1.9992 2.0055 2.0015 2.0076 2.0347 2.0515 2.0686 2.0641 2.0704 2.066 2.0723 2.0893 2.0956 2.1019 2.0973 2.0928 2.1099 2.1161 2.1334 2.1397 2.146 2.1412 2.1475 2.1537 2.16 2.1551 2.1503 2.1347 2.1088 2.094 2.1104 2.106 2.1437 2.1391 2.1451 2.1512 2.1572 2.174 2.2023 2.2084 2.2258 2.2094 2.2044 2.1995 2.2056 2.2339 2.24 2.2575 2.2752 2.2698 2.2644 2.2591 2.2318 2.1944 2.1897 2.1745 2.1196 2.1154 2.1308 2.1365 2.1421 2.1378 2.1533 2.149 2.1349
0.023303 0 0 0 0 0 0 0 0 0 0 0 0 0 0 0 0 0 0 0 0 0 0 0 0 0 0 0 0 0 0 0 0 0 0 0 0 0 0 0 0 0 0 0 0 0 0 0 0 0 0 0.71351 0.72838 0.71031 0.7088 0.72834 0.74849 0.75197 0.74982 0.7266 0.74041 0.75984 0.73669 0.72018 0.7432 0.76187 0.77563 0.79517 0.81526 0.81231 0.82088 0.87915 0.86872 0.85262 0.86125 0.85767 0.86618 0.88087 0.88321 0.89172 0.90023 0.88393 0.86276 0.84837 0.86169 0.88677 0.86068 0.86838 0.87057 0.87822 0.9207 0.941 0.96185 0.98327 0.99155 1.0067 1.022 1.0304 1.0461 1.0619 1.0704 1.079 1.0951 1.0883 1.0892 1.09 1.0984 1.1143 1.1227 1.1157 1.124 1.1246 1.1252 1.1109 1.1189 1.1269 1.1424 1.1354 1.1509 1.1513 1.1517 1.1596 1.1675 1.191 1.215 1.207 1.207 1.207 1.2149 1.2308 1.247 1.255 1.2714 1.271 1.2706 1.287 1.295 1.303 1.311 1.319 1.3358 1.3263 1.3342 1.3511 1.3501 1.3581 1.3751 1.3831 1.4097 1.3991 1.3978 1.4151 1.4137 1.4217 1.4204 1.4009 1.3997 1.3811 1.3716 1.379 1.395 1.4113 1.4188 1.4354 1.443 1.4506 1.4674 1.475 1.4827 1.481 1.4886 1.4776 1.4581 1.4744 1.4639 1.4281 1.4104 1.4093 1.4162 1.4232 1.4384 1.4708 1.4779 1.4593 1.4579 1.4992 1.5709 1.5978 1.6053 1.6029 1.6005 1.6079 1.6055 1.6129 1.6008 1.5985 1.5962 1.5846 1.5917 1.5895 1.5966 1.6131 1.6202 1.6564 1.6736 1.6512 1.639 1.6271 1.6532 1.67 1.6869 1.7042 1.7012 1.7084 1.7156 1.7537 1.8156 1.8344 1.842 1.8381 1.8456 1.8531 1.8379 1.8341 1.8193 1.8157 1.8121 1.8086 1.7946 1.8017 1.8087 1.8158 1.8018 1.7985 1.8158 1.7817 1.7785 1.7853 1.8022 1.8091 1.7957 1.8025 1.8092 1.8059 1.8126 1.8295 1.8362 1.8742 1.86 1.8565 1.8633 1.8597 1.856 1.8627 1.8592 1.8761 1.8725 1.8791 1.8858 1.8924 1.8991 1.9162 1.9228 1.9403 1.9362 1.9323 1.9284 1.935 1.9206 1.9376 1.9442 1.9195 1.926 1.9325 1.9185 1.9351 1.9313 1.9275 1.9238 1.9201 1.9164 1.9327 1.929 1.9352 1.9415 1.9377 1.944 1.9502 1.9666 1.9831 1.9791 1.9854 1.9814 1.9775 2.0042 2.0105 2.0063 2.0023 2.0188 2.0355 2.0631 2.0587 2.0758 2.0713 2.0669 2.0624 2.0794 2.0965 2.0919 2.0982 2.0936 2.0998 2.1061 2.1454 2.1518 2.1581 2.1644 2.1708 2.1771 2.1949 2.2013 2.1847 2.1574 2.1202 2.1157 2.1323 2.1278 2.1553 2.1614 2.1566 2.1627 2.158 2.1641 2.1701 2.187 2.2042 2.1992 2.1835 2.1895 2.2064 2.2235 2.2522 2.2698 2.276 2.2707 2.2316 2.2156 2.1999 2.1846 2.1799 2.1753 2.1403 2.1459 2.1516 2.1674 2.1731 2.1789 2.1744 2.18 2.1654
0.023535 0.024349 0.025273 0 0 0 0 0 0 0 0 0 0 0 0 0 0 0 0 0 0 0 0 0 0 0 0 0 0 0 0 0 0 0 0 0 0 0 0 0 0 0 0 0 0 0 0 0 0 0 0 0.70934 0.72406 0.70629 0.69974 0.72419 0.73314 0.73666 0.74013 0.74352 0.75777 0.76659 0.73277 0.72128 0.73928 0.76833 0.78224 0.80775 0.82233 0.82513 0.8279 0.87383 0.87634 0.86611 0.87487 0.87106 0.86734 0.88832 0.90337 0.92535 0.93417 0.90354 0.91199 1.0359 1.0455 1.055 0.85631 0.86943 0.98327 0.93219 0.92789 0.94842 0.96296 0.9844 0.99949 1.0078 1.0162 1.0245 1.0472 1.0557 1.0641 1.0801 1.0886 1.0895 1.0828 1.0912 1.0995 1.1155 1.1162 1.1093 1.11 1.1181 1.1263 1.1194 1.1274 1.1355 1.1436 1.144 1.1597 1.16 1.168 1.176 1.184 1.1921 1.208 1.2001 1.2002 1.2003 1.2081 1.2401 1.2564 1.2729 1.281 1.2721 1.2886 1.2881 1.3047 1.3216 1.3386 1.3378 1.3369 1.3361 1.3266 1.3433 1.3512 1.3592 1.3762 1.3842 1.4014 1.3819 1.3632 1.3887 1.3965 1.3954 1.3942 1.393 1.3745 1.3651 1.3642 1.38 1.3961 1.4123 1.4199 1.4364 1.4531 1.4608 1.4684 1.4854 1.5027 1.4914 1.4896 1.4879 1.4771 1.4845 1.4738 1.4291 1.4114 1.4102 1.4172 1.4241 1.4393 1.4718 1.4789 1.4603 1.4589 1.5002 1.5815 1.5988 1.6063 1.6039 1.6015 1.5895 1.6065 1.6139 1.6018 1.5995 1.5972 1.5763 1.5834 1.5812 1.5976 1.6046 1.6307 1.6574 1.6847 1.6521 1.64 1.6375 1.6541 1.6808 1.6879 1.7051 1.7022 1.6994 1.7165 1.7443 1.7944 1.8129 1.8204 1.8278 1.8353 1.8203 1.8166 1.8022 1.7881 1.7952 1.8024 1.7781 1.7851 1.7818 1.8097 1.8062 1.8028 1.8098 1.8168 1.7827 1.7794 1.7862 1.793 1.7998 1.8066 1.8034 1.8101 1.8169 1.8236 1.8406 1.8474 1.8752 1.8715 1.8678 1.8642 1.8606 1.8673 1.874 1.8601 1.877 1.8734 1.88 1.8867 1.8933 1.9 1.9171 1.9238 1.9304 1.9371 1.9226 1.9188 1.9047 1.9112 1.9178 1.9243 1.9103 1.9167 1.913 1.9194 1.9157 1.922 1.9284 1.9247 1.911 1.9173 1.9335 1.9298 1.9361 1.9324 1.9386 1.9448 1.9511 1.9573 1.9737 1.98 1.976 1.9822 1.9885 2.005 2.0113 2.0072 2.0134 2.0196 2.0469 2.064 2.0703 2.0766 2.0614 2.0677 2.0633 2.0695 2.0865 2.082 2.0882 2.0945 2.1007 2.1069 2.1463 2.1526 2.159 2.154 2.1603 2.1894 2.1958 2.2021 2.1855 2.1582 2.121 2.1271 2.1332 2.1392 2.1561 2.1622 2.1575 2.1528 2.1482 2.1542 2.1602 2.1662 2.1722 2.1783 2.1735 2.1795 2.1855 2.2355 2.2531 2.2707 2.2885 2.2715 2.1996 2.1842 2.1796 2.1749 2.1807 2.1555 2.141 2.1366 2.1524 2.1682 2.1739 2.1796 2.1956 2.1808 2.1762
0.023568 0.024421 0.025285 0 0 0 0 0 0 0 0 0 0 0 0 0 0 0 0 0 0 0 0 0 0 0 0 0 0 0 0 0 0 0 0 0 0 0 0 0 0 0 0 0 0 0 0 0 0 0 0 0.70522 0.71437 0.69723 0.70093 0.73079 0.72369 0.722 0.71531 0.72894 0.76452 0.76779 0.73391 0.71757 0.7305 0.76415 0.77793 0.7975 0.81181 0.80893 0.81744 0.86861 0.87756 0.88651 0.88891 0.86607 0.88087 0.90233 0.91773 0.94021 0.94916 0.92403 0.90682 0.96183 1.0073 1.0241 0.85735 0.87047 0.98445 0.95241 0.95417 0.9559 0.96407 0.99229 1.0006 1.009 1.0243 1.0256 1.0411 1.0495 1.0579 1.0737 1.0822 1.0831 1.084 1.0923 1.1006 1.1166 1.1173 1.1104 1.1186 1.1192 1.1199 1.1131 1.1211 1.1442 1.1446 1.1527 1.1685 1.1688 1.1614 1.1771 1.1851 1.1931 1.2091 1.2012 1.2013 1.2013 1.2014 1.2494 1.2659 1.2913 1.2907 1.2902 1.2897 1.2977 1.3146 1.3406 1.3488 1.3479 1.347 1.3198 1.3364 1.3443 1.3612 1.3602 1.3773 1.3761 1.4025 1.374 1.3642 1.3808 1.3886 1.3787 1.3776 1.3766 1.3756 1.3495 1.3569 1.3811 1.3971 1.4222 1.4209 1.4374 1.4542 1.4711 1.4788 1.5056 1.5134 1.5115 1.5001 1.4983 1.4965 1.504 1.493 1.4385 1.4288 1.4112 1.4263 1.4251 1.432 1.4814 1.4712 1.4612 1.4515 1.5559 1.5923 1.6098 1.6074 1.6049 1.6025 1.5715 1.5694 1.586 1.5652 1.5723 1.5702 1.5681 1.5751 1.5731 1.5892 1.6056 1.6221 1.6584 1.6756 1.6531 1.6409 1.6384 1.6551 1.6719 1.679 1.6861 1.6932 1.6904 1.7074 1.7146 1.7525 1.7703 1.767 1.7742 1.7814 1.747 1.7439 1.7408 1.7279 1.7448 1.7417 1.7387 1.7358 1.7426 1.7593 1.7763 1.7934 1.8003 1.8177 1.7836 1.7804 1.7773 1.794 1.8008 1.8075 1.8043 1.8211 1.8178 1.8246 1.8415 1.8483 1.8761 1.8724 1.8687 1.8755 1.8719 1.8786 1.8749 1.8816 1.8779 1.8951 1.8913 1.898 1.9046 1.9113 1.918 1.9247 1.9313 1.9275 1.9235 1.9197 1.9056 1.9019 1.9186 1.9148 1.9111 1.9075 1.924 1.9102 1.9065 1.9129 1.9293 1.9255 1.9218 1.9181 1.9344 1.9307 1.9369 1.9432 1.9394 1.9457 1.962 1.9683 1.9848 1.9706 1.9668 1.973 1.9691 1.9955 2.0018 2.008 2.004 2.0102 2.0478 2.0648 2.0712 2.0667 2.0623 2.0686 2.0748 2.0811 2.0766 2.0828 2.0891 2.0953 2.0908 2.1078 2.1472 2.1535 2.1598 2.1549 2.1725 2.1788 2.1966 2.203 2.1864 2.1591 2.1325 2.1386 2.1447 2.1509 2.157 2.1741 2.1583 2.1536 2.1279 2.1233 2.1398 2.1352 2.1411 2.1576 2.153 2.1589 2.1648 2.2141 2.2425 2.2601 2.2662 2.2608 2.1898 2.1745 2.1803 2.1757 2.1815 2.1563 2.1519 2.1475 2.1532 2.1792 2.1849 2.2011 2.1964 2.1918 2.1873
0.023691 0.024544 0.025427 0 0 0 0 0 0 0 0 0 0 0 0 0 0 0 0 0 0 0 0 0 0 0 0 0 0 0 0 0 0 0 0 0 0 0 0 0 0 0 0 0 0 0 0 0 0 0 0 0.70647 0.72107 0.66002 0.6638 0.75447 0.7302 0.7284 0.72667 0.71494 0.77711 0.77462 0.71061 0.71867 0.7316 0.76004 0.77908 0.79307 0.80724 0.79886 0.80725 0.89629 0.90552 0.92887 0.93824 0.92613 0.93528 0.94443 0.95359 0.97007 0.9793 0.94539 0.94051 0.95605 1.001 1.0254 0.95476 0.97008 0.98562 1.0014 0.98881 0.9835 0.98509 1.0215 1.0301 1.0242 1.0326 1.0338 1.0569 1.0654 1.0664 1.0749 1.0909 1.0918 1.0926 1.0934 1.0943 1.1256 1.1184 1.1115 1.1274 1.1203 1.121 1.1216 1.1222 1.153 1.1457 1.1538 1.1697 1.1778 1.1625 1.1705 1.1784 1.1942 1.2022 1.2102 1.2102 1.2103 1.2103 1.2589 1.2842 1.3101 1.3276 1.3088 1.3171 1.3343 1.3426 1.3602 1.3592 1.3674 1.3572 1.3383 1.3643 1.3724 1.3806 1.3794 1.3783 1.3863 1.413 1.3931 1.3829 1.3908 1.3986 1.3797 1.3874 1.3777 1.3766 1.3588 1.3579 1.3993 1.4157 1.4323 1.449 1.4567 1.4738 1.5007 1.5184 1.5464 1.5545 1.5522 1.55 1.5478 1.526 1.5337 1.5317 1.4742 1.4639 1.4538 1.4524 1.4425 1.4495 1.4912 1.5073 1.4879 1.4692 1.6159 1.6235 1.6415 1.6184 1.606 1.6134 1.5819 1.5704 1.5682 1.5662 1.5641 1.562 1.5511 1.567 1.5831 1.5995 1.6065 1.6136 1.6594 1.6766 1.6541 1.6515 1.649 1.6657 1.6729 1.6702 1.6773 1.6843 1.6914 1.6985 1.7055 1.7227 1.7607 1.7679 1.7647 1.7614 1.7278 1.7248 1.722 1.7289 1.7259 1.7328 1.7202 1.7174 1.7337 1.7504 1.7671 1.7943 1.8013 1.8187 1.7845 1.7813 1.7881 1.7849 1.8119 1.8085 1.8153 1.8221 1.8187 1.8357 1.8424 1.8492 1.8771 1.8734 1.8696 1.887 1.8832 1.9007 1.9075 1.9036 1.9104 1.9172 1.924 1.9308 1.9268 1.9229 1.9189 1.9363 1.9323 1.9389 1.9456 1.931 1.9167 1.913 1.9298 1.926 1.9222 1.9083 1.9147 1.901 1.9074 1.9038 1.9201 1.9163 1.9327 1.939 1.9556 1.9416 1.9378 1.9441 1.9503 1.9566 1.9629 1.9691 1.9754 1.9614 1.9676 1.9638 1.9699 1.9862 2.0026 2.0089 2.0151 2.0318 2.0486 2.0657 2.0829 2.0893 2.0847 2.0694 2.0757 2.0928 2.11 2.1164 2.1008 2.107 2.1133 2.1195 2.1593 2.1771 2.172 2.167 2.1848 2.2027 2.2091 2.2155 2.1987 2.1822 2.1551 2.1612 2.1674 2.1736 2.1688 2.1749 2.1591 2.1545 2.1287 2.1242 2.1406 2.136 2.1419 2.1479 2.1433 2.1492 2.1657 2.204 2.2321 2.2382 2.2442 2.2391 2.18 2.1753 2.1707 2.1765 2.1928 2.1776 2.1628 2.1583 2.1846 2.2114 2.2172 2.223 2.2182 2.2134 2.188
0.023832 0.024667 0.02553 0 0 0 0 0 0 0 0 0 0 0 0 0 0 0 0 0 0 0 0 0 0 0 0 0 0 0 0 0 0 0 0 0 0 0 0 0 0 0 0 0 0 0 0 0 0 0 0 0.70771 0.72232 0.64347 0.65159 0.74999 0.74783 0.74575 0.7547 0.79291 0.8022 0.79325 0.71171 0.71977 0.73763 0.77178 0.78571 0.80553 0.80841 0.79452 0.78663 0.88409 0.90677 0.93737 0.95423 0.94888 0.95824 0.9676 0.96211 0.97133 0.98055 0.95352 0.9417 0.95725 1.0022 1.0345 0.89914 0.96443 0.99386 1.0026 0.99696 0.98464 0.99995 1.03 1.046 1.0398 1.041 1.0495 1.0655 1.0817 1.0751 1.0912 1.1076 1.0854 1.0862 1.0871 1.0954 1.1189 1.1196 1.1126 1.1208 1.1215 1.1221 1.1153 1.1233 1.1464 1.1545 1.1549 1.1786 1.171 1.1713 1.1716 1.1795 1.1875 1.2033 1.2113 1.2113 1.2113 1.2113 1.26 1.2766 1.3023 1.3196 1.31 1.3182 1.3355 1.3437 1.3613 1.3696 1.3593 1.3583 1.3573 1.3563 1.3736 1.3817 1.3805 1.3794 1.3874 1.4047 1.3942 1.384 1.3829 1.3907 1.3808 1.3797 1.3787 1.3776 1.3598 1.3589 1.3916 1.4167 1.4333 1.4501 1.4765 1.4939 1.5116 1.5395 1.5578 1.5659 1.5635 1.5511 1.5489 1.5271 1.5348 1.5232 1.4842 1.4648 1.4634 1.4619 1.4519 1.4505 1.5101 1.5265 1.5155 1.5412 1.6481 1.6453 1.6425 1.6296 1.627 1.6345 1.5925 1.5902 1.5785 1.558 1.5651 1.554 1.561 1.568 1.5841 1.5911 1.5981 1.6146 1.6505 1.6676 1.6649 1.6622 1.6596 1.6667 1.6641 1.6711 1.6782 1.6853 1.6924 1.6994 1.7065 1.7236 1.7617 1.7585 1.7552 1.7521 1.7287 1.7258 1.7131 1.72 1.7268 1.724 1.7211 1.7279 1.7347 1.7513 1.7782 1.7953 1.8022 1.8092 1.7855 1.7822 1.789 1.7958 1.8128 1.8094 1.8162 1.823 1.8196 1.8264 1.8332 1.8502 1.8674 1.8638 1.8705 1.8773 1.8841 1.8909 1.8977 1.9045 1.9113 1.9181 1.9249 1.9317 1.9277 1.9238 1.9198 1.9265 1.9439 1.9399 1.9465 1.932 1.9176 1.9139 1.9307 1.9269 1.9129 1.9092 1.9055 1.9019 1.8983 1.8948 1.9109 1.9172 1.9136 1.9298 1.9361 1.9424 1.9287 1.9349 1.9512 1.9474 1.9536 1.9598 1.9661 1.9523 1.9486 1.9547 1.9608 1.9769 1.9933 2.0201 2.0264 2.0432 2.0602 2.0884 2.0948 2.1012 2.0965 2.0919 2.0982 2.1046 2.122 2.1283 2.1125 2.1079 2.1251 2.1314 2.1489 2.178 2.1844 2.1793 2.1856 2.2036 2.2217 2.2164 2.2111 2.1944 2.1669 2.1732 2.1683 2.1635 2.1806 2.1757 2.1599 2.1446 2.1295 2.1354 2.1414 2.1473 2.1533 2.1487 2.1441 2.15 2.156 2.1939 2.2108 2.2168 2.2229 2.2179 2.1808 2.1761 2.1819 2.1773 2.1831 2.1889 2.1739 2.1797 2.1854 2.2229 2.2287 2.2346 2.2296 2.2142 2.1888
0.024011 0.024771 0.025653 0 0 0 0 0 0 0 0 0 0 0 0 0 0 0 0 0 0 0 0 0 0 0 0 0 0 0 0 0 0 0 0 0 0 0 0 0 0 0 0 0 0 0 0 0 0 0 0 0.70896 0.72358 0.62777 0.63567 0.71327 0.73801 0.75251 0.77891 0.79417 0.82236 0.80658 0.71281 0.72086 0.75918 0.77836 0.79243 0.80671 0.8271 0.76921 0.78248 0.88533 0.90803 0.93866 0.95552 0.96503 0.95951 0.96145 0.93492 0.95087 0.95989 0.94779 0.94288 0.94481 0.97425 0.99026 0.90023 0.90823 1.0095 1.011 1.0052 0.99963 1.0011 1.0536 1.0624 1.0559 1.0495 1.0657 1.0743 1.0907 1.0916 1.1002 1.1167 1.0865 1.08 1.0882 1.0891 1.1048 1.0981 1.1062 1.122 1.1077 1.1157 1.109 1.117 1.1399 1.1479 1.1484 1.1797 1.18 1.1724 1.1804 1.1806 1.1885 1.1965 1.1966 1.1967 1.2046 1.2046 1.2527 1.2777 1.2946 1.3117 1.2849 1.3016 1.3275 1.3449 1.3624 1.3614 1.3512 1.3594 1.3405 1.3485 1.3747 1.3645 1.3725 1.3805 1.3794 1.3965 1.3862 1.3762 1.3752 1.3829 1.3818 1.3808 1.3797 1.3787 1.3608 1.3599 1.3841 1.4089 1.4434 1.4604 1.4871 1.5146 1.5326 1.5508 1.5589 1.567 1.5543 1.5521 1.54 1.5281 1.5261 1.5147 1.4852 1.4746 1.4731 1.4628 1.4529 1.46 1.5111 1.5368 1.5442 1.5422 1.5879 1.657 1.6541 1.6513 1.6486 1.6458 1.613 1.6008 1.5795 1.559 1.5569 1.555 1.553 1.5689 1.5759 1.5921 1.5991 1.6155 1.6515 1.6686 1.6659 1.6632 1.6703 1.6775 1.665 1.6721 1.6694 1.6863 1.6835 1.7004 1.6975 1.7046 1.7419 1.7388 1.7459 1.7327 1.7198 1.7169 1.7044 1.7112 1.7181 1.7249 1.7125 1.7097 1.726 1.7522 1.769 1.786 1.8032 1.8101 1.7965 1.7932 1.8 1.7967 1.824 1.8205 1.8171 1.8239 1.8206 1.8375 1.8443 1.8408 1.8684 1.8647 1.8508 1.8575 1.8746 1.8919 1.8881 1.8844 1.8911 1.8978 1.9045 1.9219 1.918 1.914 1.9207 1.9274 1.9448 1.9408 1.9368 1.9328 1.9083 1.9045 1.9213 1.9278 1.9037 1.8901 1.8866 1.8929 1.8894 1.8956 1.8921 1.8983 1.9046 1.9207 1.937 1.9332 1.9295 1.9358 1.9321 1.9482 1.9445 1.9407 1.9469 1.9142 1.9202 1.9359 1.9517 1.9778 1.984 2.021 2.0484 2.0548 2.0829 2.0893 2.1068 2.1132 2.1085 2.1037 2.1101 2.1165 2.1228 2.1181 2.1244 2.1197 2.115 2.1323 2.1498 2.1561 2.1624 2.1575 2.1865 2.2045 2.2109 2.2173 2.212 2.1953 2.1902 2.1852 2.1802 2.1753 2.1814 2.1766 2.1717 2.1561 2.1303 2.1362 2.1422 2.1482 2.1435 2.1391 2.1346 2.1404 2.1463 2.1732 2.1791 2.1851 2.191 2.1863 2.1711 2.1664 2.1723 2.1781 2.1839 2.1897 2.185 2.1908 2.1966 2.2237 2.2403 2.2462 2.2412 2.2255 2.1896
0 0 0 0 0 0 0 0 0 0 0 0 0 0 0 0 0 0 0 0 0 0 0 0 0 0 0 0 0 0 0 0 0 0 0 0 0 0 0 0 0 0 0 0 0 0 0 0 0 0 0 0 0 0.62885 0.63675 0.71446 0.73382 0.75374 0.77427 0.80159 0.84351 0.83317 0.81706 0.82628 0.8419 0.8512 0.87388 0.86317 0.87908 0.77031 0.78359 0.90006 0.91625 0.93269 0.94938 0.95882 0.96825 0.94817 0.91585 0.92461 0.94705 0.94212 0.93736 0.94599 0.94787 0.98427 0.95155 0.91535 1.041 1.0346 1.0359 1.0223 1.031 1.0783 1.0874 1.0725 1.0582 1.0822 1.107 1.1078 1.1085 1.1254 1.1425 1.0952 1.0885 1.0894 1.0902 1.0984 1.0918 1.1 1.1231 1.1014 1.1094 1.1101 1.1255 1.141 1.1415 1.1345 1.1808 1.1811 1.1658 1.1815 1.1817 1.1896 1.1898 1.1977 1.1978 1.1979 1.2057 1.2455 1.2703 1.2957 1.3129 1.2775 1.2941 1.3286 1.3552 1.3636 1.3719 1.3615 1.3605 1.3505 1.3496 1.3576 1.3656 1.3736 1.3725 1.3805 1.3884 1.3783 1.3685 1.3675 1.3752 1.3829 1.3818 1.3895 1.3884 1.3872 1.3862 1.429 1.4367 1.4631 1.49 1.4979 1.5157 1.5236 1.5417 1.5497 1.5577 1.5453 1.5431 1.5411 1.5292 1.5272 1.5252 1.4953 1.4845 1.4919 1.4813 1.4797 1.4958 1.5305 1.5568 1.5547 1.5526 1.5988 1.658 1.6658 1.6523 1.6496 1.6573 1.614 1.6116 1.5995 1.5877 1.5949 1.5833 1.5812 1.5882 1.5953 1.6212 1.6189 1.6355 1.6623 1.6695 1.6669 1.6642 1.6813 1.6785 1.6856 1.6633 1.6802 1.6872 1.6844 1.6914 1.7084 1.7055 1.7327 1.7296 1.7266 1.7336 1.7109 1.7081 1.6958 1.7026 1.7093 1.7066 1.7134 1.7106 1.7269 1.7433 1.7699 1.787 1.8041 1.8111 1.818 1.825 1.8215 1.8284 1.8458 1.8528 1.818 1.8248 1.8316 1.8384 1.8452 1.852 1.8693 1.8553 1.8517 1.8481 1.8651 1.8823 1.8786 1.8749 1.892 1.8882 1.8949 1.9228 1.9296 1.9256 1.9216 1.939 1.9458 1.9525 1.9377 1.9338 1.9194 1.9157 1.9222 1.9183 1.9045 1.891 1.8973 1.884 1.8902 1.8867 1.8929 1.8992 1.9153 1.9216 1.9378 1.9341 1.9404 1.9466 1.9428 1.9491 1.9354 1.9318 1.9478 1.9055 1.9115 1.9271 1.9526 1.9786 1.995 2.0218 2.0386 2.0556 2.0838 2.0901 2.1077 2.1029 2.1094 2.1046 2.111 2.1173 2.1237 2.1079 2.1142 2.1205 2.1158 2.1221 2.1506 2.157 2.1409 2.1472 2.1759 2.2053 2.2117 2.2299 2.2245 2.2076 2.2024 2.2203 2.2266 2.2213 2.2276 2.2339 2.2172 2.1786 2.1311 2.1371 2.143 2.1596 2.1549 2.1503 2.1354 2.1412 2.1471 2.174 2.1799 2.1859 2.1918 2.1977 2.1719 2.1777 2.1835 2.2 2.2059 2.2225 2.2176 2.2128 2.2186 2.2352 2.252 2.247 2.242 2.2478 2.1801
0 0 0 0 0 0 0 0 0 0 0 0 0 0 0 0 0 0 0 0 0 0 0 0 0 0 0 0 0 0 0 0 0 0 0 0 0 0 0 0 0 0 0 0 0 0 0 0 0 0 0.72983 0.71145 0.72609 0.69314 0.69685 0.73693 0.74045 0.76636 0.7935 0.81544 0.85167 0.84776 0.85066 0.86024 0.86983 0.87942 0.89607 0.94332 1.0122 0.81472 0.82905 0.8878 0.90365 0.93397 0.95066 0.9601 0.96954 0.8646 0.89761 0.91917 0.94137 0.9299 0.92536 0.93387 0.9358 0.95761 0.9594 0.99584 1.1087 1.0593 1.0604 1.0537 1.0549 1.1127 1.1134 1.0895 1.0825 1.1074 1.1246 1.1337 1.1342 1.1517 1.1522 1.1278 1.1048 1.1056 1.1063 1.1071 1.1003 1.1011 1.1242 1.1025 1.1105 1.1112 1.1191 1.1421 1.135 1.1282 1.1741 1.1743 1.1668 1.1672 1.1751 1.183 1.1909 1.1834 1.1912 1.199 1.2068 1.2466 1.2629 1.2969 1.314 1.2786 1.2952 1.3208 1.3564 1.3554 1.3637 1.3535 1.3525 1.3427 1.3418 1.3677 1.3577 1.3657 1.3736 1.3726 1.3895 1.3794 1.3608 1.3685 1.3762 1.3752 1.3742 1.3905 1.3894 1.3883 1.3958 1.4301 1.447 1.4736 1.4814 1.499 1.5168 1.5247 1.5428 1.5406 1.5486 1.5464 1.5442 1.5421 1.5302 1.5379 1.5263 1.4963 1.4946 1.4929 1.5002 1.5075 1.5149 1.5408 1.5578 1.5557 1.5536 1.5899 1.6485 1.6669 1.6534 1.6506 1.6583 1.6249 1.6126 1.6199 1.5981 1.6054 1.6031 1.5914 1.5985 1.6056 1.6127 1.6294 1.6365 1.6733 1.6705 1.6679 1.6651 1.6822 1.6794 1.6767 1.6643 1.6713 1.6784 1.6854 1.6924 1.6994 1.7065 1.7235 1.7205 1.7276 1.7246 1.7022 1.6994 1.6967 1.7035 1.7008 1.7171 1.7048 1.702 1.7087 1.7442 1.7709 1.7777 1.8051 1.812 1.819 1.8259 1.8225 1.8398 1.8468 1.8537 1.8292 1.8361 1.8326 1.8394 1.8566 1.8529 1.8702 1.8562 1.8526 1.8697 1.8764 1.8832 1.89 1.8758 1.8824 1.8891 1.8958 1.9237 1.9198 1.9265 1.9225 1.94 1.9359 1.9534 1.9386 1.9346 1.9203 1.9063 1.9231 1.9192 1.9054 1.9018 1.8982 1.8848 1.8911 1.8876 1.9036 1.9099 1.9161 1.9324 1.9387 1.945 1.9513 1.9576 1.9437 1.9499 1.9462 1.9424 1.9486 1.9158 1.9219 1.9473 1.9633 1.9896 2.006 2.0332 2.0609 2.0673 2.0957 2.1021 2.1085 2.115 2.1102 2.1055 2.1008 2.1182 2.1135 2.1198 2.1261 2.1214 2.1277 2.123 2.1515 2.1578 2.1529 2.1592 2.1768 2.2179 2.2243 2.219 2.2254 2.2201 2.2033 2.2212 2.2392 2.2338 2.2285 2.2348 2.2067 2.1794 2.1319 2.1379 2.1544 2.1604 2.1664 2.1617 2.1362 2.142 2.1584 2.1748 2.1808 2.2083 2.2143 2.2094 2.1832 2.189 2.1843 2.2008 2.2067 2.2233 2.2184 2.2136 2.2302 2.2469 2.2528 2.2587 2.2428 2.2486 2.1808
0 0 0 0 0 0 0 0 0 0 0 0 0 0 0 0 0 0 0 0 0 0 0 0 0 0 0 0 0 0 0 0 0 0 0 0 0 0 0 0 0 0 0 0 0 0 0 0 0 0 0.73113 0.71269 0.73292 0.70959 0.70809 0.73272 0.75278 0.79151 0.81361 0.83642 0.85998 0.86988 0.88701 0.90444 0.9145 0.92456 0.93463 0.9526 1.0136 0.81588 0.81863 0.84476 0.88487 0.94251 0.967 0.96139 0.97082 0.86574 0.86811 0.89469 0.91592 0.90529 0.89511 0.89724 0.90541 0.91978 0.94725 1.0344 1.0757 1.0851 1.086 1.0954 1.1046 1.1401 1.1496 1.1239 1.1161 1.1252 1.1429 1.1608 1.1525 1.1616 1.1619 1.1371 1.1296 1.1382 1.1229 1.1007 1.1014 1.1096 1.1253 1.1184 1.1116 1.1196 1.1276 1.1664 1.1361 1.1149 1.1597 1.16 1.1528 1.1607 1.161 1.1764 1.1842 1.1768 1.1846 1.1924 1.2001 1.2395 1.2557 1.2892 1.3062 1.2797 1.305 1.3219 1.3391 1.3473 1.3464 1.3455 1.3536 1.3438 1.3341 1.3598 1.3678 1.3667 1.3747 1.3826 1.3906 1.3716 1.3619 1.3609 1.3773 1.3762 1.3666 1.3742 1.3904 1.3893 1.3968 1.4403 1.4574 1.4843 1.4825 1.5001 1.508 1.5258 1.5337 1.5317 1.5296 1.5374 1.5256 1.5235 1.5312 1.5488 1.5467 1.5159 1.514 1.5215 1.5384 1.5459 1.5631 1.5609 1.5588 1.5663 1.5641 1.591 1.6496 1.6573 1.665 1.6622 1.6593 1.6462 1.6334 1.6409 1.6383 1.6457 1.6331 1.6208 1.6281 1.6256 1.6328 1.64 1.6472 1.6643 1.6715 1.6589 1.6661 1.6733 1.6804 1.6777 1.6652 1.6723 1.6793 1.6863 1.6934 1.7104 1.7074 1.7145 1.7215 1.7186 1.7157 1.7031 1.6908 1.6976 1.7044 1.7017 1.7085 1.7057 1.7029 1.7096 1.7259 1.7519 1.7687 1.7855 1.7924 1.7993 1.8165 1.813 1.8199 1.8372 1.8336 1.8405 1.837 1.8438 1.8507 1.8575 1.8643 1.8712 1.8675 1.8639 1.8706 1.8774 1.8841 1.8909 1.8767 1.8834 1.89 1.8864 1.9034 1.9207 1.9168 1.9235 1.9301 1.9476 1.9543 1.9395 1.9356 1.9212 1.9072 1.9136 1.9201 1.9063 1.9026 1.899 1.8857 1.8919 1.8884 1.9045 1.9107 1.9269 1.9233 1.9295 1.9258 1.9521 1.9584 1.9546 1.9609 1.957 1.9632 1.9594 1.9359 1.9323 1.968 1.9741 2.011 2.0383 2.0554 2.0727 2.0791 2.0965 2.103 2.1094 2.1158 2.1 2.1063 2.1017 2.108 2.1143 2.1096 2.105 2.1113 2.1176 2.1238 2.1636 2.17 2.165 2.16 2.1891 2.2306 2.237 2.2317 2.2146 2.2093 2.2041 2.2104 2.2283 2.223 2.2293 2.2356 2.2075 2.1803 2.1539 2.1493 2.1659 2.1612 2.1672 2.1625 2.1578 2.1638 2.1697 2.2081 2.2141 2.2311 2.2597 2.2544 2.2161 2.2221 2.2064 2.2123 2.2075 2.2133 2.2085 2.2144 2.2202 2.2368 2.2536 2.2377 2.2328 2.2174 2.1715
0 0 0 0 0 0 0 0 0 0 0 0 0 0 0 0 0 0 0 0 0 0 0 0 0 0 0 0 0 0 0 0 0 0 0 0 0 0 0 0 0 0 0 0 0 0 0 0 0 0 0 0.73049 0.73986 0.70563 0.6992 0.73394 0.75401 0.79279 0.81492 0.83774 0.86841 0.86416 0.88837 0.90581 0.92353 0.94156 0.95179 0.96203 1.0151 0.80019 0.80853 0.83995 0.8796 0.95872 0.98386 0.95525 0.96461 0.85512 0.86924 0.88964 0.91065 0.88202 0.88424 0.88641 0.89447 0.9209 0.94839 1.0203 1.0687 1.078 1.0873 1.0966 1.1144 1.1414 1.1509 1.1167 1.1009 1.1181 1.1528 1.1621 1.1451 1.1456 1.1461 1.1221 1.1228 1.1476 1.124 1.1018 1.1025 1.1107 1.1341 1.127 1.1276 1.1207 1.1362 1.1918 1.1447 1.1159 1.1607 1.1535 1.1539 1.1617 1.1621 1.1699 1.1777 1.1704 1.1781 1.1934 1.2012 1.2245 1.2404 1.2817 1.2985 1.2808 1.3061 1.332 1.3402 1.3394 1.3475 1.3466 1.3457 1.3449 1.3352 1.3609 1.3689 1.3769 1.3849 1.3837 1.3917 1.3815 1.3543 1.362 1.3696 1.3686 1.3592 1.3752 1.3828 1.3817 1.3892 1.4322 1.4491 1.4853 1.4835 1.5011 1.509 1.5169 1.5248 1.5327 1.5406 1.5189 1.5266 1.5246 1.5227 1.5598 1.538 1.5263 1.5244 1.5319 1.549 1.5566 1.5641 1.5816 1.5792 1.5673 1.5747 1.6019 1.6506 1.669 1.6661 1.6632 1.6709 1.6576 1.6548 1.6419 1.6494 1.6467 1.6541 1.6316 1.6388 1.6363 1.6435 1.6508 1.658 1.6653 1.6725 1.6698 1.677 1.6742 1.6814 1.6689 1.6662 1.6732 1.6803 1.6873 1.7043 1.7014 1.7084 1.7154 1.7225 1.7195 1.7166 1.704 1.7109 1.6985 1.7053 1.7121 1.7094 1.7066 1.7039 1.7105 1.7172 1.7335 1.7499 1.7764 1.7833 1.8002 1.7969 1.814 1.8208 1.8277 1.8346 1.8311 1.8483 1.8448 1.8516 1.8584 1.8548 1.8616 1.8684 1.8544 1.8612 1.8783 1.8746 1.8813 1.8776 1.8843 1.8806 1.8873 1.9043 1.911 1.9072 1.9139 1.931 1.9377 1.9444 1.9511 1.9365 1.9221 1.9081 1.9145 1.921 1.9072 1.9035 1.8999 1.8865 1.8928 1.8796 1.8955 1.9116 1.9179 1.9241 1.9204 1.9267 1.9429 1.9593 1.9656 1.9719 1.9782 1.9743 1.9703 1.9367 1.9527 1.9688 1.9851 2.0223 2.0499 2.0672 2.0736 2.091 2.0974 2.115 2.1103 2.1167 2.1008 2.0962 2.1025 2.1089 2.1042 2.0996 2.1059 2.1012 2.1075 2.1137 2.1645 2.1824 2.1888 2.1722 2.2016 2.2314 2.2379 2.2325 2.2154 2.1987 2.1936 2.2113 2.2292 2.2239 2.2187 2.225 2.2084 2.1922 2.1441 2.1501 2.1561 2.1728 2.1574 2.1633 2.1586 2.1753 2.192 2.2089 2.2149 2.2431 2.2605 2.2553 2.2501 2.245 2.2289 2.2024 2.1976 2.1929 2.1987 2.2151 2.1997 2.2161 2.2435 2.2278 2.2124 2.1767 2.1523
0 0 0 0 0 0 0 0 0 0 0 0 0 0 0 0 0 0 0 0 0 0 0 0 0 0 0 0 0 0 0 0 0 0 0 0 0 0 0 0 0 0 0 0 0 0 0 0 0 0 0 0.73177 0.74113 0.63315 0.64105 0.74061 0.76095 0.80664 0.82933 0.85277 0.87698 0.87257 0.89711 0.91477 0.91724 0.92731 0.93737 0.93964 0.94187 0.80133 0.82671 0.818 0.81513 0.82335 0.96961 0.95652 0.96589 0.85624 0.87036 0.89079 0.91181 0.88313 0.87945 0.88166 0.89557 0.92202 0.95615 1.0216 1.0619 1.0876 1.097 1.1064 1.1157 1.1427 1.1433 1.1264 1.1103 1.1277 1.1454 1.1545 1.1549 1.1554 1.1558 1.1154 1.1006 1.1014 1.1021 1.1104 1.1111 1.1118 1.1353 1.1206 1.1212 1.1218 1.1298 1.1608 1.1309 1.1099 1.1542 1.1471 1.1476 1.1554 1.1557 1.1635 1.1712 1.1641 1.1644 1.1794 1.1796 1.21 1.2255 1.2659 1.291 1.2652 1.2731 1.2979 1.3146 1.3139 1.3219 1.3126 1.3205 1.3198 1.3363 1.3619 1.37 1.3689 1.3768 1.3848 1.3928 1.3826 1.3639 1.3717 1.3882 1.3783 1.3773 1.3936 1.3925 1.4001 1.4077 1.4424 1.4595 1.4768 1.4751 1.4829 1.5003 1.5082 1.4778 1.4854 1.4837 1.4728 1.4713 1.4607 1.4592 1.5029 1.5104 1.5179 1.5254 1.5329 1.5404 1.5384 1.5459 1.563 1.5802 1.5683 1.5758 1.6029 1.6411 1.6488 1.6672 1.6749 1.6827 1.6483 1.6456 1.6429 1.6403 1.6477 1.6551 1.6524 1.6398 1.6471 1.6445 1.6518 1.659 1.6662 1.6636 1.6708 1.6681 1.6752 1.6628 1.6699 1.6576 1.6645 1.6812 1.6883 1.7052 1.7023 1.7093 1.7065 1.7135 1.7106 1.7176 1.705 1.7022 1.6994 1.6968 1.713 1.7103 1.7075 1.7048 1.7114 1.7277 1.7344 1.7508 1.7774 1.7943 1.8012 1.808 1.8149 1.8218 1.8391 1.8355 1.8424 1.8493 1.8561 1.8525 1.8594 1.8662 1.873 1.8693 1.8554 1.8724 1.8792 1.886 1.8927 1.8785 1.8852 1.8815 1.8779 1.8845 1.9015 1.8977 1.9043 1.9109 1.9175 1.9241 1.9203 1.9164 1.9127 1.9089 1.9257 1.9322 1.908 1.9044 1.9107 1.8971 1.9035 1.8999 1.9062 1.9124 1.9286 1.9349 1.9213 1.9275 1.9438 1.95 1.9563 1.9626 1.9487 1.9549 1.9611 1.9376 1.9437 1.9597 1.9859 2.0023 2.019 2.0572 2.0635 2.0699 2.0872 2.1047 2.1112 2.1176 2.1128 2.1081 2.1034 2.1097 2.105 2.1004 2.1067 2.1021 2.1083 2.1146 2.1318 2.1604 2.1781 2.196 2.2141 2.2323 2.2388 2.2216 2.2163 2.1995 2.1945 2.2007 2.2184 2.2133 2.2081 2.2258 2.2092 2.2042 2.1555 2.1616 2.1784 2.1629 2.1688 2.1748 2.1595 2.1868 2.2037 2.2097 2.2268 2.2439 2.2729 2.2561 2.251 2.257 2.2518 2.2247 2.2306 2.2257 2.2101 2.2159 2.2218 2.2384 2.2662 2.2502 2.2452 2.2295 2.1047
0 0 0 0 0 0 0 0 0 0 0 0 0 0 0 0 0 0 0 0 0 0 0 0 0 0 0 0 0 0 0 0 0 0 0 0 0 0 0 0 0 0 0 0 0 0 0 0 0 0 0 0 0.78482 0.63423 0.64213 0.76459 0.78592 0.84816 0.85116 0.86829 0.8857 0.88842 0.89848 0.90855 0.91861 0.92868 0.93874 0.9488 0.93558 0.84915 0.87062 0.86679 0.81625 0.82447 0.97092 0.9578 0.96716 0.85736 0.88969 0.89814 0.91297 0.88424 0.88055 0.88861 0.89666 0.92313 0.9573 1.0381 1.0795 1.0974 1.1155 1.125 1.1257 1.1531 1.1535 1.1363 1.1283 1.1375 1.1553 1.1558 1.1562 1.1566 1.157 1.1245 1.1017 1.095 1.0958 1.1269 1.1198 1.1205 1.1364 1.1142 1.1223 1.1229 1.1384 1.1542 1.132 1.1252 1.1553 1.1482 1.156 1.1564 1.1642 1.172 1.1723 1.1725 1.1728 1.173 1.1806 1.2033 1.2266 1.2587 1.2834 1.2581 1.2659 1.2905 1.307 1.3064 1.3058 1.3052 1.313 1.3124 1.3117 1.3365 1.3532 1.3611 1.3601 1.3769 1.3938 1.4018 1.3915 1.4085 1.4257 1.415 1.4229 1.4307 1.448 1.4464 1.4543 1.4813 1.4893 1.4778 1.4762 1.4745 1.4822 1.4805 1.4604 1.4679 1.4664 1.4648 1.4544 1.4529 1.4602 1.4947 1.5021 1.5189 1.5359 1.5339 1.5414 1.549 1.5469 1.5737 1.5813 1.579 1.5865 1.6039 1.6422 1.6499 1.6682 1.676 1.6837 1.6597 1.6568 1.6541 1.6514 1.6589 1.6663 1.6738 1.6608 1.6581 1.6554 1.6627 1.66 1.6672 1.6745 1.6619 1.669 1.6762 1.6638 1.6611 1.6681 1.6751 1.6822 1.6892 1.7062 1.7132 1.7103 1.7074 1.7144 1.7214 1.7185 1.7157 1.7128 1.71 1.7168 1.714 1.7208 1.718 1.7152 1.7315 1.7382 1.745 1.7518 1.7783 1.7952 1.8021 1.809 1.8158 1.8227 1.8612 1.8575 1.8539 1.8608 1.8677 1.8746 1.8708 1.8671 1.8845 1.8808 1.8666 1.8734 1.8697 1.8974 1.9149 1.9004 1.9071 1.8824 1.8788 1.8752 1.8817 1.8986 1.8949 1.9118 1.8977 1.9042 1.9108 1.9071 1.9136 1.9098 1.9266 1.9331 1.9292 1.9255 1.9319 1.9383 1.9345 1.9206 1.9371 1.9333 1.9498 1.9562 1.9523 1.9484 1.9446 1.9509 1.9572 1.9736 1.9595 1.9658 1.972 1.9483 1.9643 1.9806 1.997 2.0136 2.0303 2.0473 2.0536 2.0599 2.0881 2.0945 2.1009 2.1185 2.1137 2.0979 2.1043 2.0996 2.1059 2.1013 2.1076 2.1138 2.1201 2.1154 2.1437 2.1613 2.1676 2.2085 2.2267 2.2452 2.2397 2.2461 2.2289 2.2004 2.1953 2.213 2.2309 2.2141 2.209 2.2266 2.2101 2.205 2.1779 2.184 2.2011 2.1852 2.1913 2.1864 2.1816 2.1985 2.2155 2.2215 2.2387 2.2561 2.2852 2.2569 2.2518 2.2578 2.2752 2.2699 2.2647 2.2595 2.2543 2.2492 2.2551 2.2722 2.2894 2.3068 2.3014 2.2961 2.1055
0 0 0 0 0 0 0 0 0 0 0 0 0 0 0 0 0 0 0 0 0 0 0 0 0 0 0 0 0 0 0 0 0 0 0 0 0 0 0 0 0 0 0 0 0 0 0 0 0 0 0 0 0.78617 0.6353 0.6432 0.76586 0.79338 0.86387 0.8741 0.87694 0.89457 0.89723 0.90738 0.91753 0.91998 0.93005 0.94011 0.95017 0.97644 0.90288 0.89837 0.91455 0.85202 0.86059 0.96458 0.95907 0.96101 0.91424 0.89711 0.90562 0.91413 0.88536 0.87583 0.88384 0.89776 0.92425 0.95845 1.0316 1.0892 1.116 1.1256 1.1442 1.1358 1.1453 1.1548 1.1464 1.1296 1.1474 1.1479 1.157 1.1574 1.1665 1.1668 1.1337 1.1184 1.1037 1.0969 1.1203 1.121 1.1216 1.1298 1.1153 1.116 1.124 1.1395 1.1476 1.1404 1.1335 1.1564 1.1567 1.1497 1.1575 1.1653 1.1731 1.1809 1.1736 1.1738 1.1741 1.1817 1.2044 1.2198 1.2597 1.2845 1.2511 1.267 1.2832 1.2911 1.299 1.2984 1.2896 1.3056 1.2968 1.3045 1.3206 1.3369 1.3446 1.3524 1.3516 1.3859 1.4029 1.4108 1.4188 1.4362 1.4347 1.4426 1.4506 1.4682 1.4762 1.4842 1.4922 1.4904 1.4886 1.4772 1.4755 1.4646 1.4722 1.4346 1.4509 1.4495 1.448 1.4466 1.4539 1.4612 1.4866 1.5032 1.5199 1.537 1.5445 1.5425 1.55 1.5575 1.5748 1.5823 1.58 1.5875 1.605 1.6329 1.6406 1.6586 1.6663 1.674 1.6607 1.6579 1.6551 1.6524 1.6701 1.6673 1.6748 1.672 1.6491 1.6564 1.6637 1.661 1.6682 1.6755 1.6628 1.67 1.6673 1.6647 1.6718 1.6691 1.6761 1.6831 1.6902 1.7071 1.7042 1.7113 1.7084 1.7253 1.7125 1.7195 1.7264 1.7235 1.7109 1.7177 1.7343 1.7412 1.7285 1.7353 1.7421 1.7489 1.7459 1.7625 1.7792 1.7961 1.803 1.8099 1.8272 1.8341 1.8622 1.8692 1.8654 1.8724 1.8793 1.8755 1.8824 1.8786 1.8855 1.8817 1.8675 1.8743 1.8811 1.8878 1.9267 1.9119 1.8975 1.8937 1.8797 1.8863 1.8826 1.8892 1.8958 1.9023 1.8885 1.8848 1.8913 1.8978 1.9042 1.9107 1.9172 1.934 1.9301 1.9366 1.943 1.9392 1.9354 1.9418 1.9482 1.9443 1.9507 1.9674 1.9634 1.9595 1.9658 1.9619 1.9682 1.9745 1.9705 1.9768 1.9831 1.969 1.9853 2.0019 2.0082 2.0249 2.0312 2.0375 2.0652 2.0608 2.078 2.0843 2.0907 2.1193 2.1034 2.0988 2.1051 2.1005 2.0959 2.0913 2.0976 2.1147 2.11 2.1272 2.1446 2.1621 2.1685 2.2212 2.2396 2.2461 2.2526 2.247 2.2416 2.2244 2.2076 2.2255 2.2318 2.2265 2.2212 2.2275 2.2109 2.2171 2.1787 2.1848 2.2019 2.197 2.203 2.1982 2.1933 2.1993 2.2274 2.2334 2.2508 2.2684 2.2746 2.2578 2.2526 2.2586 2.2647 2.2707 2.2655 2.2492 2.2441 2.25 2.2559 2.273 2.2903 2.3077 2.2909 2.2969 2.0967
0 0 0 0 0 0 0 0 0 0 0 0 0 0 0 0 0 0 0 0 0 0 0 0 0 0 0 0 0 0 0 0 0 0 0 0 0 0 0 0 0 0 0 0 0 0 0 0 0 0 0.64636 0.6547 0.66304 0.63638 0.64428 0.76712 0.79467 0.85802 0.86817 0.87103 0.88847 0.89862 0.90876 0.91891 0.80745 0.81627 0.94148 0.95951 0.96161 0.94807 0.92783 0.92289 0.78649 0.79439 0.94369 0.91781 0.91998 0.79994 0.81271 0.85857 0.88426 0.88055 0.88274 0.89677 0.90489 0.91913 0.98712 0.99582 1.1077 1.1262 1.145 1.1455 1.1461 1.1557 1.1471 1.1302 1.114 1.1065 1.1154 1.1161 1.1088 1.1096 1.1182 1.111 1.104 1.1124 1.1055 1.1292 1.1221 1.1227 1.1309 1.1239 1.1245 1.1325 1.1406 1.1564 1.1415 1.142 1.1574 1.1578 1.1582 1.1736 1.1739 1.1817 1.1896 1.1821 1.1823 1.1825 1.1902 1.2054 1.2287 1.2608 1.2772 1.2521 1.2599 1.2759 1.2837 1.2833 1.2829 1.2906 1.2901 1.2815 1.2811 1.2968 1.3044 1.312 1.3279 1.3355 1.3604 1.3769 1.3847 1.4106 1.4278 1.4453 1.4437 1.4517 1.479 1.4773 1.4853 1.4933 1.5013 1.48 1.4688 1.4672 1.4564 1.4549 1.4356 1.4343 1.4416 1.4316 1.4303 1.4462 1.4711 1.4876 1.5042 1.521 1.5285 1.5456 1.5531 1.551 1.5682 1.5857 1.5833 1.5909 1.5885 1.606 1.634 1.6416 1.6493 1.6781 1.6751 1.6617 1.6589 1.6664 1.6636 1.6711 1.6787 1.6758 1.673 1.6501 1.6574 1.6647 1.6521 1.6593 1.6665 1.6638 1.671 1.6781 1.6657 1.6727 1.67 1.6771 1.694 1.6911 1.7081 1.7052 1.7024 1.7093 1.7263 1.7233 1.7303 1.7175 1.7245 1.7215 1.7284 1.7352 1.7421 1.7294 1.746 1.7528 1.7597 1.7665 1.7634 1.7902 1.8074 1.804 1.8316 1.8281 1.835 1.8739 1.8809 1.8771 1.8733 1.8911 1.8872 1.8834 1.8903 1.8864 1.8826 1.8684 1.8648 1.8715 1.8993 1.9168 1.9128 1.909 1.8946 1.8806 1.8872 1.8835 1.8901 1.8967 1.8929 1.8792 1.8757 1.8822 1.8786 1.885 1.9015 1.9079 1.9245 1.9208 1.9374 1.9544 1.9401 1.9465 1.9529 1.9594 1.9658 1.9723 1.9787 1.9747 1.9706 1.9667 1.973 1.9793 1.9857 1.9816 1.9879 1.9839 1.9902 1.9965 2.0131 2.0194 2.0257 2.032 2.0383 2.0553 2.0509 2.0572 2.0743 2.0807 2.109 2.1043 2.0997 2.095 2.1013 2.0753 2.0815 2.0984 2.1155 2.1109 2.1171 2.1343 2.1517 2.158 2.222 2.2405 2.247 2.2535 2.2479 2.2306 2.2136 2.197 2.2033 2.2096 2.2044 2.1882 2.2056 2.1894 2.1844 2.1687 2.1748 2.1917 2.1978 2.2039 2.199 2.1941 2.2111 2.2282 2.257 2.2631 2.2807 2.2754 2.2586 2.2423 2.2483 2.2432 2.2381 2.233 2.2173 2.2125 2.2291 2.2349 2.2517 2.2686 2.2858 2.2584 2.2107 2.0975
0 0 0 0 0 0 0 0 0 0 0 0 0 0 0 0 0 0 0 0 0 0 0 0 0 0 0 0 0 0 0 0 0 0 0 0 0 0 0 0 0 0 0 0 0 0 0 0 0 0 0.6475 0.65583 0.66417 0.82572 0.81532 0.78645 0.80227 0.85227 0.85524 0.86522 0.88246 0.89253 0.91014 0.93595 0.80865 0.81747 0.94285 0.96899 1.0134 1.0152 1.0082 1.0185 0.78756 0.79546 0.95226 0.90567 0.92119 0.80098 0.82424 0.85966 0.87941 0.88758 0.90183 0.92893 0.94385 0.959 1.0027 1.0995 1.136 1.1458 1.1556 1.1561 1.1384 1.139 1.1484 1.1229 1.107 1.0839 1.0926 1.1013 1.0866 1.0952 1.1037 1.1044 1.1052 1.1213 1.1377 1.1382 1.1309 1.1393 1.1398 1.1481 1.1485 1.1489 1.1571 1.1893 1.1734 1.1737 1.1739 1.1742 1.1744 1.1824 1.1903 1.1983 1.2062 1.1985 1.1986 1.2142 1.2142 1.222 1.2377 1.2703 1.2867 1.2695 1.2774 1.277 1.2848 1.2844 1.2922 1.2834 1.2911 1.2746 1.2821 1.2897 1.2972 1.3048 1.3206 1.3282 1.3442 1.3692 1.3769 1.4117 1.4196 1.4464 1.4354 1.4527 1.4801 1.4882 1.4766 1.4944 1.5024 1.481 1.4699 1.4776 1.4575 1.4559 1.4279 1.4353 1.4515 1.424 1.4313 1.4471 1.4632 1.4977 1.5052 1.5315 1.5295 1.5466 1.5639 1.5715 1.5693 1.5867 1.5844 1.5821 1.5896 1.6171 1.6247 1.6426 1.6503 1.6791 1.6869 1.6732 1.6809 1.678 1.675 1.6722 1.6902 1.6768 1.674 1.6611 1.6684 1.6657 1.6433 1.6505 1.6675 1.655 1.6622 1.6693 1.6764 1.6835 1.6614 1.678 1.6949 1.702 1.6991 1.7161 1.7132 1.7103 1.7173 1.7243 1.7214 1.7185 1.7254 1.7224 1.7196 1.7362 1.7333 1.7401 1.7469 1.7637 1.7909 1.7978 1.7945 1.8014 1.8187 1.8256 1.8431 1.8395 1.8465 1.8859 1.8929 1.8889 1.896 1.903 1.899 1.8951 1.8912 1.909 1.8942 1.8798 1.8866 1.8934 1.9002 1.9177 1.9138 1.9206 1.9167 1.8918 1.8984 1.9051 1.9013 1.8976 1.8938 1.8902 1.8866 1.883 1.8795 1.8859 1.9023 1.9088 1.9152 1.9217 1.9383 1.9553 1.9513 1.9683 1.9748 2.0027 2.0093 2.005 2.0335 2.0181 2.003 1.9989 2.0053 2.0011 1.997 2.0033 1.9992 2.0055 2.0014 2.0182 2.0351 2.0309 2.0372 2.0435 2.0392 2.0455 2.0412 2.0581 2.0644 2.0815 2.1099 2.1052 2.1005 2.0851 2.0913 2.0868 2.093 2.0993 2.1055 2.1117 2.118 2.1352 2.1415 2.1589 2.2229 2.2414 2.2599 2.2665 2.2488 2.2315 2.2145 2.1865 2.2041 2.2104 2.194 2.189 2.1841 2.1792 2.1635 2.1482 2.1648 2.1816 2.1877 2.1829 2.1889 2.1841 2.201 2.218 2.2464 2.2525 2.2701 2.2878 2.2594 2.2431 2.2491 2.244 2.2171 2.223 2.2074 2.2027 2.1979 2.2143 2.2416 2.2694 2.2753 2.2483 2.2011 2.1268
0 0 0 0 0 0 0 0 0 0 0 0 0 0 0 0 0 0 0 0 0 0 0 0 0 0 0 0 0 0 0 0 0 0 0 0 0 0 0 0 0 0 0 0 0 0 0 0 0 0 0.64863 0.65697 0.6653 0.82711 0.81667 0.8003 0.80357 0.84662 0.84961 0.85951 0.86941 0.8939 0.78648 0.80103 0.80985 0.81867 0.96015 0.97864 1.0149 1.0079 0.82669 0.83514 0.80436 0.81241 0.82597 0.91351 0.9224 0.85031 0.84708 0.86653 0.8865 0.89472 0.92167 0.9498 0.9652 0.98079 1.0112 1.0921 1.1282 1.1471 1.1569 1.1482 1.1308 1.1315 1.1408 1.1157 1.0921 1.0929 1.0784 1.0793 1.0802 1.0887 1.0971 1.0904 1.1063 1.1225 1.1389 1.1474 1.1478 1.1326 1.1487 1.1414 1.1496 1.1578 1.1661 1.1904 1.1825 1.1748 1.175 1.1831 1.1833 1.1913 1.1993 1.2073 1.2073 1.2074 1.2074 1.2152 1.2231 1.2309 1.2469 1.2713 1.2793 1.2789 1.2785 1.278 1.2776 1.2854 1.285 1.2764 1.2841 1.2836 1.2752 1.2827 1.2902 1.3058 1.3053 1.3209 1.3453 1.3615 1.3868 1.4036 1.43 1.4286 1.4365 1.4444 1.4812 1.4893 1.4875 1.4856 1.5035 1.4821 1.471 1.4693 1.4585 1.4661 1.4289 1.4363 1.4437 1.4336 1.4323 1.4481 1.4554 1.508 1.5155 1.5325 1.5305 1.5476 1.565 1.5725 1.5703 1.5878 1.5854 1.5831 1.5906 1.6081 1.636 1.6437 1.6618 1.6802 1.6772 1.6743 1.6714 1.679 1.6761 1.6732 1.6807 1.6779 1.675 1.6621 1.6694 1.6567 1.6541 1.6515 1.6489 1.656 1.6631 1.6703 1.6676 1.6649 1.6623 1.6693 1.6763 1.693 1.7001 1.7071 1.7043 1.7112 1.7182 1.7154 1.7125 1.7194 1.7263 1.7234 1.7205 1.7274 1.744 1.7509 1.7577 1.7747 1.7918 1.8091 1.7954 1.8023 1.8196 1.8265 1.8441 1.8404 1.8369 1.8758 1.8828 1.879 1.8969 1.893 1.8891 1.8961 1.903 1.8991 1.8951 1.8807 1.8771 1.8838 1.8906 1.9079 1.9041 1.9108 1.907 1.8927 1.8993 1.8956 1.8919 1.8781 1.8947 1.881 1.8875 1.8839 1.8904 1.8868 1.8932 1.9198 1.9263 1.9327 1.9392 1.9457 1.9627 1.9797 1.9863 2.0145 2.0102 2.0278 2.0344 2.0299 2.0147 2.0212 2.0277 2.0233 2.019 2.0255 2.0212 2.0276 2.0233 2.0404 2.036 2.0424 2.0381 2.0444 2.04 2.0463 2.0315 2.0483 2.0546 2.0715 2.1108 2.106 2.0904 2.0859 2.0922 2.0876 2.0939 2.1001 2.1172 2.1126 2.1188 2.1361 2.1423 2.194 2.2238 2.2423 2.2608 2.2674 2.2618 2.2442 2.2154 2.1987 2.205 2.1999 2.1949 2.1788 2.185 2.1476 2.1324 2.1384 2.1444 2.1717 2.1777 2.1837 2.1789 2.1742 2.1909 2.2188 2.2359 2.2533 2.2594 2.2771 2.2602 2.2439 2.2388 2.2338 2.2287 2.2238 2.2082 2.1825 2.1883 2.2045 2.2316 2.2483 2.2651 2.26 2.2123 2.1768
0 0 0 0 0 0 0 0 0 0 0 0 0 0 0 0 0 0 0 0 0 0 0 0 0 0 0 0 0 0 0 0 0 0 0 0 0 0 0 0 0 0 0 0 0 0 0 0 0 0 0.64977 0.6581 0.66644 0.69385 0.70242 0.77092 0.79856 0.82095 0.83728 0.84027 0.84993 0.87352 0.78767 0.80224 0.81105 0.81988 0.96155 0.93244 0.95777 0.98395 0.81647 0.8248 0.8163 0.81351 0.82708 0.85814 0.87246 0.85713 0.85953 0.8794 0.89368 0.90196 0.94239 0.96459 0.99468 0.98906 1.0275 1.0934 1.1205 1.1302 1.1308 1.1227 1.0897 1.0906 1.1079 1.0924 1.0699 1.0634 1.0645 1.0729 1.0739 1.0749 1.0832 1.0841 1.0999 1.1082 1.1242 1.1567 1.157 1.1338 1.1343 1.1348 1.143 1.1589 1.1672 1.1998 1.1917 1.1838 1.184 1.1842 1.1922 1.2003 1.2004 1.2084 1.2084 1.2006 1.2085 1.2163 1.2322 1.232 1.2398 1.2641 1.2804 1.2884 1.2879 1.2959 1.2787 1.2865 1.286 1.2855 1.2851 1.2928 1.2842 1.2917 1.2913 1.2988 1.3063 1.3138 1.3379 1.3625 1.3879 1.4047 1.4311 1.4297 1.4282 1.4455 1.4823 1.4904 1.4886 1.4867 1.4947 1.4832 1.472 1.4703 1.4595 1.458 1.4387 1.4373 1.4359 1.4346 1.4332 1.4491 1.4652 1.5184 1.526 1.5335 1.5315 1.5486 1.566 1.5736 1.5812 1.5888 1.5864 1.5841 1.5818 1.6091 1.6268 1.6447 1.6628 1.6812 1.6677 1.6648 1.662 1.6695 1.6565 1.6538 1.6714 1.6584 1.6658 1.663 1.6704 1.6676 1.6357 1.6428 1.6499 1.657 1.6544 1.6615 1.6686 1.6659 1.6443 1.6513 1.6582 1.6651 1.6816 1.6982 1.6858 1.7024 1.7093 1.7065 1.7037 1.7204 1.7174 1.7243 1.7215 1.7283 1.7449 1.7518 1.7687 1.7858 1.7928 1.8101 1.8067 1.8136 1.8205 1.8275 1.824 1.8309 1.8274 1.8553 1.873 1.8692 1.8761 1.8831 1.8901 1.8862 1.8931 1.9 1.8961 1.8816 1.878 1.8847 1.881 1.8877 1.8944 1.9012 1.9079 1.8936 1.8899 1.8965 1.8725 1.879 1.8855 1.892 1.8883 1.8848 1.8912 1.8877 1.8941 1.9105 1.9271 1.9336 1.9505 1.957 1.9635 1.9806 1.9979 2.0376 2.0332 2.0398 2.0464 2.0308 2.0374 2.0329 2.0505 2.0351 2.0306 2.0263 2.0328 2.0392 2.0349 2.0521 2.0585 2.0433 2.0496 2.0452 2.0409 2.0472 2.022 2.0386 2.0554 2.0724 2.1117 2.1069 2.0805 2.0868 2.0823 2.0778 2.084 2.0902 2.1072 2.1134 2.1197 2.148 2.1432 2.1949 2.2367 2.2552 2.2617 2.2683 2.2627 2.2451 2.2162 2.1996 2.1945 2.2007 2.1845 2.1577 2.1638 2.1168 2.0921 2.0879 2.1038 2.1199 2.1361 2.1316 2.1375 2.1434 2.1702 2.1869 2.2037 2.2206 2.2267 2.2327 2.2387 2.2447 2.2396 2.2346 2.2295 2.2138 2.1984 2.1729 2.1787 2.1948 2.2217 2.2382 2.2659 2.2608 2.2342 2.2084
0 0 0 0 0 0 0 0 0 0 0 0 0 0 0 0 0 0 0 0 0 0 0 0 0 0 0 0 0 0 0 0 0 0 0 0 0 0 0 0 0 0 0 0 0 0 0 0 0 0 0 0.67787 0.68644 0.69501 0.73473 0.76631 0.78751 0.82226 0.83192 0.83495 0.84453 0.87486 0.88468 0.88731 0.9192 0.96906 0.97947 0.90448 0.92856 0.96911 0.82325 0.8203 0.81741 0.81461 0.82818 0.84191 0.8736 0.882 0.88428 0.89262 0.90717 0.92195 0.99265 1.0092 1.0259 1.0273 1.0603 1.1034 1.1218 1.1137 1.1145 1.1067 1.0748 1.068 1.0927 1.0778 1.0635 1.0646 1.0582 1.0666 1.075 1.076 1.0769 1.0778 1.101 1.117 1.1254 1.1578 1.1582 1.1427 1.1432 1.1436 1.1518 1.1601 1.1843 1.2178 1.2093 1.2093 1.2012 1.2012 1.2094 1.2258 1.2176 1.2175 1.2256 1.2017 1.2095 1.2174 1.2252 1.2411 1.249 1.2651 1.2815 1.2981 1.3061 1.3142 1.3135 1.3303 1.3384 1.3464 1.3545 1.3625 1.3706 1.3696 1.3596 1.3675 1.3665 1.3656 1.3734 1.3991 1.4256 1.4336 1.4512 1.469 1.4673 1.4754 1.5034 1.5116 1.4995 1.5076 1.5156 1.4939 1.4731 1.4714 1.4698 1.4774 1.4397 1.4383 1.4369 1.4442 1.4784 1.5043 1.531 1.5583 1.5661 1.5738 1.5616 1.5792 1.5869 1.5845 1.5822 1.5898 1.5974 1.5851 1.5926 1.6202 1.6485 1.6562 1.6639 1.6823 1.6687 1.6452 1.6527 1.6602 1.6474 1.6447 1.6521 1.6595 1.6668 1.6541 1.6614 1.6686 1.6561 1.6534 1.6606 1.6483 1.6554 1.6624 1.6695 1.6668 1.6453 1.6522 1.6497 1.6565 1.6825 1.6894 1.6867 1.684 1.6909 1.7075 1.7144 1.7115 1.7282 1.7252 1.7321 1.7292 1.7459 1.7729 1.7697 1.797 1.804 1.8215 1.818 1.8145 1.8215 1.8284 1.8354 1.8319 1.8283 1.8562 1.8632 1.8701 1.8771 1.8733 1.8802 1.8764 1.8833 1.901 1.897 1.8932 1.8789 1.8856 1.8819 1.8886 1.8954 1.9021 1.9088 1.9049 1.9011 1.9078 1.8834 1.8799 1.8965 1.8929 1.8892 1.8957 1.9022 1.8985 1.905 1.9216 1.928 1.9345 1.9619 1.9684 1.9857 2.0031 2.0208 2.0499 2.0452 2.0407 2.0362 2.0317 2.0273 2.0338 2.0514 2.0469 2.0425 2.038 2.0337 2.0509 2.0574 2.0638 2.0594 2.0549 2.0613 2.0461 2.0524 2.0588 2.0332 2.0395 2.0457 2.0732 2.1014 2.0859 2.0814 2.0876 2.0939 2.0681 2.0743 2.0911 2.119 2.1143 2.1205 2.1601 2.1551 2.2191 2.2618 2.2683 2.2749 2.2691 2.2757 2.2579 2.2405 2.2004 2.2067 2.2016 2.1633 2.1585 2.1539 2.1177 2.0929 2.0787 2.0845 2.1003 2.1163 2.112 2.1178 2.1236 2.1605 2.1664 2.2045 2.2105 2.2165 2.2335 2.2395 2.2344 2.2515 2.2354 2.2303 2.2363 2.2098 2.1841 2.1898 2.206 2.2332 2.2499 2.2667 2.2837 2.2896 2.2844
0 0 0 0 0 0 0 0 0 0 0 0 0 0 0 0 0 0 0 0 0 0 0 0 0 0 0 0 0 0 0 0 0 0 0 0 0 0 0 0 0 0 0 0 0 0 0 0 0 0 0.68498 0.66037 0.68278 0.70114 0.73595 0.76176 0.78274 0.81066 0.82666 0.82323 0.83919 0.86916 0.89325 0.89583 0.92056 0.9541 0.97253 0.91294 0.92253 0.96255 0.77606 0.80495 0.80764 0.81033 0.82929 0.8374 0.85119 0.8711 0.87938 0.88766 0.88986 0.88607 1.0244 1.0416 1.051 1.0522 1.078 1.1135 1.1322 1.1239 1.1072 1.0913 1.0604 1.0615 1.0702 1.0637 1.0499 1.051 1.0594 1.0678 1.0762 1.0771 1.078 1.079 1.1097 1.1105 1.1504 1.1756 1.1433 1.1517 1.1601 1.1526 1.1608 1.1771 1.1855 1.2276 1.2189 1.2022 1.2105 1.2024 1.2024 1.2187 1.2268 1.2268 1.2267 1.2106 1.2185 1.2264 1.2343 1.2422 1.2501 1.2746 1.2826 1.2992 1.3072 1.3153 1.3234 1.3314 1.3485 1.3566 1.3647 1.382 1.3717 1.3798 1.3696 1.3686 1.3765 1.3666 1.3744 1.4002 1.4267 1.4347 1.4523 1.4603 1.4587 1.4765 1.5147 1.5127 1.5006 1.5087 1.5168 1.5048 1.4836 1.4819 1.4708 1.4692 1.4495 1.4393 1.4467 1.454 1.4978 1.5148 1.5417 1.5594 1.5671 1.5749 1.5725 1.5802 1.5981 1.5856 1.5932 1.5809 1.5885 1.5861 1.5937 1.6112 1.6392 1.6468 1.6545 1.6726 1.6593 1.6261 1.6335 1.641 1.6383 1.6357 1.6431 1.6405 1.6478 1.6452 1.6426 1.6597 1.6472 1.6447 1.6615 1.6589 1.6563 1.6634 1.6705 1.6678 1.6462 1.6437 1.6413 1.6575 1.6739 1.6808 1.6877 1.685 1.6918 1.6987 1.7056 1.7124 1.7291 1.7262 1.7331 1.7499 1.7568 1.7738 1.7807 1.798 1.8261 1.8331 1.819 1.8259 1.8329 1.8399 1.8363 1.8328 1.8397 1.8572 1.8749 1.8711 1.8888 1.8743 1.8812 1.8881 1.8842 1.9019 1.898 1.8835 1.8798 1.8866 1.8724 1.8688 1.8858 1.903 1.8991 1.8954 1.8917 1.888 1.8843 1.8808 1.8873 1.8938 1.8901 1.8966 1.893 1.9095 1.9059 1.9224 1.9289 1.9354 1.9523 1.9588 1.9866 2.015 2.0217 2.0394 2.035 2.0416 2.0482 2.0437 2.0392 2.0458 2.0523 2.0478 2.0434 2.0389 2.0453 2.0518 2.0583 2.0538 2.0603 2.0558 2.0622 2.047 2.0426 2.0383 2.0341 2.0403 2.0571 2.0634 2.0913 2.0867 2.0715 2.0777 2.0947 2.0795 2.0857 2.0919 2.1198 2.1151 2.1214 2.1497 2.1449 2.2082 2.2504 2.2692 2.2635 2.27 2.2644 2.2709 2.2296 2.2243 2.219 2.2138 2.1862 2.1594 2.1547 2.1289 2.1141 2.0697 2.0754 2.0911 2.1069 2.1026 2.1084 2.1042 2.1405 2.1567 2.1837 2.2004 2.1956 2.2123 2.2183 2.2353 2.2413 2.2362 2.2311 2.2155 2.2106 2.2058 2.2116 2.2281 2.234 2.2507 2.2566 2.2845 2.2793 2.2852
0 0 0 0 0 0 0 0 0 0 0 0 0 0 0 0 0 0 0 0 0 0 0 0 0 0 0 0 0 0 0 0 0 0 0 0 0 0 0 0 0 0 0 0 0 0 0 0 0 0 0.68617 0.66607 0.68878 0.70734 0.73177 0.74066 0.75507 0.80564 0.82797 0.81188 0.82752 0.87048 0.90944 0.89717 0.9144 0.93963 0.96572 0.90002 0.93867 0.9639 0.78222 0.77995 0.79294 0.80084 0.85321 0.84414 0.81395 0.86631 0.88655 0.89489 0.89098 0.88718 1.0665 1.0936 1.0945 1.0955 1.123 1.1515 1.1711 1.1163 1.1258 1.0605 1.0172 1.0186 1.027 1.0212 1.0156 1.0308 1.0461 1.0616 1.0699 1.0783 1.0792 1.0801 1.1109 1.1116 1.1516 1.1768 1.1524 1.1609 1.1612 1.1696 1.178 1.1864 1.1948 1.2287 1.2286 1.2116 1.22 1.2116 1.2116 1.2281 1.2363 1.2445 1.2443 1.2358 1.2357 1.2437 1.2517 1.2597 1.2677 1.2757 1.2922 1.309 1.3083 1.3077 1.3157 1.3415 1.3586 1.3668 1.375 1.3831 1.3728 1.3809 1.3707 1.3786 1.3866 1.3677 1.3755 1.4104 1.4184 1.4264 1.4438 1.4518 1.4502 1.4678 1.5158 1.5138 1.4918 1.49 1.5078 1.5059 1.504 1.5021 1.4907 1.4889 1.4506 1.458 1.4745 1.4821 1.5372 1.5449 1.5527 1.5604 1.5682 1.5659 1.5736 1.5713 1.5992 1.5967 1.5843 1.5819 1.5895 1.5774 1.5849 1.6022 1.6299 1.6375 1.6555 1.6527 1.65 1.6172 1.6147 1.632 1.6393 1.6367 1.6342 1.622 1.6292 1.6267 1.6339 1.641 1.6386 1.6361 1.6528 1.6502 1.667 1.6644 1.6715 1.6591 1.6472 1.6541 1.6515 1.6584 1.6653 1.6722 1.6696 1.667 1.6833 1.6901 1.7065 1.7134 1.7203 1.7271 1.734 1.771 1.7883 1.7953 1.8129 1.8094 1.8595 1.8778 1.8412 1.8375 1.8445 1.8303 1.8373 1.8442 1.8512 1.8797 1.8977 1.8937 1.9007 1.8968 1.9038 1.9108 1.9068 1.9028 1.8989 1.8844 1.8703 1.877 1.8631 1.8595 1.856 1.883 1.8794 1.8758 1.8823 1.8889 1.8752 1.8817 1.8882 1.8947 1.9012 1.8975 1.9039 1.9207 1.9168 1.9233 1.9298 1.9363 1.9427 1.9597 1.9767 2.0049 2.0226 2.0292 2.0248 2.0314 2.0604 2.0558 2.0624 2.0691 2.0644 2.0598 2.0552 2.0507 2.0683 2.0748 2.0813 2.0879 2.0833 2.0676 2.074 2.0695 2.0542 2.0498 2.0455 2.0517 2.0687 2.075 2.0922 2.0985 2.0831 2.0893 2.0956 2.1019 2.0973 2.1035 2.1317 2.1269 2.1332 2.1284 2.1347 2.1859 2.2393 2.2458 2.2644 2.2709 2.2653 2.2597 2.2423 2.2368 2.2432 2.2262 2.187 2.1602 2.1343 2.109 2.1047 2.0509 2.0566 2.0721 2.0877 2.0835 2.0893 2.095 2.1108 2.1368 2.1739 2.1904 2.1964 2.2132 2.2082 2.2251 2.2421 2.237 2.2211 2.2163 2.2221 2.2066 2.2124 2.229 2.2241 2.2192 2.2357 2.2632 2.2691 2.275
0 0 0 0 0 0 0 0 0 0 0 0 0 0 0 0 0 0 0 0 0 0 0 0 0 0 0 0 0 0 0 0 0 0 0 0 0 0 0 0 0 0 0 0 0 0 0 0 0 0 0 0.69612 0.71002 0.71884 0.72239 0.72075 0.7399 0.7767 0.72596 0.73947 0.8288 0.87181 0.79822 0.80704 0.81586 0.82468 0 0.93026 0.9476 0.98126 0.76821 0.78102 0.78887 0.79672 0.86624 0.86864 0.86508 0.93052 0.90637 0.9085 0.9106 0.91899 1.0851 1.0861 1.1047 1.1056 1.1336 1.1721 1.1823 1.1265 1.1097 0.98925 0.99753 1.0058 1.0072 1.0018 1.0032 1.0181 1.0472 1.0701 1.0637 1.072 1.0803 1.0886 1.1044 1.1051 1.1211 1.1613 1.1617 1.162 1.1624 1.1708 1.1792 1.1958 1.2043 1.2213 1.2212 1.2127 1.2128 1.2127 1.221 1.2461 1.2459 1.2542 1.2624 1.2452 1.245 1.253 1.2528 1.2692 1.2772 1.2768 1.2933 1.3014 1.3182 1.3088 1.3082 1.3425 1.3507 1.3679 1.3761 1.375 1.3831 1.382 1.3718 1.3708 1.3877 1.3687 1.3765 1.4024 1.4103 1.409 1.4168 1.4433 1.4419 1.4689 1.4967 1.4948 1.4929 1.4911 1.5089 1.5169 1.5149 1.4935 1.5013 1.4899 1.4696 1.4681 1.4848 1.5017 1.5481 1.5559 1.5537 1.5515 1.5692 1.5669 1.5647 1.5823 1.59 1.608 1.5754 1.583 1.5905 1.5784 1.5859 1.6032 1.6412 1.6385 1.6565 1.6538 1.651 1.6084 1.6158 1.643 1.6403 1.6377 1.6352 1.623 1.6302 1.6374 1.6446 1.6518 1.6492 1.6466 1.6441 1.6512 1.6583 1.6653 1.6627 1.6601 1.6481 1.6456 1.6525 1.6594 1.6662 1.6637 1.6705 1.6679 1.6747 1.691 1.6979 1.7047 1.7212 1.7281 1.7449 1.7719 1.7997 1.8068 1.8138 1.8316 1.8495 1.8788 1.8638 1.8492 1.8455 1.8313 1.8278 1.8347 1.8311 1.9027 1.9098 1.9058 1.9128 1.9087 1.927 1.9228 1.9077 1.9147 1.9107 1.8853 1.8712 1.8779 1.864 1.8503 1.8569 1.8635 1.8599 1.8665 1.873 1.8796 1.876 1.8825 1.8789 1.8956 1.9123 1.8983 1.9048 1.9216 1.9177 1.9242 1.9205 1.9371 1.9436 1.9606 1.9884 2.0168 2.0235 2.0413 2.0257 2.0434 2.0613 2.068 2.0747 2.0814 2.088 2.0719 2.0673 2.0738 2.0804 2.0983 2.0936 2.1116 2.1182 2.0906 2.0749 2.0813 2.0767 2.0722 2.0677 2.0632 2.0804 2.0867 2.104 2.0994 2.0947 2.101 2.1073 2.1027 2.109 2.1262 2.1215 2.1388 2.134 2.1293 2.1355 2.1418 2.2282 2.2467 2.2532 2.2597 2.2662 2.2486 2.2431 2.2495 2.2323 2.227 2.1879 2.1503 2.1351 2.0895 2.0852 2.0517 2.0671 2.0827 2.0885 2.0943 2.0901 2.0859 2.1216 2.1479 2.1747 2.1912 2.208 2.2031 2.209 2.2259 2.2429 2.2489 2.2219 2.217 2.2122 2.2074 2.2132 2.2084 2.2142 2.2095 2.2258 2.2531 2.259 2.2648
