1.6875 1.72 1.7151 1.665 1.6873 1.6739 1.6434 1.6308 1.6436 1.6564 1.6695 1.6565 1.6523 1.737 1.7997 1.8144 1.8609 1.8873 1.9256 1.9653 1.9586 1.9404 1.934 1.8836 1.8361 1.8205 1.8251 1.8099 1.8144 1.7804 1.766 1.752 1.6947 1.6821 1.6779 1.6656 1.6697 1.6656 1.6616 1.6577 1.6617 1.6657 1.6778 1.6819 1.7108 1.7065 1.719 1.7316 1.753 1.8021 1.8157 1.82 1.8243 1.8476 1.8519 1.8563 1.8802 1.8846 1.8791 1.817 1.8212 1.8347 1.8483 1.8432 1.8289 1.7796 1.7665 1.7705 1.7492 1.7367 1.7488 1.7528 1.7651 1.7443 1.7482 1.7439 1.7478 1.7517 1.7805 1.8015 1.8317 1.8269 1.8222 1.8262 1.839 1.852 1.856 1.8601 1.8551 1.8592 1.8543 1.8763 1.8803 1.8935 1.8884 1.8925 1.915 1.9191 1.9232 1.9273 1.922 1.9075 1.9116 1.9156 1.9196 1.933 1.9184 1.9224 1.9172 1.9031 1.907 1.902 1.897 1.9099 1.9138 1.9088 1.9127 1.9256 1.9205 1.9244 1.9374 1.9414 1.9545 1.9771 1.9906 1.9851 1.9987 1.9931 2.0067 2.0204 2.0244 2.0383 2.0325 2.0365 2.0115 1.9965 1.9817 1.9856 1.9803 1.9934 2.0067 2.0106 2.0335 2.0472 2.0512 2.0649 2.0689 2.0631 2.0769 2.0711 2.0849 2.0691 2.0634 2.0576 2.0616 2.0752 2.0889 2.0929 2.0772 2.0812 2.0949 2.0988 2.1126 2.1166 2.1106 2.1145 2.1086 2.1026 2.1164 2.1203 2.1242 2.1381 2.1321 2.146 2.15 2.1539 2.1477 2.1517 2.1657 2.1799 2.1838 2.1878 2.1917 2.1957 2.1996 2.2036 2.2075 2.2011 2.2155 2.2194 2.2129 2.1961 2.1898 2.2039 2.1976 2.2015 2.2054 2.1991 2.2131 2.217 2.2209 2.2248 2.2082 2.212 2.2159 2.23 2.2338 2.2274 2.2313 2.2558 2.2597 2.2741 2.278 2.2819 2.3074 2.3222 2.3262 2.3412 2.3341 2.3053 2.3092 2.2918 2.2746 2.2681 2.2514 2.2552 2.2488 2.2424 2.2362 2.2399 2.2437 2.2778 2.2919 2.3167 2.3206 2.3351 2.3176 2.3214 2.3252 2.3291 2.3223 2.3156 2.3194 2.3232 2.3165 2.3202 2.3135 2.3382 2.3633 2.378 2.4149 2.4188 2.4227 2.4379 2.4305 2.412 2.4158 2.3976 2.3906 2.3944 2.3873 2.3911 2.3949 2.3987 2.4024 2.4171 2.41 2.4138 2.4067 2.3996 2.4142 2.3964 2.3895 2.4038 2.4076 2.422 2.4368 2.4515 2.4443 2.437 2.4518 2.4666 2.4816 2.5196 2.5119 2.4817 2.4855 2.4781 2.4707 2.4744 2.4672 2.4491 2.4313 2.4138 2.407 2.4106 2.4038 2.4179 2.411 2.394 2.3874 2.391 2.3844 2.368 2.3616 2.375 2.3685 2.3622 2.3559 2.3399 2.3338 2.3277 2.3122 2.3156 2.319 2.3224 2.3543 2.3771 2.4004 2.4241 2.4276 2.4311 2.4346 2.4483 2.4726 2.4974 2.501 2.5263 2.5519 2.5779 2.5816 2.5853 2.589 2.5814 2.5297 2.5224 2.5368 2.5082 2.4907 2.5047 2.5082 2.5223 2.5583 2.5841 2.5877 2.5913 2.5949 2.5985 2.5579 2.5506 2.5541 2.5685 2.583 2.5756 2.6013 2.616 2.631 2.6576 2.6729 2.6649
1.6704 1.693 1.7068 1.6929 1.6884 1.6749 1.653 1.6574 1.6617 1.6661 1.6792 1.7384 1.7059 1.7474 1.8008 1.8258 1.8727 1.8994 1.9382 1.9904 1.9834 1.9302 1.9238 1.8847 1.8577 1.8418 1.8362 1.8208 1.8154 1.7814 1.7578 1.753 1.6957 1.6831 1.6789 1.6747 1.6788 1.6666 1.6706 1.6666 1.6706 1.691 1.6951 1.6992 1.7202 1.7158 1.7115 1.7412 1.754 1.8031 1.8167 1.821 1.8347 1.8583 1.8724 1.8967 1.9112 1.9056 1.9 1.8272 1.8315 1.845 1.8399 1.8442 1.8298 1.7892 1.7674 1.7629 1.7585 1.7541 1.7665 1.7704 1.7744 1.7533 1.7491 1.7448 1.7487 1.7859 1.807 1.8198 1.8689 1.8638 1.8587 1.8538 1.8669 1.871 1.8751 1.87 1.8741 1.8782 1.8732 1.8863 1.8996 1.9037 1.8985 1.9119 1.9254 1.9295 1.9336 1.9378 1.9323 1.9177 1.9218 1.9258 1.9299 1.9433 1.9286 1.9234 1.9274 1.913 1.917 1.9119 1.9158 1.9198 1.9329 1.9277 1.9316 1.9448 1.9581 1.9528 1.9568 1.9607 1.9647 1.9875 2.0012 1.9956 1.9996 2.0036 2.0076 2.0213 2.0156 2.0294 2.0236 2.0179 2.0028 1.988 1.9826 1.9773 1.972 1.985 1.9982 2.0115 2.0249 2.0481 2.0521 2.0659 2.0798 2.0738 2.0878 2.0918 2.076 2.0799 2.0643 2.0585 2.0625 2.0859 2.08 2.0839 2.0879 2.0918 2.0957 2.0899 2.1135 2.1175 2.1115 2.1055 2.1095 2.0937 2.1074 2.1113 2.1251 2.129 2.133 2.1469 2.1509 2.1548 2.1689 2.1627 2.1768 2.1808 2.1847 2.2096 2.2031 2.2071 2.211 2.215 2.2084 2.2124 2.206 2.2099 2.2138 2.1869 2.1907 2.2048 2.1985 2.2024 2.2062 2.1999 2.214 2.2077 2.2115 2.2154 2.2193 2.2231 2.2167 2.2206 2.2451 2.2386 2.2424 2.2567 2.2606 2.275 2.2897 2.3043 2.3083 2.3122 2.3271 2.3422 2.3573 2.3501 2.3541 2.3468 2.2965 2.2793 2.2832 2.287 2.2804 2.2738 2.2776 2.2712 2.2749 2.2994 2.3138 2.3498 2.3537 2.3576 2.3506 2.3436 2.3261 2.3299 2.3337 2.327 2.3307 2.3345 2.3278 2.3316 2.3144 2.3286 2.3535 2.3788 2.4158 2.4197 2.4236 2.4388 2.4313 2.4129 2.4167 2.3985 2.4023 2.3952 2.4099 2.4028 2.4175 2.4214 2.4252 2.429 2.4439 2.4366 2.4404 2.4331 2.4369 2.4079 2.401 2.4154 2.4084 2.4121 2.4266 2.4196 2.4126 2.4163 2.42 2.4345 2.4491 2.509 2.49 2.4826 2.4864 2.479 2.4715 2.4753 2.4462 2.4391 2.4215 2.4043 2.3974 2.401 2.4046 2.4187 2.4118 2.4051 2.3882 2.402 2.3953 2.3787 2.3624 2.3659 2.3595 2.363 2.3664 2.3504 2.3441 2.338 2.3414 2.3353 2.3387 2.3516 2.3745 2.3878 2.4112 2.435 2.4284 2.4217 2.4252 2.4389 2.4734 2.477 2.4911 2.5161 2.5527 2.5676 2.5712 2.5861 2.6013 2.605 2.5634 2.556 2.5485 2.509 2.4915 2.495 2.4985 2.5231 2.5482 2.5961 2.5997 2.6033 2.607 2.622 2.6256 2.6293 2.6329 2.6138 2.6174 2.621 2.6133 2.6282 2.6548 2.6817 2.6973 2.6657
1.6363 1.6669 1.6804 1.667 1.6803 1.6848 1.6715 1.6759 1.6715 1.6671 1.6802 1.73 1.716 1.758 1.8019 1.8269 1.8846 1.9117 1.9393 1.9795 1.9608 1.9313 1.9137 1.8751 1.8382 1.8326 1.8272 1.8218 1.8066 1.7636 1.7496 1.7449 1.6966 1.684 1.6882 1.6757 1.6798 1.6756 1.6716 1.6756 1.6879 1.7003 1.7129 1.7255 1.7297 1.7252 1.7209 1.7595 1.7726 1.8134 1.8271 1.8314 1.8452 1.8593 1.8734 1.9078 1.9123 1.9066 1.891 1.8189 1.8232 1.8274 1.8134 1.8175 1.8037 1.7728 1.7598 1.7638 1.7511 1.755 1.759 1.763 1.7753 1.746 1.75 1.7456 1.7495 1.7783 1.7993 1.8207 1.8698 1.8647 1.8688 1.8637 1.8678 1.8812 1.876 1.8801 1.8751 1.8791 1.8832 1.8965 1.8913 1.9046 1.9087 1.9223 1.9264 1.94 1.9442 1.9387 1.9333 1.928 1.932 1.9174 1.9308 1.9348 1.9295 1.9151 1.9191 1.914 1.9179 1.9219 1.9167 1.9299 1.9338 1.9286 1.9325 1.9457 1.959 1.963 1.9577 1.9616 1.9749 1.9789 1.9925 1.9965 2.0005 1.9949 2.0085 2.0222 2.0263 2.0206 2.0246 2.0286 2.0037 1.9983 1.9743 1.969 1.9821 1.9859 1.9991 2.0124 2.0258 2.0393 2.053 2.0767 2.0807 2.0747 2.0887 2.0928 2.0867 2.0808 2.0749 2.0594 2.0633 2.0868 2.0907 2.0848 2.0888 2.0927 2.0869 2.1006 2.1045 2.1184 2.1025 2.1064 2.0907 2.1044 2.1082 2.1121 2.126 2.1299 2.1339 2.1579 2.1517 2.1557 2.1698 2.1738 2.1777 2.1921 2.1961 2.2 2.2145 2.208 2.2224 2.2264 2.2093 2.2029 2.2069 2.2108 2.2147 2.1877 2.1916 2.1955 2.1994 2.2033 2.197 2.2008 2.2149 2.2085 2.2124 2.2163 2.2201 2.224 2.2176 2.2317 2.2356 2.2395 2.2537 2.2576 2.2615 2.2759 2.2798 2.3052 2.3092 2.3131 2.328 2.3431 2.3582 2.3622 2.355 2.3367 2.308 2.2907 2.284 2.2879 2.2813 2.2851 2.2785 2.2823 2.2758 2.3003 2.3146 2.3507 2.3656 2.3585 2.3515 2.3553 2.327 2.3308 2.3346 2.3278 2.3422 2.3354 2.3287 2.3324 2.3049 2.3295 2.3544 2.3689 2.4167 2.4206 2.4358 2.4396 2.4322 2.4249 2.4176 2.3994 2.4032 2.407 2.3999 2.4146 2.4184 2.4222 2.426 2.441 2.4448 2.4599 2.4524 2.4563 2.4489 2.4197 2.4125 2.4163 2.42 2.413 2.4275 2.4097 2.3921 2.3854 2.3891 2.4032 2.4175 2.4648 2.4574 2.4612 2.454 2.4577 2.4614 2.4651 2.4363 2.4187 2.4119 2.4051 2.4087 2.4123 2.4159 2.4195 2.4231 2.4162 2.3992 2.4131 2.4064 2.3997 2.3731 2.3666 2.3801 2.3638 2.3575 2.3511 2.3546 2.3483 2.3615 2.3552 2.3586 2.3621 2.3852 2.3985 2.412 2.4461 2.4292 2.4225 2.4362 2.4397 2.4638 2.4778 2.4813 2.517 2.5315 2.5572 2.5609 2.5757 2.6021 2.6058 2.5532 2.5568 2.5604 2.5098 2.5133 2.5275 2.5419 2.5564 2.5821 2.5969 2.6005 2.6042 2.6078 2.6114 2.6151 2.6301 2.6337 2.6374 2.6296 2.6332 2.6483 2.652 2.6789 2.7306 2.7222 2.6782
1.646 1.668 1.629 1.6333 1.7087 1.7132 1.7271 1.7317 1.7268 1.7128 1.7173 1.7404 1.7263 1.7784 1.8232 1.8488 1.8968 1.9128 1.929 1.957 1.9275 1.91 1.9038 1.8656 1.8291 1.8237 1.8183 1.8032 1.7884 1.7373 1.7326 1.7193 1.6808 1.6684 1.6725 1.6766 1.6807 1.6765 1.6806 1.6847 1.6971 1.7267 1.7395 1.7437 1.7479 1.7434 1.7389 1.7784 1.8008 1.8332 1.8472 1.8515 1.8559 1.87 1.8744 1.8987 1.9032 1.8777 1.8626 1.7929 1.797 1.7923 1.7788 1.7656 1.7612 1.7567 1.7523 1.7563 1.7436 1.7476 1.7515 1.7723 1.7763 1.7634 1.7591 1.763 1.767 1.7962 1.8176 1.8483 1.88 1.8749 1.8883 1.8831 1.8873 1.8914 1.8769 1.8719 1.876 1.8892 1.8933 1.8974 1.9015 1.9056 1.9097 1.9232 1.9464 1.9506 1.9547 1.9492 1.9342 1.9196 1.9236 1.9277 1.9317 1.9264 1.912 1.916 1.9109 1.9058 1.9097 1.9137 1.9176 1.9308 1.9439 1.9387 1.9427 1.9466 1.9599 1.9639 1.9679 1.9719 1.9854 1.9894 1.9934 1.9974 2.0014 2.0054 2.0191 2.0134 2.0175 2.0118 2.0063 2.0102 1.9952 1.9991 1.9752 1.9699 1.9738 1.9776 1.9907 2.0039 2.0078 2.0117 2.0346 2.0481 2.0619 2.0658 2.0796 2.0836 2.0778 2.0718 2.0758 2.07 2.0739 2.0877 2.0916 2.0857 2.0799 2.0936 2.0976 2.1015 2.0956 2.1094 2.1034 2.0974 2.0819 2.0858 2.0994 2.1032 2.1071 2.111 2.1247 2.1487 2.1526 2.1566 2.1811 2.1954 2.189 2.193 2.2074 2.2114 2.2154 2.2089 2.2234 2.2168 2.2208 2.2038 2.2077 2.2014 2.2053 2.1785 2.1925 2.1964 2.2003 2.2041 2.208 2.1916 2.2056 2.1993 2.2133 2.2172 2.221 2.2249 2.2287 2.2223 2.2365 2.2403 2.2546 2.2585 2.2624 2.2875 2.2915 2.2954 2.3101 2.314 2.3289 2.344 2.3479 2.3519 2.3559 2.3376 2.3089 2.3021 2.2849 2.2887 2.2821 2.2859 2.2794 2.2832 2.2767 2.3012 2.3155 2.3516 2.3665 2.3594 2.3523 2.3562 2.3385 2.3317 2.3462 2.35 2.3538 2.3469 2.3295 2.3333 2.3058 2.3198 2.3446 2.359 2.3954 2.3992 2.4031 2.418 2.4219 2.4036 2.4074 2.4002 2.404 2.4079 2.4117 2.4265 2.4304 2.4231 2.4269 2.4531 2.4682 2.4836 2.476 2.4684 2.461 2.4314 2.4243 2.4281 2.4101 2.3925 2.3962 2.3789 2.3619 2.3351 2.3487 2.3626 2.3868 2.4114 2.415 2.4294 2.4331 2.4477 2.4405 2.4442 2.4159 2.4091 2.3919 2.3955 2.42 2.4341 2.4378 2.4414 2.4345 2.4276 2.4312 2.4243 2.4175 2.4005 2.3939 2.3874 2.3909 2.3744 2.3779 2.3715 2.375 2.3785 2.3819 2.3954 2.3889 2.3924 2.4261 2.4398 2.4537 2.4573 2.4505 2.4437 2.4472 2.4507 2.4646 2.4681 2.4717 2.4857 2.4999 2.5142 2.5286 2.5322 2.569 2.5839 2.543 2.5576 2.5723 2.5429 2.5465 2.5721 2.5757 2.6018 2.5941 2.6091 2.6014 2.605 2.6086 2.6236 2.6273 2.654 2.6577 2.6731 2.6768 2.6805 2.6724 2.6879 2.7036 2.7562 2.7476 2.7027
1.6735 1.6962 1.5572 1.5692 1.7285 1.7523 1.7569 1.7616 1.7662 1.7514 1.7464 1.7606 1.7366 1.7794 1.814 1.8604 1.909 1.9139 1.9188 1.9466 1.9174 1.9001 1.894 1.8772 1.8403 1.8348 1.8095 1.8042 1.7894 1.7293 1.716 1.7029 1.6734 1.6611 1.6652 1.6612 1.6817 1.6775 1.6816 1.6857 1.6981 1.7276 1.7405 1.7447 1.7489 1.7357 1.7398 1.7883 1.811 1.8342 1.8481 1.8525 1.8569 1.871 1.8853 1.8897 1.8942 1.8787 1.8636 1.785 1.7803 1.7844 1.7625 1.7581 1.7621 1.7576 1.7532 1.7572 1.7445 1.7485 1.7525 1.7732 1.7772 1.7727 1.7767 1.7722 1.7762 1.7971 1.8273 1.8862 1.8903 1.8851 1.8987 1.9028 1.8882 1.8923 1.8871 1.8728 1.8769 1.881 1.9036 1.8983 1.8932 1.9065 1.92 1.9241 1.9474 1.9515 1.9557 1.9502 1.9447 1.9205 1.9245 1.9286 1.9233 1.9181 1.9129 1.9078 1.9118 1.9067 1.9106 1.9056 1.9095 1.9317 1.9356 1.9396 1.9344 1.9476 1.9608 1.9555 1.9688 1.9918 1.9959 1.9999 2.0039 1.9983 2.012 2.016 2.02 2.0241 2.0184 2.0032 2.0072 2.0111 1.9961 1.9814 1.9761 1.9708 1.9747 1.9785 1.9916 2.0048 1.9993 2.0032 2.0164 2.0394 2.0433 2.0569 2.0609 2.0648 2.0787 2.0728 2.0767 2.0709 2.0748 2.0886 2.0925 2.0866 2.0906 2.0847 2.0984 2.1024 2.0965 2.1004 2.1043 2.0983 2.0828 2.0771 2.1002 2.0944 2.0983 2.1119 2.1256 2.1496 2.1435 2.1575 2.182 2.1859 2.2003 2.1939 2.2083 2.2123 2.2163 2.2098 2.2138 2.2177 2.2111 2.2151 2.2086 2.2126 2.2165 2.1794 2.1934 2.1871 2.2012 2.205 2.1987 2.1925 2.2064 2.2103 2.2244 2.218 2.2219 2.2155 2.2194 2.2232 2.2374 2.2412 2.2555 2.2594 2.2632 2.2777 2.2816 2.2963 2.311 2.3149 2.3188 2.3449 2.3488 2.3528 2.3568 2.3385 2.3098 2.2924 2.2858 2.2896 2.283 2.2868 2.2906 2.284 2.2878 2.2916 2.3164 2.3416 2.3564 2.3712 2.3532 2.3463 2.3287 2.3432 2.347 2.3401 2.344 2.3478 2.3304 2.3237 2.3066 2.3207 2.335 2.3493 2.3744 2.3782 2.3821 2.3968 2.4006 2.4044 2.3973 2.4011 2.4159 2.4087 2.4236 2.4274 2.4312 2.424 2.4389 2.4427 2.4806 2.473 2.4769 2.4693 2.4732 2.4323 2.4361 2.4289 2.4003 2.3724 2.3657 2.3591 2.3525 2.3161 2.3295 2.3531 2.3772 2.4122 2.4159 2.409 2.434 2.4485 2.4414 2.4451 2.4167 2.3995 2.3927 2.3963 2.4208 2.435 2.4386 2.4423 2.4459 2.4284 2.432 2.4251 2.4287 2.4013 2.4048 2.3881 2.3917 2.3752 2.3688 2.3723 2.3857 2.3892 2.3927 2.4163 2.3997 2.4133 2.4579 2.472 2.4756 2.4686 2.4617 2.4445 2.448 2.4515 2.4551 2.4689 2.4518 2.4656 2.4796 2.4936 2.5078 2.5222 2.5476 2.5623 2.5438 2.5474 2.5732 2.5657 2.5582 2.5729 2.599 2.6026 2.6063 2.6099 2.6135 2.6058 2.6094 2.6245 2.6511 2.6785 2.6941 2.6978 2.7136 2.6579 2.6732 2.6888 2.7044 2.757 2.7484 2.7035
1.6567 1.6524 1.5582 1.5701 1.7201 1.7436 1.758 1.6789 1.6745 1.6788 1.6921 1.7331 1.692 1.653 1.7189 1.8301 1.8452 1.6533 1.6575 1.6617 1.7833 1.7976 1.822 1.8067 1.8113 1.806 1.7911 1.7765 1.7623 1.7127 1.6911 1.6785 1.6499 1.646 1.6581 1.6621 1.6662 1.6703 1.6662 1.6703 1.6825 1.7286 1.7414 1.7544 1.7586 1.754 1.7671 1.8077 1.812 1.8544 1.8588 1.8535 1.8579 1.8622 1.8764 1.8808 1.8852 1.8603 1.855 1.7948 1.79 1.7853 1.7634 1.759 1.7461 1.7501 1.7458 1.7581 1.7454 1.7494 1.7617 1.7741 1.7781 1.7821 1.7776 1.7816 1.7856 1.8067 1.8461 1.8871 1.9007 1.8955 1.8996 1.9038 1.8985 1.9121 1.9068 1.8829 1.887 1.8911 1.8952 1.8993 1.8849 1.8982 1.9115 1.9251 1.9387 1.9525 1.9566 1.9415 1.9361 1.9214 1.9255 1.9295 1.9242 1.919 1.8957 1.8997 1.8947 1.8986 1.9026 1.9065 1.9194 1.9234 1.9365 1.9313 1.9352 1.9485 1.9617 1.9657 1.9697 1.9928 1.9968 2.0008 2.0048 1.9992 2.0032 2.0169 2.021 2.0056 2.0096 1.9946 1.9891 1.9931 1.997 1.9823 1.9862 1.9808 1.9755 1.9794 1.9925 1.9964 2.0002 2.0041 2.0269 2.0403 2.0442 2.0482 2.0521 2.0657 2.0697 2.0737 2.0776 2.0718 2.0757 2.0994 2.0934 2.0875 2.0915 2.0954 2.0895 2.0934 2.0974 2.0914 2.0856 2.0895 2.0837 2.0685 2.0818 2.0953 2.0992 2.1128 2.1166 2.1405 2.1343 2.1283 2.1623 2.1662 2.1804 2.1741 2.1883 2.2027 2.2067 2.2107 2.2252 2.2186 2.2226 2.2056 2.22 2.2031 2.2071 2.1904 2.2045 2.2084 2.202 2.1957 2.1996 2.1933 2.1871 2.191 2.2151 2.2189 2.2126 2.2164 2.2203 2.2039 2.2178 2.2318 2.2356 2.2603 2.2641 2.2786 2.2825 2.2864 2.3011 2.3158 2.3307 2.3346 2.3497 2.3537 2.3465 2.3285 2.3107 2.2933 2.2866 2.2905 2.2839 2.2877 2.2915 2.2849 2.2784 2.2821 2.3067 2.3318 2.3356 2.3502 2.3433 2.3364 2.3296 2.3334 2.3372 2.341 2.3342 2.338 2.3312 2.335 2.3075 2.3215 2.3253 2.3396 2.3433 2.3471 2.3614 2.3759 2.3797 2.3835 2.3982 2.402 2.4168 2.4206 2.4245 2.4283 2.421 2.4248 2.4398 2.4436 2.47 2.4739 2.4777 2.4816 2.474 2.4442 2.426 2.4298 2.3905 2.3733 2.3666 2.3497 2.3332 2.3169 2.3303 2.3439 2.3678 2.413 2.4167 2.4204 2.4348 2.4494 2.4422 2.4245 2.3863 2.3797 2.3731 2.3767 2.3905 2.4148 2.4184 2.422 2.4256 2.4398 2.4328 2.447 2.4401 2.4227 2.4057 2.4092 2.4026 2.386 2.3895 2.393 2.3965 2.4 2.4136 2.4171 2.4106 2.4242 2.4587 2.4729 2.4764 2.48 2.4625 2.4556 2.4591 2.4421 2.4354 2.4389 2.4322 2.4357 2.4596 2.4735 2.4874 2.5015 2.5374 2.5521 2.5446 2.5482 2.5629 2.5554 2.559 2.5626 2.5885 2.5921 2.5958 2.5882 2.5918 2.5954 2.599 2.6253 2.6405 2.7032 2.707 2.7352 2.739 2.6704 2.6859 2.6896 2.7053 2.7455 2.7493 2.7164
1.6666 1.6534 1.6845 1.7166 1.7306 1.7447 1.7493 1.6711 1.658 1.6624 1.6755 1.7341 1.693 1.6711 1.7476 1.781 1.8359 1.6542 1.6584 1.6627 1.7843 1.7889 1.8032 1.7979 1.7832 1.7781 1.7731 1.7682 1.7726 1.7137 1.7006 1.6963 1.6671 1.6712 1.6753 1.6877 1.6835 1.6876 1.6672 1.6552 1.6834 1.7382 1.7601 1.7733 1.7775 1.7909 1.8044 1.837 1.8414 1.8555 1.8796 1.8449 1.8589 1.8632 1.8676 1.872 1.8763 1.8517 1.8465 1.7957 1.7999 1.7863 1.7644 1.7599 1.7555 1.7428 1.7467 1.759 1.7547 1.7587 1.771 1.7921 1.8049 1.7916 1.7956 1.7996 1.8036 1.834 1.8746 1.907 1.9113 1.9155 1.9197 1.9143 1.9089 1.9226 1.9173 1.9025 1.8879 1.9013 1.8961 1.891 1.8859 1.8899 1.9125 1.9165 1.9397 1.9534 1.9479 1.9424 1.9276 1.9223 1.9264 1.9304 1.9251 1.9107 1.8966 1.8917 1.8956 1.8995 1.9124 1.9164 1.9203 1.9335 1.9374 1.9414 1.9454 1.9586 1.9816 1.9761 1.9801 2.0033 2.0074 2.0114 2.0253 2.0098 2.0138 2.0179 2.0122 2.0065 2.0105 1.9955 1.99 1.994 1.9886 1.9925 1.987 2.0003 1.9856 1.9987 2.0026 2.0065 2.0011 2.0143 2.0278 2.0508 2.0451 2.0491 2.0627 2.0666 2.0706 2.0845 2.0884 2.0825 2.0964 2.1004 2.1143 2.0983 2.1022 2.1062 2.1002 2.0943 2.0884 2.0923 2.0865 2.0807 2.075 2.0789 2.0827 2.0865 2.0904 2.0942 2.0981 2.1214 2.1155 2.1194 2.143 2.1469 2.1609 2.1648 2.1789 2.1932 2.1971 2.2116 2.2156 2.2195 2.2235 2.2169 2.2209 2.204 2.2079 2.2015 2.2054 2.2093 2.2029 2.2068 2.2107 2.1942 2.188 2.2019 2.2058 2.2096 2.2134 2.2173 2.2211 2.2148 2.2186 2.2327 2.2468 2.2611 2.265 2.2795 2.2834 2.2872 2.302 2.3276 2.3206 2.3355 2.3395 2.3434 2.3255 2.3294 2.3009 2.3048 2.2771 2.2809 2.2847 2.2885 2.282 2.2858 2.2792 2.283 2.2971 2.3434 2.3473 2.3511 2.3442 2.348 2.3411 2.3449 2.3381 2.3526 2.3457 2.3495 2.3426 2.3359 2.3291 2.3224 2.3472 2.3404 2.3548 2.3585 2.3623 2.3768 2.3806 2.3952 2.399 2.4028 2.4177 2.4326 2.4365 2.4403 2.433 2.4368 2.4406 2.4557 2.4709 2.4862 2.4901 2.4825 2.4863 2.4451 2.4378 2.4306 2.3914 2.3845 2.3881 2.3506 2.344 2.3276 2.3412 2.365 2.3789 2.4246 2.4283 2.432 2.4465 2.4611 2.443 2.4253 2.3872 2.3704 2.3638 2.3674 2.3913 2.4156 2.4192 2.4228 2.4264 2.4512 2.4549 2.4585 2.4729 2.4658 2.4375 2.4307 2.4239 2.4069 2.4003 2.4242 2.4278 2.4313 2.4558 2.4384 2.442 2.4455 2.4807 2.4951 2.4987 2.5023 2.4844 2.4461 2.4496 2.4327 2.4261 2.4295 2.423 2.4365 2.4604 2.4847 2.4882 2.513 2.5274 2.5418 2.5346 2.549 2.5526 2.5562 2.5598 2.5634 2.5893 2.5818 2.5854 2.6002 2.6038 2.5962 2.6111 2.6376 2.6528 2.7163 2.7447 2.7864 2.8031 2.695 2.6987 2.7144 2.7061 2.734 2.7378 2.7173
1.6676 1.6457 1.6855 1.727 1.7316 1.7267 1.7313 1.6547 1.642 1.6463 1.6677 1.7166 1.703 1.7349 1.7774 1.7918 1.8266 1.8111 1.8157 1.8305 1.7757 1.7802 1.7752 1.7797 1.7652 1.7604 1.7463 1.7692 1.7736 1.7323 1.7189 1.7058 1.6846 1.6887 1.7013 1.7055 1.7096 1.6969 1.6681 1.6561 1.6762 1.7479 1.77 1.7742 1.7876 1.7919 1.8241 1.838 1.8424 1.8565 1.8707 1.8555 1.8502 1.8545 1.8589 1.8632 1.8676 1.8526 1.8475 1.7967 1.7919 1.7872 1.7653 1.7608 1.748 1.7437 1.7476 1.7599 1.7556 1.7679 1.7719 1.7931 1.8146 1.8098 1.8052 1.8005 1.8045 1.8439 1.8848 1.9177 1.9317 1.9164 1.9206 1.9152 1.9194 1.914 1.9278 1.9034 1.9076 1.9023 1.9064 1.9011 1.896 1.8908 1.9134 1.9175 1.931 1.9447 1.9489 1.9338 1.9285 1.9232 1.9273 1.9313 1.9261 1.9116 1.9066 1.8925 1.8965 1.9094 1.9133 1.9173 1.9304 1.9436 1.9384 1.9516 1.9555 1.9595 1.9921 1.977 1.981 2.014 2.0083 2.0221 2.0361 2.0107 2.0147 2.0091 2.0131 2.0171 2.0019 1.9964 1.9816 1.9949 1.9801 1.984 1.9973 2.0012 2.0051 1.9996 2.013 2.0169 2.0208 2.0247 2.0382 2.0615 2.0557 2.05 2.0636 2.0676 2.0715 2.0953 2.0893 2.0834 2.0973 2.1112 2.1152 2.1092 2.1031 2.0972 2.1011 2.0952 2.0893 2.0932 2.0874 2.0816 2.0759 2.0702 2.0836 2.0874 2.0817 2.0855 2.0894 2.0932 2.097 2.1008 2.134 2.1378 2.1517 2.1658 2.1697 2.1838 2.198 2.202 2.2165 2.2205 2.2244 2.2178 2.2113 2.2153 2.2088 2.2128 2.2063 2.2102 2.2038 2.1975 2.2014 2.1951 2.1989 2.2028 2.2066 2.2105 2.2042 2.208 2.2119 2.2157 2.2195 2.2335 2.2581 2.262 2.2659 2.2803 2.2842 2.2881 2.3028 2.3068 2.3215 2.3255 2.3404 2.3224 2.3154 2.3193 2.2912 2.2951 2.278 2.2715 2.2753 2.2894 2.2932 2.2866 2.2801 2.2942 2.3085 2.3335 2.3481 2.352 2.3451 2.3489 2.3527 2.3566 2.3604 2.3535 2.3681 2.3611 2.3435 2.3473 2.33 2.3443 2.3481 2.3518 2.3556 2.3594 2.3632 2.3777 2.3815 2.3961 2.3999 2.4037 2.4297 2.4335 2.4373 2.43 2.4339 2.4377 2.4415 2.4453 2.4832 2.4871 2.4795 2.4834 2.4758 2.4571 2.4497 2.4315 2.4028 2.3959 2.389 2.3616 2.3652 2.3384 2.3622 2.3864 2.4006 2.4147 2.4291 2.4436 2.4582 2.4729 2.4548 2.4368 2.3778 2.3712 2.3647 2.3582 2.3921 2.406 2.42 2.4236 2.4378 2.452 2.4557 2.4701 2.4846 2.4666 2.4596 2.4419 2.4351 2.4179 2.4318 2.4354 2.4494 2.453 2.4566 2.4602 2.4532 2.4673 2.5031 2.5067 2.5103 2.5031 2.4746 2.4469 2.43 2.4335 2.4168 2.4203 2.4238 2.4373 2.4613 2.4751 2.489 2.5032 2.5174 2.5318 2.5354 2.539 2.5426 2.5352 2.5497 2.5642 2.579 2.5938 2.5862 2.5898 2.6047 2.5971 2.6233 2.65 2.6654 2.7172 2.7456 2.8001 2.817 2.6959 2.6996 2.7153 2.719 2.7227 2.7264 2.7181
1.6686 1.6554 1.6255 1.6132 1.6342 1.647 1.66 1.536 1.555 1.5667 1.5556 1.639 1.6517 1.7266 1.7688 1.7831 1.7975 1.7922 1.7968 1.8214 1.806 1.7718 1.7667 1.7712 1.7295 1.7073 1.6943 1.7336 1.7653 1.7156 1.7112 1.6982 1.6939 1.7066 1.7194 1.7149 1.7191 1.7063 1.669 1.6491 1.6771 1.7578 1.78 1.7843 1.7794 1.802 1.8347 1.839 1.8434 1.8575 1.8717 1.8565 1.8512 1.8459 1.8407 1.845 1.8213 1.8072 1.8024 1.8156 1.7929 1.7881 1.7748 1.7703 1.7573 1.7529 1.7569 1.7693 1.7648 1.7688 1.7813 1.8027 1.8155 1.8108 1.8148 1.8101 1.8141 1.8448 1.8765 1.8994 1.9132 1.9078 1.912 1.9162 1.9014 1.9055 1.9192 1.9044 1.9085 1.9126 1.898 1.9021 1.8877 1.901 1.905 1.9184 1.9225 1.9361 1.9402 1.9348 1.9295 1.9242 1.9376 1.9323 1.927 1.9125 1.8984 1.8934 1.9063 1.9013 1.9234 1.9182 1.9221 1.9353 1.9301 1.9432 1.9565 1.9699 1.9834 1.9779 1.9819 2.0052 2.0092 2.0133 2.0271 2.0116 2.0157 2.01 2.0044 1.9989 1.9933 1.9786 1.9641 1.9771 1.9718 1.9757 1.9982 2.0021 2.006 2.0099 2.0233 2.0178 2.0217 2.0447 2.0487 2.0624 2.0566 2.0509 2.0548 2.0684 2.0823 2.0962 2.0902 2.0942 2.0882 2.1022 2.1061 2.1001 2.104 2.108 2.102 2.0863 2.0902 2.0941 2.0883 2.0825 2.0768 2.0711 2.0845 2.0883 2.0731 2.0675 2.0807 2.0845 2.0883 2.0922 2.1056 2.1191 2.1327 2.1366 2.1404 2.1745 2.1784 2.1823 2.1965 2.2004 2.2148 2.2083 2.2019 2.2058 2.1994 2.2033 2.1969 2.2008 2.2047 2.2086 2.1921 2.196 2.1898 2.2037 2.1874 2.2012 2.195 2.1988 2.2027 2.2065 2.2204 2.2242 2.2383 2.2629 2.2668 2.2707 2.2851 2.289 2.3037 2.3077 2.3224 2.3264 2.3303 2.3233 2.3163 2.3095 2.2921 2.2854 2.2685 2.2827 2.2865 2.2903 2.2941 2.2772 2.2809 2.2951 2.3199 2.3344 2.349 2.3529 2.3568 2.3498 2.3645 2.3683 2.3722 2.3652 2.3799 2.3729 2.3658 2.3589 2.3414 2.3451 2.3489 2.3634 2.3565 2.3603 2.3747 2.3678 2.3716 2.3861 2.3899 2.3937 2.4194 2.4232 2.416 2.4309 2.4347 2.4274 2.4313 2.4351 2.45 2.4427 2.4465 2.4503 2.4541 2.4579 2.4395 2.4324 2.4144 2.4074 2.4004 2.3831 2.3763 2.3697 2.3836 2.3977 2.4119 2.4263 2.43 2.4553 2.4591 2.4628 2.4447 2.427 2.3888 2.372 2.3555 2.359 2.3827 2.4068 2.4104 2.414 2.4281 2.4529 2.4673 2.4709 2.4854 2.4783 2.4498 2.4428 2.4359 2.4187 2.4223 2.4362 2.4503 2.4643 2.4679 2.4715 2.4751 2.4787 2.5148 2.5075 2.5112 2.504 2.4861 2.4477 2.4308 2.4242 2.4076 2.411 2.4045 2.4381 2.4517 2.4656 2.4899 2.504 2.4969 2.5005 2.5146 2.5398 2.5325 2.5361 2.5396 2.5432 2.5468 2.5722 2.5649 2.5794 2.583 2.5866 2.5792 2.6051 2.6314 2.718 2.734 2.7754 2.7666 2.6967 2.7004 2.7161 2.7198 2.7236 2.7152 2.7189
1.6696 1.6652 1.6349 1.6059 1.6184 1.6227 1.6353 1.5369 1.541 1.545 1.5565 1.6234 1.6442 1.7185 1.7698 1.7841 1.7887 1.7835 1.7881 1.8224 1.817 1.7728 1.7584 1.7628 1.7216 1.691 1.6866 1.7168 1.7479 1.7079 1.6949 1.6823 1.6865 1.7075 1.7203 1.7246 1.7201 1.7072 1.6781 1.6579 1.678 1.7677 1.781 1.7762 1.7804 1.7938 1.8453 1.8595 1.8541 1.8683 1.8727 1.8575 1.8522 1.8469 1.8323 1.8366 1.8223 1.7902 1.7944 1.7986 1.8117 1.7979 1.7932 1.7973 1.7839 1.7879 1.792 1.8048 1.8001 1.7955 1.7995 1.8036 1.8164 1.8205 1.8335 1.8376 1.8327 1.8457 1.8681 1.9003 1.9045 1.8993 1.9034 1.9171 1.8929 1.9065 1.9106 1.9053 1.9094 1.9136 1.9083 1.903 1.8978 1.9019 1.906 1.9193 1.9234 1.9275 1.9411 1.9357 1.9398 1.9345 1.948 1.9332 1.9279 1.9135 1.8993 1.9033 1.9072 1.9112 1.9334 1.9191 1.923 1.9362 1.9402 1.9441 1.9574 1.9708 1.9939 1.9884 1.9924 1.9964 2.0005 2.024 2.0281 2.0126 2.0166 2.0109 2.0053 1.9998 1.9942 1.9795 1.9741 1.978 1.9727 1.9766 1.9897 2.0219 2.0164 2.0203 2.0242 2.0282 2.0321 2.0456 2.0692 2.0535 2.0575 2.0422 2.0557 2.0596 2.0733 2.1072 2.1011 2.0951 2.0991 2.1031 2.117 2.111 2.1049 2.1089 2.1128 2.0872 2.0911 2.0853 2.0892 2.0834 2.0777 2.0815 2.0853 2.0702 2.0646 2.059 2.0628 2.076 2.0704 2.0835 2.1064 2.1006 2.1238 2.1276 2.1413 2.1652 2.1691 2.1832 2.1871 2.2013 2.2053 2.1989 2.2131 2.1963 2.2003 2.2041 2.1978 2.1915 2.1954 2.2094 2.2031 2.1968 2.1906 2.1944 2.1983 2.1921 2.1959 2.1997 2.2035 2.2073 2.2111 2.2251 2.2391 2.2638 2.2572 2.2715 2.286 2.2899 2.3046 2.3194 2.3233 2.3382 2.3312 2.3133 2.3172 2.3104 2.293 2.2863 2.2797 2.294 2.2873 2.3016 2.295 2.2884 2.2921 2.3064 2.3208 2.3353 2.3391 2.3538 2.3576 2.3506 2.3545 2.3692 2.3731 2.377 2.3918 2.3957 2.3776 2.3814 2.3528 2.3566 2.3604 2.3642 2.3788 2.3718 2.3649 2.3794 2.3832 2.387 2.3908 2.4055 2.4203 2.4241 2.4169 2.4318 2.4245 2.4283 2.4321 2.4359 2.4398 2.4436 2.4363 2.4401 2.4439 2.4588 2.4514 2.4442 2.4152 2.4082 2.412 2.4157 2.4194 2.4231 2.4268 2.4305 2.4234 2.4379 2.4525 2.4562 2.4709 2.4636 2.4456 2.4279 2.4 2.383 2.3764 2.3698 2.3938 2.3973 2.4112 2.4253 2.4394 2.4431 2.4573 2.4718 2.4862 2.4791 2.4612 2.4542 2.4367 2.4196 2.4231 2.4266 2.4511 2.4546 2.4582 2.4723 2.4759 2.4903 2.5157 2.5084 2.512 2.5048 2.4975 2.4588 2.4418 2.4149 2.4084 2.4019 2.4053 2.4389 2.4525 2.456 2.4699 2.4734 2.4872 2.4908 2.5048 2.5297 2.5333 2.5261 2.5296 2.544 2.5476 2.5621 2.5657 2.5693 2.5838 2.5764 2.58 2.6059 2.6323 2.7189 2.7473 2.7387 2.7302 2.6975 2.7132 2.7291 2.7328 2.7244 2.7281 2.7077
1.6796 1.6751 1.6531 1.6403 1.6277 1.6073 1.6033 1.5232 1.5271 1.5311 1.5425 1.6162 1.6452 1.7286 1.7709 1.7852 1.7996 1.7749 1.7891 1.8035 1.8081 1.7643 1.7594 1.7546 1.7137 1.6834 1.6791 1.709 1.7309 1.7089 1.6959 1.6833 1.6791 1.7171 1.7213 1.7255 1.7297 1.7167 1.6872 1.6668 1.6871 1.7686 1.782 1.7862 1.7905 1.7948 1.8463 1.8605 1.8551 1.8693 1.8737 1.8585 1.8436 1.8384 1.8333 1.8376 1.8232 1.7824 1.7865 1.7906 1.8036 1.7989 1.803 1.7894 1.7848 1.7802 1.8017 1.8058 1.8099 1.8052 1.8005 1.8133 1.8174 1.8303 1.8255 1.8296 1.8336 1.8467 1.8691 1.8919 1.896 1.9002 1.9044 1.9086 1.9033 1.9169 1.9211 1.9062 1.901 1.9051 1.9092 1.9039 1.8987 1.8936 1.9069 1.911 1.9244 1.9285 1.9325 1.9272 1.9313 1.9354 1.9394 1.9341 1.9196 1.9144 1.8913 1.8952 1.8992 1.9031 1.9252 1.92 1.9239 1.9371 1.9411 1.945 1.949 1.9623 1.9853 1.9797 1.9837 1.9973 2.0014 2.0151 2.029 2.0135 2.0078 2.0118 1.9967 2.0007 1.9951 1.9804 1.975 1.9789 1.9736 1.9775 1.9906 2.0228 2.0268 2.0212 2.0251 2.029 2.033 2.0369 2.0603 2.0544 2.0392 2.0335 2.047 2.0509 2.0645 2.0881 2.092 2.096 2.1 2.114 2.118 2.122 2.1058 2.1098 2.1038 2.0881 2.0823 2.0861 2.0804 2.0842 2.0785 2.0728 2.0767 2.0617 2.0561 2.0507 2.0452 2.0675 2.0712 2.075 2.0882 2.092 2.1149 2.1285 2.1324 2.166 2.17 2.1738 2.188 2.2022 2.1959 2.1998 2.2037 2.1972 2.1909 2.205 2.1987 2.1924 2.1963 2.2103 2.204 2.1977 2.1915 2.1953 2.1992 2.203 2.1968 2.2106 2.2044 2.1982 2.202 2.226 2.24 2.2647 2.2581 2.2724 2.2869 2.2908 2.2947 2.3095 2.3242 2.3173 2.3212 2.3142 2.3181 2.3112 2.2938 2.2872 2.291 2.2948 2.2987 2.292 2.2958 2.2892 2.2827 2.3073 2.3216 2.3361 2.34 2.3438 2.3477 2.3515 2.3554 2.3701 2.374 2.3889 2.3927 2.3856 2.3894 2.3933 2.3537 2.3575 2.372 2.3758 2.3689 2.3835 2.3765 2.3911 2.3949 2.3878 2.4025 2.4063 2.4212 2.425 2.4288 2.4326 2.4254 2.4292 2.433 2.4258 2.4406 2.4444 2.4262 2.4299 2.4447 2.4485 2.4523 2.4561 2.4161 2.4091 2.4235 2.4165 2.4202 2.4239 2.4276 2.4314 2.4351 2.4388 2.4425 2.457 2.4717 2.4645 2.4356 2.4287 2.4008 2.394 2.3772 2.391 2.4048 2.4189 2.412 2.4261 2.4403 2.4545 2.4475 2.4618 2.4981 2.4908 2.4728 2.455 2.4376 2.4204 2.4239 2.4275 2.4519 2.4555 2.459 2.4732 2.4768 2.4912 2.5165 2.5092 2.502 2.5056 2.4983 2.4596 2.4528 2.4157 2.4092 2.4027 2.4061 2.4296 2.4431 2.4365 2.4501 2.4536 2.4673 2.4708 2.4951 2.5414 2.5233 2.5269 2.5304 2.534 2.5484 2.5629 2.5555 2.5591 2.5847 2.5662 2.5808 2.5955 2.6331 2.732 2.7358 2.7273 2.6947 2.6984 2.7262 2.7546 2.7215 2.7132 2.7169 2.7086
1.6716 1.6851 1.6806 1.6673 1.604 1.6001 1.5962 1.5314 1.528 1.5176 1.5288 1.6092 1.6462 1.7296 1.7719 1.7862 1.7908 1.7759 1.7708 1.7753 1.7609 1.7375 1.7238 1.7463 1.6801 1.643 1.6553 1.7014 1.7319 1.7012 1.6969 1.6926 1.6884 1.7181 1.731 1.7353 1.7307 1.7262 1.6964 1.684 1.7046 1.7607 1.7829 1.7692 1.7734 1.7958 1.8473 1.8615 1.8561 1.8703 1.8747 1.8498 1.8446 1.8394 1.8343 1.8292 1.815 1.7921 1.7699 1.7915 1.7957 1.7998 1.7951 1.7903 1.7857 1.7811 1.8026 1.8156 1.8108 1.8061 1.8014 1.8054 1.8095 1.8135 1.8264 1.8305 1.8257 1.8386 1.8608 1.8741 1.8876 1.8918 1.9053 1.9095 1.9042 1.9084 1.9125 1.9072 1.8926 1.8967 1.8915 1.8956 1.8905 1.8945 1.9078 1.9119 1.916 1.9107 1.9241 1.9188 1.9229 1.9269 1.931 1.9257 1.9113 1.8972 1.8922 1.8873 1.8912 1.904 1.9169 1.9209 1.9248 1.9288 1.9328 1.946 1.9499 1.9632 1.9862 1.9807 1.9752 1.9983 1.9927 2.0063 2.0201 2.0144 2.0184 2.0127 2.0071 2.0016 2.0055 1.9813 1.9852 1.9798 1.9837 1.9784 1.9915 2.0334 2.0373 2.0316 2.026 2.0299 2.0339 2.0378 2.0514 2.0361 2.0305 2.0249 2.0383 2.0422 2.0557 2.0693 2.083 2.087 2.1009 2.1149 2.1189 2.1331 2.1168 2.1107 2.1147 2.089 2.0832 2.087 2.0909 2.0851 2.089 2.0737 2.0775 2.0532 2.0478 2.0423 2.0369 2.0498 2.0628 2.0572 2.0703 2.0834 2.1062 2.1197 2.1235 2.1469 2.1608 2.1646 2.1786 2.1928 2.1967 2.1903 2.1942 2.1981 2.202 2.1957 2.1996 2.2035 2.1972 2.201 2.2049 2.1986 2.2024 2.2063 2.2 2.2039 2.1976 2.2115 2.2052 2.1991 2.2129 2.2268 2.2409 2.2551 2.259 2.2628 2.2772 2.2811 2.2956 2.2995 2.3034 2.3073 2.3112 2.2937 2.287 2.2909 2.2738 2.2776 2.2711 2.2957 2.2995 2.2825 2.2863 2.2798 2.2835 2.2977 2.3015 2.3157 2.3196 2.3128 2.3166 2.3204 2.3348 2.3493 2.3639 2.3787 2.3936 2.3975 2.3793 2.3942 2.3653 2.3691 2.3729 2.3767 2.3805 2.3735 2.3773 2.392 2.3958 2.3996 2.4034 2.4072 2.422 2.437 2.4297 2.4224 2.4373 2.4301 2.4228 2.4266 2.4195 2.4342 2.4052 2.409 2.4236 2.4165 2.4421 2.4459 2.4277 2.4206 2.4244 2.4281 2.4318 2.4355 2.4501 2.4539 2.4359 2.4396 2.4433 2.4579 2.4726 2.4653 2.4364 2.4295 2.4017 2.3948 2.3882 2.3918 2.4056 2.4197 2.4233 2.4375 2.4411 2.4554 2.459 2.4627 2.4771 2.4808 2.4522 2.4452 2.4384 2.4212 2.4247 2.4283 2.4527 2.4563 2.4599 2.474 2.4776 2.492 2.4956 2.4992 2.5028 2.5064 2.4992 2.4604 2.464 2.4165 2.4099 2.4035 2.4069 2.4304 2.4237 2.4172 2.4206 2.4241 2.4578 2.4613 2.4855 2.5314 2.5349 2.5277 2.5312 2.5566 2.5602 2.5637 2.5455 2.5382 2.5206 2.5241 2.5597 2.6076 2.6339 2.7083 2.6881 2.6565 2.6485 2.6638 2.7029 2.7308 2.7224 2.702 2.6938 2.6857
1.6727 1.6952 1.7089 1.7042 1.6466 1.6424 1.6299 1.5856 1.5588 1.5257 1.5153 1.6182 1.6641 1.7493 1.7827 1.7873 1.7821 1.7673 1.7624 1.7574 1.7526 1.7205 1.7071 1.7291 1.6727 1.6279 1.64 1.7024 1.7418 1.7462 1.7415 1.7639 1.7775 1.7726 1.7769 1.7721 1.7673 1.7625 1.7401 1.7269 1.7311 1.7706 1.7839 1.7611 1.7654 1.806 1.8483 1.8625 1.8669 1.8912 1.9059 1.8605 1.8456 1.8404 1.8447 1.849 1.8344 1.802 1.7796 1.8014 1.8055 1.8008 1.8138 1.8001 1.7954 1.7907 1.8214 1.8255 1.8117 1.807 1.8111 1.7977 1.8017 1.8145 1.8274 1.8314 1.8266 1.8307 1.8618 1.8751 1.8792 1.8927 1.8968 1.9105 1.9051 1.9188 1.923 1.9081 1.9029 1.907 1.8925 1.8965 1.8914 1.8955 1.9087 1.9128 1.9076 1.9117 1.9065 1.9105 1.9145 1.9279 1.9319 1.9174 1.9032 1.8981 1.8842 1.897 1.901 1.9139 1.927 1.931 1.9349 1.9297 1.9337 1.9561 1.9508 1.9641 1.9775 1.9816 1.9856 2.0089 2.0032 2.0072 2.021 2.0251 2.0193 2.0332 2.0274 2.0217 2.0257 2.02 2.024 2.028 2.032 2.036 2.0303 2.0439 2.0479 2.0519 2.0559 2.0502 2.0444 2.0581 2.0621 2.0466 2.0314 2.0353 2.0392 2.0527 2.0566 2.0702 2.0839 2.0879 2.1018 2.126 2.13 2.1443 2.1278 2.1318 2.1256 2.1096 2.1036 2.1075 2.1115 2.1253 2.1193 2.1232 2.1073 2.0823 2.0672 2.071 2.0561 2.0599 2.0543 2.0581 2.0618 2.0843 2.0975 2.1109 2.1244 2.1578 2.1617 2.1655 2.1795 2.1834 2.1976 2.2119 2.2158 2.2094 2.2133 2.2172 2.2211 2.2146 2.229 2.2329 2.2368 2.2407 2.2447 2.238 2.2419 2.2354 2.2393 2.2432 2.2367 2.22 2.2239 2.2379 2.2418 2.2664 2.2703 2.2742 2.2887 2.2926 2.2965 2.2897 2.2936 2.3082 2.3014 2.2841 2.2879 2.2918 2.2644 2.2682 2.272 2.2966 2.3004 2.2938 2.2872 2.291 2.2844 2.2882 2.3023 2.3166 2.3204 2.3033 2.307 2.3108 2.3146 2.3502 2.354 2.3687 2.3835 2.3873 2.3802 2.395 2.3879 2.3917 2.3846 2.3885 2.3923 2.3961 2.389 2.4038 2.4076 2.4225 2.4152 2.4191 2.434 2.4379 2.4306 2.4344 2.4382 2.4309 2.4237 2.4275 2.4203 2.4132 2.4061 2.3991 2.4029 2.4173 2.432 2.4358 2.4505 2.4433 2.4581 2.4843 2.4995 2.5148 2.4957 2.4882 2.4696 2.4622 2.466 2.4697 2.4735 2.4662 2.459 2.441 2.4234 2.4061 2.3993 2.4029 2.4065 2.4205 2.4347 2.4383 2.4419 2.4455 2.4598 2.4528 2.4671 2.4708 2.4531 2.446 2.4392 2.422 2.4463 2.4499 2.464 2.4571 2.4607 2.4856 2.4892 2.4928 2.4964 2.5109 2.5145 2.5181 2.5 2.4823 2.4752 2.4477 2.4308 2.4242 2.4277 2.4412 2.4245 2.418 2.4115 2.4249 2.4586 2.4932 2.5179 2.565 2.5687 2.5723 2.5871 2.602 2.5943 2.5979 2.5791 2.5498 2.5108 2.5038 2.5073 2.6427 2.6696 2.6972 2.6652 2.6342 2.6378 2.653 2.6918 2.7195 2.6992 2.7029 2.6946 2.6866
1.6917 1.7147 1.7193 1.7145 1.6826 1.6693 1.6649 1.6023 1.5828 1.5714 1.6231 1.6439 1.6737 1.7503 1.774 1.7786 1.7639 1.7589 1.7355 1.7399 1.7351 1.695 1.6822 1.6949 1.6571 1.6289 1.649 1.6947 1.7428 1.7471 1.7515 1.7741 1.7785 1.7829 1.7872 1.7823 1.7774 1.7725 1.741 1.7365 1.7407 1.7715 1.7849 1.7711 1.7753 1.8069 1.8493 1.8537 1.8679 1.8723 1.8767 1.8422 1.837 1.8319 1.8269 1.8311 1.8169 1.7852 1.7805 1.7934 1.8245 1.8287 1.8421 1.828 1.8141 1.8093 1.8405 1.8447 1.8397 1.8347 1.8208 1.8073 1.8026 1.8154 1.8283 1.8235 1.8364 1.8405 1.8536 1.8854 1.8802 1.8937 1.9072 1.902 1.9061 1.9103 1.9144 1.9091 1.9038 1.8985 1.9026 1.8975 1.9015 1.8964 1.9097 1.9045 1.9178 1.9126 1.9074 1.9114 1.9247 1.9195 1.9328 1.9183 1.9041 1.899 1.894 1.9069 1.9108 1.9239 1.9279 1.941 1.9266 1.9398 1.9438 1.9478 1.961 1.9745 1.9785 1.9825 1.9865 2.0001 2.0041 2.0082 2.0219 2.026 2.0301 2.0341 2.0186 2.0324 2.0266 2.0404 2.0346 2.0485 2.0525 2.0565 2.0507 2.0547 2.0686 2.0528 2.0568 2.0608 2.055 2.0688 2.063 2.0475 2.0322 2.0362 2.0497 2.0536 2.0672 2.0809 2.0848 2.0987 2.1027 2.1269 2.1412 2.1452 2.1389 2.1327 2.1266 2.1204 2.1144 2.1084 2.1223 2.1262 2.1202 2.1241 2.118 2.0831 2.0774 2.0718 2.057 2.0608 2.0645 2.0498 2.0535 2.0758 2.0984 2.1117 2.1252 2.1487 2.1526 2.1664 2.1907 2.1946 2.1985 2.2024 2.2064 2.2207 2.2246 2.2285 2.2325 2.226 2.2299 2.2338 2.2482 2.2416 2.2455 2.2389 2.2428 2.2363 2.2298 2.2337 2.2376 2.2108 2.2247 2.2286 2.2426 2.2569 2.2607 2.2857 2.2896 2.2935 2.2974 2.3013 2.3052 2.2984 2.3023 2.2849 2.2994 2.2926 2.2653 2.2691 2.2626 2.2767 2.2908 2.2946 2.288 2.2918 2.2853 2.2994 2.3032 2.3175 2.3108 2.3146 2.3079 2.3117 2.326 2.3298 2.3442 2.348 2.3734 2.3882 2.3811 2.3849 2.3888 2.4037 2.3965 2.3893 2.4042 2.397 2.4008 2.4157 2.4195 2.4234 2.4272 2.42 2.4238 2.4276 2.4204 2.4132 2.4391 2.4208 2.4136 2.4174 2.3995 2.4032 2.3857 2.3894 2.3931 2.3968 2.4329 2.4366 2.4404 2.4552 2.459 2.4739 2.5003 2.5042 2.4966 2.4891 2.4816 2.4742 2.478 2.4706 2.4743 2.467 2.4489 2.4526 2.4242 2.4173 2.4105 2.3934 2.4073 2.4214 2.425 2.4391 2.4322 2.4464 2.4394 2.4536 2.4573 2.4716 2.4432 2.4364 2.4296 2.4228 2.4263 2.4403 2.4543 2.4579 2.451 2.4756 2.4792 2.4936 2.4972 2.5008 2.5153 2.5189 2.5008 2.4725 2.476 2.4588 2.4316 2.425 2.4285 2.442 2.4455 2.4188 2.4222 2.4256 2.4697 2.494 2.5187 2.5659 2.5695 2.5731 2.5879 2.5915 2.6064 2.5988 2.6024 2.5835 2.5542 2.5469 2.5833 2.727 2.6943 2.6861 2.6429 2.6237 2.6159 2.6423 2.6926 2.6963 2.7 2.7037 2.6955 2.6874
1.7206 1.7347 1.7393 1.7439 1.7201 1.7153 1.7106 1.6361 1.6321 1.6363 1.6406 1.6703 1.701 1.7327 1.7559 1.751 1.7461 1.7413 1.7184 1.7227 1.7181 1.6704 1.6662 1.6704 1.658 1.654 1.683 1.7305 1.7713 1.7757 1.78 1.7939 1.8078 1.8027 1.8071 1.802 1.8064 1.7919 1.7688 1.764 1.7683 1.7725 1.7678 1.7631 1.7673 1.7987 1.8311 1.845 1.8494 1.8635 1.8484 1.8151 1.8102 1.8144 1.8186 1.8321 1.8271 1.7861 1.7814 1.8033 1.844 1.8671 1.8714 1.8757 1.8515 1.8464 1.8885 1.8928 1.8874 1.8821 1.8674 1.8349 1.8211 1.8251 1.8381 1.8333 1.8374 1.8414 1.8455 1.8677 1.8719 1.8852 1.8894 1.8935 1.8976 1.9112 1.9154 1.91 1.9047 1.8995 1.8943 1.8984 1.9025 1.9065 1.9106 1.9054 1.9187 1.9135 1.9176 1.9123 1.9257 1.9297 1.9432 1.9285 1.914 1.8999 1.886 1.8988 1.9117 1.9248 1.9288 1.9328 1.9367 1.9315 1.9447 1.9579 1.9619 1.9754 1.9794 1.9834 1.997 2.001 2.0051 2.0188 2.0327 2.0269 2.031 2.035 2.0292 2.0333 2.0373 2.0512 2.0553 2.0693 2.0734 2.0775 2.0615 2.0655 2.0796 2.0836 2.0877 2.0816 2.0857 2.0697 2.0737 2.0679 2.0523 2.0563 2.0699 2.0739 2.0877 2.1016 2.0957 2.0897 2.1036 2.1076 2.1421 2.1461 2.1398 2.1438 2.1376 2.1314 2.1354 2.1394 2.1535 2.1575 2.1411 2.135 2.1289 2.0936 2.0878 2.0727 2.0671 2.0616 2.0654 2.0598 2.0635 2.0766 2.0992 2.103 2.1164 2.1496 2.1634 2.1673 2.1916 2.1852 2.1891 2.2033 2.2176 2.2216 2.236 2.2399 2.2439 2.2373 2.2308 2.2558 2.2491 2.2637 2.257 2.2504 2.2437 2.2372 2.2307 2.2243 2.2281 2.2117 2.2256 2.2397 2.2539 2.2474 2.2616 2.276 2.2905 2.3052 2.3091 2.313 2.3061 2.2993 2.3139 2.2964 2.2897 2.2935 2.2559 2.2597 2.2635 2.2879 2.3022 2.2955 2.2993 2.3031 2.2965 2.3213 2.3146 2.329 2.3117 2.305 2.2984 2.3022 2.3059 2.3201 2.3135 2.3277 2.3527 2.3672 2.382 2.3858 2.4007 2.4157 2.4084 2.4123 2.4273 2.42 2.4127 2.439 2.4316 2.4354 2.4393 2.4208 2.4247 2.4174 2.3994 2.3924 2.3962 2.3891 2.3822 2.3859 2.3791 2.3828 2.3759 2.3796 2.3833 2.3977 2.412 2.4265 2.4303 2.456 2.4598 2.4636 2.4785 2.4936 2.4974 2.4899 2.4937 2.4862 2.4788 2.4714 2.4864 2.4789 2.4607 2.4644 2.4357 2.4182 2.4218 2.4045 2.4081 2.4117 2.4258 2.4189 2.4225 2.4261 2.4403 2.4439 2.4581 2.4617 2.4547 2.4477 2.4408 2.4339 2.4272 2.4411 2.4343 2.4378 2.4413 2.4659 2.48 2.4945 2.5089 2.5125 2.5161 2.5307 2.5125 2.4839 2.4769 2.4493 2.4426 2.4258 2.4192 2.4428 2.4463 2.4397 2.4431 2.4466 2.4809 2.5159 2.5302 2.5667 2.5592 2.5739 2.5887 2.5923 2.6073 2.6109 2.6032 2.6069 2.588 2.5265 2.5841 2.7157 2.6832 2.6989 2.5984 2.5582 2.5834 2.6092 2.6816 2.6972 2.7009 2.6809 2.6846 2.6765
1.7217 1.7262 1.75 1.7547 1.74 1.7256 1.7208 1.6626 1.6498 1.6541 1.6499 1.68 1.702 1.743 1.7569 1.7426 1.7378 1.7331 1.7284 1.7237 1.7281 1.6713 1.6589 1.6713 1.6672 1.6631 1.6924 1.7587 1.7911 1.7955 1.8 1.8044 1.8088 1.8229 1.8177 1.8221 1.817 1.7929 1.788 1.7831 1.7783 1.7645 1.7688 1.7552 1.7682 1.7905 1.832 1.846 1.8504 1.8547 1.8494 1.8069 1.8111 1.8154 1.8288 1.8424 1.8281 1.8049 1.7912 1.8132 1.845 1.8777 1.882 1.8863 1.8714 1.8662 1.8992 1.9134 1.9177 1.922 1.8684 1.854 1.8399 1.844 1.8481 1.8522 1.8383 1.8423 1.8464 1.8505 1.8636 1.8677 1.881 1.8759 1.88 1.9027 1.9068 1.9016 1.8963 1.9004 1.8953 1.8993 1.8942 1.9075 1.9115 1.9156 1.9197 1.9237 1.9092 1.9225 1.9266 1.9306 1.9441 1.9387 1.9241 1.9008 1.9047 1.8997 1.9126 1.9257 1.9297 1.9337 1.9285 1.9416 1.9456 1.9496 1.9628 1.9763 1.9803 1.9843 1.9883 2.0116 2.0157 2.01 2.0336 2.0278 2.0319 2.0359 2.0302 2.0342 2.0481 2.0521 2.0662 2.0703 2.0844 2.0784 2.0624 2.0764 2.0805 2.0845 2.0886 2.1028 2.0866 2.0806 2.0846 2.0786 2.0728 2.0669 2.0807 2.0946 2.0986 2.1026 2.0966 2.1006 2.0945 2.1185 2.1327 2.1471 2.1511 2.1448 2.1591 2.1323 2.1465 2.1608 2.1648 2.1688 2.1624 2.1359 2.1298 2.1139 2.0887 2.083 2.068 2.0625 2.0569 2.0606 2.0644 2.0775 2.1001 2.1039 2.1173 2.1406 2.1543 2.1582 2.1925 2.1964 2.19 2.2042 2.2081 2.2329 2.2264 2.2408 2.2343 2.2382 2.2317 2.2567 2.2606 2.2539 2.2579 2.2618 2.2446 2.2485 2.2316 2.2252 2.229 2.2125 2.2265 2.2406 2.2444 2.2483 2.2625 2.2769 2.313 2.3061 2.3209 2.3248 2.307 2.3001 2.3148 2.2973 2.3011 2.2944 2.267 2.2605 2.2643 2.2887 2.303 2.3069 2.3107 2.3145 2.3078 2.3222 2.3367 2.3298 2.3125 2.3059 2.2993 2.2927 2.2964 2.3106 2.3143 2.3181 2.3429 2.3573 2.3719 2.3758 2.4016 2.4278 2.4205 2.4243 2.4282 2.4321 2.436 2.4512 2.4437 2.4363 2.429 2.4217 2.4145 2.4073 2.3787 2.3825 2.3862 2.3793 2.3725 2.3762 2.3694 2.3837 2.3768 2.3805 2.3948 2.4091 2.4022 2.4274 2.4311 2.4459 2.4496 2.4756 2.4794 2.4832 2.487 2.4908 2.4946 2.4984 2.4909 2.4835 2.4872 2.4798 2.4615 2.4653 2.4365 2.4295 2.4226 2.4158 2.4194 2.423 2.4161 2.4197 2.413 2.4375 2.4411 2.4447 2.4483 2.4625 2.4555 2.4591 2.4416 2.4348 2.4383 2.4419 2.4351 2.4386 2.4422 2.4667 2.4917 2.5061 2.5206 2.5243 2.5279 2.5427 2.5242 2.4954 2.4777 2.4501 2.4434 2.4266 2.4301 2.4436 2.4573 2.4405 2.4541 2.4575 2.5026 2.5275 2.5419 2.5675 2.56 2.5636 2.5895 2.6045 2.5968 2.6004 2.604 2.5742 2.5667 2.4753 2.4686 2.7043 2.5063 2.5097 2.5028 2.5166 2.5733 2.61 2.6708 2.6861 2.7017 2.6935 2.6854 2.6773
1.7227 1.7273 1.7319 1.727 1.7315 1.7361 1.7219 1.6723 1.6593 1.6637 1.6509 1.6552 1.6766 1.7165 1.7209 1.7072 1.7027 1.6895 1.6851 1.6808 1.6937 1.6557 1.6516 1.6558 1.6682 1.6723 1.702 1.7689 1.7921 1.8061 1.8105 1.815 1.8293 1.8337 1.8382 1.8135 1.818 1.8033 1.7983 1.7841 1.7793 1.7745 1.7697 1.774 1.7692 1.7915 1.8142 1.8279 1.8417 1.8461 1.8409 1.817 1.8121 1.8255 1.8392 1.8434 1.829 1.8058 1.7921 1.8142 1.8553 1.8787 1.883 1.8873 1.8723 1.8671 1.8905 1.9143 1.9187 1.923 1.8787 1.8642 1.8499 1.845 1.8674 1.8623 1.8482 1.8433 1.8474 1.8425 1.8555 1.8596 1.8727 1.8587 1.8627 1.8758 1.8891 1.8932 1.8973 1.9013 1.9054 1.9002 1.9043 1.9177 1.9125 1.9165 1.9206 1.9247 1.9194 1.9235 1.9275 1.9504 1.945 1.9491 1.9251 1.9108 1.9056 1.9096 1.9135 1.9175 1.9306 1.9254 1.9294 1.9333 1.9373 1.9505 1.9638 1.9584 1.9624 1.9664 1.9797 1.9932 1.9973 2.0013 2.0247 2.0288 2.0427 2.0468 2.0409 2.0549 2.049 2.063 2.0772 2.0813 2.106 2.0895 2.0633 2.0674 2.0814 2.0754 2.0795 2.0936 2.0875 2.0815 2.0855 2.0795 2.0737 2.0776 2.0915 2.0955 2.0995 2.0935 2.0975 2.0915 2.0954 2.1194 2.1336 2.1376 2.152 2.1457 2.1497 2.1332 2.1474 2.1617 2.1657 2.1697 2.1633 2.1468 2.1407 2.1147 2.0992 2.0839 2.0782 2.0726 2.0671 2.0615 2.0746 2.0784 2.101 2.1143 2.1182 2.1415 2.1552 2.1691 2.2037 2.2076 2.2012 2.2155 2.2194 2.2445 2.2485 2.2631 2.2564 2.2496 2.243 2.2576 2.2615 2.2655 2.2588 2.2627 2.2455 2.2494 2.2325 2.2363 2.2299 2.2134 2.2172 2.221 2.2248 2.2186 2.2325 2.2672 2.2816 2.307 2.3109 2.3148 2.3079 2.301 2.3156 2.3088 2.2914 2.2641 2.2475 2.2411 2.255 2.2896 2.3039 2.3183 2.3222 2.3154 2.3087 2.3125 2.3269 2.3201 2.303 2.2964 2.2898 2.2935 2.2769 2.2908 2.3047 2.3189 2.3544 2.3582 2.3728 2.3766 2.3914 2.3952 2.4102 2.414 2.4291 2.4217 2.4256 2.4521 2.4333 2.426 2.4187 2.3898 2.3936 2.3866 2.369 2.3727 2.3765 2.3697 2.3734 2.3771 2.3702 2.3634 2.3776 2.3813 2.3956 2.3993 2.403 2.4174 2.4212 2.4467 2.4394 2.4653 2.4803 2.4729 2.4878 2.4804 2.4619 2.4656 2.4694 2.4513 2.455 2.4587 2.4624 2.4661 2.4374 2.4304 2.4235 2.4271 2.4307 2.4238 2.4274 2.4311 2.4241 2.4489 2.4632 2.4668 2.4705 2.4741 2.467 2.4706 2.4529 2.446 2.4391 2.4532 2.4359 2.4394 2.443 2.4781 2.5033 2.5178 2.5215 2.5251 2.5398 2.5435 2.536 2.5069 2.4785 2.4305 2.4139 2.4074 2.4108 2.4444 2.4581 2.4514 2.4548 2.4686 2.514 2.5283 2.5536 2.5684 2.572 2.5756 2.6016 2.6167 2.5424 2.4828 2.476 2.4692 2.4726 2.456 2.4594 2.3944 2.4073 2.4496 2.473 2.4967 2.5633 2.5996 2.6599 2.6753 2.6789 2.6826 2.6745 2.6782
1.7237 1.7283 1.7424 1.747 1.7516 1.7563 1.7609 1.7182 1.7134 1.6909 1.6776 1.682 1.6951 1.7084 1.7128 1.7082 1.6776 1.6818 1.6606 1.6648 1.669 1.6566 1.6444 1.6567 1.6691 1.6816 1.7116 1.7792 1.7837 1.7976 1.8311 1.8356 1.8501 1.8647 1.8592 1.8339 1.8286 1.8138 1.8087 1.7943 1.7802 1.7754 1.7797 1.7749 1.7792 1.7925 1.8152 1.8195 1.8332 1.8567 1.8418 1.8273 1.8222 1.8358 1.8496 1.8635 1.8393 1.8158 1.8109 1.8242 1.8469 1.8797 1.884 1.8883 1.8829 1.8776 1.9012 1.9153 1.9197 1.934 1.8988 1.8935 1.8787 1.8735 1.8777 1.8725 1.8674 1.8623 1.8573 1.8523 1.8474 1.8605 1.8645 1.8686 1.8636 1.8859 1.8993 1.8941 1.9075 1.9023 1.9064 1.9104 1.9145 1.9281 1.9322 1.9363 1.9309 1.9445 1.9391 1.9527 1.9473 1.961 1.9554 1.95 1.9353 1.9207 1.9156 1.9287 1.9236 1.9276 1.9315 1.9263 1.9303 1.9434 1.9382 1.9607 1.9647 1.9593 1.9726 1.9766 1.9902 1.9942 1.9886 2.0022 2.0159 2.0297 2.0436 2.0577 2.0618 2.0659 2.0802 2.074 2.0987 2.1133 2.1174 2.1007 2.0642 2.0583 2.0723 2.0664 2.0804 2.0844 2.0985 2.0925 2.0864 2.0804 2.0844 2.0884 2.0924 2.1065 2.1004 2.1044 2.0984 2.0924 2.1063 2.1203 2.1449 2.1489 2.1529 2.157 2.1506 2.1443 2.1586 2.1731 2.1666 2.1707 2.154 2.1477 2.1416 2.1255 2.1195 2.1136 2.0981 2.0924 2.0867 2.0905 2.0943 2.1076 2.1114 2.1249 2.1385 2.1522 2.1661 2.1904 2.215 2.2295 2.2229 2.2375 2.2521 2.2669 2.2709 2.275 2.279 2.272 2.2653 2.2585 2.2624 2.2772 2.2812 2.2743 2.2675 2.2715 2.2542 2.2372 2.2411 2.2143 2.2181 2.2219 2.2156 2.2194 2.2333 2.2577 2.2825 2.297 2.3118 2.3157 2.298 2.2913 2.3058 2.299 2.2818 2.2649 2.2382 2.232 2.2457 2.301 2.3261 2.3299 2.3231 2.3163 2.3095 2.3133 2.3277 2.3104 2.3038 2.2767 2.2704 2.2741 2.2778 2.2916 2.2954 2.3093 2.3446 2.3591 2.3629 2.3775 2.3813 2.4072 2.411 2.4261 2.4188 2.4226 2.4265 2.4416 2.4342 2.4269 2.4196 2.4015 2.3944 2.3874 2.3804 2.3842 2.3879 2.381 2.3848 2.3779 2.3816 2.3748 2.3785 2.3928 2.3965 2.3895 2.4039 2.4183 2.422 2.4476 2.4403 2.4551 2.4589 2.4626 2.4553 2.459 2.4628 2.4665 2.4593 2.4412 2.4558 2.4486 2.4523 2.456 2.4488 2.4419 2.4455 2.4385 2.4421 2.4458 2.4388 2.4531 2.4461 2.4711 2.4966 2.5003 2.504 2.4966 2.4894 2.4931 2.4859 2.4469 2.4504 2.454 2.4681 2.4612 2.4753 2.5005 2.526 2.5407 2.5557 2.5594 2.5631 2.5554 2.5591 2.5295 2.5006 2.4313 2.4147 2.4082 2.4017 2.4351 2.4487 2.4522 2.4556 2.4694 2.5255 2.54 2.5436 2.5692 2.5839 2.5988 2.6253 2.6406 2.5325 2.4836 2.4974 2.4905 2.494 2.4769 2.4601 2.4338 2.4273 2.4503 2.4838 2.5182 2.5749 2.6004 2.6608 2.6761 2.6798 2.6834 2.6754 2.679
1.7248 1.7294 1.7532 1.7578 1.7625 1.7769 1.7717 1.7569 1.7329 1.7189 1.7052 1.7096 1.705 1.7005 1.7049 1.6916 1.67 1.6658 1.645 1.6492 1.6616 1.6412 1.6453 1.6577 1.6618 1.6826 1.7126 1.7709 1.7847 1.7986 1.8223 1.8466 1.8612 1.8658 1.8602 1.8349 1.8296 1.8244 1.8097 1.8046 1.7812 1.7855 1.7898 1.7759 1.7711 1.7844 1.7977 1.8112 1.8247 1.848 1.8524 1.819 1.8232 1.8462 1.8505 1.8548 1.8497 1.8352 1.8209 1.8343 1.8479 1.871 1.8947 1.8892 1.8839 1.8881 1.912 1.9163 1.9306 1.9349 1.9193 1.9041 1.8987 1.8838 1.888 1.8828 1.8776 1.8725 1.8674 1.8533 1.8484 1.8705 1.8655 1.8696 1.8646 1.8868 1.8909 1.895 1.8991 1.9032 1.9073 1.9114 1.9249 1.929 1.9427 1.9468 1.9414 1.9551 1.9496 1.9537 1.9675 1.9619 1.966 1.9509 1.9456 1.9309 1.9257 1.9389 1.9336 1.9285 1.9324 1.9272 1.9404 1.9351 1.9483 1.9616 1.9656 1.9696 1.983 1.987 1.9911 2.0047 1.9895 2.0031 2.0168 2.0306 2.0545 2.0586 2.0627 2.0668 2.0709 2.0852 2.0893 2.1038 2.1079 2.1016 2.0454 2.0593 2.0633 2.0574 2.0713 2.0853 2.0793 2.0833 2.0773 2.0813 2.0853 2.0794 2.1034 2.0973 2.1013 2.1053 2.0993 2.0933 2.1073 2.1213 2.1458 2.1602 2.1538 2.1579 2.1515 2.1555 2.1595 2.174 2.178 2.182 2.1652 2.1486 2.1425 2.1264 2.1303 2.1243 2.1086 2.1125 2.1066 2.1008 2.1143 2.1181 2.1219 2.1355 2.1394 2.1732 2.1873 2.1913 2.2264 2.2304 2.2238 2.2384 2.253 2.257 2.2719 2.2868 2.2799 2.2729 2.2662 2.2702 2.2849 2.2781 2.2821 2.2752 2.2684 2.2724 2.2657 2.2485 2.2317 2.2253 2.219 2.2228 2.2065 2.2103 2.2241 2.2586 2.2834 2.2873 2.3018 2.3166 2.2778 2.2922 2.296 2.2893 2.2827 2.2556 2.2391 2.223 2.2466 2.2913 2.3163 2.3416 2.3347 2.3171 2.2999 2.3037 2.3075 2.3009 2.2943 2.2675 2.2712 2.2749 2.2685 2.2824 2.2861 2.2999 2.3349 2.3386 2.3638 2.3676 2.3822 2.397 2.4119 2.4158 2.4309 2.4235 2.4162 2.4425 2.4239 2.4278 2.4205 2.4133 2.4061 2.3883 2.3921 2.385 2.3888 2.3819 2.3856 2.3788 2.3825 2.3862 2.3899 2.4042 2.3973 2.3904 2.3941 2.3978 2.4122 2.4374 2.4303 2.4449 2.4486 2.4415 2.4452 2.4489 2.4527 2.4674 2.4493 2.4421 2.4458 2.4386 2.4531 2.4568 2.4497 2.4427 2.4463 2.45 2.4537 2.4466 2.4396 2.4539 2.4469 2.4828 2.4975 2.5011 2.5048 2.5085 2.4903 2.4939 2.4976 2.4581 2.4513 2.4548 2.4584 2.4725 2.4869 2.5122 2.5379 2.5416 2.5565 2.5716 2.5639 2.5676 2.5713 2.5414 2.5121 2.4321 2.4155 2.3991 2.4025 2.4258 2.4394 2.4327 2.4463 2.4599 2.5156 2.5299 2.5444 2.57 2.596 2.6111 2.6261 2.6298 2.544 2.4741 2.5086 2.5227 2.5051 2.5086 2.4913 2.4543 2.4379 2.4611 2.4948 2.5295 2.5866 2.6124 2.6733 2.6653 2.6689 2.6726 2.6762 2.6682
1.7071 1.721 1.7162 1.7207 1.7347 1.7682 1.7728 1.7389 1.7247 1.7018 1.6796 1.684 1.6796 1.6667 1.671 1.6416 1.6056 1.6097 1.5905 1.61 1.622 1.6421 1.6463 1.6586 1.671 1.692 1.7223 1.7719 1.7763 1.7901 1.8331 1.8477 1.8623 1.8668 1.8613 1.8458 1.8404 1.8254 1.8202 1.8056 1.7822 1.7684 1.7726 1.7679 1.7632 1.7853 1.7987 1.8029 1.8164 1.83 1.825 1.8108 1.815 1.8472 1.8515 1.8654 1.8506 1.8362 1.8311 1.8353 1.8489 1.8816 1.8859 1.9 1.8945 1.8891 1.9031 1.9173 1.9316 1.9259 1.9105 1.8955 1.8901 1.8754 1.8796 1.8744 1.8693 1.8642 1.8683 1.8452 1.8493 1.8623 1.8574 1.8614 1.8655 1.8786 1.8919 1.8776 1.8817 1.8857 1.8898 1.8847 1.8979 1.9019 1.9152 1.9193 1.9234 1.9369 1.9409 1.945 1.9587 1.9726 1.967 1.9614 1.9465 1.9411 1.9358 1.9398 1.9439 1.9479 1.9425 1.9465 1.9413 1.9545 1.9585 1.9719 1.9759 1.9705 1.9745 1.988 1.992 1.996 1.981 1.9944 2.008 2.012 2.0455 2.0495 2.0536 2.0677 2.0718 2.0861 2.1006 2.1047 2.1088 2.1026 2.0463 2.0406 2.0446 2.0486 2.0623 2.0762 2.0802 2.0842 2.0783 2.0823 2.0862 2.0902 2.1043 2.1083 2.1123 2.1062 2.1002 2.0942 2.1082 2.1222 2.1467 2.1507 2.1548 2.1588 2.1524 2.1669 2.1709 2.1854 2.1789 2.183 2.1661 2.1496 2.1434 2.1473 2.1412 2.1351 2.1192 2.1133 2.1075 2.1017 2.1151 2.119 2.1326 2.1364 2.1601 2.174 2.1882 2.2024 2.2273 2.2313 2.2353 2.2393 2.2539 2.2687 2.2837 2.2878 2.2918 2.2848 2.2778 2.2818 2.2968 2.2898 2.283 2.287 2.28 2.284 2.2666 2.2598 2.2428 2.2262 2.2198 2.2236 2.2174 2.2212 2.2249 2.2595 2.2843 2.2882 2.3027 2.3066 2.2787 2.2721 2.2759 2.2694 2.2732 2.2565 2.23 2.2239 2.2374 2.2715 2.2856 2.3104 2.3037 2.297 2.2904 2.2942 2.298 2.2914 2.2848 2.2684 2.262 2.2557 2.2694 2.2731 2.2768 2.2805 2.2943 2.3082 2.3433 2.3471 2.3722 2.3869 2.4128 2.4167 2.4205 2.4244 2.4283 2.4321 2.4248 2.4175 2.4214 2.4141 2.407 2.3999 2.3929 2.3967 2.4004 2.3934 2.3971 2.3902 2.3833 2.3976 2.4014 2.4051 2.4088 2.3912 2.3843 2.388 2.4023 2.4383 2.4312 2.4241 2.4171 2.4208 2.4245 2.439 2.4427 2.4464 2.4501 2.4321 2.4252 2.4395 2.454 2.4686 2.4505 2.4435 2.4579 2.4508 2.4545 2.4582 2.4404 2.4441 2.4477 2.4728 2.4983 2.502 2.5057 2.4983 2.4911 2.4839 2.4767 2.459 2.4521 2.4556 2.4698 2.4734 2.4877 2.524 2.5387 2.5537 2.5461 2.5611 2.5648 2.5685 2.5608 2.5202 2.5022 2.4329 2.4263 2.3999 2.4033 2.4266 2.43 2.4335 2.4369 2.4607 2.5058 2.5307 2.5452 2.5597 2.5856 2.6119 2.627 2.6307 2.4817 2.4749 2.5519 2.5664 2.5375 2.5094 2.4921 2.4651 2.4485 2.4618 2.4753 2.5094 2.555 2.5801 2.6395 2.6661 2.6697 2.6618 2.6654 2.669
1.7082 1.7127 1.7079 1.7033 1.7263 1.7498 1.764 1.7399 1.7257 1.6939 1.6806 1.6676 1.6719 1.6677 1.6634 1.6344 1.6065 1.6106 1.5914 1.6032 1.6229 1.6431 1.6636 1.6846 1.6888 1.7549 1.7593 1.7823 1.7773 1.7911 1.8244 1.8387 1.8633 1.8578 1.8522 1.8468 1.8414 1.8458 1.8308 1.8256 1.7741 1.7783 1.7826 1.7688 1.7642 1.7863 1.7996 1.8039 1.8174 1.8217 1.8259 1.8025 1.8159 1.8294 1.8525 1.8761 1.8707 1.8464 1.8414 1.8362 1.8592 1.8826 1.9065 1.9109 1.8955 1.8998 1.914 1.9183 1.9326 1.9269 1.9115 1.906 1.9006 1.8764 1.8805 1.8754 1.8702 1.856 1.8601 1.8551 1.8413 1.8453 1.8583 1.8534 1.8664 1.8705 1.8836 1.8877 1.8826 1.8867 1.8816 1.8766 1.8806 1.9029 1.9069 1.911 1.9243 1.9284 1.9419 1.946 1.9597 1.9735 1.9679 1.972 1.9761 1.9705 1.965 1.9691 1.9636 1.9582 1.9528 1.9662 1.9798 1.9839 1.9783 1.9824 1.9864 1.9809 1.9849 1.9889 1.9929 1.978 1.9725 1.9859 1.9993 2.0033 2.0267 2.0307 2.0348 2.0586 2.0627 2.0768 2.0809 2.1057 2.0891 2.0932 2.0375 2.0415 2.0552 2.0495 2.0632 2.0672 2.0912 2.0952 2.0892 2.1033 2.1175 2.1319 2.1359 2.14 2.1337 2.1275 2.1315 2.1355 2.1293 2.1333 2.1476 2.1516 2.1557 2.1702 2.1637 2.1678 2.1718 2.197 2.2011 2.2051 2.1985 2.1814 2.175 2.1687 2.1522 2.1561 2.1299 2.124 2.1181 2.1122 2.1356 2.1394 2.1433 2.1571 2.161 2.1749 2.1891 2.2033 2.2283 2.2322 2.2362 2.2616 2.2766 2.3028 2.3181 2.3222 2.3263 2.3191 2.3119 2.316 2.32 2.3018 2.2947 2.2987 2.2918 2.2958 2.2781 2.2714 2.2753 2.2476 2.2515 2.2553 2.2283 2.222 2.2359 2.2919 2.3284 2.3214 2.3145 2.3075 2.2795 2.273 2.2664 2.2806 2.2637 2.2573 2.2308 2.2247 2.2383 2.2724 2.2969 2.3007 2.3045 2.2979 2.2913 2.2951 2.2885 2.2923 2.2857 2.2591 2.2628 2.2665 2.2702 2.2739 2.2776 2.2813 2.3053 2.3091 2.3441 2.3586 2.3624 2.3878 2.4137 2.4175 2.4214 2.4253 2.4291 2.433 2.4369 2.4184 2.4222 2.415 2.4079 2.4117 2.4046 2.4192 2.4121 2.4159 2.4088 2.4017 2.3842 2.4092 2.4022 2.4167 2.4097 2.3921 2.3958 2.3994 2.4139 2.4391 2.4429 2.425 2.4287 2.4216 2.4253 2.429 2.4435 2.4581 2.4509 2.433 2.4367 2.4511 2.4548 2.4695 2.4622 2.455 2.4587 2.4517 2.4553 2.459 2.4519 2.4449 2.4485 2.4736 2.4881 2.5028 2.5065 2.5102 2.492 2.4847 2.4776 2.4705 2.4634 2.467 2.4813 2.4849 2.4886 2.5249 2.5396 2.5433 2.5469 2.5619 2.5656 2.5693 2.5616 2.5211 2.503 2.4541 2.4372 2.4205 2.4239 2.4375 2.4511 2.4444 2.4479 2.4718 2.5066 2.5316 2.5351 2.5605 2.5864 2.6127 2.6278 2.6549 2.6586 2.6623 2.666 2.6347 2.6042 2.5102 2.4929 2.4759 2.4395 2.4527 2.466 2.4998 2.5345 2.57 2.6288 2.6439 2.659 2.6626 2.6662 2.6583
1.6909 1.6954 1.6999 1.6863 1.7088 1.7413 1.7651 1.7409 1.7175 1.6949 1.6729 1.6686 1.6729 1.6772 1.6644 1.6435 1.6234 1.6195 1.6 1.6119 1.6238 1.6359 1.6729 1.6855 1.6984 1.7559 1.7695 1.7739 1.7877 1.7921 1.8254 1.8397 1.8542 1.8588 1.8633 1.8478 1.8523 1.8568 1.8415 1.8362 1.7751 1.7793 1.7836 1.7609 1.7651 1.7873 1.8006 1.8048 1.8184 1.8226 1.8176 1.7945 1.8077 1.8304 1.844 1.8674 1.8717 1.8474 1.833 1.8466 1.8602 1.8933 1.9075 1.9119 1.9063 1.9008 1.9149 1.9193 1.9236 1.9279 1.9125 1.907 1.9016 1.8773 1.8815 1.8763 1.862 1.8569 1.861 1.8471 1.8422 1.8462 1.8592 1.8543 1.8673 1.8714 1.8937 1.8795 1.8835 1.8876 1.8825 1.8775 1.8906 1.8946 1.9078 1.9119 1.9159 1.9293 1.9428 1.9565 1.9606 1.9842 1.9884 1.9827 1.977 1.9812 1.9755 1.9796 1.9741 1.9591 1.9631 1.9767 1.9807 1.9944 1.9888 1.9929 1.9873 1.9818 1.9763 1.9898 1.9843 1.9789 1.9642 1.9589 1.9908 1.9948 2.0082 2.0122 2.0162 2.0299 2.0536 2.0577 2.0718 2.0758 2.0799 2.0739 2.0385 2.0424 2.0561 2.0504 2.0641 2.0781 2.0821 2.0961 2.0901 2.1144 2.1184 2.1225 2.1473 2.1514 2.145 2.1491 2.1427 2.1364 2.1405 2.1342 2.1589 2.163 2.167 2.1711 2.1751 2.1687 2.1832 2.1979 2.202 2.2168 2.1994 2.1823 2.1864 2.1799 2.1735 2.1672 2.1407 2.1446 2.1287 2.1228 2.1463 2.1502 2.1442 2.158 2.1619 2.1758 2.19 2.1939 2.2292 2.2331 2.2265 2.2735 2.2885 2.315 2.3191 2.3346 2.3272 2.32 2.3017 2.3057 2.3098 2.3138 2.3178 2.2996 2.3036 2.2967 2.2898 2.2829 2.2762 2.2381 2.242 2.2458 2.2292 2.2129 2.2267 2.2822 2.3184 2.3333 2.3262 2.3193 2.2804 2.2738 2.2777 2.2815 2.2749 2.2684 2.2416 2.2354 2.2491 2.2836 2.2978 2.3016 2.295 2.2884 2.2921 2.2856 2.2997 2.2828 2.2866 2.27 2.2637 2.2674 2.2711 2.2748 2.2784 2.2923 2.3165 2.3307 2.345 2.3594 2.374 2.3887 2.4146 2.4184 2.4223 2.4262 2.4189 2.4116 2.4154 2.4193 2.4231 2.4049 2.4087 2.4125 2.4054 2.4092 2.4239 2.4059 2.4097 2.3919 2.3956 2.41 2.4031 2.4068 2.4105 2.3929 2.3966 2.411 2.4147 2.44 2.4437 2.4366 2.4295 2.4224 2.4261 2.4407 2.4444 2.4589 2.4518 2.4446 2.4375 2.452 2.4776 2.4813 2.4631 2.4559 2.4595 2.4525 2.4562 2.4491 2.4421 2.4352 2.4494 2.4745 2.4889 2.5037 2.5074 2.5111 2.4928 2.4748 2.4892 2.482 2.4857 2.4785 2.4821 2.4858 2.5002 2.5147 2.5404 2.5554 2.5591 2.5514 2.5665 2.5588 2.5513 2.5328 2.5038 2.4652 2.4584 2.4414 2.4348 2.4586 2.4519 2.4553 2.4588 2.4726 2.4969 2.5324 2.5252 2.5504 2.5761 2.5909 2.6286 2.644 2.6595 2.6514 2.6433 2.624 2.5827 2.5215 2.4937 2.4869 2.4402 2.4436 2.4668 2.4803 2.5248 2.5494 2.6073 2.6447 2.6369 2.6519 2.6556 2.6707
1.6828 1.6873 1.6478 1.6436 1.6395 1.5946 1.7469 1.742 1.7278 1.6959 1.6739 1.6782 1.6825 1.6782 1.6739 1.6612 1.6324 1.6284 1.6087 1.6128 1.6328 1.645 1.6738 1.6865 1.7079 1.7661 1.7705 1.7843 1.7887 1.7931 1.8264 1.8407 1.8654 1.8598 1.8643 1.8588 1.8534 1.8578 1.8425 1.8373 1.7851 1.7713 1.7577 1.7445 1.7486 1.7703 1.7925 1.7967 1.8101 1.8143 1.8094 1.7954 1.8087 1.8221 1.8356 1.8781 1.8727 1.8578 1.8433 1.8475 1.8803 1.8943 1.8986 1.903 1.8975 1.8921 1.9061 1.9104 1.9147 1.9092 1.9135 1.908 1.9026 1.8876 1.8824 1.8773 1.8538 1.8489 1.8619 1.848 1.8343 1.8383 1.8512 1.8552 1.8683 1.8723 1.8855 1.8713 1.8664 1.8704 1.8654 1.8606 1.8734 1.8774 1.8996 1.9036 1.9169 1.9209 1.9343 1.9478 1.9615 1.9852 1.9795 1.9836 1.978 1.9821 1.9765 1.9806 1.975 1.9695 1.9736 1.9872 1.9913 1.9954 1.9898 1.9842 1.9979 1.9732 1.9772 1.9812 1.9664 1.9611 1.9559 1.9415 1.9729 1.9769 1.9808 1.9754 1.9794 2.002 2.0155 2.0195 2.0331 2.0371 2.0218 2.0257 2.0297 2.0433 2.057 2.0513 2.065 2.079 2.083 2.087 2.091 2.1153 2.1297 2.1337 2.1482 2.1523 2.1459 2.15 2.1437 2.1374 2.1414 2.1454 2.1391 2.1431 2.1575 2.1512 2.1656 2.1696 2.1842 2.1989 2.2137 2.2178 2.2111 2.1938 2.1978 2.1808 2.1745 2.1681 2.1517 2.1356 2.1296 2.1335 2.1572 2.1511 2.145 2.1489 2.1627 2.1767 2.1806 2.1948 2.2091 2.2234 2.2274 2.2744 2.2895 2.3273 2.3314 2.3241 2.3282 2.3209 2.2915 2.2846 2.2996 2.2926 2.3076 2.3005 2.2936 2.2867 2.2906 2.2838 2.2771 2.2494 2.2429 2.2467 2.2301 2.2137 2.2275 2.2831 2.3084 2.3232 2.3271 2.3202 2.2813 2.2851 2.289 2.2824 2.2758 2.2693 2.2425 2.2462 2.25 2.2844 2.2986 2.292 2.2958 2.2892 2.2827 2.2865 2.2902 2.294 2.2874 2.281 2.2746 2.2783 2.2719 2.2756 2.2894 2.3033 2.3278 2.3316 2.3565 2.371 2.3748 2.4005 2.4154 2.4193 2.4232 2.427 2.4087 2.4125 2.4163 2.4202 2.4351 2.4058 2.4096 2.4134 2.4172 2.421 2.4248 2.4068 2.4105 2.4034 2.4072 2.4109 2.4146 2.4076 2.4114 2.4044 2.3974 2.4118 2.4155 2.4408 2.4446 2.4483 2.452 2.4233 2.4378 2.4415 2.4561 2.4708 2.4635 2.4563 2.4383 2.4528 2.4784 2.4821 2.4749 2.4676 2.4604 2.4533 2.4677 2.4607 2.4429 2.4466 2.4502 2.4645 2.4898 2.5045 2.5194 2.5231 2.4936 2.4973 2.49 2.5046 2.4865 2.4794 2.483 2.4866 2.501 2.5155 2.5413 2.5562 2.5486 2.5523 2.556 2.571 2.5633 2.5227 2.5154 2.4869 2.4695 2.4627 2.4662 2.4697 2.4836 2.4664 2.4596 2.4734 2.5082 2.5224 2.526 2.5403 2.5657 2.5805 2.6181 2.6332 2.6254 2.629 2.5986 2.5799 2.5724 2.5118 2.5049 2.4876 2.4508 2.4444 2.4576 2.471 2.5256 2.5502 2.597 2.6341 2.6377 2.6528 2.6564 2.66
1.6929 1.6883 1.6403 1.6195 1.6074 1.5956 1.7479 1.743 1.7475 1.7149 1.7013 1.7057 1.71 1.7055 1.7009 1.6965 1.658 1.6456 1.6255 1.6458 1.6664 1.6876 1.7004 1.7134 1.7444 1.7671 1.7809 1.7948 1.7992 1.8132 1.8373 1.8619 1.8767 1.871 1.8755 1.8699 1.8643 1.8688 1.8436 1.8383 1.7861 1.7723 1.7586 1.7368 1.7323 1.7624 1.7844 1.7886 1.8019 1.8153 1.8104 1.8054 1.8281 1.8512 1.8747 1.8889 1.8933 1.878 1.8726 1.8769 1.8717 1.8855 1.8898 1.904 1.8888 1.8834 1.8877 1.9016 1.9059 1.9004 1.9144 1.9187 1.9132 1.8981 1.8928 1.897 1.8639 1.8588 1.8629 1.8489 1.853 1.8481 1.8521 1.8561 1.8692 1.8732 1.8864 1.8633 1.8673 1.8713 1.8575 1.8615 1.8655 1.8783 1.8914 1.8954 1.9178 1.9218 1.9259 1.9488 1.9625 1.9861 1.9805 1.9748 1.9692 1.9733 1.9678 1.9719 1.9664 1.9704 1.9745 1.9882 2.0019 2.0159 1.9907 1.9947 1.9988 1.9932 1.9876 1.9821 1.9581 1.9528 1.9476 1.9424 1.9738 1.9685 1.9724 1.9671 1.971 1.9842 2.0069 2.0108 2.0148 2.0187 2.0132 2.0171 2.021 2.0442 2.0579 2.0522 2.0659 2.0799 2.0839 2.098 2.102 2.1265 2.1515 2.1451 2.1492 2.1639 2.1469 2.1509 2.1446 2.1383 2.132 2.136 2.1504 2.1441 2.1584 2.1521 2.1561 2.1705 2.1851 2.2105 2.2255 2.2187 2.2228 2.1947 2.1987 2.1922 2.1753 2.169 2.1526 2.1464 2.1404 2.1542 2.1683 2.162 2.1659 2.1598 2.1636 2.1675 2.1815 2.1854 2.2204 2.2243 2.2283 2.2863 2.2904 2.3283 2.3324 2.325 2.3178 2.3219 2.2815 2.2855 2.2787 2.2935 2.2975 2.2906 2.2946 2.2876 2.2916 2.2955 2.2887 2.2819 2.2751 2.258 2.2309 2.2246 2.2184 2.2734 2.2985 2.3241 2.339 2.332 2.2822 2.286 2.3004 2.2832 2.2871 2.2701 2.2535 2.2573 2.261 2.275 2.2891 2.2929 2.2863 2.2901 2.2939 2.2873 2.2911 2.3052 2.309 2.292 2.2957 2.2893 2.2829 2.2967 2.3212 2.3354 2.3605 2.3536 2.3681 2.3719 2.3866 2.4236 2.4275 2.4314 2.4353 2.4279 2.4318 2.4245 2.4283 2.4434 2.4472 2.4398 2.4325 2.4363 2.4402 2.4552 2.4591 2.4516 2.4555 2.4481 2.4408 2.4446 2.4374 2.4411 2.4449 2.4267 2.4304 2.4342 2.4379 2.4417 2.4454 2.4492 2.464 2.4457 2.4495 2.4532 2.4679 2.4828 2.4754 2.4572 2.4392 2.4537 2.4903 2.4941 2.4978 2.4904 2.4942 2.4869 2.4906 2.4832 2.4759 2.4688 2.4725 2.487 2.4906 2.5054 2.5202 2.524 2.5277 2.5314 2.5351 2.5164 2.5091 2.5018 2.5054 2.4982 2.5127 2.5384 2.5534 2.5571 2.5495 2.5644 2.5568 2.5718 2.5642 2.5455 2.5271 2.5091 2.5126 2.4948 2.4984 2.5126 2.5162 2.5197 2.5233 2.5377 2.5413 2.5669 2.5268 2.5411 2.5556 2.5813 2.6075 2.6226 2.6148 2.607 2.5882 2.5697 2.5732 2.5337 2.5265 2.53 2.4817 2.5056 2.5195 2.5334 2.5689 2.5833 2.6201 2.6349 2.6385 2.6536 2.6572 2.6723
1.6849 1.6716 1.6245 1.6123 1.5845 1.5207 1.6936 1.7253 1.7298 1.7159 1.7113 1.7157 1.7201 1.7245 1.7198 1.6975 1.6674 1.6548 1.6426 1.6549 1.6758 1.6971 1.7013 1.7143 1.7545 1.7775 1.7913 1.8053 1.8098 1.824 1.8483 1.8731 1.8777 1.872 1.8766 1.8811 1.8755 1.8599 1.8544 1.8393 1.7962 1.7732 1.7596 1.7377 1.7418 1.7634 1.7853 1.7806 1.8029 1.8071 1.8022 1.7973 1.829 1.8617 1.8855 1.8998 1.9042 1.8887 1.8833 1.8779 1.8822 1.8963 1.9006 1.8951 1.8801 1.8654 1.8696 1.8833 1.8971 1.9014 1.896 1.9099 1.9142 1.8896 1.8843 1.8885 1.874 1.8689 1.873 1.8498 1.8539 1.849 1.853 1.8571 1.8701 1.8741 1.8873 1.8732 1.8682 1.8633 1.8584 1.8448 1.8575 1.8703 1.8832 1.8963 1.9095 1.9228 1.9268 1.9402 1.9538 1.9871 1.9814 1.9757 1.9799 1.9742 1.9783 1.9728 1.9769 1.9809 1.9947 1.9988 2.0127 2.0268 2.0013 2.0054 1.9997 2.0038 1.9981 1.983 1.959 1.9537 1.9485 1.9433 1.9747 1.9694 1.9641 1.968 1.9719 1.9851 2.0078 2.0213 2.0157 2.0293 2.0141 2.018 2.0315 2.0549 2.0688 2.0629 2.0668 2.0908 2.0848 2.0989 2.1029 2.1275 2.1419 2.146 2.1501 2.1648 2.1478 2.1519 2.1455 2.1496 2.1432 2.1473 2.141 2.1553 2.1593 2.1634 2.1674 2.1714 2.186 2.2114 2.2155 2.2306 2.2237 2.1956 2.1997 2.1826 2.1866 2.1802 2.1636 2.1574 2.1614 2.1551 2.1794 2.1731 2.1568 2.1606 2.1645 2.1785 2.1824 2.1966 2.2213 2.2252 2.2292 2.2762 2.2913 2.3292 2.3333 2.3259 2.3187 2.3116 2.2824 2.2864 2.2796 2.2944 2.2984 2.2915 2.2955 2.2994 2.3034 2.3074 2.3004 2.2935 2.2974 2.2693 2.2318 2.2255 2.2293 2.2638 2.2887 2.3141 2.3072 2.3003 2.2726 2.2765 2.2908 2.2841 2.2775 2.271 2.2544 2.2479 2.2619 2.2759 2.29 2.2938 2.2872 2.3013 2.2844 2.2882 2.292 2.3165 2.3098 2.2929 2.2864 2.2901 2.2938 2.2976 2.3116 2.3363 2.3506 2.3544 2.369 2.3728 2.3874 2.4133 2.4284 2.4436 2.4249 2.4177 2.4327 2.4253 2.4404 2.4443 2.4595 2.4407 2.4558 2.4597 2.4522 2.4561 2.4599 2.4525 2.4564 2.449 2.4528 2.4566 2.4382 2.442 2.4458 2.4276 2.4313 2.4242 2.428 2.4425 2.4463 2.4611 2.4649 2.4358 2.4503 2.454 2.4578 2.4837 2.4762 2.4471 2.4294 2.4545 2.4912 2.4949 2.4876 2.4913 2.495 2.4767 2.4804 2.484 2.4768 2.4697 2.4733 2.4878 2.4915 2.5062 2.5099 2.5248 2.5173 2.521 2.5359 2.5172 2.499 2.5026 2.5063 2.5099 2.5135 2.5393 2.5429 2.5579 2.5503 2.554 2.569 2.5613 2.565 2.5353 2.517 2.5099 2.5027 2.5063 2.4992 2.5242 2.517 2.5314 2.535 2.5385 2.553 2.5566 2.5276 2.5419 2.5674 2.5822 2.597 2.6119 2.6271 2.6307 2.6002 2.5926 2.5962 2.5558 2.5812 2.7489 2.5556 2.5273 2.5413 2.5555 2.5915 2.5951 2.6321 2.6472 2.6508 2.6544 2.6696 2.6732
1.7041 1.6726 1.6423 1.6051 1.5176 1.5216 1.6946 1.6901 1.7034 1.6989 1.6856 1.7077 1.7121 1.7439 1.7483 1.7252 1.694 1.6641 1.6599 1.6725 1.6853 1.6895 1.6937 1.7066 1.7464 1.7785 1.7829 1.7779 1.7823 1.7961 1.8393 1.8742 1.8891 1.8833 1.8776 1.8822 1.8765 1.8509 1.8359 1.8306 1.7972 1.7832 1.7694 1.7473 1.7428 1.7643 1.7773 1.7905 1.7947 1.8081 1.8031 1.8073 1.83 1.8724 1.9065 1.9109 1.9153 1.9096 1.904 1.8886 1.893 1.9071 1.9016 1.8961 1.8716 1.857 1.8519 1.8654 1.8695 1.8737 1.8874 1.9012 1.8958 1.8811 1.876 1.8895 1.8657 1.8607 1.8832 1.8598 1.8638 1.8679 1.8629 1.876 1.8801 1.8842 1.8883 1.8832 1.8781 1.8731 1.8593 1.8457 1.8584 1.8712 1.8841 1.8972 1.9012 1.9237 1.9277 1.9506 1.9547 1.9782 1.9823 1.9767 1.9808 1.9849 1.9793 1.9737 1.9778 1.9915 2.0154 2.0195 2.0337 2.0378 2.0219 2.0161 2.0103 2.0047 1.999 1.9935 1.9599 1.9546 1.9493 1.9442 1.9756 1.9703 1.9742 1.9688 1.9728 1.986 2.0086 2.0222 2.0262 2.0302 2.0341 2.0381 2.0518 2.0756 2.0797 2.0837 2.0777 2.0918 2.0958 2.0998 2.1038 2.1181 2.1324 2.1365 2.151 2.1657 2.1592 2.1633 2.1674 2.1609 2.165 2.1586 2.1522 2.1562 2.1707 2.1748 2.1788 2.1829 2.1976 2.2124 2.2165 2.2205 2.2246 2.1965 2.2006 2.1732 2.1772 2.1811 2.1645 2.1685 2.1724 2.1763 2.1803 2.174 2.1677 2.1615 2.1654 2.1693 2.1631 2.177 2.2118 2.2053 2.2196 2.2554 2.2812 2.3074 2.3115 2.3156 2.3197 2.3013 2.2725 2.2765 2.2805 2.2844 2.2884 2.2924 2.2964 2.3003 2.3043 2.3083 2.3123 2.3052 2.2983 2.2702 2.2327 2.2263 2.2201 2.2441 2.2479 2.2517 2.2658 2.2491 2.2427 2.2364 2.2503 2.2541 2.2376 2.2413 2.2451 2.2488 2.2425 2.2563 2.26 2.274 2.2778 2.2918 2.2956 2.2994 2.3032 2.3174 2.3212 2.3145 2.3182 2.3116 2.3154 2.3191 2.3439 2.3584 2.3622 2.366 2.3807 2.3845 2.3993 2.4254 2.4293 2.4445 2.4484 2.4297 2.4335 2.4374 2.4413 2.4451 2.4604 2.4529 2.4681 2.472 2.4874 2.4798 2.4722 2.4647 2.4572 2.4611 2.4649 2.4575 2.4501 2.4428 2.4466 2.4284 2.4322 2.4359 2.4396 2.4545 2.4471 2.462 2.4768 2.4474 2.4512 2.4549 2.4586 2.4733 2.4771 2.448 2.4408 2.4554 2.481 2.4958 2.4995 2.5033 2.507 2.4775 2.4812 2.496 2.4668 2.4597 2.4634 2.4886 2.5034 2.496 2.4997 2.5144 2.507 2.4998 2.5144 2.518 2.4998 2.4926 2.4962 2.4998 2.5144 2.5291 2.5438 2.5364 2.5511 2.5548 2.5585 2.5621 2.5547 2.5472 2.5288 2.5107 2.5143 2.5179 2.5215 2.5358 2.5394 2.5322 2.5249 2.5394 2.5538 2.5574 2.5284 2.5213 2.5463 2.5608 2.5866 2.5902 2.6629 2.6904 2.6821 2.674 2.6777 2.6119 2.6498 2.7128 2.5564 2.6492 2.63 2.6222 2.6372 2.6408 2.6444 2.648 2.6402 2.6437 2.6473 2.6625
1.7144 1.6824 1.6518 1.6561 1.5331 1.5371 1.652 1.6735 1.6955 1.6822 1.6778 1.6909 1.6952 1.7357 1.7588 1.7172 1.695 1.6651 1.6609 1.6651 1.6777 1.6819 1.6947 1.6989 1.7032 1.7701 1.7652 1.7696 1.7556 1.7691 1.8305 1.8752 1.8901 1.8947 1.8787 1.873 1.8878 1.8422 1.8369 1.8316 1.7982 1.7842 1.7704 1.7569 1.7611 1.7653 1.7783 1.7914 1.8048 1.8091 1.8133 1.8083 1.8498 1.8832 1.9075 1.9119 1.9163 1.9006 1.905 1.8896 1.8939 1.8983 1.9026 1.8874 1.8726 1.8579 1.8529 1.8663 1.8705 1.8747 1.8884 1.8926 1.8873 1.8821 1.8769 1.8811 1.8759 1.8708 1.8749 1.879 1.8739 1.8598 1.882 1.8861 1.8902 1.8943 1.8984 1.8841 1.8791 1.874 1.8602 1.8642 1.8593 1.8721 1.885 1.8981 1.9021 1.9153 1.9286 1.9421 1.9653 1.9791 1.9833 1.9776 1.9817 1.9858 1.9706 1.9747 1.9884 1.9828 2.0163 2.0204 2.0346 2.0388 2.0228 2.017 2.0211 2.0154 2.0097 1.9944 1.9608 1.9555 1.9502 1.9541 1.9673 1.9712 1.9751 1.9697 1.9736 1.9869 2.0096 2.0135 2.0271 2.0311 2.035 2.0487 2.0527 2.0766 2.0806 2.0846 2.0886 2.0927 2.0866 2.1007 2.1048 2.1088 2.1231 2.1374 2.152 2.1561 2.1601 2.1749 2.1683 2.1724 2.1659 2.1595 2.1636 2.1676 2.1822 2.1757 2.1798 2.1838 2.1985 2.2133 2.2174 2.2107 2.2148 2.2081 2.1909 2.1741 2.1781 2.182 2.1654 2.1694 2.1733 2.1671 2.171 2.1749 2.1585 2.1624 2.1563 2.1602 2.164 2.1679 2.192 2.1959 2.2102 2.2456 2.2712 2.2972 2.3013 2.3053 2.3094 2.2912 2.2842 2.2774 2.2814 2.2745 2.2784 2.2933 2.2864 2.2903 2.3052 2.3092 2.3022 2.3171 2.2885 2.2711 2.2335 2.2272 2.231 2.2247 2.2185 2.2323 2.226 2.2197 2.2235 2.2272 2.241 2.2347 2.2186 2.2224 2.2162 2.2298 2.2335 2.2372 2.2609 2.2646 2.2684 2.2721 2.2862 2.3002 2.304 2.3182 2.3326 2.3364 2.3296 2.344 2.3267 2.3304 2.3448 2.3593 2.3848 2.3777 2.3925 2.3963 2.4112 2.4376 2.4415 2.4454 2.4493 2.4532 2.4344 2.4383 2.4421 2.446 2.4499 2.4651 2.4805 2.4844 2.4883 2.4922 2.4845 2.4655 2.4694 2.4732 2.4771 2.4696 2.4621 2.4437 2.4475 2.4293 2.433 2.4478 2.4405 2.4442 2.448 2.4517 2.4666 2.4592 2.452 2.4557 2.4595 2.4742 2.4779 2.4706 2.4525 2.4671 2.4818 2.4966 2.5004 2.5154 2.5078 2.4894 2.482 2.4968 2.4677 2.4606 2.4642 2.4787 2.4931 2.4968 2.5116 2.5153 2.5078 2.5115 2.5263 2.5079 2.5006 2.4934 2.497 2.5007 2.5043 2.5189 2.5336 2.5372 2.5409 2.5445 2.5482 2.563 2.5667 2.548 2.5406 2.5332 2.5259 2.5295 2.5223 2.5477 2.5402 2.533 2.5257 2.5402 2.5438 2.5694 2.5185 2.5328 2.5363 2.5399 2.5762 2.591 2.6755 2.7156 2.7193 2.7231 2.7393 2.6586 2.674 2.7137 2.7297 2.7091 2.677 2.6458 2.638 2.6302 2.6452 2.6374 2.6297 2.622 2.6482 2.6405
1.7437 1.7015 1.6702 1.6486 1.5952 1.538 1.653 1.6921 1.6965 1.6832 1.6702 1.6919 1.7051 1.7367 1.7598 1.7272 1.696 1.666 1.6536 1.6578 1.6702 1.6744 1.6786 1.6913 1.6955 1.7619 1.7571 1.7614 1.7476 1.7429 1.7931 1.8459 1.8808 1.8751 1.8594 1.8246 1.829 1.8143 1.8187 1.8135 1.79 1.7851 1.7713 1.7492 1.7533 1.775 1.7882 1.8015 1.8149 1.8192 1.8234 1.8277 1.8603 1.8842 1.9085 1.9028 1.9072 1.8917 1.8863 1.9004 1.9048 1.9091 1.8938 1.8788 1.8547 1.8405 1.8538 1.858 1.8622 1.8663 1.8798 1.8935 1.8882 1.8737 1.8779 1.8914 1.8861 1.881 1.8944 1.8799 1.8748 1.8698 1.883 1.9058 1.9099 1.914 1.9087 1.8942 1.8891 1.884 1.8611 1.8562 1.8602 1.8731 1.877 1.8899 1.903 1.9255 1.9296 1.9525 1.9662 1.9899 1.9842 1.9884 1.9925 1.9966 1.9811 1.9852 1.9893 2.0032 2.0173 2.0214 2.0457 2.0397 2.0238 2.0279 2.022 2.0163 2.0204 2.0049 1.9709 1.9564 1.9603 1.955 1.9774 1.9721 1.976 1.9799 1.9745 1.9878 2.001 2.024 2.0184 2.032 2.0456 2.0496 2.0635 2.0775 2.0815 2.0956 2.0896 2.0936 2.0875 2.1016 2.0956 2.1199 2.124 2.1384 2.1424 2.157 2.1611 2.1652 2.1692 2.1733 2.1774 2.1604 2.1645 2.1685 2.1726 2.1872 2.1807 2.1953 2.1994 2.2252 2.2183 2.2116 2.2157 2.209 2.2024 2.175 2.1686 2.1726 2.1461 2.14 2.1539 2.1478 2.1517 2.1656 2.1494 2.1533 2.1572 2.1511 2.1451 2.1588 2.1827 2.1866 2.2007 2.2046 2.2293 2.2652 2.2692 2.2732 2.2772 2.2704 2.2635 2.2675 2.2823 2.2754 2.2793 2.2833 2.2873 2.2912 2.2952 2.3101 2.3031 2.318 2.3001 2.2825 2.2549 2.2485 2.242 2.2357 2.2395 2.2432 2.2369 2.2206 2.2047 2.2084 2.2318 2.2256 2.2195 2.2232 2.2269 2.2207 2.2244 2.238 2.2517 2.2655 2.2795 2.273 2.2767 2.3011 2.3049 2.3297 2.3441 2.348 2.3518 2.3556 2.3381 2.3525 2.3563 2.3709 2.3857 2.3895 2.3934 2.4194 2.4233 2.45 2.4424 2.4463 2.4502 2.4541 2.4353 2.4392 2.443 2.4469 2.4395 2.4546 2.4814 2.4853 2.4892 2.4815 2.4739 2.4664 2.4703 2.4855 2.4779 2.4818 2.463 2.4556 2.4484 2.4411 2.4449 2.4487 2.4413 2.4451 2.4488 2.4526 2.4563 2.4491 2.4529 2.4566 2.4713 2.5088 2.5125 2.4937 2.4975 2.5013 2.4937 2.5201 2.5239 2.5391 2.5201 2.4792 2.4829 2.4866 2.4685 2.4614 2.465 2.4687 2.4832 2.476 2.4905 2.4941 2.4869 2.4905 2.5051 2.5088 2.4906 2.4942 2.4979 2.5015 2.5051 2.5197 2.5124 2.516 2.5088 2.5233 2.516 2.5305 2.5452 2.5488 2.5637 2.545 2.5487 2.5634 2.5559 2.5485 2.5521 2.5447 2.5374 2.541 2.5446 2.5591 2.5193 2.5123 2.5158 2.5193 2.5661 2.5919 2.6764 2.7164 2.7325 2.7363 2.7401 2.695 2.7108 2.7515 2.7429 2.7343 2.7136 2.6934 2.6851 2.6771 2.6808 2.6845 2.6764 2.68 2.6837 2.6641
1.7643 1.7494 1.707 1.6581 1.5349 1.5463 1.7249 1.7294 1.7155 1.7109 1.6974 1.7107 1.715 1.7658 1.7799 1.7466 1.7146 1.6755 1.6712 1.6754 1.6796 1.6924 1.688 1.7009 1.7138 1.7629 1.7765 1.7624 1.7486 1.7529 1.7941 1.8469 1.8716 1.866 1.8505 1.816 1.8204 1.8058 1.8102 1.8052 1.791 1.7861 1.7723 1.7588 1.7718 1.794 1.8074 1.8209 1.8252 1.8295 1.8244 1.838 1.871 1.895 1.8994 1.8939 1.8983 1.9026 1.8971 1.9014 1.9058 1.9201 1.8947 1.8894 1.865 1.8506 1.8548 1.8589 1.8631 1.8673 1.8808 1.8945 1.8892 1.884 1.8881 1.9018 1.8965 1.8913 1.9048 1.909 1.9037 1.8798 1.9026 1.9353 1.9395 1.9437 1.9382 1.9232 1.9179 1.9125 1.8799 1.8749 1.87 1.874 1.8779 1.8999 1.904 1.9172 1.9305 1.9534 1.9672 2.0008 2.0049 2.0091 1.9934 2.0075 1.9821 1.9862 2 2.0141 2.0282 2.0324 2.0365 2.0407 2.0247 2.0288 2.0329 2.037 2.0213 2.0156 1.9906 1.9852 1.9797 1.9651 1.9876 1.9916 1.9769 1.9715 1.9847 1.9887 2.0019 2.0153 2.0193 2.0329 2.0368 2.0408 2.0545 2.0986 2.1027 2.1067 2.1108 2.1047 2.0985 2.1026 2.1066 2.1312 2.1352 2.1393 2.1434 2.1579 2.162 2.1768 2.1702 2.1743 2.1784 2.1719 2.1759 2.18 2.1735 2.1881 2.1816 2.1963 2.2111 2.2152 2.2193 2.2126 2.2166 2.1993 2.1928 2.1862 2.1695 2.1633 2.1571 2.1409 2.1448 2.1487 2.1626 2.1564 2.1503 2.1542 2.1481 2.152 2.1558 2.1597 2.1836 2.1875 2.2016 2.2159 2.2302 2.2554 2.2593 2.2633 2.2673 2.2713 2.2538 2.2684 2.2723 2.2763 2.2803 2.2842 2.2991 2.2921 2.2961 2.3 2.304 2.319 2.3119 2.2942 2.2873 2.2806 2.2635 2.257 2.2505 2.2543 2.2479 2.2214 2.2055 2.219 2.2327 2.2265 2.2203 2.2241 2.2376 2.2315 2.2253 2.2389 2.2525 2.2663 2.2701 2.2738 2.2879 2.3124 2.3267 2.3519 2.3558 2.3705 2.3744 2.3673 2.3603 2.3641 2.3789 2.3937 2.4199 2.4238 2.4277 2.4431 2.447 2.4624 2.4548 2.4587 2.4511 2.455 2.4362 2.44 2.4439 2.4365 2.4404 2.4442 2.4708 2.4747 2.4785 2.4824 2.4748 2.4673 2.4598 2.475 2.4788 2.4713 2.4639 2.4565 2.4603 2.453 2.4568 2.4605 2.4643 2.4681 2.4608 2.4645 2.4683 2.4609 2.4647 2.4574 2.4721 2.5559 2.5717 2.5637 2.544 2.5363 2.5286 2.5439 2.5711 2.5515 2.5209 2.48 2.4728 2.4764 2.4693 2.4622 2.4659 2.4695 2.4731 2.4768 2.4804 2.495 2.4877 2.5023 2.5059 2.5096 2.5023 2.4951 2.4987 2.5023 2.5169 2.5205 2.5132 2.5168 2.5205 2.5132 2.5277 2.5314 2.546 2.5497 2.5645 2.5682 2.5718 2.5867 2.5904 2.5828 2.5752 2.5566 2.5602 2.5527 2.5674 2.571 2.5416 2.5344 2.5272 2.5415 2.5779 2.5815 2.6772 2.7296 2.7334 2.7372 2.7535 2.7448 2.7611 2.7903 2.7687 2.7599 2.7513 2.7427 2.7464 2.7502 2.754 2.7577 2.749 2.7652 2.769 2.6765
1.7653 1.7602 1.7265 1.7311 1.5971 1.6013 1.7542 1.7492 1.7442 1.7301 1.7346 1.739 1.7435 1.7764 1.8005 1.7663 1.7156 1.6764 1.6722 1.7021 1.6977 1.6934 1.7149 1.7192 1.7503 1.7731 1.7869 1.7726 1.7677 1.7538 1.7951 1.8479 1.8727 1.857 1.8416 1.817 1.8214 1.7975 1.8018 1.8061 1.7919 1.7781 1.7733 1.7598 1.7728 1.795 1.8084 1.8219 1.8262 1.8211 1.8162 1.8204 1.872 1.8961 1.9004 1.885 1.8993 1.9136 1.908 1.9124 1.9167 1.9111 1.9056 1.8903 1.866 1.8608 1.865 1.8599 1.8641 1.859 1.8818 1.8955 1.8997 1.8943 1.9081 1.9123 1.9165 1.9016 1.9058 1.9005 1.8952 1.89 1.9129 1.9363 1.9308 1.935 1.9391 1.9242 1.9188 1.9135 1.8899 1.8848 1.8798 1.8838 1.8878 1.8918 1.9141 1.9274 1.9408 1.9449 1.9681 1.9918 2.0059 2.0001 1.9944 1.9985 1.9734 1.9871 2.001 2.0051 2.0292 2.0333 2.0375 2.0416 2.0157 2.0198 2.0339 2.028 2.0222 2.0165 1.9915 1.9861 1.9806 1.9846 1.9885 1.9831 1.9871 1.9817 1.9856 1.9895 2.0028 2.0162 2.0202 2.0241 2.0281 2.032 2.0554 2.0995 2.1036 2.1179 2.122 2.1158 2.0995 2.1035 2.1075 2.1321 2.1362 2.1402 2.1548 2.1589 2.1629 2.1777 2.1818 2.1752 2.1793 2.1728 2.1769 2.1704 2.185 2.1891 2.1931 2.1972 2.212 2.2161 2.2202 2.2135 2.2176 2.1897 2.1937 2.1768 2.1704 2.1642 2.158 2.1518 2.1557 2.1495 2.1635 2.1573 2.1512 2.1551 2.149 2.1529 2.1567 2.1606 2.1845 2.1883 2.1922 2.2272 2.2311 2.2456 2.2603 2.2535 2.2682 2.2614 2.2442 2.2481 2.2626 2.2665 2.2704 2.2851 2.2891 2.293 2.297 2.3009 2.3159 2.3088 2.3238 2.3059 2.2776 2.271 2.2748 2.2476 2.2514 2.2552 2.2386 2.2223 2.2064 2.2101 2.2236 2.2273 2.2212 2.2249 2.2385 2.2323 2.2261 2.2397 2.2635 2.2672 2.2812 2.285 2.2887 2.3133 2.3276 2.3528 2.3675 2.3714 2.3863 2.3791 2.372 2.3759 2.3907 2.4057 2.4436 2.4476 2.4515 2.4554 2.4594 2.4633 2.4672 2.4596 2.4635 2.4559 2.4371 2.4409 2.4448 2.4374 2.4301 2.4339 2.4602 2.4641 2.4566 2.4718 2.4643 2.4569 2.4607 2.4645 2.4684 2.4609 2.4647 2.4463 2.4501 2.4539 2.4576 2.4614 2.4652 2.4801 2.4727 2.4765 2.4803 2.4729 2.4655 2.4693 2.4842 2.5451 2.5726 2.5764 2.5684 2.5372 2.5294 2.5564 2.5602 2.5408 2.5104 2.4699 2.4629 2.4665 2.4594 2.463 2.4667 2.4703 2.474 2.4776 2.4813 2.4958 2.4886 2.5031 2.5177 2.5104 2.5031 2.5068 2.4995 2.5141 2.5068 2.5213 2.514 2.5177 2.5213 2.5249 2.5177 2.5322 2.5469 2.5505 2.5653 2.5578 2.5727 2.5876 2.58 2.5724 2.5648 2.5685 2.561 2.5646 2.5793 2.6056 2.5534 2.557 2.5605 2.5641 2.5567 2.5713 2.6662 2.7305 2.7343 2.7381 2.7418 2.7456 2.7746 2.7912 2.7696 2.7734 2.7521 2.7559 2.7473 2.7511 2.7424 2.7586 2.7499 2.7536 2.7574 2.6773
1.7664 1.7612 1.7276 1.7044 1.5981 1.6022 1.7457 1.7502 1.7548 1.7498 1.7543 1.7588 1.7633 1.7871 1.8114 1.7865 1.7346 1.6945 1.6988 1.7118 1.7074 1.7116 1.7336 1.729 1.7697 1.793 1.7974 1.7923 1.778 1.7639 1.7591 1.8897 1.8737 1.8481 1.8426 1.818 1.8129 1.7985 1.7935 1.7978 1.7838 1.788 1.7742 1.7695 1.7737 1.796 1.8002 1.8044 1.8178 1.8129 1.8171 1.8306 1.8633 1.897 1.8817 1.886 1.9002 1.9146 1.919 1.9134 1.9177 1.9121 1.9065 1.8913 1.8859 1.8618 1.8659 1.8608 1.8558 1.8599 1.8734 1.8964 1.9006 1.8953 1.909 1.923 1.9079 1.9026 1.9067 1.9014 1.9056 1.9003 1.9139 1.9276 1.9318 1.9359 1.9401 1.9346 1.9292 1.9238 1.9 1.8948 1.8897 1.8937 1.8978 1.9109 1.9243 1.9377 1.9417 1.9458 1.969 1.9829 1.987 1.9912 1.9855 1.9896 1.9647 1.9784 1.9824 1.9962 2.0201 2.0242 2.0284 2.0325 2.0166 2.0307 2.0348 2.0289 2.0231 2.0077 2.0021 1.9965 2.0004 1.995 1.9989 1.9934 1.9973 2.0013 1.9865 1.9998 2.0037 2.0076 2.0116 2.0155 2.029 2.0329 2.0466 2.1107 2.1148 2.1189 2.1334 2.1271 2.1105 2.1249 2.129 2.133 2.1581 2.1412 2.1557 2.1704 2.1745 2.1894 2.1828 2.1869 2.1802 2.1843 2.1778 2.1819 2.1859 2.2007 2.2048 2.1981 2.2129 2.2063 2.2104 2.2037 2.2078 2.1801 2.1634 2.1471 2.1511 2.1448 2.1289 2.1328 2.1366 2.1405 2.1444 2.1482 2.1422 2.1362 2.1401 2.1439 2.1477 2.1515 2.1854 2.1892 2.1931 2.2176 2.232 2.2465 2.2504 2.2544 2.2583 2.2623 2.2451 2.249 2.2635 2.2674 2.2713 2.286 2.29 2.2939 2.3088 2.3018 2.3058 2.3208 2.3247 2.3068 2.2891 2.2824 2.2757 2.2587 2.2523 2.2561 2.2395 2.2332 2.2072 2.2207 2.2344 2.2282 2.222 2.2257 2.2393 2.2431 2.2369 2.2505 2.2542 2.268 2.2821 2.2961 2.2999 2.3141 2.3285 2.3537 2.3575 2.3614 2.3872 2.38 2.3729 2.3877 2.4027 2.4178 2.456 2.4484 2.4524 2.4679 2.4603 2.4527 2.4566 2.4605 2.4529 2.4454 2.4268 2.4306 2.4344 2.4271 2.431 2.4348 2.4498 2.4537 2.4575 2.4614 2.4539 2.4578 2.4616 2.4654 2.4692 2.4731 2.4656 2.4582 2.462 2.4658 2.4696 2.4623 2.466 2.4587 2.4625 2.4551 2.4589 2.43 2.4337 2.4374 2.4629 2.5 2.5266 2.5537 2.5575 2.5265 2.5076 2.5341 2.5265 2.5075 2.4671 2.4176 2.4212 2.4354 2.439 2.432 2.4462 2.4604 2.4641 2.4677 2.493 2.4966 2.4894 2.493 2.4967 2.5113 2.504 2.5076 2.5004 2.5149 2.5076 2.5222 2.5149 2.5185 2.5221 2.5149 2.5185 2.5221 2.5366 2.5513 2.5662 2.5586 2.5735 2.5884 2.5808 2.5732 2.5657 2.5693 2.5618 2.5878 2.5914 2.6178 2.5763 2.5799 2.5835 2.5759 2.5795 2.5831 2.6553 2.6827 2.6627 2.6663 2.6819 2.6976 2.7256 2.7541 2.7704 2.7617 2.753 2.7444 2.7482 2.7519 2.7557 2.7595 2.7508 2.7545 2.7582 2.7016
1.7675 1.7623 1.7286 1.7054 1.7098 1.7143 1.7373 1.7608 1.7751 1.7699 1.7745 1.779 1.7934 1.798 1.8124 1.8071 1.7921 1.7678 1.7263 1.7397 1.744 1.7484 1.7807 1.7851 1.8087 1.8329 1.8374 1.8419 1.8365 1.8611 1.9396 1.9443 1.885 1.859 1.8437 1.8287 1.8234 1.7995 1.8038 1.7988 1.7939 1.789 1.7842 1.7705 1.7747 1.7969 1.8103 1.8146 1.8281 1.8324 1.8273 1.841 1.8838 1.8981 1.8925 1.887 1.9013 1.936 1.9404 1.9244 1.9187 1.9231 1.9174 1.902 1.8966 1.8816 1.8763 1.8618 1.8567 1.8609 1.8743 1.8974 1.9016 1.8868 1.9004 1.924 1.9088 1.9035 1.9077 1.9119 1.916 1.9298 1.934 1.9382 1.9327 1.9369 1.941 1.9452 1.9494 1.9439 1.9289 1.9235 1.909 1.9317 1.9358 1.9399 1.9632 1.9673 1.9812 1.9756 1.9895 1.9741 1.988 1.9823 1.9864 1.9808 1.9752 1.9889 1.9834 1.9971 2.021 2.0352 2.0394 2.0435 2.0275 2.0316 2.0458 2.02 2.0241 2.0086 2.0224 2.0167 2.0207 2.0345 2.0386 2.023 2.0173 2.031 2.0062 2.0197 2.0237 2.0086 2.022 2.0259 2.0299 2.0338 2.0475 2.1116 2.1262 2.1408 2.1344 2.1385 2.1217 2.1467 2.1615 2.1549 2.1697 2.1738 2.178 2.1929 2.1862 2.1904 2.1945 2.1878 2.1812 2.1852 2.1787 2.1828 2.1763 2.1803 2.195 2.1991 2.2031 2.2072 2.2006 2.194 2.1875 2.1707 2.1643 2.128 2.1319 2.1358 2.1298 2.1239 2.1277 2.1315 2.1452 2.1392 2.1431 2.1371 2.1312 2.1448 2.1486 2.1623 2.1862 2.1901 2.194 2.2081 2.2224 2.2474 2.2513 2.2553 2.2592 2.2632 2.246 2.2499 2.2644 2.279 2.283 2.2869 2.3127 2.3058 2.3207 2.3247 2.3177 2.3327 2.3256 2.3296 2.29 2.2939 2.2872 2.27 2.2634 2.2673 2.2505 2.2441 2.2277 2.2416 2.2453 2.239 2.2427 2.2464 2.2402 2.2439 2.2577 2.2717 2.2754 2.2894 2.2932 2.3179 2.3112 2.315 2.3293 2.3546 2.3476 2.3623 2.388 2.3809 2.3738 2.3886 2.4148 2.4301 2.4569 2.4609 2.4649 2.4688 2.4612 2.4536 2.4575 2.4499 2.4537 2.4463 2.4276 2.4315 2.4353 2.428 2.4208 2.4246 2.4395 2.4545 2.4584 2.4622 2.4661 2.4586 2.4625 2.4663 2.4815 2.4853 2.4891 2.493 2.4968 2.4667 2.4705 2.4743 2.4558 2.4596 2.4522 2.4451 2.4597 2.4096 2.4133 2.4275 2.4419 2.4897 2.5274 2.5313 2.5467 2.516 2.4971 2.5235 2.5273 2.5084 2.4679 2.4185 2.4221 2.4362 2.4398 2.4329 2.447 2.4613 2.4756 2.4793 2.4938 2.4975 2.4902 2.4939 2.4975 2.5011 2.5048 2.5194 2.5121 2.5157 2.5194 2.5341 2.5377 2.5193 2.5339 2.5376 2.5302 2.5338 2.5375 2.5522 2.567 2.5707 2.5856 2.5892 2.5816 2.574 2.5665 2.559 2.5627 2.5886 2.615 2.642 2.6109 2.6146 2.6183 2.6219 2.637 2.6407 2.6679 2.6835 2.6402 2.6554 2.6709 2.6865 2.7142 2.7425 2.7463 2.7501 2.7415 2.7329 2.749 2.7528 2.7441 2.7479 2.7641 2.7803 2.7841 2.7879
1.749 1.7536 1.7296 1.7064 1.7109 1.7153 1.7383 1.7523 1.7761 1.771 1.7755 1.7898 1.7944 1.8089 1.8135 1.8181 1.8029 1.7688 1.7454 1.7498 1.7542 1.7586 1.7817 1.7956 1.8294 1.8439 1.8484 1.8632 1.8678 1.8931 1.9518 1.9454 1.8964 1.8702 1.8447 1.8297 1.8244 1.8005 1.7955 1.7998 1.7949 1.79 1.7852 1.7804 1.7937 1.807 1.8205 1.8342 1.8385 1.8428 1.8566 1.861 1.8848 1.8991 1.8935 1.888 1.9122 1.9268 1.9414 1.9254 1.9298 1.9342 1.9284 1.9227 1.8975 1.8921 1.8773 1.872 1.8485 1.8711 1.8753 1.8888 1.8836 1.8878 1.911 1.9249 1.9003 1.9045 1.8992 1.9128 1.9075 1.9307 1.9253 1.9295 1.9337 1.9282 1.942 1.9462 1.9504 1.9448 1.9298 1.9151 1.9192 1.9422 1.9463 1.96 1.9739 1.9879 1.9921 1.9864 2.0004 1.9848 1.9791 1.9931 1.9874 1.9915 1.9762 1.9899 1.994 2.0079 2.022 2.0261 2.0403 2.0445 2.0385 2.0426 2.0468 2.0308 2.025 2.0192 2.0233 2.0274 2.0314 2.0354 2.0494 2.0337 2.0377 2.032 2.0262 2.0206 2.0246 2.0189 2.0134 2.0268 2.0308 2.0347 2.0582 2.1023 2.1167 2.1312 2.1459 2.1394 2.133 2.1477 2.1624 2.1665 2.1707 2.1856 2.1789 2.1939 2.1872 2.1913 2.1846 2.1887 2.1821 2.1862 2.1691 2.1732 2.1772 2.1812 2.1853 2.1894 2.1934 2.2081 2.1804 2.1739 2.1779 2.1511 2.1551 2.1289 2.1328 2.1367 2.1209 2.115 2.1189 2.1227 2.1363 2.1401 2.1342 2.138 2.1321 2.1456 2.1495 2.1632 2.177 2.191 2.1949 2.209 2.2233 2.2377 2.2417 2.2456 2.2709 2.2641 2.2574 2.2613 2.2653 2.2799 2.2948 2.2878 2.3027 2.3067 2.3216 2.3146 2.3186 2.3226 2.3265 2.3194 2.2909 2.2948 2.288 2.2709 2.2643 2.2578 2.2514 2.245 2.2387 2.2424 2.2462 2.25 2.2435 2.2575 2.2612 2.265 2.2687 2.2828 2.2969 2.2903 2.315 2.3188 2.3332 2.3264 2.3409 2.3447 2.3593 2.3631 2.3779 2.3708 2.3747 2.3895 2.4045 2.4083 2.4696 2.4618 2.4542 2.4697 2.4621 2.466 2.4584 2.4507 2.4546 2.4472 2.4174 2.4212 2.4251 2.4178 2.4107 2.4145 2.4404 2.4442 2.4369 2.4631 2.4557 2.4595 2.4521 2.4559 2.471 2.4748 2.4674 2.4712 2.475 2.4564 2.4602 2.464 2.4567 2.4494 2.4422 2.4459 2.4497 2.4105 2.4141 2.4178 2.432 2.4683 2.5055 2.5321 2.5359 2.5168 2.498 2.5244 2.5282 2.5092 2.4797 2.4403 2.444 2.4583 2.4619 2.4655 2.4692 2.4728 2.4765 2.4801 2.4947 2.4983 2.4695 2.4839 2.4875 2.4911 2.5056 2.5093 2.502 2.5056 2.5093 2.5129 2.5165 2.5202 2.5238 2.5274 2.5201 2.5347 2.5383 2.553 2.5678 2.5715 2.5752 2.5901 2.549 2.5526 2.5343 2.5271 2.5415 2.5671 2.6044 2.6195 2.6118 2.6154 2.6191 2.6227 2.6614 2.6533 2.6688 2.6725 2.641 2.6562 2.6599 2.6754 2.715 2.7311 2.7472 2.7263 2.7179 2.7338 2.7499 2.7536 2.7574 2.7612 2.7774 2.7938 2.7976 2.8013
1.7032 1.7076 1.7121 1.6984 1.7028 1.7163 1.7208 1.7346 1.739 1.7529 1.748 1.7715 1.7955 1.8099 1.8145 1.8192 1.8039 1.7794 1.7464 1.7508 1.7552 1.7689 1.7827 1.7966 1.8108 1.825 1.8395 1.8642 1.8895 1.8942 1.9308 1.914 1.8871 1.8611 1.8457 1.821 1.8254 1.7922 1.7965 1.8008 1.7958 1.8001 1.7952 1.7904 1.7946 1.808 1.8309 1.8352 1.849 1.8629 1.8673 1.8814 1.8957 1.9001 1.8945 1.889 1.9132 1.9176 1.9322 1.9264 1.9207 1.9251 1.9295 1.9237 1.9083 1.8836 1.8688 1.8637 1.8495 1.8628 1.8762 1.8898 1.894 1.8887 1.9023 1.9162 1.9107 1.896 1.8907 1.9043 1.9084 1.9126 1.9263 1.9209 1.925 1.9388 1.9333 1.9375 1.9416 1.9458 1.9403 1.9254 1.9295 1.9527 1.9472 1.9707 1.9847 1.9988 2.003 2.0072 2.0113 1.9857 1.9801 1.9842 1.9981 1.9924 1.9867 1.9908 1.9949 1.999 2.0031 2.0171 2.0312 2.0353 2.0294 2.0335 2.0376 2.0219 2.0259 2.03 2.0341 2.0381 2.0422 2.0364 2.0503 2.0544 2.0485 2.0427 2.0271 2.0215 2.0255 2.0103 2.0049 2.0182 2.0317 2.0261 2.0493 2.0931 2.1073 2.1321 2.1468 2.1509 2.1445 2.1592 2.1633 2.1782 2.1716 2.1865 2.1907 2.1948 2.1881 2.1923 2.1856 2.1789 2.1724 2.1765 2.17 2.1636 2.1676 2.1717 2.1652 2.1797 2.1837 2.1878 2.1708 2.1646 2.1582 2.142 2.1459 2.12 2.1141 2.1277 2.1218 2.1159 2.1101 2.1139 2.1274 2.1215 2.1253 2.1291 2.1329 2.1465 2.1503 2.1641 2.1779 2.1919 2.1958 2.2099 2.2138 2.2282 2.2321 2.236 2.261 2.265 2.2477 2.2622 2.2769 2.2808 2.2848 2.2996 2.3036 2.3076 2.3116 2.3155 2.3195 2.3124 2.3164 2.3095 2.2918 2.285 2.2784 2.2613 2.2652 2.269 2.2522 2.256 2.2294 2.2433 2.2572 2.2508 2.2546 2.2685 2.2723 2.2761 2.2902 2.294 2.2977 2.3015 2.3264 2.3302 2.3341 2.3379 2.3417 2.3455 2.3602 2.364 2.3679 2.3717 2.3756 2.3794 2.3942 2.4092 2.4588 2.4512 2.4551 2.459 2.463 2.4554 2.4477 2.4403 2.4442 2.4367 2.4073 2.4111 2.404 2.4077 2.4007 2.4044 2.4191 2.4229 2.4267 2.4527 2.4454 2.4381 2.4419 2.4457 2.4495 2.4533 2.4571 2.4608 2.4646 2.4463 2.45 2.4538 2.4356 2.4393 2.4323 2.4252 2.4181 2.4008 2.4044 2.4186 2.4329 2.4691 2.4951 2.5215 2.5368 2.5177 2.4989 2.5253 2.529 2.5215 2.5027 2.4518 2.4554 2.4699 2.4843 2.4772 2.4808 2.4737 2.4773 2.4809 2.4955 2.4991 2.4704 2.474 2.4776 2.4812 2.5065 2.5101 2.5028 2.5065 2.4993 2.5029 2.5173 2.5101 2.5246 2.5173 2.51 2.5246 2.5282 2.5427 2.5464 2.55 2.5426 2.5573 2.5388 2.5316 2.5243 2.5065 2.51 2.535 2.5827 2.6089 2.6126 2.6048 2.6199 2.635 2.6622 2.6541 2.6578 2.6497 2.6304 2.634 2.6492 2.6529 2.6799 2.6836 2.7113 2.715 2.6947 2.7104 2.7262 2.7421 2.7458 2.7496 2.7533 2.7946 2.7984 2.815
1.6861 1.6995 1.695 1.6905 1.6949 1.7083 1.7218 1.7172 1.7401 1.7352 1.7396 1.7725 1.7867 1.811 1.8156 1.8202 1.8049 1.7997 1.7567 1.7611 1.7562 1.7699 1.7837 1.7881 1.8021 1.8066 1.8208 1.845 1.8698 1.8952 1.9104 1.9045 1.8677 1.8522 1.8566 1.8414 1.8361 1.7931 1.7974 1.8017 1.7968 1.8011 1.8054 1.7914 1.8047 1.8182 1.8413 1.8552 1.8596 1.8835 1.878 1.8726 1.8967 1.9011 1.8856 1.89 1.9042 1.9186 1.923 1.9173 1.9217 1.9261 1.9204 1.9148 1.9092 1.8845 1.8698 1.8646 1.8596 1.8637 1.8865 1.8907 1.8949 1.9087 1.9129 1.9366 1.9117 1.9064 1.8917 1.8865 1.9094 1.9135 1.9177 1.9218 1.9356 1.9397 1.9439 1.9384 1.9523 1.9467 1.9509 1.9358 1.9399 1.9633 1.9675 1.9716 1.9856 1.9898 2.0039 2.0182 2.0224 1.9867 1.9713 1.9754 1.9892 1.9836 1.9877 1.9821 1.9958 1.9902 2.004 2.0081 2.0321 2.0262 2.0404 2.0245 2.0386 2.0228 2.0269 2.0309 2.035 2.049 2.0431 2.0472 2.0513 2.0454 2.0495 2.0535 2.028 2.0224 2.036 2.0019 1.9964 2.0191 2.0231 2.0175 2.0502 2.094 2.1082 2.1226 2.1584 2.1626 2.156 2.1709 2.175 2.19 2.1833 2.1875 2.2025 2.1958 2.1891 2.1824 2.1865 2.1693 2.1734 2.1774 2.1605 2.1645 2.1581 2.1621 2.1766 2.1702 2.1742 2.1782 2.1717 2.1655 2.1591 2.1429 2.1468 2.1208 2.115 2.1188 2.1227 2.1168 2.1109 2.1147 2.1186 2.1224 2.1166 2.1203 2.1338 2.1376 2.1512 2.1649 2.1688 2.1928 2.1967 2.2108 2.2147 2.229 2.233 2.2369 2.2619 2.2659 2.2592 2.2631 2.2886 2.2817 2.2857 2.2896 2.3045 2.3085 2.3234 2.3274 2.3314 2.3244 2.3173 2.3104 2.2927 2.2859 2.2898 2.2831 2.2765 2.2699 2.2633 2.2672 2.2505 2.2645 2.2683 2.2618 2.2656 2.2796 2.2731 2.2872 2.291 2.2948 2.2986 2.3129 2.3273 2.3311 2.3349 2.3495 2.3426 2.3572 2.372 2.3868 2.3907 2.3835 2.3874 2.3913 2.3951 2.4101 2.4596 2.452 2.4445 2.4484 2.4638 2.4563 2.4373 2.4411 2.445 2.4376 2.4081 2.412 2.4048 2.4086 2.4015 2.4053 2.431 2.4238 2.4386 2.4536 2.4574 2.4501 2.4427 2.4465 2.4615 2.4653 2.4691 2.4729 2.4767 2.4693 2.4619 2.4546 2.4473 2.4402 2.4331 2.426 2.419 2.4121 2.4158 2.4194 2.4337 2.4922 2.5186 2.5339 2.561 2.5531 2.5453 2.5608 2.5646 2.5337 2.5147 2.4962 2.4999 2.5036 2.5184 2.511 2.5036 2.4745 2.4674 2.4818 2.4963 2.5109 2.4819 2.4855 2.4891 2.4928 2.5073 2.5109 2.5146 2.5182 2.5109 2.5145 2.5073 2.5218 2.5145 2.5072 2.5218 2.5144 2.518 2.5436 2.5362 2.5398 2.5324 2.536 2.5396 2.5324 2.536 2.5073 2.5108 2.5358 2.5835 2.6212 2.6248 2.6285 2.6322 2.6476 2.6631 2.6668 2.6354 2.6391 2.6198 2.6234 2.627 2.6421 2.669 2.6726 2.6763 2.7159 2.6956 2.6993 2.715 2.7187 2.7467 2.7382 2.7542 2.7955 2.812 2.8031
1.6782 1.6916 1.696 1.6914 1.6869 1.7093 1.7228 1.7273 1.7317 1.7362 1.7407 1.7735 1.7877 1.812 1.8167 1.8113 1.806 1.8007 1.7577 1.7621 1.7572 1.7616 1.7847 1.7892 1.7936 1.8076 1.812 1.8361 1.8607 1.8755 1.9115 1.9055 1.8586 1.8532 1.8577 1.8424 1.8371 1.8034 1.7984 1.8027 1.7978 1.8021 1.8156 1.8014 1.8057 1.8285 1.8519 1.8562 1.8606 1.8747 1.879 1.8834 1.8878 1.8921 1.8866 1.891 1.8953 1.9096 1.914 1.9083 1.9127 1.917 1.9214 1.9158 1.9102 1.8855 1.8801 1.8749 1.8698 1.8833 1.8875 1.9109 1.9054 1.9194 1.9333 1.9475 1.9223 1.9073 1.9115 1.8968 1.9103 1.9145 1.9186 1.9228 1.9174 1.9407 1.9352 1.9394 1.9435 1.9477 1.9518 1.9463 1.9505 1.9546 1.9587 1.9726 1.9767 1.9907 2.0049 2.0091 2.0133 1.9779 1.9722 1.9763 1.9902 1.9943 1.9886 1.9927 1.9871 2.0009 2.005 2.0189 2.0431 2.0372 2.0413 2.0354 2.0295 2.0336 2.0377 2.0318 2.0359 2.04 2.0441 2.0382 2.0522 2.0463 2.0504 2.0544 2.0194 2.0233 2.0273 2.0027 2.0067 2.02 2.024 2.0375 2.0414 2.0949 2.1092 2.1132 2.1487 2.1528 2.157 2.1718 2.176 2.1801 2.1843 2.1884 2.1926 2.1967 2.19 2.1833 2.1767 2.1597 2.1638 2.1574 2.1614 2.1447 2.1591 2.1527 2.1567 2.1607 2.1647 2.1687 2.1624 2.1561 2.1499 2.1438 2.1477 2.1217 2.1158 2.1295 2.1138 2.108 2.1022 2.106 2.1194 2.1136 2.1174 2.1212 2.1347 2.1483 2.1521 2.1559 2.1797 2.1937 2.2078 2.2117 2.2156 2.2404 2.2339 2.2378 2.2522 2.2562 2.2601 2.264 2.2787 2.2826 2.2866 2.2905 2.3054 2.3094 2.3134 2.3283 2.3323 2.3253 2.3293 2.3222 2.2936 2.2974 2.2907 2.284 2.2878 2.2812 2.2642 2.268 2.2513 2.2653 2.2691 2.2729 2.2664 2.2805 2.2843 2.2881 2.2919 2.3061 2.3099 2.3138 2.3389 2.3427 2.3466 2.3396 2.3542 2.3581 2.3728 2.3877 2.3805 2.3844 2.3883 2.4032 2.4071 2.411 2.4606 2.4529 2.4454 2.4608 2.4532 2.4571 2.4382 2.442 2.4459 2.4385 2.42 2.4128 2.4057 2.4095 2.4024 2.4171 2.4319 2.4357 2.4395 2.4657 2.4583 2.4509 2.4436 2.4585 2.4623 2.4774 2.4813 2.4965 2.5004 2.4814 2.4739 2.4777 2.4593 2.463 2.4668 2.4377 2.4414 2.413 2.4166 2.4203 2.4345 2.4931 2.5081 2.5347 2.5502 2.554 2.5578 2.5616 2.5655 2.546 2.5155 2.5081 2.5118 2.5155 2.5193 2.5118 2.5044 2.4753 2.479 2.4826 2.508 2.5008 2.4935 2.4972 2.49 2.5045 2.5081 2.5228 2.5154 2.5081 2.5227 2.5154 2.519 2.5118 2.5154 2.519 2.501 2.5046 2.5189 2.5334 2.537 2.5081 2.5117 2.5152 2.5188 2.5332 2.5259 2.5081 2.5011 2.5258 2.5956 2.6336 2.6373 2.641 2.6447 2.6484 2.6639 2.6441 2.6362 2.617 2.6093 2.6016 2.6052 2.6201 2.6698 2.6735 2.689 2.7167 2.7084 2.7242 2.7401 2.7562 2.76 2.7513 2.7675 2.7963 2.8001 2.8167
1.6704 1.6836 1.6881 1.6925 1.6969 1.7013 1.7147 1.7192 1.7236 1.7281 1.7417 1.765 1.7888 1.8032 1.8078 1.8025 1.7972 1.792 1.7774 1.7724 1.7769 1.7719 1.7857 1.7902 1.7946 1.799 1.8131 1.8371 1.8516 1.8663 1.8914 1.896 1.8597 1.8443 1.8487 1.8532 1.8478 1.8044 1.8087 1.8224 1.8174 1.8123 1.826 1.8209 1.8252 1.839 1.8529 1.8572 1.8713 1.8659 1.8702 1.8649 1.8692 1.8736 1.8682 1.8629 1.8865 1.8908 1.905 1.8995 1.894 1.8983 1.9026 1.9069 1.9112 1.896 1.9003 1.8853 1.8895 1.8938 1.9076 1.9314 1.9357 1.9399 1.9542 1.9585 1.933 1.9275 1.922 1.9071 1.9208 1.9154 1.9101 1.9142 1.9089 1.9225 1.9266 1.9307 1.9445 1.9486 1.9528 1.9473 1.9611 1.9652 1.9694 1.9638 1.9679 1.9818 1.986 1.9901 1.9943 1.9691 1.9636 1.9772 1.9813 1.9952 1.9993 1.9936 1.9977 1.9921 2.0158 2.0299 2.0543 2.0482 2.0524 2.0464 2.0404 2.0246 2.0386 2.0427 2.0368 2.0311 2.045 2.0491 2.0631 2.0572 2.0513 2.0553 2.0299 2.0146 2.0186 2.013 2.0076 2.0115 2.0344 2.0481 2.0618 2.0857 2.0999 2.1142 2.1391 2.1432 2.1473 2.1728 2.1769 2.1703 2.1744 2.1786 2.1827 2.1761 2.1695 2.163 2.1566 2.1502 2.1439 2.1479 2.1416 2.1355 2.1395 2.1434 2.1474 2.1412 2.1553 2.1491 2.153 2.157 2.1508 2.1346 2.1385 2.1226 2.1265 2.1303 2.1147 2.1185 2.1127 2.1165 2.13 2.1338 2.1376 2.1513 2.1453 2.169 2.1728 2.1767 2.1907 2.2048 2.2191 2.2334 2.2374 2.2519 2.2558 2.2598 2.2637 2.2677 2.261 2.2649 2.2689 2.2728 2.2767 2.2807 2.2846 2.2885 2.3033 2.3182 2.3222 2.3043 2.3082 2.3013 2.2944 2.3092 2.3022 2.2955 2.2993 2.282 2.2755 2.2793 2.2727 2.2765 2.2803 2.2841 2.2776 2.2918 2.2956 2.2994 2.3032 2.3176 2.3214 2.3252 2.3505 2.3544 2.3474 2.3405 2.3443 2.3699 2.3628 2.3776 2.3705 2.3743 2.3673 2.393 2.408 2.4119 2.4385 2.4309 2.4463 2.4502 2.4541 2.458 2.4504 2.4429 2.4355 2.4282 2.4209 2.4247 2.4175 2.4103 2.4032 2.4179 2.4327 2.4477 2.4515 2.4666 2.4705 2.463 2.4556 2.4707 2.4745 2.4897 2.5051 2.5089 2.5244 2.5051 2.4975 2.4899 2.4824 2.4975 2.5013 2.4938 2.4863 2.4459 2.4496 2.4425 2.4571 2.4939 2.4977 2.5127 2.5165 2.5317 2.547 2.5509 2.5547 2.5469 2.5164 2.4979 2.5016 2.5053 2.509 2.5015 2.4942 2.4762 2.4798 2.4834 2.5089 2.5017 2.4944 2.498 2.5126 2.5163 2.5309 2.5346 2.5495 2.542 2.5235 2.5272 2.5308 2.5235 2.5162 2.5089 2.5018 2.4946 2.4982 2.5125 2.5161 2.4877 2.4912 2.4948 2.4983 2.534 2.5376 2.5196 2.5231 2.5593 2.6308 2.6698 2.6736 2.6654 2.6691 2.661 2.6648 2.6449 2.6029 2.5952 2.5767 2.5693 2.5728 2.5985 2.6474 2.6743 2.6899 2.7176 2.7213 2.7496 2.7782 2.7695 2.7733 2.7646 2.7683 2.7846 2.801 2.8176
1.6714 1.6758 1.689 1.6935 1.6979 1.7023 1.7158 1.7202 1.7246 1.7291 1.7427 1.766 1.7801 1.8042 1.799 1.7937 1.7983 1.7931 1.7784 1.7829 1.7779 1.7823 1.7867 1.7912 1.8052 1.8096 1.8141 1.8381 1.8527 1.8673 1.8925 1.8867 1.8507 1.8453 1.8498 1.8444 1.8587 1.8148 1.8286 1.833 1.8278 1.8227 1.827 1.8313 1.8356 1.84 1.8538 1.8486 1.8529 1.8669 1.8712 1.8563 1.8606 1.8745 1.8596 1.8639 1.8778 1.9016 1.906 1.8907 1.895 1.8993 1.8939 1.9079 1.9122 1.897 1.9013 1.8959 1.8905 1.8852 1.8989 1.9324 1.9466 1.9409 1.9552 1.9595 1.934 1.9187 1.9134 1.9176 1.9217 1.9069 1.911 1.9058 1.9099 1.9234 1.9276 1.9317 1.9454 1.9496 1.9634 1.9676 1.962 1.976 1.9801 1.9647 1.9689 1.973 1.9771 1.9911 1.9854 1.97 1.9645 1.9782 1.9823 1.9864 1.9905 1.9946 1.9986 1.993 2.0068 2.0308 2.045 2.0492 2.0432 2.0473 2.0414 2.0354 2.0395 2.0436 2.0477 2.0418 2.0459 2.06 2.0743 2.0581 2.0622 2.0563 2.0405 2.0348 2.0195 2.0139 2.0084 2.0218 2.0353 2.0587 2.0726 2.0867 2.1008 2.1151 2.1295 2.1441 2.1377 2.1737 2.1779 2.1712 2.1647 2.1688 2.1729 2.177 2.1599 2.1535 2.1575 2.1408 2.1448 2.1386 2.1324 2.1364 2.1302 2.1241 2.1281 2.1421 2.146 2.15 2.1539 2.1477 2.1517 2.1355 2.1394 2.1333 2.1372 2.1312 2.1351 2.1291 2.133 2.1368 2.1505 2.1445 2.1583 2.1621 2.176 2.1698 2.1838 2.1877 2.2018 2.2057 2.22 2.2343 2.2383 2.2635 2.2675 2.2607 2.2646 2.2686 2.2725 2.2658 2.2805 2.2631 2.2776 2.2709 2.2748 2.2894 2.2827 2.2973 2.3013 2.3052 2.2983 2.2914 2.2953 2.3101 2.3031 2.307 2.3109 2.2829 2.2868 2.2801 2.284 2.2878 2.2812 2.2955 2.2888 2.2926 2.3069 2.3108 2.3041 2.3291 2.3329 2.3368 2.3514 2.3662 2.3483 2.3414 2.3452 2.349 2.3746 2.3675 2.3605 2.3643 2.3574 2.3829 2.3978 2.4016 2.4279 2.4205 2.4357 2.4396 2.4435 2.4474 2.4513 2.4438 2.4364 2.4291 2.4218 2.4146 2.4294 2.4112 2.426 2.4298 2.4336 2.4374 2.4524 2.4675 2.4714 2.4639 2.4677 2.4603 2.4754 2.4792 2.4944 2.5098 2.5137 2.5059 2.4983 2.5021 2.4946 2.4984 2.5136 2.506 2.4984 2.4686 2.4614 2.4542 2.4579 2.4948 2.5098 2.5023 2.5061 2.5098 2.5479 2.5517 2.544 2.5363 2.5172 2.4876 2.4913 2.495 2.4987 2.4913 2.4842 2.477 2.4806 2.4843 2.4988 2.5025 2.4952 2.4989 2.5135 2.5171 2.5543 2.5581 2.5504 2.5541 2.5354 2.5391 2.5427 2.5353 2.517 2.5097 2.5026 2.4955 2.499 2.5026 2.4955 2.4885 2.492 2.4956 2.4991 2.5457 2.5493 2.5311 2.5456 2.5712 2.6669 2.6827 2.6865 2.6782 2.67 2.6619 2.6656 2.6457 2.6037 2.585 2.5665 2.5485 2.5627 2.5882 2.6368 2.6635 2.6788 2.7184 2.7101 2.7504 2.7666 2.7704 2.7617 2.7654 2.7692 2.7855 2.8019 2.8057
