0 0 0 0 0 0 0 0 0 0 0 0 0 0 0 0 0 0 0 0 0 0 0 0 0 0 0 0 0 0 0 0 0 0 0 0 0 0 0 0 0 0 0 0 0 0 0 0 0 0 0 0 0 0 0 0 0 0 0 0 0 0 0 0 0 0 0 0 0 0 0 0 0 0 0 0 0 -0.24646 -0.24704 -0.24876 -0.24981 -0.24992 -0.2505 -0.25154 -0.25353 -0.25484 -0.25563 -0.2562 -0.25703 -0.25732 -0.25836 -0.25919 -0.25952 -0.25985 -0.26039 -0.26021 -0.26053 -0.26155 -0.26258 -0.26315 -0.2639 -0.26492 -0.26549 -0.26577 -0.26656 -0.26684 -0.26688 -0.2672 -0.26699 -0.26753 -0.26807 -0.26813 -0.26889 -0.26965 -0.26988 -0.27063 -0.27115 -0.27142 -0.27193 -0.27291 -0.27299 -0.27397 -0.27495 -0.27618 -0.27716 -0.27765 -0.27863 -0.27962 -0.27985 -0.28008 -0.28062 -0.2799 -0.28036 -0.28107 -0.28179 -0.28249 -0.2825 -0.28327 -0.28371 -0.28422 -0.28466 -0.28516 -0.28461 -0.28484 -0.28559 -0.28535 -0.28603 -0.28624 -0.28698 -0.28792 -0.28832 -0.28925 -0.28952 -0.2895 -0.28969 -0.28987 -0.28943 -0.28987 -0.29031 -0.29075 -0.29118 -0.2914 -0.29155 -0.29176 -0.29225 -0.29288 -0.29357 -0.29377 -0.29468 -0.29537 -0.29577 -0.29617 -0.29664 -0.29682 -0.29721 -0.29739 -0.29806 -0.29917 -0.29984 -0.30052 -0.30119 -0.30156 -0.30223 -0.3029 -0.30304 -0.3037 -0.30384 -0.30428 -0.30493 -0.30483 -0.30526 -0.30591 -0.30534 -0.30575 -0.30586 -0.30534 -0.30575 -0.30661 -0.30701 -0.30787 -0.3085 -0.30913 -0.30952 -0.30944 -0.30959 -0.30997 -0.30916 -0.30977 -0.31038 -0.31099 -0.3116 -0.31196 -0.31265 -0.31349 -0.31385 -0.31445 -0.31505 -0.31516 -0.31551 -0.31594 -0.31678 -0.31762 -0.31796 -0.31764 -0.31772 -0.31814 -0.31847 -0.31879 -0.3192 -0.31978 -0.32035 -0.31999 -0.32014 -0.32002 -0.31965 -0.31978 -0.32042 -0.32004 -0.32016 -0.32071 -0.32151 -0.32232 -0.32313 -0.32376 -0.32405 -0.32424 -0.32478 -0.32585 -0.32639 -0.32746 -0.32799 -0.32809 -0.32889 -0.32826 -0.32906 -0.32986 -0.32949 -0.3301 -0.33017 -0.33024 -0.33058 -0.33119 -0.33125 -0.33131 -0.33118 -0.3315 -0.33164 -0.3315 -0.33182 -0.33185 -0.33179 -0.33229 -0.33306 -0.33318 -0.33348 -0.33397 -0.33437 -0.33466 -0.3343 -0.33506 -0.33554 -0.33545 -0.33574 -0.33669 -0.33707 -0.33783 -0.33831 -0.33839 -0.33867 -0.33923 -0.33931 -0.33958 -0.33965 -0.34001 -0.34047 -0.34034 -0.34089 -0.34164 -0.3417 -0.34245 -0.3427 -0.34255 -0.3429 -0.34274 -0.34298 -0.34332 -0.34316 -0.34359 -0.34393 -0.34446 -0.3452 -0.34573 -0.34647 -0.34721 -0.34794 -0.34796 -0.34849 -0.34788 -0.34769 -0.34458 -0.34707 -0.34759 -0.3481 -0.34747 -0.34735 -0.34807 -0.34827 -0.34899 -0.34971 -0.35 -0.35009 -0.34921 -0.3495 -0.35 -0.35071 -0.35207 -0.35278 -0.35349 -0.35464 -0.35514 -0.35542 -0.35548
0 0 0 0 0 0 0 0 0 0 0 0 0 0 0 0 0 0 0 0 0 0 0 0 0 0 0 0 0 0 0 0 0 0 0 0 0 0 0 0 0 0 0 0 0 0 0 0 0 0 0 0 0 0 0 0 0 0 0 0 0 0 0 0 0 0 0 0 0 0 0 0 0 0 0 0 0 -0.2455 -0.24675 -0.24826 -0.24977 -0.25035 -0.25072 -0.25177 -0.25376 -0.25502 -0.25538 -0.25616 -0.25672 -0.25728 -0.25811 -0.25915 -0.259 -0.25954 -0.26036 -0.25996 -0.26049 -0.26152 -0.26254 -0.26312 -0.26386 -0.26488 -0.26546 -0.26597 -0.26653 -0.2668 -0.26661 -0.26716 -0.26696 -0.2675 -0.26803 -0.26856 -0.26933 -0.26985 -0.27008 -0.2706 -0.27135 -0.27115 -0.27171 -0.2727 -0.2732 -0.27394 -0.27492 -0.27615 -0.27713 -0.27762 -0.2786 -0.27958 -0.27982 -0.2803 -0.28058 -0.2803 -0.28102 -0.28154 -0.28226 -0.28297 -0.28272 -0.28324 -0.28368 -0.28393 -0.28437 -0.28513 -0.28438 -0.28461 -0.2853 -0.28552 -0.28626 -0.28621 -0.28714 -0.28788 -0.28855 -0.28902 -0.28948 -0.28947 -0.28966 -0.28984 -0.2896 -0.28984 -0.29048 -0.29072 -0.29163 -0.29137 -0.2918 -0.29201 -0.29194 -0.29285 -0.29333 -0.29395 -0.29465 -0.29534 -0.29553 -0.29643 -0.29683 -0.29679 -0.2974 -0.29764 -0.29825 -0.29892 -0.29981 -0.30049 -0.30086 -0.30131 -0.30198 -0.30264 -0.30301 -0.30345 -0.30381 -0.30447 -0.30513 -0.3048 -0.30545 -0.30588 -0.30554 -0.30572 -0.30613 -0.30555 -0.30595 -0.30681 -0.30721 -0.30808 -0.30824 -0.30887 -0.30949 -0.30941 -0.30979 -0.31018 -0.30961 -0.30998 -0.31059 -0.31096 -0.31157 -0.31218 -0.31262 -0.31346 -0.31407 -0.31443 -0.31502 -0.31513 -0.31548 -0.31616 -0.31675 -0.31759 -0.31793 -0.31761 -0.31794 -0.31828 -0.31894 -0.31927 -0.31943 -0.32 -0.32083 -0.32022 -0.32062 -0.32025 -0.31962 -0.32001 -0.32039 -0.31975 -0.31987 -0.32068 -0.32175 -0.32255 -0.3231 -0.32373 -0.32402 -0.32421 -0.32501 -0.32555 -0.32636 -0.32743 -0.32797 -0.32806 -0.32859 -0.32823 -0.32903 -0.32965 -0.32973 -0.32981 -0.33042 -0.33022 -0.33055 -0.33134 -0.33122 -0.33155 -0.33142 -0.33175 -0.33207 -0.33166 -0.33179 -0.3321 -0.33176 -0.33226 -0.33285 -0.33315 -0.33346 -0.33423 -0.33406 -0.33464 -0.33446 -0.33504 -0.3358 -0.33542 -0.3359 -0.33695 -0.33743 -0.338 -0.33857 -0.33865 -0.33893 -0.3394 -0.33928 -0.33985 -0.33962 -0.33969 -0.34005 -0.34012 -0.34067 -0.34142 -0.34187 -0.34242 -0.34268 -0.34282 -0.34327 -0.34312 -0.34346 -0.3437 -0.34353 -0.34357 -0.3441 -0.34464 -0.34517 -0.34571 -0.34644 -0.34739 -0.34812 -0.34835 -0.34888 -0.34848 -0.34942 -0.34818 -0.34798 -0.34829 -0.3487 -0.34744 -0.34754 -0.34784 -0.34782 -0.34833 -0.34905 -0.34934 -0.34964 -0.34897 -0.34947 -0.35019 -0.3509 -0.35183 -0.35254 -0.35368 -0.35461 -0.35511 -0.35539 -0.35546
0 0 0 0 0 0 0 0 0 0 0 0 0 0 0 0 0 0 0 0 0 0 0 0 0 0 0 0 0 0 0 0 0 0 0 0 0 0 0 0 0 0 0 0 0 0 0 0 0 0 0 0 0 0 0 0 0 0 0 0 0 0 0 0 0 0 0 0 0 0 0 0 0 0 0 0 0 -0.24546 -0.24697 -0.24848 -0.24974 -0.25058 -0.25116 -0.2522 -0.25372 -0.25498 -0.25555 -0.25612 -0.25695 -0.25725 -0.25807 -0.2589 -0.25874 -0.25901 -0.25961 -0.25992 -0.26023 -0.26148 -0.26228 -0.26281 -0.2636 -0.2644 -0.2652 -0.2657 -0.26649 -0.26677 -0.26658 -0.26759 -0.26692 -0.26769 -0.26823 -0.26853 -0.26929 -0.26982 -0.27005 -0.27056 -0.27132 -0.27111 -0.27168 -0.27242 -0.27316 -0.2739 -0.27489 -0.27611 -0.27709 -0.27759 -0.27881 -0.27955 -0.27978 -0.28026 -0.28055 -0.28077 -0.28124 -0.28195 -0.28273 -0.28345 -0.28294 -0.2832 -0.28365 -0.28364 -0.28388 -0.28457 -0.28409 -0.28458 -0.28507 -0.28529 -0.2857 -0.28597 -0.28691 -0.28785 -0.28825 -0.28899 -0.28945 -0.28964 -0.28983 -0.29028 -0.28977 -0.29029 -0.29073 -0.29089 -0.2916 -0.29182 -0.29225 -0.29219 -0.29219 -0.2931 -0.29351 -0.29392 -0.29462 -0.29552 -0.29571 -0.29661 -0.29701 -0.29719 -0.29766 -0.29783 -0.29851 -0.29911 -0.29978 -0.30046 -0.30113 -0.30128 -0.30195 -0.30261 -0.30276 -0.30312 -0.30356 -0.30421 -0.30464 -0.30477 -0.3052 -0.30584 -0.30551 -0.30569 -0.3058 -0.30574 -0.30615 -0.30678 -0.30718 -0.30805 -0.30821 -0.30884 -0.30946 -0.30938 -0.30977 -0.30991 -0.30958 -0.30995 -0.3108 -0.31093 -0.31154 -0.31215 -0.31275 -0.3136 -0.31404 -0.31464 -0.315 -0.3151 -0.31545 -0.31613 -0.31672 -0.31756 -0.3179 -0.31733 -0.31766 -0.31808 -0.31866 -0.31899 -0.31957 -0.31997 -0.3208 -0.32044 -0.32059 -0.32065 -0.31985 -0.31998 -0.32037 -0.31998 -0.31984 -0.32065 -0.32146 -0.32209 -0.3229 -0.32371 -0.32399 -0.32436 -0.32499 -0.32579 -0.3266 -0.3274 -0.32794 -0.32776 -0.32839 -0.32847 -0.329 -0.3298 -0.3297 -0.33005 -0.33012 -0.33019 -0.33053 -0.33114 -0.33092 -0.33153 -0.3314 -0.33191 -0.33251 -0.33237 -0.33241 -0.33226 -0.33192 -0.33251 -0.33329 -0.33313 -0.33362 -0.33392 -0.3345 -0.3348 -0.33472 -0.33501 -0.33578 -0.3354 -0.33616 -0.33693 -0.33769 -0.33797 -0.33854 -0.33863 -0.3391 -0.33937 -0.33926 -0.33982 -0.3396 -0.33996 -0.34022 -0.34009 -0.34084 -0.34139 -0.34185 -0.3424 -0.34295 -0.343 -0.34355 -0.34329 -0.34363 -0.34387 -0.34371 -0.34425 -0.34458 -0.34461 -0.34535 -0.34588 -0.34662 -0.34736 -0.3481 -0.34863 -0.34906 -0.34866 -0.34898 -0.34899 -0.34837 -0.34868 -0.34899 -0.34742 -0.3473 -0.3475 -0.34738 -0.34788 -0.3486 -0.34911 -0.34961 -0.34895 -0.34945 -0.35016 -0.35087 -0.3518 -0.3523 -0.35301 -0.35373 -0.35444 -0.35515 -0.35543
0 0 0 0 0 0 0 0 0 0 0 0 0 0 0 0 0 0 0 0 0 0 0 0 0 0 0 0 0 0 0 0 0 0 0 0 0 0 0 0 0 0 0 0 0 0 0 0 0 0 0 0 0 0 0 0 0 0 0 0 0 0 0 0 0 0 0 0 0 0 0 0 0 0 0 0 0 -0.24635 -0.2476 -0.24911 -0.25042 -0.25122 -0.25206 -0.25311 -0.25416 -0.25521 -0.25578 -0.25635 -0.25713 -0.2577 -0.25852 -0.25908 -0.25871 -0.25898 -0.25979 -0.25989 -0.26042 -0.26144 -0.26247 -0.26305 -0.26334 -0.26414 -0.26516 -0.26567 -0.26646 -0.26673 -0.26654 -0.26778 -0.26741 -0.26789 -0.26843 -0.26849 -0.26926 -0.26978 -0.27025 -0.27077 -0.27152 -0.27132 -0.27206 -0.27263 -0.27361 -0.27436 -0.27534 -0.27632 -0.27755 -0.27804 -0.27903 -0.27976 -0.27975 -0.28048 -0.2807 -0.28099 -0.28146 -0.28217 -0.28289 -0.28386 -0.28317 -0.28362 -0.28413 -0.2836 -0.28385 -0.28435 -0.28406 -0.28455 -0.28503 -0.28525 -0.28593 -0.28594 -0.28688 -0.28782 -0.28849 -0.28896 -0.28962 -0.28961 -0.29034 -0.291 -0.2907 -0.29114 -0.29138 -0.29162 -0.29205 -0.29269 -0.29291 -0.29313 -0.29286 -0.29349 -0.29397 -0.2946 -0.29529 -0.2962 -0.29639 -0.29729 -0.2977 -0.29788 -0.29856 -0.29823 -0.29891 -0.29959 -0.30026 -0.30064 -0.30131 -0.30169 -0.30214 -0.3028 -0.30273 -0.30339 -0.30353 -0.30418 -0.30484 -0.30474 -0.30539 -0.30582 -0.30525 -0.30566 -0.30607 -0.30572 -0.30635 -0.30722 -0.30762 -0.30825 -0.30865 -0.30904 -0.30967 -0.30958 -0.30997 -0.31012 -0.30979 -0.3104 -0.31101 -0.31162 -0.31199 -0.31236 -0.31272 -0.31357 -0.31401 -0.31485 -0.31545 -0.31532 -0.31567 -0.31626 -0.31694 -0.31753 -0.31787 -0.3173 -0.31788 -0.31805 -0.31888 -0.31921 -0.31954 -0.32037 -0.32077 -0.32067 -0.32056 -0.32045 -0.32007 -0.32038 -0.32051 -0.31995 -0.32007 -0.32062 -0.32143 -0.32224 -0.32305 -0.32368 -0.32396 -0.32459 -0.32513 -0.32594 -0.32657 -0.32737 -0.32764 -0.32756 -0.32809 -0.32871 -0.32925 -0.33004 -0.32967 -0.33002 -0.33036 -0.33016 -0.3305 -0.33111 -0.33089 -0.3315 -0.33183 -0.33234 -0.33294 -0.33326 -0.33331 -0.33316 -0.33255 -0.33314 -0.3341 -0.33404 -0.33406 -0.33465 -0.33495 -0.33525 -0.33469 -0.33546 -0.33594 -0.33585 -0.33633 -0.3369 -0.33766 -0.33843 -0.33871 -0.3386 -0.33907 -0.33935 -0.33923 -0.33979 -0.33957 -0.34013 -0.34039 -0.34046 -0.34101 -0.34157 -0.34212 -0.34257 -0.34292 -0.34337 -0.34392 -0.34377 -0.34431 -0.34435 -0.34459 -0.34493 -0.34547 -0.3453 -0.34573 -0.34627 -0.3466 -0.34734 -0.34828 -0.3486 -0.34934 -0.34915 -0.34937 -0.34969 -0.34948 -0.3498 -0.3498 -0.34677 -0.34749 -0.34747 -0.34756 -0.34786 -0.34879 -0.34908 -0.34959 -0.34935 -0.34964 -0.35035 -0.35085 -0.35156 -0.35228 -0.35277 -0.3537 -0.35441 -0.35491 -0.35519
0 0 0 0 0 0 0 0 0 0 0 0 0 0 0 0 0 0 0 0 0 0 0 0 0 0 0 0 0 0 0 0 0 0 0 0 0 0 0 0 0 0 0 0 0 0 0 0 0 0 0 0 0 0 0 0 0 0 0 0 0 0 0 0 0 0 0 0 0 0 0 0 0 0 0 -0.24487 -0.24592 -0.24677 -0.24782 -0.24908 -0.25013 -0.25144 -0.25202 -0.25307 -0.25412 -0.25517 -0.25596 -0.25653 -0.2571 -0.25793 -0.2587 -0.25926 -0.25889 -0.25921 -0.25976 -0.26029 -0.26088 -0.26191 -0.26243 -0.26346 -0.26353 -0.26433 -0.26512 -0.26586 -0.26642 -0.2667 -0.26651 -0.26729 -0.2676 -0.26762 -0.26816 -0.26823 -0.26899 -0.26975 -0.27021 -0.27073 -0.27149 -0.27176 -0.27227 -0.27326 -0.27376 -0.27456 -0.27555 -0.27653 -0.27752 -0.27825 -0.27899 -0.27948 -0.27996 -0.28019 -0.28067 -0.2807 -0.28142 -0.28189 -0.28286 -0.28382 -0.28262 -0.28333 -0.28409 -0.28331 -0.28381 -0.28405 -0.28376 -0.28425 -0.285 -0.28522 -0.2859 -0.28611 -0.28685 -0.28779 -0.28819 -0.28912 -0.28959 -0.28985 -0.2903 -0.29096 -0.29067 -0.29139 -0.29156 -0.29158 -0.2925 -0.29266 -0.29309 -0.29359 -0.29324 -0.29374 -0.29415 -0.29485 -0.29547 -0.29638 -0.29686 -0.29748 -0.29795 -0.29814 -0.29875 -0.2982 -0.29888 -0.29956 -0.30023 -0.30083 -0.30128 -0.30166 -0.30233 -0.303 -0.30292 -0.30358 -0.30372 -0.30438 -0.30503 -0.30494 -0.30513 -0.30556 -0.30544 -0.30563 -0.30604 -0.30615 -0.30655 -0.30742 -0.30782 -0.30868 -0.30838 -0.30924 -0.30964 -0.30979 -0.30994 -0.31009 -0.30976 -0.31013 -0.31098 -0.31135 -0.3122 -0.31257 -0.31269 -0.31354 -0.31422 -0.31482 -0.31567 -0.31553 -0.31589 -0.31648 -0.31691 -0.3175 -0.3176 -0.31727 -0.31736 -0.31802 -0.3186 -0.31918 -0.31951 -0.32034 -0.32099 -0.32064 -0.32053 -0.32059 -0.32005 -0.32035 -0.32074 -0.31992 -0.32004 -0.32059 -0.32166 -0.32247 -0.32302 -0.32365 -0.3242 -0.3243 -0.32493 -0.32591 -0.32627 -0.32708 -0.32744 -0.32726 -0.32762 -0.32842 -0.32922 -0.32975 -0.32965 -0.32999 -0.33034 -0.33041 -0.33074 -0.33108 -0.33087 -0.3312 -0.3318 -0.33259 -0.33291 -0.33324 -0.33356 -0.3336 -0.33326 -0.33376 -0.33454 -0.33438 -0.3345 -0.33509 -0.33492 -0.33541 -0.33466 -0.33543 -0.33572 -0.33582 -0.3363 -0.33687 -0.33764 -0.3384 -0.33868 -0.33858 -0.33885 -0.33932 -0.3392 -0.33977 -0.33954 -0.3401 -0.34037 -0.34043 -0.34099 -0.34174 -0.34209 -0.34254 -0.34309 -0.34315 -0.34389 -0.34374 -0.34398 -0.34453 -0.34487 -0.34511 -0.34544 -0.34547 -0.34601 -0.34645 -0.34657 -0.34731 -0.34805 -0.34858 -0.34932 -0.34892 -0.34934 -0.34966 -0.34998 -0.35019 -0.3503 -0.34674 -0.34725 -0.34745 -0.34754 -0.34804 -0.34876 -0.34927 -0.34977 -0.34932 -0.34982 -0.35032 -0.35104 -0.35154 -0.35225 -0.35275 -0.35346 -0.35417 -0.35467 -0.35495
0 0 0 0 0 0 0 0 0 0 0 0 0 0 0 0 0 0 0 0 0 0 0 0 0 0 0 0 0 0 0 0 0 0 0 0 0 0 0 0 0 0 0 0 0 0 0 0 0 0 0 0 0 0 0 0 0 0 0 0 0 0 0 0 0 0 0 0 0 0 0 0 0 -0.22648 -0.22746 -0.24484 -0.24589 -0.24674 -0.24799 -0.24904 -0.25035 -0.2514 -0.25199 -0.25304 -0.25409 -0.25535 -0.25592 -0.25676 -0.25733 -0.2581 -0.25894 -0.25949 -0.25885 -0.25918 -0.25972 -0.26026 -0.26128 -0.26187 -0.26262 -0.26342 -0.26372 -0.26429 -0.26531 -0.26582 -0.26639 -0.26666 -0.2667 -0.26748 -0.26757 -0.26782 -0.26789 -0.26819 -0.26895 -0.26995 -0.26994 -0.2707 -0.27145 -0.27197 -0.27248 -0.27346 -0.27421 -0.27495 -0.2757 -0.27668 -0.27767 -0.27797 -0.27896 -0.27944 -0.27968 -0.28041 -0.28064 -0.28042 -0.28088 -0.28116 -0.28212 -0.28284 -0.28233 -0.28285 -0.2838 -0.28328 -0.28378 -0.28428 -0.28373 -0.28422 -0.28497 -0.28492 -0.2856 -0.28608 -0.28681 -0.28775 -0.28795 -0.28889 -0.28956 -0.28981 -0.29027 -0.2912 -0.29091 -0.29135 -0.2918 -0.29203 -0.29268 -0.29311 -0.29355 -0.29398 -0.29349 -0.29391 -0.29461 -0.29482 -0.29572 -0.29663 -0.29704 -0.29773 -0.29835 -0.29832 -0.29872 -0.29846 -0.29936 -0.29974 -0.30042 -0.30109 -0.30147 -0.30192 -0.3023 -0.30296 -0.30311 -0.30355 -0.30369 -0.30435 -0.30478 -0.30445 -0.30488 -0.30553 -0.30518 -0.30583 -0.30624 -0.30612 -0.30675 -0.30739 -0.30825 -0.30889 -0.30859 -0.30921 -0.30984 -0.30953 -0.30991 -0.31006 -0.30973 -0.31034 -0.31095 -0.31156 -0.31217 -0.31254 -0.31266 -0.31351 -0.31419 -0.31504 -0.31588 -0.3155 -0.3161 -0.3167 -0.31688 -0.31747 -0.31757 -0.317 -0.31716 -0.31774 -0.31807 -0.3189 -0.31931 -0.31963 -0.32046 -0.31985 -0.31999 -0.32039 -0.32002 -0.32032 -0.32071 -0.32015 -0.32002 -0.32082 -0.32163 -0.32244 -0.32299 -0.3238 -0.32417 -0.32384 -0.32438 -0.32544 -0.32598 -0.32661 -0.32688 -0.32679 -0.32715 -0.32794 -0.32874 -0.32954 -0.32935 -0.32997 -0.33049 -0.33038 -0.33072 -0.33105 -0.33084 -0.33144 -0.33177 -0.33256 -0.33288 -0.33339 -0.33372 -0.33385 -0.3337 -0.33448 -0.33498 -0.33464 -0.33476 -0.33525 -0.33489 -0.33538 -0.33483 -0.33541 -0.3357 -0.3358 -0.33627 -0.33685 -0.3378 -0.33857 -0.33866 -0.33874 -0.33883 -0.3391 -0.33937 -0.33974 -0.33952 -0.34008 -0.34034 -0.3407 -0.34116 -0.34171 -0.34177 -0.34232 -0.34257 -0.34292 -0.34367 -0.34371 -0.34426 -0.3447 -0.34484 -0.34528 -0.34562 -0.34565 -0.34619 -0.34642 -0.34675 -0.34749 -0.34802 -0.34855 -0.34898 -0.34889 -0.34911 -0.34964 -0.34964 -0.34996 -0.35027 -0.34672 -0.34723 -0.34774 -0.34751 -0.34823 -0.34874 -0.34924 -0.34975 -0.34951 -0.3498 -0.35051 -0.3508 -0.3513 -0.35201 -0.35272 -0.35344 -0.35415 -0.35443 -0.35492
0 0 0 0 0 0 0 0 0 0 0 0 0 0 0 0 0 0 0 0 0 0 0 0 0 0 0 0 0 0 0 0 0 0 0 0 0 0 0 0 0 0 0 0 0 0 0 0 0 0 0 0 0 0 0 0 0 0 0 0 0 0 0 0 0 0 0 0 0 0 0 0 0 -0.22644 -0.22742 -0.2448 -0.24631 -0.24762 -0.24841 -0.24947 -0.25078 -0.25157 -0.25242 -0.25347 -0.25452 -0.25558 -0.25615 -0.2572 -0.25777 -0.25834 -0.25911 -0.25994 -0.25903 -0.25914 -0.2599 -0.26022 -0.26125 -0.26206 -0.26259 -0.26361 -0.26369 -0.26448 -0.2655 -0.26607 -0.26681 -0.26737 -0.26718 -0.26768 -0.26799 -0.26831 -0.26879 -0.26886 -0.26962 -0.27015 -0.27044 -0.2709 -0.27166 -0.27193 -0.27268 -0.27343 -0.27417 -0.27516 -0.27591 -0.27689 -0.27763 -0.27819 -0.27892 -0.27941 -0.27989 -0.28037 -0.28085 -0.28013 -0.28041 -0.28138 -0.28158 -0.28229 -0.28256 -0.28281 -0.28351 -0.2835 -0.28401 -0.28444 -0.28396 -0.28445 -0.28513 -0.28515 -0.28557 -0.28604 -0.28678 -0.28745 -0.28792 -0.28859 -0.28952 -0.28998 -0.29092 -0.29185 -0.29156 -0.29228 -0.29273 -0.29269 -0.29334 -0.29357 -0.294 -0.29443 -0.29367 -0.29409 -0.29479 -0.29521 -0.2959 -0.29681 -0.29722 -0.29791 -0.29861 -0.29922 -0.29969 -0.29915 -0.29976 -0.30044 -0.30061 -0.3015 -0.30218 -0.30256 -0.30323 -0.30367 -0.3036 -0.30427 -0.30388 -0.30432 -0.30475 -0.3042 -0.30462 -0.3055 -0.30561 -0.3058 -0.30667 -0.30655 -0.30718 -0.30782 -0.30845 -0.30932 -0.30902 -0.30965 -0.31005 -0.30973 -0.31012 -0.31027 -0.31017 -0.31055 -0.3114 -0.31153 -0.31238 -0.31275 -0.31288 -0.31372 -0.31432 -0.31517 -0.31601 -0.31572 -0.31632 -0.31691 -0.31726 -0.31744 -0.31778 -0.31697 -0.31713 -0.31747 -0.31829 -0.31862 -0.31903 -0.31935 -0.31976 -0.31965 -0.31971 -0.32011 -0.32025 -0.32055 -0.32094 -0.32038 -0.32025 -0.3208 -0.32186 -0.32241 -0.32348 -0.32377 -0.32414 -0.32407 -0.32435 -0.32542 -0.32578 -0.32658 -0.32667 -0.3265 -0.32685 -0.32792 -0.32871 -0.32951 -0.32986 -0.33012 -0.33046 -0.33053 -0.33087 -0.33148 -0.33109 -0.33142 -0.33175 -0.33253 -0.33304 -0.33337 -0.33397 -0.33429 -0.33433 -0.33492 -0.33524 -0.33508 -0.33492 -0.3355 -0.33534 -0.33583 -0.33527 -0.33557 -0.33615 -0.33577 -0.33653 -0.3373 -0.33778 -0.33883 -0.33882 -0.33891 -0.33928 -0.33956 -0.33983 -0.33991 -0.33998 -0.34054 -0.34081 -0.34087 -0.34113 -0.34169 -0.34154 -0.34209 -0.34235 -0.3427 -0.34344 -0.34389 -0.34443 -0.34498 -0.34502 -0.34526 -0.3458 -0.34613 -0.34637 -0.3469 -0.34744 -0.34767 -0.34841 -0.34853 -0.34896 -0.34856 -0.34908 -0.34961 -0.34993 -0.35014 -0.34993 -0.34669 -0.34783 -0.34834 -0.34812 -0.34863 -0.34935 -0.34943 -0.34994 -0.3497 -0.3502 -0.3507 -0.35099 -0.35149 -0.3522 -0.3527 -0.35363 -0.35434 -0.35484 -0.35533
0 0 0 0 0 0 0 0 0 0 0 0 0 0 0 0 0 0 0 0 0 0 0 0 0 0 0 0 0 0 0 0 0 0 0 0 0 0 0 0 0 0 0 0 0 0 0 0 0 0 0 0 0 0 0 0 0 0 0 0 0 0 0 0 0 0 0 0 0 0 0 0 -0.22138 -0.22235 -0.22331 -0.24729 -0.24719 -0.24824 -0.2491 -0.24989 -0.25095 -0.25226 -0.25285 -0.25364 -0.2547 -0.25554 -0.25633 -0.2569 -0.25773 -0.25803 -0.25908 -0.25964 -0.25927 -0.2596 -0.26014 -0.26046 -0.26149 -0.26202 -0.26283 -0.26358 -0.26393 -0.26495 -0.26547 -0.26604 -0.26677 -0.26733 -0.26738 -0.26793 -0.26819 -0.26874 -0.26899 -0.26906 -0.26982 -0.27035 -0.27041 -0.2714 -0.27186 -0.27214 -0.27289 -0.27364 -0.27438 -0.27513 -0.27587 -0.27686 -0.2776 -0.2784 -0.27889 -0.27938 -0.28011 -0.28059 -0.28057 -0.2801 -0.28063 -0.28109 -0.28155 -0.28207 -0.28227 -0.28278 -0.28322 -0.28347 -0.28417 -0.28441 -0.28419 -0.28441 -0.28536 -0.28512 -0.2858 -0.28601 -0.28675 -0.28769 -0.28809 -0.28903 -0.28949 -0.29042 -0.29116 -0.29182 -0.29227 -0.29245 -0.29318 -0.29286 -0.2933 -0.29353 -0.29397 -0.2944 -0.29364 -0.29406 -0.29476 -0.29518 -0.29587 -0.29678 -0.29748 -0.29838 -0.29857 -0.29919 -0.29966 -0.29955 -0.30002 -0.30041 -0.30079 -0.30147 -0.30215 -0.30252 -0.3032 -0.30364 -0.30379 -0.30394 -0.30385 -0.30429 -0.30472 -0.30417 -0.30482 -0.30569 -0.30558 -0.306 -0.30664 -0.30651 -0.30715 -0.30779 -0.30866 -0.30929 -0.30923 -0.30962 -0.31002 -0.30994 -0.31056 -0.31095 -0.31085 -0.31147 -0.31185 -0.31174 -0.31259 -0.31296 -0.31333 -0.31393 -0.31454 -0.31514 -0.31582 -0.31594 -0.31629 -0.31713 -0.31699 -0.31741 -0.31776 -0.31694 -0.31711 -0.31719 -0.31777 -0.31859 -0.3185 -0.31907 -0.31948 -0.31912 -0.31951 -0.32008 -0.32022 -0.32078 -0.32091 -0.32052 -0.32039 -0.32103 -0.32183 -0.32282 -0.32345 -0.324 -0.32437 -0.32422 -0.32458 -0.32539 -0.32593 -0.32655 -0.32682 -0.32674 -0.32682 -0.32762 -0.32887 -0.32948 -0.32983 -0.33009 -0.33071 -0.3305 -0.33084 -0.33118 -0.33106 -0.33139 -0.33144 -0.33223 -0.33283 -0.33334 -0.33394 -0.33426 -0.3343 -0.33508 -0.33539 -0.33477 -0.33489 -0.3352 -0.33531 -0.3358 -0.33544 -0.33573 -0.33612 -0.33593 -0.33651 -0.33746 -0.33804 -0.3388 -0.33909 -0.33917 -0.33926 -0.33953 -0.33981 -0.34008 -0.33996 -0.34022 -0.34078 -0.34065 -0.3411 -0.34166 -0.34172 -0.34207 -0.34252 -0.34267 -0.34312 -0.34366 -0.34421 -0.34495 -0.34499 -0.34523 -0.34557 -0.3458 -0.34654 -0.34708 -0.34711 -0.34764 -0.34818 -0.3485 -0.34893 -0.34853 -0.34906 -0.34958 -0.3499 -0.34991 -0.34991 -0.34844 -0.34823 -0.34895 -0.34904 -0.34934 -0.34953 -0.35004 -0.35034 -0.34999 -0.35039 -0.35089 -0.35118 -0.35168 -0.35218 -0.35289 -0.3536 -0.35453 -0.35524 -0.35574
0 0 0 0 0 0 0 0 0 0 0 0 0 0 0 0 0 0 0 0 0 0 0 0 0 0 0 0 0 0 0 0 0 0 0 0 0 0 0 0 0 0 0 0 0 0 0 0 0 0 0 0 0 0 0 0 0 0 0 0 0 0 0 0 0 0 0 0 0 0 0 0 -0.22075 -0.22191 -0.22287 -0.2468 -0.24832 -0.24918 -0.24952 -0.25058 -0.25164 -0.25244 -0.25328 -0.25408 -0.25492 -0.25571 -0.25629 -0.25686 -0.2577 -0.258 -0.25883 -0.2596 -0.25923 -0.25978 -0.25983 -0.26064 -0.26145 -0.26221 -0.26301 -0.26354 -0.26412 -0.26464 -0.26543 -0.26572 -0.26674 -0.2673 -0.26734 -0.26813 -0.26862 -0.26893 -0.26948 -0.26949 -0.27002 -0.27055 -0.27084 -0.2716 -0.27206 -0.27258 -0.27309 -0.27384 -0.27459 -0.27533 -0.27608 -0.27682 -0.27756 -0.27836 -0.27885 -0.27934 -0.27958 -0.28031 -0.28035 -0.27981 -0.28034 -0.28106 -0.28126 -0.28178 -0.28204 -0.28249 -0.283 -0.28344 -0.28413 -0.28437 -0.28389 -0.28458 -0.28507 -0.28555 -0.28603 -0.28644 -0.28692 -0.28739 -0.28832 -0.28899 -0.28973 -0.29066 -0.29133 -0.29206 -0.29251 -0.29269 -0.29362 -0.29311 -0.29355 -0.29329 -0.29394 -0.29437 -0.29389 -0.29403 -0.29473 -0.29515 -0.29584 -0.29696 -0.29766 -0.29835 -0.29876 -0.29916 -0.29985 -0.29952 -0.2997 -0.30038 -0.30055 -0.30144 -0.30234 -0.30249 -0.30317 -0.30384 -0.30376 -0.3042 -0.3036 -0.30425 -0.30469 -0.30436 -0.30501 -0.30566 -0.30555 -0.30574 -0.30638 -0.30679 -0.30735 -0.30799 -0.30863 -0.30926 -0.30919 -0.30959 -0.30999 -0.31014 -0.31077 -0.31115 -0.3113 -0.31168 -0.31229 -0.31219 -0.3128 -0.31341 -0.31354 -0.31415 -0.31427 -0.31511 -0.31579 -0.3159 -0.31626 -0.31685 -0.31696 -0.31714 -0.31748 -0.31691 -0.31708 -0.31716 -0.31774 -0.31815 -0.31822 -0.31888 -0.3192 -0.31883 -0.31949 -0.32005 -0.32036 -0.32075 -0.32105 -0.3205 -0.32036 -0.32117 -0.32198 -0.32279 -0.3236 -0.32423 -0.32478 -0.32419 -0.32482 -0.32536 -0.32616 -0.3267 -0.32706 -0.32671 -0.32706 -0.32804 -0.32884 -0.32946 -0.32981 -0.33006 -0.33041 -0.33048 -0.33082 -0.33115 -0.33103 -0.33136 -0.33142 -0.3322 -0.3328 -0.33313 -0.33363 -0.33395 -0.33427 -0.33487 -0.33537 -0.33502 -0.33486 -0.33545 -0.33528 -0.33577 -0.33569 -0.33599 -0.33609 -0.3361 -0.33686 -0.33744 -0.3382 -0.33897 -0.33925 -0.33915 -0.33962 -0.33951 -0.33978 -0.34034 -0.33993 -0.34049 -0.34075 -0.34033 -0.34088 -0.34143 -0.34149 -0.34175 -0.34229 -0.34264 -0.34309 -0.34344 -0.34418 -0.34493 -0.34497 -0.3452 -0.34575 -0.34578 -0.34631 -0.34685 -0.34739 -0.34782 -0.34815 -0.34848 -0.3487 -0.34851 -0.34903 -0.34977 -0.34988 -0.35009 -0.35019 -0.34884 -0.34914 -0.34987 -0.34964 -0.34995 -0.34982 -0.35002 -0.35052 -0.35039 -0.35068 -0.35086 -0.35137 -0.35187 -0.35258 -0.35308 -0.35379 -0.35494 -0.35565 -0.35615
0 0 0 0 0 0 0 0 0 0 0 0 0 0 0 0 0 0 0 0 0 0 0 0 0 0 0 0 0 0 0 0 0 0 0 0 0 0 0 0 0 0 0 0 0 0 0 0 0 0 0 0 0 0 0 0 0 0 0 0 0 0 0 0 0 0 0 0 0 0 0 0 -0.22092 -0.22168 -0.22284 -0.24702 -0.24808 -0.24934 -0.2502 -0.25075 -0.25206 -0.25287 -0.25418 -0.25477 -0.25557 -0.25642 -0.25652 -0.25709 -0.25766 -0.25823 -0.25879 -0.25956 -0.25968 -0.26045 -0.26029 -0.2611 -0.26164 -0.26217 -0.26298 -0.26378 -0.26431 -0.26533 -0.26613 -0.26619 -0.26721 -0.26801 -0.26828 -0.26907 -0.26887 -0.26913 -0.26944 -0.26992 -0.27046 -0.27099 -0.27175 -0.27252 -0.27304 -0.27302 -0.27378 -0.27453 -0.27504 -0.27579 -0.27629 -0.27703 -0.27753 -0.27833 -0.27907 -0.27955 -0.27954 -0.27977 -0.28006 -0.27978 -0.28056 -0.28128 -0.28148 -0.28219 -0.28201 -0.28271 -0.28341 -0.28366 -0.28436 -0.2846 -0.28432 -0.28481 -0.28503 -0.28552 -0.286 -0.28641 -0.28715 -0.28762 -0.28829 -0.28923 -0.29017 -0.29063 -0.29129 -0.29202 -0.29269 -0.29294 -0.29407 -0.29404 -0.29448 -0.29396 -0.29439 -0.29462 -0.29435 -0.29498 -0.2954 -0.2961 -0.29673 -0.29764 -0.29834 -0.29903 -0.29923 -0.29963 -0.30032 -0.29978 -0.29996 -0.30056 -0.30102 -0.30192 -0.30282 -0.30276 -0.30313 -0.30403 -0.30395 -0.30462 -0.30409 -0.30467 -0.30488 -0.30456 -0.30521 -0.30609 -0.30552 -0.30571 -0.30612 -0.30676 -0.30763 -0.30819 -0.30883 -0.30946 -0.3094 -0.31003 -0.31043 -0.31035 -0.31097 -0.31089 -0.31103 -0.31141 -0.31202 -0.3124 -0.31349 -0.3141 -0.31423 -0.31436 -0.31472 -0.31532 -0.31593 -0.31563 -0.31623 -0.31658 -0.31676 -0.31711 -0.31745 -0.31738 -0.31796 -0.31788 -0.31871 -0.31929 -0.31894 -0.31927 -0.31967 -0.31906 -0.31946 -0.32028 -0.32059 -0.32115 -0.32154 -0.32115 -0.32111 -0.32192 -0.3229 -0.32371 -0.32383 -0.32421 -0.32501 -0.3246 -0.32523 -0.32604 -0.3264 -0.32694 -0.3273 -0.32695 -0.32748 -0.32801 -0.32881 -0.32943 -0.32996 -0.33058 -0.33038 -0.33045 -0.33079 -0.33112 -0.331 -0.33106 -0.33166 -0.33217 -0.33296 -0.3331 -0.33361 -0.33393 -0.33406 -0.33456 -0.33515 -0.33518 -0.33549 -0.3358 -0.33544 -0.33603 -0.33633 -0.33663 -0.33692 -0.33683 -0.33731 -0.33789 -0.33837 -0.33894 -0.33951 -0.33931 -0.33988 -0.33997 -0.34024 -0.34051 -0.34039 -0.34066 -0.34073 -0.3406 -0.34086 -0.34141 -0.34147 -0.34202 -0.34247 -0.34232 -0.34286 -0.34311 -0.34385 -0.3451 -0.34514 -0.34548 -0.34592 -0.34626 -0.3468 -0.34723 -0.34757 -0.34831 -0.34853 -0.34845 -0.34919 -0.34879 -0.34921 -0.35026 -0.35047 -0.35079 -0.351 -0.35038 -0.35048 -0.3512 -0.35099 -0.35055 -0.35064 -0.35115 -0.3505 -0.35037 -0.35087 -0.35084 -0.35134 -0.35206 -0.35277 -0.35348 -0.35441 -0.35491 -0.35563 -0.35613
0 0 0 0 0 0 -0.10267 -0.1033 -0.10393 -0.10455 -0.10737 -0.10819 -0.1088 -0.10947 -0.11011 -0.11218 -0.11283 -0.11348 -0.11432 0 0 0 0 0 0 0 0 0 0 0 0 0 0 0 0 0 0 0 0 0 0 0 0 0 0 0 0 0 0 0 0 0 0 0 0 0 0 0 0 0 0 0 0 0 0 0 0 0 0 0 0 0 -0.21939 -0.22109 -0.2213 -0.24602 -0.24804 -0.24931 -0.25037 -0.25122 -0.25229 -0.25309 -0.25415 -0.25495 -0.25579 -0.25638 -0.25669 -0.25727 -0.25763 -0.25819 -0.25875 -0.2598 -0.25987 -0.26042 -0.26053 -0.26107 -0.26182 -0.26191 -0.26294 -0.26375 -0.26449 -0.2653 -0.2661 -0.26616 -0.26695 -0.26769 -0.26848 -0.26903 -0.26884 -0.26909 -0.26964 -0.27018 -0.27066 -0.27119 -0.27172 -0.27248 -0.27324 -0.27329 -0.27398 -0.27473 -0.27524 -0.27599 -0.2765 -0.27724 -0.27774 -0.2783 -0.27928 -0.27977 -0.27976 -0.27999 -0.28028 -0.28 -0.28072 -0.28099 -0.28145 -0.28216 -0.28242 -0.28293 -0.28364 -0.28389 -0.28458 -0.28483 -0.28454 -0.28503 -0.28526 -0.28522 -0.28616 -0.28638 -0.28712 -0.28759 -0.28826 -0.2892 -0.29013 -0.2906 -0.29126 -0.29199 -0.29265 -0.29311 -0.29404 -0.29401 -0.29397 -0.29392 -0.29415 -0.29479 -0.29473 -0.29544 -0.29586 -0.29656 -0.29719 -0.29811 -0.29852 -0.29943 -0.29941 -0.29982 -0.30029 -0.29997 -0.29992 -0.30031 -0.30099 -0.30211 -0.30279 -0.30273 -0.30332 -0.30377 -0.30414 -0.30459 -0.30406 -0.30464 -0.3053 -0.30498 -0.3054 -0.30628 -0.30572 -0.30568 -0.30632 -0.30696 -0.3076 -0.30816 -0.3088 -0.30943 -0.3096 -0.31 -0.31039 -0.31055 -0.31118 -0.31133 -0.31124 -0.31186 -0.31223 -0.31261 -0.3137 -0.31432 -0.3142 -0.31433 -0.31493 -0.31554 -0.31614 -0.31609 -0.31644 -0.3168 -0.3169 -0.31733 -0.31767 -0.31735 -0.31818 -0.31802 -0.31868 -0.31926 -0.31933 -0.31949 -0.32006 -0.31971 -0.32011 -0.32042 -0.32081 -0.32138 -0.32177 -0.32112 -0.32125 -0.32206 -0.32288 -0.32395 -0.3238 -0.32435 -0.32516 -0.32483 -0.3252 -0.32601 -0.32655 -0.32718 -0.32656 -0.3271 -0.32719 -0.32825 -0.32878 -0.3294 -0.32975 -0.33028 -0.33062 -0.33024 -0.33076 -0.33137 -0.33125 -0.33176 -0.33164 -0.33242 -0.33293 -0.33353 -0.33404 -0.33436 -0.3345 -0.335 -0.33531 -0.33497 -0.335 -0.3354 -0.33523 -0.33572 -0.33602 -0.3366 -0.3367 -0.33681 -0.33729 -0.33786 -0.33863 -0.33911 -0.33949 -0.33948 -0.34005 -0.34013 -0.34041 -0.34068 -0.34076 -0.34112 -0.34119 -0.34057 -0.34132 -0.34158 -0.34164 -0.34199 -0.34224 -0.34259 -0.34304 -0.34308 -0.34413 -0.34508 -0.34532 -0.34586 -0.3464 -0.34664 -0.34738 -0.34751 -0.34774 -0.34828 -0.3483 -0.34812 -0.34844 -0.34804 -0.34878 -0.34951 -0.35003 -0.35025 -0.35056 -0.35035 -0.35087 -0.35139 -0.35138 -0.35169 -0.35199 -0.3543 -0.35047 -0.35034 -0.35063 -0.35081 -0.3511 -0.35182 -0.35253 -0.35303 -0.35417 -0.35489 -0.35539 -0.3561
0 0 0 0 0 0 -0.10265 -0.10313 -0.10372 -0.10453 -0.10723 -0.10798 -0.10888 -0.10952 -0.11009 -0.11208 -0.11273 -0.1135 -0.11438 0 0 0 0 0 0 0 0 0 0 0 0 0 0 0 0 0 0 0 0 0 0 0 0 0 0 0 0 0 0 0 0 0 0 0 0 0 0 0 0 0 0 0 0 0 0 0 0 0 0 0 0 0 -0.21935 -0.22031 -0.22126 -0.24598 -0.24821 -0.24978 -0.2513 -0.25165 -0.25245 -0.25331 -0.25437 -0.25543 -0.25597 -0.25682 -0.25666 -0.2575 -0.25807 -0.25837 -0.25893 -0.25998 -0.26005 -0.26065 -0.26071 -0.26152 -0.26228 -0.2621 -0.26313 -0.26371 -0.26474 -0.26549 -0.26629 -0.26635 -0.26714 -0.26765 -0.26867 -0.26923 -0.2688 -0.26952 -0.2703 -0.27061 -0.27115 -0.27115 -0.27145 -0.27221 -0.27321 -0.27349 -0.27472 -0.27548 -0.27545 -0.2762 -0.27671 -0.27745 -0.27795 -0.27869 -0.27925 -0.27998 -0.28022 -0.2807 -0.28093 -0.28047 -0.28119 -0.2807 -0.28142 -0.28213 -0.28239 -0.28309 -0.28386 -0.28405 -0.28481 -0.28525 -0.28503 -0.28546 -0.28569 -0.28519 -0.28593 -0.28634 -0.28682 -0.28776 -0.28823 -0.2889 -0.2901 -0.2903 -0.29123 -0.29216 -0.29262 -0.29307 -0.2938 -0.2937 -0.29345 -0.29341 -0.29412 -0.29455 -0.29547 -0.29611 -0.29681 -0.29703 -0.29766 -0.29857 -0.29899 -0.29968 -0.29988 -0.3005 -0.30069 -0.30044 -0.30033 -0.30079 -0.30118 -0.30208 -0.30275 -0.30292 -0.30359 -0.30396 -0.30389 -0.30456 -0.30447 -0.30514 -0.3058 -0.30593 -0.30636 -0.30701 -0.30622 -0.3061 -0.30675 -0.30693 -0.30757 -0.30844 -0.30877 -0.30964 -0.30957 -0.31044 -0.31083 -0.31123 -0.31162 -0.31201 -0.31168 -0.31254 -0.31292 -0.3133 -0.31415 -0.31452 -0.3149 -0.31502 -0.31515 -0.31575 -0.31635 -0.31671 -0.31715 -0.31726 -0.31736 -0.31771 -0.31813 -0.31823 -0.31882 -0.31873 -0.31932 -0.3199 -0.31956 -0.32013 -0.32079 -0.32018 -0.3205 -0.3209 -0.32121 -0.32186 -0.32216 -0.32161 -0.32217 -0.32255 -0.32337 -0.32435 -0.3243 -0.32485 -0.32513 -0.32507 -0.32535 -0.32615 -0.32696 -0.32759 -0.32698 -0.32734 -0.32769 -0.32796 -0.32876 -0.32955 -0.32972 -0.33025 -0.33059 -0.33066 -0.33119 -0.3318 -0.33186 -0.33247 -0.33225 -0.33286 -0.33337 -0.33397 -0.33494 -0.33526 -0.33493 -0.33497 -0.33529 -0.33448 -0.33459 -0.33462 -0.33492 -0.33522 -0.33599 -0.33638 -0.33687 -0.33716 -0.33774 -0.33803 -0.3388 -0.33937 -0.33965 -0.33945 -0.33983 -0.3403 -0.34067 -0.34065 -0.34102 -0.34109 -0.34136 -0.34094 -0.3413 -0.34175 -0.34161 -0.34197 -0.34222 -0.34207 -0.34281 -0.34306 -0.3438 -0.34455 -0.34509 -0.34563 -0.34638 -0.34692 -0.34766 -0.34769 -0.34772 -0.34825 -0.34807 -0.34768 -0.348 -0.3476 -0.34834 -0.34876 -0.34949 -0.35001 -0.35033 -0.35085 -0.35126 -0.35178 -0.35251 -0.35303 -0.35334 -0.35428 -0.35045 -0.35117 -0.35167 -0.35196 -0.35172 -0.35201 -0.35251 -0.35301 -0.35415 -0.35486 -0.35515 -0.35608
0 0 0 0 0 0 -0.10263 -0.10308 -0.10352 -0.10404 -0.1071 -0.10793 -0.10894 -0.10961 -0.11026 -0.11187 -0.11279 -0.11347 -0.11439 -0.115 -0.11565 -0.11724 -0.11789 -0.11863 -0.11881 -0.1176 -0.11824 -0.11889 -0.11953 0 -0.12424 -0.12499 -0.12557 -0.12631 -0.1281 -0.13124 -0.13192 0 0 0 -0.13903 -0.13973 0 -0.13869 -0.13939 0 -0.13855 -0.13932 -0.14 -0.14069 0 -0.14069 -0.14136 -0.14213 -0.14524 -0.14592 -0.14661 -0.1473 -0.14855 -0.14858 -0.14917 0 0 0 0 0 0 0 0 0 0 0 -0.21932 -0.22027 -0.22123 -0.24711 -0.24842 -0.2504 -0.25147 -0.25208 -0.25294 -0.25348 -0.2548 -0.25513 -0.25619 -0.25699 -0.25688 -0.25767 -0.25825 -0.2586 -0.25916 -0.26021 -0.26028 -0.26083 -0.26089 -0.26149 -0.26225 -0.26256 -0.26337 -0.26412 -0.26493 -0.26573 -0.26625 -0.26631 -0.26688 -0.26761 -0.26863 -0.26919 -0.269 -0.26978 -0.27027 -0.27058 -0.27111 -0.27112 -0.27118 -0.27194 -0.27293 -0.27369 -0.27445 -0.27521 -0.27542 -0.27617 -0.27667 -0.27742 -0.27816 -0.27866 -0.27964 -0.2802 -0.28043 -0.28142 -0.28165 -0.28093 -0.2814 -0.28042 -0.28113 -0.2819 -0.28235 -0.28306 -0.28357 -0.28382 -0.28426 -0.28496 -0.28519 -0.28595 -0.28592 -0.28542 -0.2861 -0.28631 -0.28705 -0.28772 -0.28819 -0.28913 -0.29007 -0.29053 -0.29147 -0.29213 -0.29259 -0.29304 -0.29377 -0.29346 -0.29314 -0.29337 -0.29409 -0.29452 -0.29544 -0.29636 -0.29678 -0.29721 -0.29763 -0.29854 -0.29924 -0.29987 -0.29985 -0.30047 -0.30116 -0.30041 -0.3008 -0.30098 -0.30137 -0.30256 -0.30294 -0.30288 -0.30356 -0.30393 -0.30408 -0.30453 -0.30467 -0.30533 -0.30622 -0.30635 -0.30678 -0.30743 -0.30619 -0.3063 -0.30672 -0.30713 -0.30754 -0.30841 -0.30897 -0.30984 -0.30978 -0.31041 -0.31104 -0.31143 -0.31206 -0.31221 -0.31213 -0.31251 -0.31289 -0.31351 -0.31436 -0.31474 -0.31487 -0.31499 -0.31512 -0.31596 -0.31657 -0.31693 -0.31712 -0.31772 -0.31758 -0.31793 -0.31835 -0.3187 -0.31903 -0.31921 -0.31954 -0.32012 -0.31978 -0.3201 -0.32077 -0.32041 -0.32047 -0.32112 -0.32118 -0.32183 -0.32214 -0.32176 -0.3224 -0.32295 -0.32351 -0.32415 -0.3247 -0.32508 -0.32537 -0.32521 -0.32558 -0.32639 -0.32693 -0.32756 -0.32695 -0.32731 -0.32766 -0.3282 -0.32873 -0.32935 -0.32987 -0.32995 -0.33057 -0.33064 -0.33116 -0.33177 -0.33211 -0.33262 -0.3325 -0.33329 -0.33361 -0.33413 -0.33473 -0.33551 -0.33463 -0.33476 -0.33526 -0.33445 -0.33429 -0.33459 -0.3347 -0.33548 -0.33597 -0.33655 -0.33713 -0.33713 -0.3379 -0.33848 -0.33877 -0.33953 -0.33963 -0.33943 -0.34 -0.34008 -0.34036 -0.34043 -0.3407 -0.34107 -0.34133 -0.34091 -0.34147 -0.34173 -0.34139 -0.34164 -0.34199 -0.34204 -0.34259 -0.34283 -0.34358 -0.34412 -0.34466 -0.34541 -0.34585 -0.34638 -0.34733 -0.34767 -0.34769 -0.34823 -0.34825 -0.34786 -0.34818 -0.34779 -0.34831 -0.34904 -0.34946 -0.34999 -0.3503 -0.35051 -0.35124 -0.35197 -0.35228 -0.35301 -0.35352 -0.35404 -0.35201 -0.3521 -0.3526 -0.35301 -0.35287 -0.35273 -0.35291 -0.35319 -0.35456 -0.35484 -0.35534 -0.35627
0 0 0 0 0 0 -0.10261 -0.10323 -0.10339 -0.10402 -0.10701 -0.10809 -0.10902 -0.10974 -0.11031 -0.11196 -0.11269 -0.11345 -0.11433 -0.11502 -0.11617 -0.1171 -0.11779 -0.11833 -0.11883 -0.11758 -0.11822 -0.11886 -0.11951 -0.12838 -0.12422 -0.12488 -0.12554 -0.12621 -0.12808 -0.13121 -0.1319 0 -0.13398 -0.13458 -0.13535 -0.13603 -0.13815 -0.13867 -0.13936 -0.14076 -0.13853 -0.1393 -0.13998 -0.14066 0 -0.14066 -0.14134 -0.1421 -0.14522 -0.1459 -0.14668 -0.14755 -0.14796 -0.14846 -0.14895 0 0 0 0 0 0 0 0 0 0 0 -0.21929 -0.22024 -0.2212 -0.24707 -0.24864 -0.25062 -0.25169 -0.2523 -0.2531 -0.2537 -0.25477 -0.25557 -0.25642 -0.25695 -0.25706 -0.25764 -0.25848 -0.25856 -0.25934 -0.26017 -0.25997 -0.26031 -0.26085 -0.26167 -0.26249 -0.26253 -0.26356 -0.26409 -0.26489 -0.26541 -0.26599 -0.26605 -0.26684 -0.26735 -0.26814 -0.26893 -0.26873 -0.26945 -0.27023 -0.27077 -0.27131 -0.27132 -0.27138 -0.2719 -0.27266 -0.27342 -0.27418 -0.27487 -0.2749 -0.27565 -0.27664 -0.27738 -0.27813 -0.27862 -0.27936 -0.28016 -0.2804 -0.28113 -0.28136 -0.2809 -0.28137 -0.28064 -0.28109 -0.28187 -0.28232 -0.28303 -0.28354 -0.28379 -0.28423 -0.28518 -0.28516 -0.28565 -0.28588 -0.28565 -0.28633 -0.28654 -0.28722 -0.28796 -0.28843 -0.2891 -0.29004 -0.2905 -0.29143 -0.2921 -0.29256 -0.29301 -0.29374 -0.29315 -0.29291 -0.29313 -0.29378 -0.2947 -0.29513 -0.29604 -0.29675 -0.29696 -0.29759 -0.29851 -0.29871 -0.29934 -0.29982 -0.30044 -0.30092 -0.3006 -0.30077 -0.30095 -0.30134 -0.30223 -0.30269 -0.30263 -0.30301 -0.30368 -0.30383 -0.3045 -0.30464 -0.3053 -0.30618 -0.30587 -0.30607 -0.30642 -0.30616 -0.30627 -0.30669 -0.3071 -0.30774 -0.30838 -0.30894 -0.30981 -0.30998 -0.31061 -0.31124 -0.31164 -0.31203 -0.31242 -0.31233 -0.31272 -0.3131 -0.31372 -0.31433 -0.31471 -0.31484 -0.31496 -0.31533 -0.31594 -0.31654 -0.31649 -0.31685 -0.31744 -0.31755 -0.31814 -0.31874 -0.31891 -0.3195 -0.31934 -0.32001 -0.32009 -0.3195 -0.32008 -0.32074 -0.32013 -0.3207 -0.32127 -0.32115 -0.32197 -0.32237 -0.3225 -0.32306 -0.32336 -0.324 -0.32455 -0.32493 -0.32522 -0.32586 -0.32519 -0.32556 -0.32636 -0.32691 -0.32753 -0.32692 -0.32728 -0.32781 -0.32817 -0.3287 -0.32932 -0.32967 -0.33019 -0.33054 -0.33061 -0.33113 -0.33192 -0.33208 -0.3326 -0.33293 -0.33326 -0.33377 -0.33437 -0.33488 -0.33521 -0.33441 -0.33445 -0.33476 -0.33395 -0.33407 -0.33456 -0.33468 -0.33517 -0.33594 -0.33652 -0.33729 -0.33739 -0.33816 -0.33864 -0.33922 -0.3398 -0.33979 -0.3394 -0.33997 -0.33986 -0.33984 -0.34021 -0.34048 -0.34104 -0.34131 -0.34118 -0.34144 -0.3417 -0.34136 -0.34191 -0.34177 -0.34152 -0.34186 -0.34241 -0.34265 -0.34319 -0.34393 -0.34487 -0.34562 -0.34616 -0.3471 -0.34764 -0.34767 -0.3482 -0.34843 -0.34804 -0.34836 -0.34797 -0.34849 -0.34923 -0.34944 -0.34996 -0.35007 -0.34986 -0.3508 -0.35152 -0.35225 -0.35298 -0.3535 -0.35306 -0.3522 -0.35228 -0.35279 -0.35298 -0.35284 -0.35292 -0.3531 -0.35339 -0.35453 -0.35481 -0.3551 -0.35603
0 0 0 0 0 0 0 0 -0.10337 -0.104 -0.10699 -0.10869 -0.10937 -0.11009 -0.11084 -0.11209 -0.11274 -0.11343 -0.11442 -0.11527 -0.11634 -0.11719 -0.11793 -0.1185 -0.11904 -0.11756 -0.1182 -0.11884 -0.11949 -0.12836 -0.1242 -0.12461 -0.12552 -0.12618 -0.13034 -0.13102 -0.13187 0 -0.13396 -0.13456 -0.13533 -0.13601 -0.13787 -0.13891 -0.13978 -0.14047 -0.1405 -0.14083 -0.1417 -0.14257 0 -0.142 -0.14268 0 -0.14519 -0.14606 -0.14684 -0.14753 -0.14812 -0.14853 -0.14893 0 0 0 0 0 0 0 0 0 0 0 -0.21925 -0.22021 -0.22116 -0.24729 -0.24835 -0.25227 -0.25263 -0.25272 -0.25333 -0.25439 -0.25546 -0.25605 -0.25686 -0.25744 -0.25729 -0.25787 -0.25844 -0.25874 -0.25931 -0.26014 -0.26021 -0.26054 -0.26131 -0.26186 -0.26267 -0.26299 -0.26352 -0.26433 -0.26508 -0.26588 -0.26595 -0.26602 -0.26653 -0.26732 -0.26759 -0.2686 -0.26893 -0.26942 -0.2702 -0.27074 -0.27128 -0.27205 -0.27181 -0.2721 -0.27287 -0.27339 -0.27414 -0.2746 -0.27487 -0.27561 -0.27636 -0.2771 -0.27785 -0.27859 -0.27933 -0.28013 -0.28037 -0.28085 -0.28083 -0.28112 -0.28159 -0.28111 -0.28157 -0.28228 -0.2828 -0.28325 -0.28395 -0.2842 -0.28471 -0.28567 -0.28565 -0.28634 -0.28657 -0.28627 -0.28702 -0.28697 -0.28772 -0.28839 -0.28886 -0.2898 -0.29074 -0.29094 -0.29161 -0.29234 -0.2928 -0.29298 -0.2937 -0.2934 -0.29308 -0.2931 -0.29375 -0.29446 -0.29537 -0.29601 -0.29672 -0.29714 -0.29756 -0.29848 -0.29889 -0.2993 -0.29979 -0.30041 -0.3011 -0.30056 -0.30074 -0.30092 -0.3016 -0.30198 -0.30266 -0.30231 -0.30298 -0.30365 -0.3038 -0.30446 -0.30461 -0.30549 -0.30615 -0.30584 -0.30574 -0.30639 -0.30613 -0.30647 -0.30689 -0.3073 -0.30817 -0.30881 -0.30922 -0.31009 -0.31041 -0.31105 -0.31168 -0.31184 -0.31224 -0.31239 -0.31254 -0.31316 -0.31355 -0.31369 -0.31454 -0.31468 -0.31505 -0.31542 -0.31554 -0.31615 -0.31675 -0.31646 -0.31682 -0.31766 -0.31826 -0.3191 -0.31945 -0.31979 -0.32039 -0.32056 -0.3204 -0.32031 -0.31972 -0.3203 -0.32071 -0.32035 -0.32067 -0.32149 -0.32189 -0.3222 -0.32302 -0.32384 -0.3244 -0.32454 -0.32492 -0.32522 -0.3256 -0.32572 -0.32627 -0.32542 -0.32579 -0.3266 -0.32688 -0.32768 -0.32716 -0.3277 -0.3285 -0.32841 -0.32921 -0.32947 -0.32982 -0.33044 -0.33069 -0.33085 -0.33138 -0.33217 -0.33223 -0.33284 -0.33318 -0.33369 -0.33402 -0.33453 -0.33514 -0.33546 -0.33457 -0.33442 -0.33474 -0.33393 -0.33376 -0.33435 -0.33484 -0.33561 -0.33591 -0.33668 -0.33726 -0.33784 -0.33861 -0.33958 -0.34015 -0.34064 -0.34006 -0.33937 -0.33975 -0.33954 -0.33982 -0.33989 -0.34046 -0.34072 -0.34109 -0.34115 -0.34161 -0.34197 -0.34134 -0.34189 -0.34194 -0.34149 -0.34204 -0.34238 -0.34262 -0.34316 -0.3437 -0.34465 -0.34539 -0.34613 -0.34687 -0.34741 -0.34764 -0.34818 -0.34892 -0.34853 -0.34875 -0.34794 -0.34867 -0.3492 -0.3492 -0.34952 -0.34931 -0.34983 -0.35056 -0.35129 -0.35223 -0.35296 -0.35411 -0.35462 -0.35175 -0.35268 -0.35298 -0.35327 -0.35261 -0.35311 -0.3534 -0.35379 -0.35483 -0.35501 -0.35507 -0.35579
0 -0.096774 -0.097454 0 0 0 0 0 0 0 0 -0.10896 -0.1096 -0.11018 -0.11097 -0.11207 -0.11272 -0.11348 -0.11447 -0.11532 -0.11651 -0.11732 -0.11802 -0.11868 -0.11929 -0.11999 -0.12101 -0.12335 -0.12402 -0.12631 -0.12299 -0.12439 -0.12533 -0.12624 -0.1304 -0.13108 -0.13185 -0.13342 -0.13393 -0.13453 -0.1353 -0.13599 -0.13763 -0.13862 -0.13958 -0.14 -0.13941 -0.14054 -0.14141 -0.14209 0 -0.14234 -0.14302 -0.14476 -0.14544 -0.14613 -0.14682 -0.14751 -0.14819 -0.14869 -0.14938 -0.15325 -0.15233 -0.15312 -0.15564 -0.15281 -0.1536 -0.15428 -0.15497 -0.15876 -0.15936 -0.16006 -0.16086 0 0 -0.2477 -0.24902 -0.2532 -0.25305 -0.25294 -0.25375 -0.25435 -0.25589 -0.25623 -0.25682 -0.25741 -0.25746 -0.25783 -0.2584 -0.25849 -0.25927 -0.25983 -0.2599 -0.26051 -0.26155 -0.26209 -0.26264 -0.26295 -0.26349 -0.26401 -0.26504 -0.26562 -0.26592 -0.26575 -0.26626 -0.26705 -0.26755 -0.26857 -0.26889 -0.26938 -0.27039 -0.2707 -0.27148 -0.27248 -0.27202 -0.27254 -0.27331 -0.27335 -0.27411 -0.27432 -0.27459 -0.27534 -0.27608 -0.27707 -0.27806 -0.27831 -0.27911 -0.28009 -0.28033 -0.28082 -0.2808 -0.28083 -0.28181 -0.28107 -0.28179 -0.28225 -0.28276 -0.28347 -0.28392 -0.28443 -0.28513 -0.28583 -0.28607 -0.28657 -0.287 -0.28677 -0.28745 -0.28721 -0.28788 -0.28863 -0.28883 -0.28977 -0.29071 -0.29118 -0.29184 -0.29251 -0.29276 -0.29295 -0.29367 -0.29336 -0.29284 -0.29328 -0.29371 -0.29463 -0.29506 -0.29598 -0.2969 -0.2969 -0.29753 -0.29845 -0.29886 -0.29956 -0.29975 -0.30038 -0.30129 -0.30053 -0.30093 -0.30089 -0.30128 -0.30217 -0.30263 -0.30257 -0.30295 -0.30362 -0.30377 -0.30443 -0.30435 -0.30524 -0.30635 -0.30558 -0.30601 -0.30613 -0.30633 -0.30644 -0.30708 -0.3075 -0.30837 -0.30901 -0.30919 -0.31006 -0.31062 -0.31125 -0.31189 -0.31158 -0.31197 -0.31236 -0.31251 -0.31289 -0.31351 -0.31366 -0.31451 -0.31441 -0.31502 -0.31563 -0.316 -0.31636 -0.31672 -0.3166 -0.31703 -0.31763 -0.31823 -0.31883 -0.31942 -0.32001 -0.3206 -0.32053 -0.32062 -0.32054 -0.3202 -0.32052 -0.32085 -0.32049 -0.32089 -0.32172 -0.32186 -0.32243 -0.32325 -0.32381 -0.32489 -0.32451 -0.32489 -0.32519 -0.32531 -0.32569 -0.32598 -0.32565 -0.32594 -0.32675 -0.32738 -0.32818 -0.32784 -0.32838 -0.32874 -0.32883 -0.32936 -0.32998 -0.32979 -0.33014 -0.33066 -0.33083 -0.33108 -0.33187 -0.33248 -0.333 -0.33315 -0.33366 -0.33399 -0.3345 -0.33511 -0.33543 -0.33455 -0.3344 -0.33452 -0.33371 -0.33402 -0.33432 -0.33481 -0.33559 -0.33617 -0.33665 -0.33724 -0.33801 -0.33878 -0.33974 -0.34051 -0.3409 -0.34051 -0.33915 -0.33972 -0.33932 -0.33979 -0.33987 -0.34023 -0.3407 -0.34126 -0.34113 -0.34159 -0.34194 -0.34181 -0.34206 -0.34211 -0.34196 -0.34201 -0.34205 -0.3426 -0.34294 -0.34337 -0.34442 -0.34516 -0.3459 -0.34685 -0.34708 -0.34762 -0.34795 -0.34869 -0.3485 -0.34873 -0.34771 -0.34792 -0.34866 -0.34856 -0.34877 -0.34908 -0.3496 -0.35033 -0.35105 -0.35199 -0.35314 -0.35408 -0.35555 -0.35374 -0.35308 -0.35338 -0.35325 -0.35279 -0.3533 -0.3538 -0.3543 -0.35502 -0.35498 -0.35505 -0.35576
0 -0.096753 -0.097433 -0.10115 -0.10178 0 0 0 0 0 0 -0.10894 -0.10966 -0.1103 -0.11088 -0.11205 -0.1127 -0.11353 -0.11457 -0.11545 -0.11657 -0.11742 -0.11815 -0.11881 -0.11947 -0.12013 -0.1209 -0.12333 -0.124 -0.12629 -0.12297 -0.12363 -0.12548 -0.12622 -0.13046 -0.13114 -0.13182 -0.13339 -0.13382 -0.13451 -0.13519 -0.13596 -0.13708 -0.13794 -0.13872 -0.13923 -0.1393 -0.14025 -0.1412 -0.14144 -0.14222 -0.14231 -0.14309 -0.14473 -0.14542 -0.14611 -0.14679 -0.14758 -0.14826 -0.14876 -0.14935 -0.15284 -0.15288 -0.153 -0.15562 -0.15279 -0.15357 -0.15426 -0.15495 -0.15765 -0.15864 -0.15944 -0.16034 0 0 -0.24721 -0.24919 -0.25097 -0.2523 -0.25265 -0.25346 -0.25406 -0.25538 -0.25619 -0.25704 -0.25758 -0.25743 -0.25779 -0.25837 -0.25797 -0.25875 -0.25958 -0.26014 -0.26069 -0.26173 -0.26228 -0.2626 -0.26292 -0.26367 -0.26426 -0.26478 -0.26559 -0.26566 -0.26572 -0.26645 -0.26724 -0.26752 -0.2683 -0.26863 -0.26935 -0.27013 -0.27067 -0.27168 -0.27245 -0.27245 -0.27298 -0.27327 -0.27355 -0.27407 -0.27429 -0.27431 -0.2753 -0.27605 -0.27703 -0.27778 -0.27827 -0.27907 -0.27981 -0.2803 -0.28078 -0.28101 -0.2808 -0.28177 -0.28129 -0.28175 -0.28247 -0.28292 -0.28389 -0.2844 -0.28465 -0.28536 -0.28631 -0.2863 -0.28699 -0.28723 -0.28719 -0.28768 -0.28744 -0.28785 -0.28859 -0.289 -0.28974 -0.29068 -0.29135 -0.29181 -0.29227 -0.29246 -0.29291 -0.29364 -0.29333 -0.29302 -0.29325 -0.29368 -0.2946 -0.29531 -0.29595 -0.29666 -0.29687 -0.2975 -0.2982 -0.29911 -0.29953 -0.29994 -0.30063 -0.30125 -0.30072 -0.3009 -0.30107 -0.30124 -0.30192 -0.30282 -0.30254 -0.30314 -0.30381 -0.30374 -0.3044 -0.30455 -0.30521 -0.30587 -0.30532 -0.30567 -0.3061 -0.30607 -0.30664 -0.30728 -0.30747 -0.30811 -0.30898 -0.30962 -0.31026 -0.31035 -0.31122 -0.31185 -0.31178 -0.31194 -0.31233 -0.31248 -0.3131 -0.31325 -0.31363 -0.31448 -0.31414 -0.31499 -0.31536 -0.31597 -0.31633 -0.31694 -0.3164 -0.31676 -0.3176 -0.3182 -0.31904 -0.31964 -0.31974 -0.32083 -0.32092 -0.32109 -0.32093 -0.32033 -0.32075 -0.32132 -0.32046 -0.32087 -0.32194 -0.322 -0.32266 -0.32322 -0.3243 -0.32486 -0.32474 -0.32504 -0.32516 -0.32528 -0.32566 -0.32595 -0.32563 -0.32591 -0.32698 -0.32735 -0.32789 -0.32799 -0.32862 -0.32915 -0.32898 -0.3296 -0.33013 -0.33003 -0.33038 -0.33091 -0.3308 -0.33105 -0.33184 -0.33245 -0.33324 -0.33312 -0.33364 -0.33397 -0.33448 -0.33508 -0.33559 -0.33498 -0.33465 -0.33356 -0.33369 -0.33399 -0.3343 -0.33479 -0.33537 -0.33633 -0.33691 -0.3374 -0.33798 -0.33894 -0.34 -0.34048 -0.34087 -0.33769 -0.33826 -0.33825 -0.33862 -0.33937 -0.33984 -0.34021 -0.34047 -0.34074 -0.34061 -0.34087 -0.34162 -0.34148 -0.34183 -0.34209 -0.34194 -0.34218 -0.34203 -0.34257 -0.34291 -0.34335 -0.34409 -0.34483 -0.34557 -0.34631 -0.34685 -0.34688 -0.34762 -0.34835 -0.34848 -0.3487 -0.34768 -0.3479 -0.34842 -0.34853 -0.34874 -0.34905 -0.34936 -0.3503 -0.35082 -0.35197 -0.35312 -0.35406 -0.35457 -0.35414 -0.35359 -0.35357 -0.35344 -0.35277 -0.35327 -0.35399 -0.35406 -0.35446 -0.35474 -0.35502 -0.35574
0 -0.099866 -0.1005 -0.10113 -0.10176 0 0 0 0 0 0 0 0 0 -0.1113 -0.11202 -0.11294 -0.11359 -0.11477 -0.11589 -0.11654 -0.11747 -0.1184 -0.11906 -0.11964 -0.12022 -0.12088 -0.1233 -0.12401 -0.12626 -0.12295 -0.12369 -0.12554 -0.1262 -0.13173 -0.13242 -0.13319 -0.13345 -0.13376 -0.13448 -0.13525 -0.13603 -0.13689 -0.13766 -0.13834 -0.13903 -0.13914 -0.13983 -0.14136 -0.14151 -0.14201 -0.14247 -0.14316 -0.14471 -0.14539 -0.14617 -0.14677 -0.14755 -0.14843 -0.14902 -0.14952 -0.15272 -0.15276 -0.15307 -0.15559 -0.15649 -0.15738 -0.15809 -0.15644 -0.15733 -0.15832 -0.15932 -0.16031 0 0 -0.24743 -0.2487 -0.25047 -0.252 -0.25235 -0.25321 -0.25402 -0.25509 -0.25615 -0.25675 -0.25754 -0.25787 -0.25823 -0.25854 -0.25794 -0.2585 -0.25954 -0.2601 -0.26114 -0.26191 -0.26295 -0.26355 -0.26382 -0.26441 -0.26495 -0.26497 -0.26555 -0.26585 -0.26568 -0.26642 -0.26721 -0.268 -0.2685 -0.26882 -0.26931 -0.27009 -0.27087 -0.27188 -0.27241 -0.27295 -0.27366 -0.27371 -0.274 -0.27476 -0.27473 -0.27452 -0.27527 -0.27626 -0.277 -0.27774 -0.27848 -0.27922 -0.28002 -0.28026 -0.281 -0.28148 -0.28196 -0.28293 -0.2817 -0.28242 -0.28339 -0.28365 -0.28436 -0.28533 -0.28578 -0.28655 -0.28725 -0.28698 -0.28748 -0.28791 -0.28742 -0.28785 -0.2876 -0.28808 -0.28876 -0.28923 -0.28991 -0.29064 -0.29131 -0.29178 -0.29224 -0.29222 -0.29268 -0.29333 -0.29351 -0.29347 -0.29349 -0.29414 -0.29485 -0.29549 -0.29641 -0.29683 -0.29705 -0.29775 -0.29838 -0.29908 -0.2995 -0.29991 -0.30082 -0.30122 -0.30097 -0.30116 -0.30155 -0.3015 -0.30211 -0.30279 -0.30295 -0.30311 -0.304 -0.30423 -0.30482 -0.30481 -0.30518 -0.30584 -0.30507 -0.30542 -0.30607 -0.30649 -0.30691 -0.30748 -0.3079 -0.30854 -0.30941 -0.30982 -0.31069 -0.3111 -0.31174 -0.31261 -0.31199 -0.31262 -0.31301 -0.31293 -0.31355 -0.31369 -0.31384 -0.31445 -0.31411 -0.31472 -0.31533 -0.31594 -0.3163 -0.31666 -0.31637 -0.31673 -0.31757 -0.31817 -0.31901 -0.31986 -0.31995 -0.32055 -0.32114 -0.32131 -0.32165 -0.32156 -0.32189 -0.32197 -0.32094 -0.32109 -0.32209 -0.32249 -0.32356 -0.32413 -0.32427 -0.32483 -0.32497 -0.32553 -0.32609 -0.32526 -0.32563 -0.32619 -0.32577 -0.32615 -0.32695 -0.32732 -0.32786 -0.32823 -0.32903 -0.32957 -0.32948 -0.32975 -0.33055 -0.33045 -0.33098 -0.33133 -0.3314 -0.33175 -0.33236 -0.33288 -0.33367 -0.33355 -0.33407 -0.33421 -0.33445 -0.33505 -0.33584 -0.33635 -0.33695 -0.33354 -0.33366 -0.33462 -0.33427 -0.33504 -0.33553 -0.3363 -0.33708 -0.33785 -0.33843 -0.33939 -0.34016 -0.34007 -0.34084 -0.33766 -0.33746 -0.33754 -0.3383 -0.33906 -0.33981 -0.34038 -0.34064 -0.34071 -0.34058 -0.34134 -0.34159 -0.34175 -0.34201 -0.34226 -0.34211 -0.34246 -0.342 -0.34254 -0.34308 -0.34332 -0.34437 -0.3448 -0.34555 -0.34608 -0.34682 -0.34685 -0.34759 -0.34833 -0.34845 -0.34867 -0.34807 -0.34818 -0.3484 -0.34851 -0.34892 -0.34924 -0.34997 -0.35069 -0.35142 -0.35215 -0.3533 -0.35435 -0.35434 -0.35443 -0.35356 -0.35354 -0.35363 -0.35339 -0.35346 -0.35418 -0.35372 -0.354 -0.35428 -0.35478 -0.35549
-0.099658 -0.10036 -0.10408 -0.10473 -0.10545 0 0 0 0 0 0 0 0 0 0 0 -0.11552 -0.11618 -0.11685 -0.11759 -0.11845 -0.11826 -0.11865 -0.11947 -0.1199 -0.12052 -0.1213 -0.12512 -0.1258 -0.1264 -0.12411 -0.12485 -0.12666 -0.12733 -0.13004 -0.13064 -0.13131 -0.13216 -0.13348 -0.13446 -0.13523 -0.13592 -0.13669 -0.13729 -0.13806 -0.13883 -0.1381 -0.13878 -0.13995 -0.14126 -0.14199 -0.14254 -0.14313 -0.14468 -0.14537 -0.14606 -0.14675 -0.14753 -0.1485 -0.14919 -0.15006 -0.1527 -0.15283 -0.15304 -0.15566 -0.15646 -0.15736 -0.15806 -0.15642 -0.15731 -0.1584 -0.15929 -0.15999 0 0 -0.24714 -0.24866 -0.25044 -0.2515 -0.25211 -0.25318 -0.25398 -0.25505 -0.25591 -0.25671 -0.2573 -0.25762 -0.25841 -0.25877 -0.2579 -0.25846 -0.25951 -0.26006 -0.26083 -0.26166 -0.2622 -0.26324 -0.26356 -0.26438 -0.26491 -0.26494 -0.26552 -0.26581 -0.26587 -0.26667 -0.2674 -0.26773 -0.26875 -0.26855 -0.26928 -0.27005 -0.27107 -0.27184 -0.27285 -0.27292 -0.27339 -0.27392 -0.27396 -0.27472 -0.2747 -0.27449 -0.27548 -0.27598 -0.27697 -0.27771 -0.27845 -0.27919 -0.27999 -0.28048 -0.28096 -0.28119 -0.28217 -0.28315 -0.28192 -0.28264 -0.28335 -0.28387 -0.28459 -0.28555 -0.286 -0.28671 -0.28722 -0.28747 -0.28764 -0.28788 -0.28765 -0.28808 -0.28784 -0.28852 -0.28873 -0.28947 -0.28987 -0.29061 -0.29128 -0.29175 -0.29241 -0.29219 -0.29264 -0.2933 -0.29347 -0.29371 -0.29346 -0.29438 -0.2953 -0.29574 -0.29637 -0.2968 -0.29701 -0.29772 -0.29863 -0.29877 -0.29946 -0.29987 -0.30057 -0.30119 -0.30065 -0.30112 -0.30152 -0.30169 -0.30237 -0.30327 -0.30292 -0.30337 -0.30397 -0.30419 -0.30479 -0.30501 -0.30537 -0.30581 -0.30549 -0.30561 -0.30627 -0.30669 -0.30711 -0.30745 -0.30787 -0.30851 -0.30938 -0.31002 -0.31066 -0.31107 -0.31194 -0.31258 -0.31196 -0.31235 -0.31298 -0.31313 -0.31352 -0.3139 -0.31381 -0.31466 -0.31408 -0.31469 -0.3153 -0.31591 -0.31652 -0.31688 -0.3161 -0.3167 -0.31754 -0.31814 -0.31898 -0.31983 -0.32017 -0.32101 -0.32111 -0.32153 -0.32162 -0.32153 -0.32186 -0.32194 -0.32117 -0.32123 -0.32189 -0.32271 -0.32354 -0.32385 -0.32441 -0.32481 -0.32494 -0.32524 -0.3258 -0.32497 -0.32561 -0.3259 -0.32575 -0.32638 -0.32693 -0.32729 -0.32757 -0.32838 -0.32874 -0.32981 -0.32946 -0.32999 -0.33034 -0.3307 -0.33096 -0.33157 -0.3312 -0.33172 -0.33233 -0.33258 -0.33337 -0.33352 -0.33386 -0.33419 -0.33424 -0.33521 -0.33581 -0.33632 -0.33711 -0.33818 -0.33896 -0.33806 -0.33396 -0.33473 -0.33579 -0.33628 -0.33733 -0.33811 -0.33859 -0.33965 -0.34042 -0.33976 -0.33937 -0.33715 -0.33743 -0.33781 -0.33827 -0.33903 -0.33959 -0.34015 -0.34062 -0.34069 -0.34105 -0.34151 -0.34206 -0.34192 -0.34218 -0.34273 -0.34238 -0.34263 -0.34228 -0.34252 -0.34306 -0.3436 -0.34454 -0.34529 -0.34582 -0.34626 -0.3468 -0.34682 -0.34736 -0.3483 -0.34863 -0.34865 -0.34763 -0.34816 -0.34858 -0.34848 -0.3489 -0.34942 -0.34973 -0.35088 -0.35119 -0.35213 -0.35328 -0.354 -0.35431 -0.35408 -0.35301 -0.3533 -0.35339 -0.35315 -0.35344 -0.35394 -0.35348 -0.35333 -0.35404 -0.35411 -0.35482
-0.099363 -0.099822 -0.10184 -0.10248 -0.10508 -0.10598 -0.10663 -0.10757 0 0 0 0 0 0 0 0 -0.11549 -0.11616 -0.1169 -0.11761 -0.11843 -0.11824 -0.11886 -0.11988 -0.11995 -0.12069 -0.12127 -0.12338 -0.12397 -0.12593 -0.12184 -0.12249 -0.12314 -0.12388 -0.13002 -0.12944 -0.1302 -0.13214 -0.13239 -0.13307 -0.13439 -0.13542 -0.13636 -0.13678 -0.13782 -0.13863 -0.13808 -0.13907 -0.13984 -0.14088 -0.14197 -0.14261 -0.1432 -0.14466 -0.14526 -0.14603 -0.14672 -0.1475 -0.14866 -0.14925 -0.15004 -0.15239 -0.1528 -0.15302 -0.15574 -0.15654 -0.15734 -0.15804 -0.15639 -0.15709 -0.15674 -0.15743 -0.15997 0 0 -0.24735 -0.24842 -0.24969 -0.25101 -0.25182 -0.25314 -0.25395 -0.2548 -0.25561 -0.25641 -0.25726 -0.25758 -0.25816 -0.25847 -0.25835 -0.25864 -0.25947 -0.26003 -0.26058 -0.26113 -0.26195 -0.26299 -0.26375 -0.26456 -0.26538 -0.2649 -0.26548 -0.266 -0.26629 -0.26731 -0.26788 -0.26793 -0.26871 -0.26875 -0.26953 -0.27025 -0.27126 -0.27204 -0.27281 -0.27312 -0.27335 -0.27412 -0.27417 -0.27469 -0.27466 -0.27445 -0.27544 -0.27594 -0.27693 -0.27792 -0.27817 -0.27916 -0.27996 -0.28044 -0.28118 -0.28116 -0.28164 -0.28236 -0.28239 -0.2826 -0.28357 -0.2841 -0.28481 -0.28578 -0.28597 -0.28694 -0.28745 -0.28743 -0.28761 -0.28785 -0.28782 -0.28831 -0.288 -0.28848 -0.28869 -0.28944 -0.28984 -0.29058 -0.29125 -0.29171 -0.29218 -0.29216 -0.29261 -0.29327 -0.29344 -0.29389 -0.29363 -0.29435 -0.29499 -0.2957 -0.29634 -0.29705 -0.29719 -0.2979 -0.29881 -0.29852 -0.29872 -0.29963 -0.30003 -0.30094 -0.30041 -0.30109 -0.30149 -0.30188 -0.30256 -0.30324 -0.30289 -0.30334 -0.30394 -0.30416 -0.30476 -0.30497 -0.30564 -0.30623 -0.30546 -0.30589 -0.30623 -0.30689 -0.30754 -0.30773 -0.30807 -0.30871 -0.30958 -0.30999 -0.31063 -0.31104 -0.31168 -0.31255 -0.31193 -0.31232 -0.31295 -0.31334 -0.31373 -0.31387 -0.31401 -0.31463 -0.31333 -0.31418 -0.31503 -0.31539 -0.31576 -0.31612 -0.31583 -0.31643 -0.31727 -0.31787 -0.31871 -0.31955 -0.32014 -0.32099 -0.32108 -0.3215 -0.32159 -0.321 -0.32133 -0.32174 -0.32114 -0.3212 -0.32203 -0.32243 -0.32325 -0.32408 -0.32438 -0.32478 -0.32491 -0.32521 -0.3256 -0.32494 -0.32506 -0.32569 -0.32572 -0.32635 -0.3269 -0.32726 -0.32754 -0.32835 -0.32898 -0.32978 -0.32943 -0.32996 -0.3305 -0.3304 -0.33093 -0.33155 -0.33117 -0.33151 -0.3323 -0.33255 -0.33316 -0.33322 -0.33355 -0.33388 -0.33393 -0.335 -0.33579 -0.33611 -0.3369 -0.33768 -0.33772 -0.33785 -0.33393 -0.3347 -0.33548 -0.33653 -0.33731 -0.33827 -0.33857 -0.33963 -0.34059 -0.33973 -0.33935 -0.33694 -0.33741 -0.33797 -0.33854 -0.33881 -0.33957 -0.33983 -0.3404 -0.34066 -0.34142 -0.34178 -0.34223 -0.3421 -0.34265 -0.3429 -0.34256 -0.34281 -0.34225 -0.34249 -0.34283 -0.34378 -0.34472 -0.34546 -0.346 -0.34654 -0.34677 -0.3471 -0.34754 -0.34828 -0.3484 -0.34862 -0.3474 -0.34813 -0.34886 -0.34866 -0.34887 -0.34919 -0.34971 -0.35085 -0.35116 -0.35168 -0.35283 -0.35335 -0.35365 -0.35364 -0.35298 -0.35307 -0.35336 -0.35291 -0.3532 -0.3537 -0.35324 -0.35309 -0.35337 -0.35343 -0.35436
-0.09917 -0.0998 -0.10182 -0.10245 -0.10509 -0.10588 -0.10661 -0.10755 0 0 0 0 0 0 0 0 -0.11581 -0.11647 -0.11707 -0.11781 -0.11867 -0.1195 -0.12032 -0.12119 -0.12056 -0.12119 -0.12185 -0.12336 -0.12394 -0.12591 -0.12182 -0.12247 -0.12312 -0.12385 -0.13045 -0.12942 -0.13018 -0.13212 -0.13245 -0.1333 -0.13424 -0.13514 -0.13616 -0.13667 -0.13779 -0.13878 -0.13889 -0.13958 -0.14026 -0.14121 -0.1423 -0.1429 -0.14358 -0.14482 -0.14569 -0.14629 -0.1467 -0.14748 -0.14878 -0.14923 -0.15002 -0.15246 -0.15316 -0.15367 -0.15667 -0.1568 -0.15751 -0.15962 -0.15686 -0.15765 -0.15672 -0.15741 0 0 -0.246 -0.24707 -0.24838 -0.24945 -0.25072 -0.25157 -0.25284 -0.25391 -0.25498 -0.25557 -0.25637 -0.25743 -0.25728 -0.25786 -0.25843 -0.25831 -0.25887 -0.25992 -0.26021 -0.26076 -0.26137 -0.26213 -0.26295 -0.26371 -0.26453 -0.26534 -0.26487 -0.26516 -0.26597 -0.26654 -0.26756 -0.26784 -0.26812 -0.26891 -0.26848 -0.26921 -0.27022 -0.27123 -0.27224 -0.27301 -0.27308 -0.27385 -0.27408 -0.27413 -0.27465 -0.27463 -0.27442 -0.27516 -0.27615 -0.2769 -0.27764 -0.27838 -0.27912 -0.27992 -0.28041 -0.28089 -0.28113 -0.28135 -0.28208 -0.2821 -0.28282 -0.28354 -0.28406 -0.28503 -0.286 -0.28619 -0.2869 -0.28761 -0.28714 -0.28758 -0.28834 -0.28851 -0.289 -0.2885 -0.28918 -0.28939 -0.28987 -0.29081 -0.29129 -0.29149 -0.29195 -0.29214 -0.29212 -0.29278 -0.29324 -0.2932 -0.29385 -0.2936 -0.29432 -0.29524 -0.29539 -0.2961 -0.29674 -0.29766 -0.29836 -0.299 -0.29849 -0.2989 -0.2996 -0.3 -0.30069 -0.30059 -0.30106 -0.30146 -0.30185 -0.30253 -0.30291 -0.30286 -0.30331 -0.30391 -0.30413 -0.30502 -0.30539 -0.30606 -0.30672 -0.30663 -0.30676 -0.30719 -0.30731 -0.30796 -0.30815 -0.30857 -0.30914 -0.30978 -0.31019 -0.31084 -0.31101 -0.31165 -0.31251 -0.3119 -0.31229 -0.31292 -0.31331 -0.31417 -0.31456 -0.31422 -0.31484 -0.3133 -0.31391 -0.315 -0.31488 -0.31524 -0.31544 -0.31555 -0.31591 -0.31675 -0.31759 -0.31868 -0.31952 -0.32036 -0.32121 -0.3213 -0.32164 -0.32181 -0.32072 -0.3213 -0.32171 -0.32111 -0.32168 -0.32251 -0.32282 -0.32365 -0.32447 -0.32487 -0.32518 -0.32531 -0.32544 -0.32574 -0.32491 -0.32503 -0.32566 -0.32595 -0.3265 -0.32713 -0.32741 -0.32778 -0.32832 -0.32913 -0.32975 -0.3294 -0.32967 -0.33029 -0.33064 -0.3309 -0.33152 -0.33114 -0.33166 -0.33228 -0.33252 -0.33313 -0.33301 -0.33334 -0.33386 -0.33391 -0.33469 -0.33548 -0.33608 -0.33687 -0.33737 -0.33769 -0.33801 -0.33785 -0.33769 -0.33734 -0.33745 -0.33823 -0.33919 -0.33949 -0.34008 -0.34085 -0.34114 -0.34163 -0.33739 -0.33786 -0.33843 -0.33919 -0.33927 -0.34003 -0.3401 -0.34086 -0.34162 -0.34208 -0.34264 -0.34339 -0.34296 -0.34352 -0.34357 -0.34293 -0.34308 -0.34263 -0.34297 -0.34321 -0.34375 -0.3449 -0.34544 -0.34597 -0.34651 -0.34695 -0.34749 -0.34782 -0.34876 -0.34899 -0.34932 -0.3482 -0.34873 -0.34925 -0.34885 -0.34916 -0.34937 -0.34989 -0.35083 -0.35093 -0.35165 -0.35259 -0.3529 -0.3531 -0.3534 -0.35296 -0.35325 -0.35355 -0.3531 -0.35339 -0.35389 -0.35321 -0.35328 -0.35378 -0.35363 -0.35434
-0.10021 -0.10085 -0.10231 -0.10289 -0.10503 -0.10572 -0.10644 -0.10717 -0.10782 -0.10847 0 0 0 0 0 -0.11643 -0.11578 -0.11653 -0.1172 -0.11798 -0.119 -0.11974 -0.12049 -0.12124 -0.12077 -0.12128 -0.12211 0 0 0 -0.12469 -0.12535 -0.12915 -0.12929 -0.12997 -0.12977 -0.13053 -0.13192 -0.13277 -0.13354 -0.13434 -0.1352 -0.13623 -0.13674 -0.13777 -0.13885 -0.13896 -0.13956 -0.14015 -0.1411 -0.14228 -0.14288 -0.14347 0 0 0 -0.14723 -0.14792 -0.15016 -0.15076 -0.15146 -0.15291 -0.15361 -0.15498 -0.15746 -0.15504 -0.15583 -0.15711 -0.15635 -0.15704 -0.15763 -0.15843 0 0 -0.24596 -0.24794 -0.2488 -0.24987 -0.25093 -0.25174 -0.25307 -0.25413 -0.25494 -0.25553 -0.25633 -0.25719 -0.25751 -0.25809 -0.2584 -0.25827 -0.25884 -0.25961 -0.25995 -0.261 -0.26106 -0.26188 -0.26292 -0.26395 -0.26471 -0.2653 -0.26483 -0.26541 -0.26593 -0.2665 -0.26753 -0.26781 -0.26786 -0.26864 -0.26868 -0.26969 -0.27047 -0.27148 -0.2725 -0.27321 -0.27328 -0.27381 -0.27405 -0.2741 -0.27462 -0.27459 -0.27438 -0.27513 -0.27588 -0.27662 -0.27761 -0.27859 -0.27909 -0.27989 -0.28037 -0.28086 -0.28134 -0.28132 -0.2816 -0.28182 -0.28254 -0.28325 -0.28403 -0.28474 -0.28571 -0.28616 -0.28713 -0.28757 -0.28756 -0.2878 -0.2885 -0.28874 -0.28943 -0.28893 -0.28941 -0.28963 -0.29011 -0.29078 -0.29146 -0.29145 -0.29192 -0.29231 -0.2923 -0.29255 -0.2932 -0.29338 -0.29382 -0.29378 -0.29449 -0.29493 -0.29564 -0.29607 -0.29699 -0.29762 -0.29833 -0.29875 -0.29867 -0.29837 -0.29928 -0.30019 -0.30066 -0.30056 -0.30103 -0.30164 -0.3016 -0.30228 -0.30266 -0.3026 -0.30298 -0.30343 -0.3041 -0.30469 -0.30536 -0.3058 -0.30669 -0.3066 -0.30696 -0.30739 -0.30781 -0.30816 -0.30858 -0.30854 -0.30942 -0.30975 -0.31017 -0.3108 -0.31098 -0.31185 -0.31249 -0.3121 -0.3125 -0.31313 -0.31352 -0.31438 -0.31477 -0.31443 -0.31505 -0.31303 -0.31412 -0.31497 -0.31461 -0.31497 -0.31541 -0.31552 -0.31637 -0.31696 -0.31756 -0.31816 -0.31924 -0.31984 -0.32093 -0.32127 -0.32144 -0.32128 -0.32069 -0.32102 -0.32143 -0.32108 -0.32165 -0.32248 -0.32305 -0.32388 -0.32444 -0.3251 -0.32541 -0.32528 -0.32567 -0.32597 -0.32488 -0.325 -0.32538 -0.32592 -0.32647 -0.3271 -0.32738 -0.32802 -0.32856 -0.3291 -0.3299 -0.32937 -0.32991 -0.33044 -0.33034 -0.33114 -0.33122 -0.33129 -0.33164 -0.33225 -0.33231 -0.33283 -0.33271 -0.33331 -0.33355 -0.33388 -0.33467 -0.33545 -0.33577 -0.33656 -0.33735 -0.33766 -0.33826 -0.33811 -0.33766 -0.3375 -0.33743 -0.33839 -0.33898 -0.33947 -0.34005 -0.34082 -0.34112 -0.3416 -0.33891 -0.33851 -0.33908 -0.33936 -0.33963 -0.3402 -0.34047 -0.34103 -0.34179 -0.34205 -0.34281 -0.34337 -0.34323 -0.34349 -0.34355 -0.3429 -0.34305 -0.3428 -0.34294 -0.34338 -0.34392 -0.34487 -0.34541 -0.34575 -0.34618 -0.34692 -0.34746 -0.348 -0.34894 -0.34927 -0.3495 -0.34869 -0.34922 -0.34964 -0.34903 -0.34934 -0.34955 -0.34986 -0.35059 -0.3509 -0.35163 -0.35278 -0.35235 -0.35286 -0.35337 -0.35272 -0.35302 -0.35331 -0.35307 -0.35336 -0.35387 -0.35319 -0.35347 -0.35354 -0.35382 -0.35431
-0.10015 -0.10082 -0.10229 -0.10286 -0.10501 -0.1057 -0.10635 -0.10721 -0.1078 -0.10845 0 0 0 0 0 -0.1164 -0.11576 -0.11662 -0.11736 -0.1183 -0.11947 -0.12015 -0.12047 -0.12098 -0.12122 -0.1215 -0.12208 0 0 0 -0.12466 -0.12533 -0.12912 -0.12935 -0.12995 -0.12975 -0.13051 -0.13198 -0.13283 -0.13398 -0.13458 -0.13535 -0.13603 -0.13662 -0.13722 -0.13891 -0.13894 -0.13935 -0.13986 -0.1409 -0.14235 -0.14285 -0.14345 0 0 0 -0.14721 -0.1479 -0.15013 -0.15073 -0.15143 -0.15403 -0.15473 -0.15496 -0.15744 -0.15501 -0.15581 -0.15709 -0.15701 -0.15741 -0.15801 -0.1583 0 0 -0.24829 -0.24911 -0.24947 -0.25003 -0.2509 -0.25196 -0.25323 -0.2543 -0.25516 -0.25576 -0.2563 -0.25715 -0.25747 -0.25805 -0.25884 -0.25845 -0.25902 -0.25958 -0.26014 -0.26118 -0.26151 -0.26233 -0.26337 -0.26414 -0.26518 -0.26527 -0.26479 -0.26537 -0.26589 -0.26647 -0.26749 -0.26777 -0.26805 -0.26884 -0.26911 -0.27012 -0.2709 -0.27168 -0.2727 -0.27371 -0.27348 -0.27402 -0.27449 -0.2743 -0.27506 -0.27486 -0.27459 -0.27534 -0.27608 -0.27707 -0.27782 -0.2788 -0.2793 -0.27985 -0.28034 -0.28083 -0.28156 -0.28128 -0.28157 -0.28179 -0.2825 -0.28303 -0.284 -0.28496 -0.28593 -0.28639 -0.28709 -0.2878 -0.28805 -0.28849 -0.28925 -0.28897 -0.28966 -0.28916 -0.28938 -0.28959 -0.29007 -0.29075 -0.29122 -0.29142 -0.29162 -0.29228 -0.29226 -0.29272 -0.29344 -0.29383 -0.29427 -0.29423 -0.29467 -0.29538 -0.29561 -0.29625 -0.29696 -0.29759 -0.29801 -0.29872 -0.29842 -0.29862 -0.29925 -0.29994 -0.30063 -0.30082 -0.30122 -0.30161 -0.30157 -0.30195 -0.30241 -0.30235 -0.30273 -0.3034 -0.30407 -0.30466 -0.30488 -0.30555 -0.30613 -0.30657 -0.30745 -0.30811 -0.30801 -0.30866 -0.30901 -0.30897 -0.30985 -0.31026 -0.31013 -0.31078 -0.31141 -0.31229 -0.31292 -0.31254 -0.31294 -0.31357 -0.31396 -0.31482 -0.31521 -0.31464 -0.31502 -0.31372 -0.31433 -0.31518 -0.31458 -0.31494 -0.31554 -0.31574 -0.31658 -0.31694 -0.31729 -0.31788 -0.31872 -0.31931 -0.32015 -0.32099 -0.32116 -0.321 -0.32066 -0.32099 -0.32166 -0.3213 -0.32188 -0.32296 -0.32353 -0.32436 -0.32493 -0.32524 -0.32589 -0.32551 -0.32582 -0.3262 -0.32511 -0.32549 -0.32561 -0.32589 -0.32644 -0.32708 -0.32736 -0.32799 -0.32853 -0.32907 -0.32988 -0.32952 -0.33015 -0.33068 -0.33059 -0.33085 -0.33119 -0.33109 -0.33161 -0.33222 -0.33229 -0.33262 -0.33268 -0.33301 -0.33334 -0.33385 -0.33445 -0.33524 -0.33575 -0.33635 -0.33713 -0.33764 -0.33842 -0.33855 -0.33811 -0.33776 -0.33759 -0.33836 -0.33895 -0.33944 -0.33974 -0.34051 -0.3408 -0.34138 -0.341 -0.34013 -0.34021 -0.34001 -0.34038 -0.34066 -0.34093 -0.34149 -0.34196 -0.34252 -0.34308 -0.34354 -0.3434 -0.34366 -0.34402 -0.34357 -0.34412 -0.34377 -0.34402 -0.34426 -0.3446 -0.34535 -0.34589 -0.34572 -0.34616 -0.3469 -0.34743 -0.34777 -0.34871 -0.34925 -0.34947 -0.34928 -0.3496 -0.35013 -0.34952 -0.34952 -0.34953 -0.34984 -0.35078 -0.35109 -0.3516 -0.35296 -0.35253 -0.35284 -0.35314 -0.35312 -0.3532 -0.3535 -0.35326 -0.35376 -0.35406 -0.35359 -0.35366 -0.35373 -0.35401 -0.35472
-0.10006 -0.1007 -0.10337 -0.10402 -0.10492 -0.10568 -0.10647 -0.10719 -0.10777 -0.10842 0 0 0 -0.11536 -0.11611 -0.11672 -0.11593 -0.11675 -0.11749 -0.11835 -0.11945 -0.12012 -0.12052 -0.12092 -0.12144 -0.12159 -0.12206 0 0 0 -0.12464 -0.12539 -0.12856 -0.12924 -0.12992 -0.12918 -0.12985 -0.13188 -0.13285 -0.13396 -0.13456 -0.13524 -0.13583 -0.13643 -0.13663 -0.13731 -0.13847 -0.13906 -0.13961 -0.13984 -0.14052 0 0 0 0 0 -0.14955 -0.15025 -0.15095 -0.15424 -0.15377 -0.15448 -0.15528 -0.15632 -0.15631 -0.15711 -0.15801 -0.15716 -0.15728 -0.15768 -0.15828 -0.15897 0 0 -0.24916 -0.24907 -0.24964 -0.25 -0.2506 -0.25167 -0.25299 -0.25427 -0.25512 -0.25546 -0.25626 -0.25732 -0.25717 -0.25801 -0.2588 -0.25868 -0.25898 -0.25981 -0.26037 -0.26114 -0.2617 -0.26252 -0.26356 -0.2646 -0.26514 -0.26545 -0.26476 -0.26506 -0.26608 -0.26615 -0.26717 -0.26751 -0.26801 -0.2688 -0.26907 -0.27009 -0.2711 -0.27188 -0.27289 -0.27367 -0.27368 -0.27398 -0.27445 -0.27474 -0.27503 -0.27507 -0.2748 -0.27554 -0.27605 -0.27704 -0.27803 -0.27877 -0.27951 -0.27982 -0.28031 -0.28079 -0.28127 -0.28125 -0.28153 -0.28175 -0.28247 -0.28318 -0.28396 -0.28493 -0.2859 -0.28635 -0.28732 -0.28802 -0.28828 -0.28872 -0.28942 -0.28919 -0.28989 -0.28913 -0.28954 -0.28976 -0.29004 -0.29072 -0.29119 -0.29112 -0.29185 -0.29225 -0.29223 -0.29269 -0.29362 -0.29379 -0.29452 -0.29447 -0.29464 -0.29535 -0.29557 -0.29622 -0.29692 -0.29735 -0.29798 -0.29869 -0.29839 -0.29859 -0.29922 -0.29991 -0.3006 -0.30079 -0.30118 -0.30187 -0.30153 -0.30192 -0.30238 -0.30203 -0.3027 -0.30337 -0.30374 -0.30493 -0.30485 -0.30551 -0.3064 -0.30654 -0.30742 -0.30808 -0.30798 -0.3084 -0.30875 -0.30917 -0.30982 -0.31023 -0.31034 -0.31074 -0.31138 -0.31226 -0.31289 -0.31251 -0.31314 -0.31377 -0.31417 -0.31503 -0.31542 -0.31485 -0.31523 -0.31369 -0.31454 -0.31515 -0.31455 -0.31491 -0.31551 -0.31595 -0.31631 -0.31691 -0.31701 -0.3176 -0.31844 -0.31928 -0.31987 -0.32071 -0.32089 -0.32097 -0.32089 -0.32122 -0.32179 -0.32144 -0.3221 -0.32293 -0.32376 -0.32433 -0.3249 -0.32521 -0.32587 -0.32574 -0.32605 -0.32617 -0.32552 -0.32564 -0.32576 -0.32587 -0.32668 -0.32722 -0.32733 -0.32814 -0.3285 -0.32904 -0.32967 -0.32976 -0.33012 -0.33065 -0.33056 -0.33082 -0.33116 -0.33079 -0.3314 -0.33219 -0.33199 -0.33259 -0.33293 -0.33326 -0.33377 -0.33364 -0.33443 -0.33521 -0.33572 -0.33632 -0.3371 -0.33761 -0.3384 -0.33824 -0.33808 -0.33773 -0.33756 -0.33815 -0.33911 -0.33922 -0.33999 -0.34048 -0.34078 -0.34136 -0.34145 -0.34078 -0.34087 -0.34047 -0.34055 -0.34112 -0.3409 -0.34146 -0.34193 -0.34249 -0.34325 -0.34381 -0.34338 -0.34344 -0.34399 -0.34425 -0.3446 -0.34435 -0.34469 -0.34494 -0.34498 -0.34552 -0.34607 -0.3459 -0.34613 -0.34687 -0.34721 -0.34774 -0.34848 -0.34891 -0.34945 -0.34957 -0.34979 -0.35011 -0.3495 -0.3495 -0.34981 -0.35023 -0.35096 -0.35127 -0.352 -0.35294 -0.35282 -0.35323 -0.35332 -0.35341 -0.35361 -0.3539 -0.35377 -0.35395 -0.35424 -0.35357 -0.35364 -0.35392 -0.35398 -0.35469
-0.099253 -0.099816 -0.10335 -0.104 -0.10465 -0.1053 -0.10605 -0.10728 -0.10793 -0.1084 -0.10982 -0.11047 -0.11543 -0.11467 -0.11594 -0.11684 -0.1159 -0.11688 -0.11766 -0.11822 -0.11943 -0.11925 -0.11945 -0.12031 -0.12118 -0.12129 -0.12204 -0.12438 -0.12514 -0.12573 -0.12462 -0.12537 -0.12854 -0.12922 -0.1299 -0.12916 -0.12983 -0.13185 -0.133 -0.13402 -0.13462 -0.13487 -0.13551 -0.13619 -0.13669 -0.13728 -0.13845 -0.13913 -0.13914 -0.13982 -0.1405 0 0 0 0 0 -0.14952 -0.15022 -0.15093 -0.15421 -0.15374 -0.15445 -0.15544 -0.15587 -0.156 -0.15661 -0.15721 -0.15714 -0.15686 -0.15756 -0.15815 -0.15885 0 0 -0.24912 -0.24929 -0.24985 -0.24996 -0.25057 -0.25163 -0.25295 -0.25423 -0.25509 -0.25542 -0.25622 -0.25707 -0.2574 -0.25819 -0.25903 -0.25865 -0.25921 -0.25999 -0.26033 -0.26138 -0.26193 -0.26297 -0.26374 -0.26456 -0.2651 -0.26542 -0.265 -0.26502 -0.26605 -0.26639 -0.26714 -0.2677 -0.26798 -0.26877 -0.26927 -0.27028 -0.27106 -0.27185 -0.27286 -0.27364 -0.27341 -0.27395 -0.27442 -0.27447 -0.27523 -0.27425 -0.27524 -0.27624 -0.2765 -0.27749 -0.27824 -0.27898 -0.27948 -0.28022 -0.28027 -0.28125 -0.28149 -0.28097 -0.2815 -0.28147 -0.28218 -0.28296 -0.28367 -0.28464 -0.28561 -0.28606 -0.28677 -0.28747 -0.28798 -0.28823 -0.28866 -0.28864 -0.28913 -0.28883 -0.28905 -0.28926 -0.28947 -0.29021 -0.29089 -0.29109 -0.29182 -0.29222 -0.2922 -0.29265 -0.29358 -0.29403 -0.29496 -0.29444 -0.29488 -0.29532 -0.29554 -0.29618 -0.29689 -0.29732 -0.29795 -0.29866 -0.29857 -0.29856 -0.29947 -0.29988 -0.30057 -0.30097 -0.30137 -0.30184 -0.3015 -0.30189 -0.30235 -0.30229 -0.30267 -0.30356 -0.30401 -0.3046 -0.30482 -0.30548 -0.30607 -0.30673 -0.30739 -0.30805 -0.30795 -0.3086 -0.30895 -0.30914 -0.30979 -0.3102 -0.3103 -0.31071 -0.31159 -0.31222 -0.3131 -0.31272 -0.31335 -0.31398 -0.31437 -0.31524 -0.31563 -0.31482 -0.31496 -0.31414 -0.31475 -0.31536 -0.31476 -0.31512 -0.31573 -0.31592 -0.31652 -0.31688 -0.31723 -0.31782 -0.31817 -0.31901 -0.31968 -0.32052 -0.32061 -0.32094 -0.32086 -0.32119 -0.32177 -0.32192 -0.3225 -0.32333 -0.3239 -0.32456 -0.32461 -0.32518 -0.32584 -0.32571 -0.32628 -0.32658 -0.32549 -0.32561 -0.32599 -0.32584 -0.32665 -0.3272 -0.32783 -0.32837 -0.32874 -0.32928 -0.32982 -0.32973 -0.33027 -0.33089 -0.33071 -0.33106 -0.33141 -0.33103 -0.33155 -0.33189 -0.33178 -0.33211 -0.33263 -0.33296 -0.33347 -0.3338 -0.3344 -0.33537 -0.33569 -0.33629 -0.33708 -0.33758 -0.33837 -0.33727 -0.33758 -0.3377 -0.33753 -0.33812 -0.3389 -0.33891 -0.33949 -0.34026 -0.34027 -0.34066 -0.34046 -0.34007 -0.34064 -0.34044 -0.34072 -0.3408 -0.34068 -0.34114 -0.34171 -0.34178 -0.34233 -0.34279 -0.34286 -0.34321 -0.34327 -0.34382 -0.34457 -0.34502 -0.34507 -0.34542 -0.34546 -0.346 -0.34604 -0.34587 -0.34611 -0.34685 -0.34698 -0.34772 -0.34846 -0.34848 -0.34921 -0.34954 -0.34997 -0.35029 -0.34947 -0.34968 -0.35 -0.35052 -0.35125 -0.35166 -0.35197 -0.35312 -0.35301 -0.35321 -0.35372 -0.3536 -0.35411 -0.3543 -0.35417 -0.35446 -0.35465 -0.35408 -0.35383 -0.35411 -0.35418 -0.35467
-0.099231 -0.099793 -0.10343 -0.10408 -0.1047 -0.10535 -0.10586 -0.1075 -0.10823 -0.10899 -0.10972 -0.11045 -0.11541 -0.11469 -0.11532 -0.11697 -0.11629 -0.11712 -0.11786 -0.1188 -0.12006 -0.11922 -0.11943 -0.12013 -0.12139 -0.12206 -0.1254 -0.12436 -0.12512 -0.12571 -0.12516 -0.12591 -0.1286 -0.12948 -0.13042 -0.12913 -0.12981 -0.13263 -0.13357 -0.13429 -0.13468 -0.13493 -0.13548 -0.13616 -0.13658 -0.13726 -0.13935 -0.14004 -0.13912 -0.13953 -0.14047 0 0 0 0 0 -0.1495 -0.1502 -0.1509 -0.15465 -0.15381 -0.15443 -0.15532 -0.15646 -0.15588 -0.15648 -0.15719 -0.1595 -0.15684 -0.15753 -0.15823 -0.15883 0 0 -0.24908 -0.24971 -0.25033 -0.25043 -0.25078 -0.25185 -0.25292 -0.25445 -0.25526 -0.25585 -0.25671 -0.25725 -0.25757 -0.25842 -0.25921 -0.25909 -0.25966 -0.26044 -0.26078 -0.26134 -0.26211 -0.26294 -0.26398 -0.26453 -0.26557 -0.26588 -0.26541 -0.26571 -0.26652 -0.26681 -0.26761 -0.26812 -0.26817 -0.26896 -0.26923 -0.27025 -0.27126 -0.27204 -0.27282 -0.27337 -0.27338 -0.27368 -0.27438 -0.27467 -0.27544 -0.27572 -0.27647 -0.27747 -0.27774 -0.27843 -0.27894 -0.27919 -0.27993 -0.28068 -0.28117 -0.28191 -0.2822 -0.28118 -0.28172 -0.28168 -0.2824 -0.28312 -0.28364 -0.28461 -0.28557 -0.28577 -0.28673 -0.28744 -0.28743 -0.28793 -0.28837 -0.28814 -0.28857 -0.2888 -0.28901 -0.2895 -0.28944 -0.29018 -0.29085 -0.29085 -0.29152 -0.29218 -0.29244 -0.2931 -0.29383 -0.29428 -0.29493 -0.2951 -0.29534 -0.2955 -0.29551 -0.29643 -0.29707 -0.2975 -0.2982 -0.29862 -0.29883 -0.29874 -0.29944 -0.30006 -0.30075 -0.30116 -0.30184 -0.30202 -0.30198 -0.30237 -0.30305 -0.3027 -0.3036 -0.30427 -0.30494 -0.30509 -0.30546 -0.30613 -0.30679 -0.30745 -0.30781 -0.30847 -0.30815 -0.30857 -0.30922 -0.30888 -0.30953 -0.31017 -0.31028 -0.31068 -0.31156 -0.3122 -0.31283 -0.31323 -0.31355 -0.31395 -0.31458 -0.31521 -0.31584 -0.31503 -0.31493 -0.31459 -0.3152 -0.31582 -0.31498 -0.31558 -0.31594 -0.31614 -0.31674 -0.31709 -0.3172 -0.31779 -0.31838 -0.31898 -0.31965 -0.32024 -0.32058 -0.32091 -0.32083 -0.32141 -0.32199 -0.32257 -0.3234 -0.32381 -0.32438 -0.32495 -0.3251 -0.32567 -0.32598 -0.32586 -0.32625 -0.32681 -0.32598 -0.3261 -0.3264 -0.32633 -0.32715 -0.32769 -0.32824 -0.32879 -0.3296 -0.32996 -0.3305 -0.33015 -0.33078 -0.33131 -0.3314 -0.33193 -0.33228 -0.33173 -0.33198 -0.33214 -0.33148 -0.33208 -0.33242 -0.3332 -0.33372 -0.33405 -0.33456 -0.33534 -0.33567 -0.33645 -0.33752 -0.33784 -0.33862 -0.33772 -0.33784 -0.33786 -0.3377 -0.33809 -0.33858 -0.33888 -0.33918 -0.33995 -0.34024 -0.34034 -0.34044 -0.34005 -0.34062 -0.34061 -0.34098 -0.34126 -0.34065 -0.34112 -0.34168 -0.34175 -0.34231 -0.34257 -0.34263 -0.34289 -0.34344 -0.3435 -0.34425 -0.3453 -0.34575 -0.34629 -0.34684 -0.34729 -0.34531 -0.34605 -0.34659 -0.34713 -0.34715 -0.34769 -0.34843 -0.34866 -0.34939 -0.34993 -0.35066 -0.35068 -0.35027 -0.35059 -0.35112 -0.35164 -0.35185 -0.35216 -0.35216 -0.3531 -0.35298 -0.35371 -0.35444 -0.35421 -0.35472 -0.35502 -0.355 -0.3553 -0.35559 -0.35491 -0.35498 -0.35549 -0.35545 -0.35573
-0.099209 -0.099772 -0.10372 -0.1042 -0.10478 -0.1055 -0.10615 -0.10755 -0.10813 -0.10893 -0.10959 -0.11028 -0.11539 -0.11544 -0.11325 -0.11392 -0.11627 -0.11702 -0.11769 -0.11859 -0.11984 0 -0.11987 -0.12054 -0.12274 -0.1235 -0.12617 -0.12694 0 -0.12569 -0.12644 -0.12712 -0.12927 -0.12971 -0.13047 -0.13099 -0.13167 -0.13286 -0.13359 -0.13444 -0.13465 -0.13499 -0.13559 -0.13618 -0.13673 -0.13974 -0.14052 0 -0.13842 -0.13928 -0.13986 0 0 0 0 0 -0.15096 -0.15166 -0.15246 -0.15463 -0.15369 -0.1545 -0.1552 -0.15591 -0.15801 -0.15882 -0.15954 -0.16026 -0.15779 -0.15849 0 0 -0.24808 -0.24942 -0.2498 -0.24992 -0.25029 -0.25039 -0.25075 -0.25181 -0.25309 -0.25441 -0.25522 -0.25582 -0.25667 -0.25721 -0.2578 -0.25859 -0.25917 -0.25927 -0.26011 -0.26067 -0.26097 -0.26201 -0.26235 -0.26312 -0.26394 -0.26499 -0.26553 -0.26607 -0.26538 -0.26596 -0.26648 -0.267 -0.26758 -0.26837 -0.26842 -0.26916 -0.2692 -0.27021 -0.27152 -0.27177 -0.27255 -0.27333 -0.27287 -0.27335 -0.27435 -0.27464 -0.27564 -0.27592 -0.27692 -0.27768 -0.27819 -0.2787 -0.27939 -0.27965 -0.28039 -0.28089 -0.28113 -0.28212 -0.28242 -0.28165 -0.28212 -0.28165 -0.28237 -0.28308 -0.28386 -0.28432 -0.28528 -0.28574 -0.28644 -0.28741 -0.2874 -0.28764 -0.28834 -0.28785 -0.28834 -0.2885 -0.28872 -0.28946 -0.28941 -0.29015 -0.29082 -0.29082 -0.29148 -0.29215 -0.29261 -0.29307 -0.29379 -0.29445 -0.29518 -0.29507 -0.29551 -0.29574 -0.29597 -0.2964 -0.29732 -0.29775 -0.29867 -0.29909 -0.29851 -0.29871 -0.29912 -0.30003 -0.30072 -0.30112 -0.30181 -0.30221 -0.30239 -0.30256 -0.30324 -0.3034 -0.30408 -0.30468 -0.30535 -0.30551 -0.30595 -0.30662 -0.30721 -0.30787 -0.30854 -0.30897 -0.30857 -0.30877 -0.30919 -0.30908 -0.3095 -0.30983 -0.31001 -0.31065 -0.31129 -0.31217 -0.3128 -0.31266 -0.31305 -0.31392 -0.31408 -0.3147 -0.31557 -0.31476 -0.31466 -0.3148 -0.31517 -0.31603 -0.31495 -0.31555 -0.31591 -0.31627 -0.31695 -0.31731 -0.31741 -0.31801 -0.31836 -0.31895 -0.31962 -0.32021 -0.32055 -0.32063 -0.3208 -0.32138 -0.32221 -0.32279 -0.32337 -0.3242 -0.32435 -0.32518 -0.3255 -0.3259 -0.32621 -0.32609 -0.32648 -0.32704 -0.32595 -0.32625 -0.32637 -0.32674 -0.32729 -0.32793 -0.32874 -0.32929 -0.32957 -0.33038 -0.33101 -0.33057 -0.33093 -0.33129 -0.33164 -0.3319 -0.33225 -0.33188 -0.33222 -0.33184 -0.33172 -0.33178 -0.33239 -0.3329 -0.33369 -0.33374 -0.33453 -0.33532 -0.33592 -0.3367 -0.33749 -0.338 -0.33859 -0.33863 -0.33847 -0.33831 -0.33795 -0.33826 -0.33884 -0.33886 -0.33915 -0.33992 -0.34002 -0.34031 -0.34041 -0.34002 -0.3403 -0.34087 -0.34096 -0.34123 -0.34102 -0.34138 -0.34165 -0.34172 -0.34199 -0.34254 -0.34261 -0.34286 -0.34322 -0.34377 -0.34452 -0.34527 -0.34622 -0.34697 -0.34722 -0.34847 -0.3469 -0.34673 -0.34697 -0.34751 -0.34754 -0.34787 -0.3484 -0.34914 -0.34988 -0.35011 -0.35085 -0.35138 -0.35118 -0.3515 -0.35203 -0.35203 -0.35235 -0.35235 -0.35213 -0.35307 -0.35317 -0.35369 -0.35441 -0.3544 -0.35491 -0.35521 -0.35519 -0.3557 -0.35599 -0.35532 -0.35518 -0.35611 -0.35639 -0.35668
-0.099187 -0.09975 -0.1037 -0.10411 -0.10465 -0.1053 -0.10581 -0.10753 -0.10804 -0.10859 -0.10917 -0.10964 -0.11036 -0.11275 -0.11323 -0.11389 -0.11437 -0.11495 -0.11759 -0.11834 -0.11982 0 -0.11985 -0.12052 -0.12272 -0.12348 -0.12614 -0.12691 0 -0.12566 -0.12642 -0.1271 -0.12925 -0.12977 -0.13053 -0.13113 -0.1319 -0.13275 -0.13365 -0.13459 -0.13489 -0.13514 -0.13565 -0.13603 -0.13671 -0.13972 -0.1405 -0.14287 -0.1384 -0.13908 -0.13984 0 0 0 0 0 -0.15093 -0.15164 -0.15244 -0.1546 -0.15376 -0.15438 -0.15509 -0.15589 -0.15799 -0.1589 -0.15961 -0.16023 -0.15777 -0.15847 0 0 -0.24805 -0.24938 -0.24996 -0.24963 -0.25 -0.2501 -0.25045 -0.25178 -0.25305 -0.25412 -0.25518 -0.25557 -0.25664 -0.25717 -0.25776 -0.25856 -0.2594 -0.2595 -0.26007 -0.26085 -0.2612 -0.26198 -0.26253 -0.26336 -0.26413 -0.26495 -0.26549 -0.26631 -0.26534 -0.26592 -0.26667 -0.26697 -0.26777 -0.26856 -0.26862 -0.26941 -0.26916 -0.27046 -0.27148 -0.27174 -0.27228 -0.273 -0.27284 -0.27331 -0.27431 -0.27484 -0.2756 -0.27637 -0.27713 -0.27788 -0.27816 -0.27891 -0.27966 -0.27986 -0.2806 -0.28135 -0.28159 -0.28233 -0.28264 -0.28212 -0.28234 -0.28187 -0.28233 -0.2833 -0.28383 -0.28454 -0.28525 -0.28596 -0.28667 -0.28718 -0.28717 -0.2876 -0.2881 -0.28781 -0.28804 -0.28846 -0.28895 -0.28916 -0.28964 -0.29032 -0.29079 -0.29079 -0.29145 -0.29239 -0.29258 -0.29331 -0.29397 -0.29442 -0.29514 -0.29531 -0.29548 -0.29592 -0.29594 -0.29658 -0.2975 -0.29771 -0.29863 -0.29906 -0.29848 -0.29868 -0.29938 -0.3 -0.30091 -0.30138 -0.302 -0.30269 -0.30236 -0.30304 -0.30372 -0.30389 -0.30449 -0.30517 -0.30532 -0.306 -0.30592 -0.30681 -0.30748 -0.30807 -0.30873 -0.30917 -0.30854 -0.30897 -0.30939 -0.30905 -0.30946 -0.3098 -0.30975 -0.31039 -0.31103 -0.3119 -0.31254 -0.31239 -0.31302 -0.31342 -0.31405 -0.31467 -0.31506 -0.31497 -0.31487 -0.31477 -0.31514 -0.31576 -0.31516 -0.31552 -0.31588 -0.31624 -0.31693 -0.31728 -0.31763 -0.31823 -0.31857 -0.31892 -0.31934 -0.32018 -0.32052 -0.3206 -0.32102 -0.3216 -0.32218 -0.32302 -0.3236 -0.32417 -0.32458 -0.32515 -0.32572 -0.32612 -0.32644 -0.32632 -0.32645 -0.32701 -0.32593 -0.32605 -0.3266 -0.32672 -0.32726 -0.32808 -0.32871 -0.32926 -0.32981 -0.33035 -0.33116 -0.33081 -0.33117 -0.33153 -0.33134 -0.3317 -0.33205 -0.33185 -0.3322 -0.33208 -0.33142 -0.33203 -0.33209 -0.33287 -0.33366 -0.33399 -0.3345 -0.33529 -0.33561 -0.3364 -0.33718 -0.33797 -0.33829 -0.33907 -0.33873 -0.33856 -0.33793 -0.33842 -0.33881 -0.33864 -0.33912 -0.3399 -0.33981 -0.34029 -0.34058 -0.34019 -0.34057 -0.34104 -0.34112 -0.3414 -0.34099 -0.34136 -0.34182 -0.3417 -0.34196 -0.34271 -0.34258 -0.34284 -0.34339 -0.34374 -0.34469 -0.34544 -0.34639 -0.34695 -0.34769 -0.34794 -0.34778 -0.34741 -0.34745 -0.34799 -0.34782 -0.34784 -0.34858 -0.34932 -0.35006 -0.3506 -0.35103 -0.35156 -0.35167 -0.3521 -0.35242 -0.35242 -0.35274 -0.35232 -0.35232 -0.35284 -0.35314 -0.35387 -0.3546 -0.35458 -0.35489 -0.35518 -0.35548 -0.35589 -0.35618 -0.35551 -0.3558 -0.35652 -0.35702 -0.3573
-0.10278 -0.10327 -0.10375 -0.10398 -0.10456 -0.10514 -0.10575 -0.10733 -0.10791 -0.10842 -0.10904 -0.10969 -0.11027 -0.11273 -0.11336 -0.11379 -0.11446 -0.11493 -0.11829 -0.11916 -0.12079 0 0 0 -0.12277 -0.12345 -0.1264 -0.12709 0 -0.12625 -0.12701 -0.12985 -0.13042 -0.13069 -0.13097 -0.13148 -0.13217 -0.13285 -0.1335 -0.1349 -0.13534 -0.13585 -0.13662 -0.13831 -0.139 -0.14136 -0.14206 -0.1432 -0.14417 -0.14532 0 0 0 0 0 0 -0.15243 -0.15315 -0.15438 -0.15491 -0.1553 -0.15615 -0.15706 -0.15816 -0.15897 -0.1596 -0.16032 0 0 0 0 0 -0.24801 -0.24934 -0.25017 -0.24959 -0.24996 -0.25032 -0.25088 -0.25194 -0.25327 -0.25434 -0.25494 -0.25554 -0.25634 -0.25714 -0.25746 -0.25852 -0.25937 -0.25967 -0.26052 -0.2613 -0.26165 -0.2627 -0.26299 -0.26382 -0.26459 -0.26491 -0.26568 -0.2665 -0.26581 -0.26611 -0.26692 -0.26744 -0.26824 -0.26927 -0.26955 -0.27035 -0.2701 -0.27089 -0.27168 -0.2717 -0.27225 -0.27273 -0.27304 -0.27357 -0.27458 -0.27528 -0.27557 -0.27633 -0.27709 -0.27809 -0.27885 -0.2796 -0.28036 -0.28031 -0.28106 -0.28181 -0.28206 -0.2828 -0.28329 -0.28233 -0.28256 -0.28209 -0.28255 -0.28327 -0.28424 -0.28495 -0.28573 -0.28618 -0.28689 -0.28734 -0.28733 -0.28757 -0.28781 -0.28778 -0.28801 -0.28823 -0.28892 -0.2896 -0.29008 -0.29082 -0.29123 -0.29197 -0.29264 -0.29331 -0.29329 -0.29348 -0.29441 -0.29487 -0.29532 -0.29577 -0.29642 -0.29665 -0.2966 -0.29703 -0.29775 -0.29818 -0.2986 -0.29902 -0.29845 -0.29886 -0.29934 -0.30025 -0.30116 -0.30157 -0.30247 -0.30317 -0.30305 -0.30323 -0.30369 -0.30386 -0.30475 -0.30536 -0.30529 -0.30596 -0.30589 -0.30678 -0.30767 -0.30804 -0.3087 -0.30936 -0.30881 -0.30916 -0.30959 -0.30971 -0.30966 -0.31008 -0.30972 -0.31059 -0.31123 -0.3121 -0.31274 -0.31283 -0.31346 -0.31386 -0.31402 -0.31488 -0.31551 -0.31518 -0.31532 -0.31474 -0.31535 -0.31573 -0.31537 -0.31598 -0.31658 -0.3167 -0.3173 -0.31774 -0.3176 -0.31844 -0.31879 -0.31914 -0.31973 -0.32057 -0.32099 -0.32108 -0.32141 -0.32208 -0.32266 -0.32324 -0.32382 -0.32465 -0.3248 -0.32512 -0.32595 -0.32627 -0.32692 -0.32629 -0.32685 -0.32724 -0.32633 -0.32619 -0.32683 -0.32712 -0.32776 -0.32831 -0.32913 -0.32967 -0.33004 -0.33085 -0.33113 -0.33123 -0.33159 -0.33195 -0.33159 -0.33185 -0.33202 -0.33182 -0.33217 -0.33224 -0.33139 -0.332 -0.33233 -0.33312 -0.33364 -0.33369 -0.33429 -0.33526 -0.33586 -0.33665 -0.33743 -0.33775 -0.33826 -0.33886 -0.33917 -0.3392 -0.33837 -0.33839 -0.33898 -0.3388 -0.33938 -0.34016 -0.34016 -0.34074 -0.34132 -0.34064 -0.34093 -0.34101 -0.34158 -0.34186 -0.34175 -0.34202 -0.34209 -0.34216 -0.34243 -0.34318 -0.34325 -0.3435 -0.34406 -0.34411 -0.34487 -0.34562 -0.34707 -0.34762 -0.34807 -0.34822 -0.34867 -0.3485 -0.34885 -0.34888 -0.34799 -0.34802 -0.34897 -0.34971 -0.35024 -0.35057 -0.351 -0.35153 -0.35165 -0.35207 -0.35239 -0.35271 -0.35292 -0.35272 -0.35282 -0.35355 -0.35333 -0.35406 -0.35479 -0.35509 -0.35529 -0.3558 -0.35589 -0.35661 -0.3569 -0.35645 -0.35674 -0.35724 -0.35764 -0.35793
-0.10252 -0.10314 -0.10348 -0.10389 -0.10447 -0.10512 -0.10576 -0.10706 -0.10771 -0.1084 -0.10901 -0.10959 -0.11032 -0.11271 -0.11333 -0.11385 -0.11436 -0.11502 -0.11827 -0.11913 -0.12077 0 0 0 -0.12531 -0.126 -0.12749 -0.1281 0 -0.12683 -0.12751 -0.12999 -0.13031 -0.13042 -0.13094 -0.13163 -0.1324 -0.133 -0.13385 -0.13522 -0.1354 -0.13591 -0.13695 -0.14098 -0.14169 -0.14283 -0.14248 -0.14327 -0.14424 -0.1453 0 0 0 -0.14876 -0.14946 -0.15478 -0.15431 -0.15354 -0.15435 -0.15498 -0.15551 -0.15632 -0.15723 -0.15856 -0.15938 -0.15938 -0.15956 -0.15969 -0.16041 0 0 -0.24857 -0.24872 -0.24955 -0.25039 -0.25051 -0.25088 -0.25125 -0.25181 -0.25314 -0.2537 -0.25456 -0.25537 -0.2555 -0.2563 -0.25689 -0.25742 -0.25827 -0.25933 -0.25964 -0.26048 -0.26126 -0.26161 -0.26266 -0.26322 -0.264 -0.26482 -0.2651 -0.26592 -0.26646 -0.26605 -0.26658 -0.26761 -0.26814 -0.26894 -0.26946 -0.26975 -0.27054 -0.27082 -0.27161 -0.27211 -0.27167 -0.27245 -0.27293 -0.27324 -0.27401 -0.27478 -0.27555 -0.27601 -0.2763 -0.2773 -0.2783 -0.27906 -0.28006 -0.28057 -0.28059 -0.28103 -0.28202 -0.28227 -0.28326 -0.28325 -0.2828 -0.28278 -0.28205 -0.28277 -0.28324 -0.28395 -0.28492 -0.2857 -0.28641 -0.28686 -0.28757 -0.2873 -0.28754 -0.28778 -0.28749 -0.28771 -0.2882 -0.28888 -0.28956 -0.28984 -0.29079 -0.29146 -0.29193 -0.29287 -0.29327 -0.29299 -0.29372 -0.29438 -0.29484 -0.29556 -0.29573 -0.29618 -0.29662 -0.29678 -0.29721 -0.29772 -0.29786 -0.29857 -0.29871 -0.2987 -0.29883 -0.29953 -0.30022 -0.30084 -0.30175 -0.30244 -0.30335 -0.30302 -0.30371 -0.30388 -0.30405 -0.30472 -0.30562 -0.30548 -0.30593 -0.30586 -0.30653 -0.30764 -0.30801 -0.30867 -0.30911 -0.30901 -0.30936 -0.30979 -0.30967 -0.30963 -0.30974 -0.30969 -0.31033 -0.3112 -0.31207 -0.31271 -0.3128 -0.31343 -0.31383 -0.31422 -0.31461 -0.31524 -0.31539 -0.31529 -0.31471 -0.31509 -0.3157 -0.31558 -0.31595 -0.3168 -0.31667 -0.31727 -0.31771 -0.31806 -0.31817 -0.31901 -0.31911 -0.3197 -0.32054 -0.32096 -0.3213 -0.32138 -0.32205 -0.32263 -0.32321 -0.32379 -0.32437 -0.32477 -0.32535 -0.32567 -0.32624 -0.32689 -0.32652 -0.32708 -0.32739 -0.32656 -0.32669 -0.32698 -0.3271 -0.32773 -0.32855 -0.32883 -0.32947 -0.33028 -0.33082 -0.33137 -0.33173 -0.33201 -0.33237 -0.33201 -0.33209 -0.33244 -0.3318 -0.33214 -0.33203 -0.33137 -0.3317 -0.33231 -0.33309 -0.33361 -0.33348 -0.33426 -0.33523 -0.33583 -0.33662 -0.33713 -0.33773 -0.33823 -0.33883 -0.33914 -0.33917 -0.33853 -0.33836 -0.33876 -0.33858 -0.33907 -0.33984 -0.34042 -0.34071 -0.34081 -0.34062 -0.3409 -0.34099 -0.34126 -0.34183 -0.34172 -0.34199 -0.34226 -0.34233 -0.3426 -0.34316 -0.34342 -0.34377 -0.34423 -0.34459 -0.34534 -0.34609 -0.34724 -0.348 -0.34804 -0.34859 -0.34864 -0.34848 -0.34882 -0.34855 -0.34817 -0.3482 -0.34925 -0.34968 -0.35022 -0.35054 -0.35097 -0.35171 -0.35162 -0.35205 -0.35258 -0.35269 -0.3529 -0.353 -0.35279 -0.35373 -0.35351 -0.35403 -0.35476 -0.35506 -0.35526 -0.35577 -0.35607 -0.3568 -0.35709 -0.35664 -0.35714 -0.35744 -0.35794 -0.35834
-0.1025 -0.10322 -0.10322 -0.10275 -0.1034 -0.10506 -0.10574 -0.10671 -0.10761 -0.10834 -0.10899 -0.10957 -0.1103 -0.11268 -0.11316 -0.1139 -0.11433 -0.11499 -0.11767 -0.11834 -0.11909 0 0 0 -0.12521 -0.12613 -0.12707 -0.12776 -0.1287 -0.12636 -0.12704 -0.12817 -0.12938 -0.13015 -0.13075 -0.13152 -0.13229 -0.13281 -0.13328 -0.13469 -0.1352 -0.13589 -0.13666 -0.13991 -0.1407 -0.13855 -0.13923 -0.14315 -0.1443 -0.14518 -0.14589 -0.14659 -0.14512 -0.1459 -0.1466 -0.1472 -0.15164 -0.15236 -0.15382 -0.15486 -0.15567 -0.15639 -0.15739 -0.15863 -0.15916 -0.15863 -0.15934 -0.15986 -0.16038 0 0 -0.24854 -0.24913 -0.25022 -0.2513 -0.25169 -0.25227 -0.25309 -0.2532 -0.25428 -0.25443 -0.25499 -0.25559 -0.25567 -0.25653 -0.25733 -0.25739 -0.25823 -0.25929 -0.25987 -0.26044 -0.26101 -0.26158 -0.26263 -0.26319 -0.26423 -0.26501 -0.26583 -0.26638 -0.26715 -0.26724 -0.268 -0.26932 -0.26935 -0.27015 -0.27039 -0.27045 -0.27097 -0.27176 -0.27232 -0.27259 -0.2721 -0.27288 -0.27366 -0.27367 -0.27421 -0.27522 -0.27599 -0.27676 -0.27674 -0.27775 -0.27875 -0.27975 -0.28002 -0.28053 -0.28 -0.28075 -0.28149 -0.28199 -0.28248 -0.28297 -0.28252 -0.28249 -0.28227 -0.28299 -0.28346 -0.28417 -0.28514 -0.28566 -0.28637 -0.28708 -0.28753 -0.28726 -0.28751 -0.28748 -0.28726 -0.28742 -0.2879 -0.28858 -0.28953 -0.28981 -0.29049 -0.29116 -0.2919 -0.29284 -0.29324 -0.29296 -0.29369 -0.29435 -0.2948 -0.29553 -0.29598 -0.29663 -0.2968 -0.29702 -0.29746 -0.29789 -0.29762 -0.29804 -0.29846 -0.29867 -0.2988 -0.29949 -0.30019 -0.3011 -0.3015 -0.30241 -0.30332 -0.3035 -0.30419 -0.30458 -0.30475 -0.30513 -0.30581 -0.30575 -0.3059 -0.30583 -0.3065 -0.30739 -0.30798 -0.30864 -0.3093 -0.30898 -0.30933 -0.30976 -0.30941 -0.30937 -0.30948 -0.30943 -0.31007 -0.31094 -0.31181 -0.31245 -0.31277 -0.3134 -0.3138 -0.31396 -0.31435 -0.31497 -0.31512 -0.31526 -0.31468 -0.3153 -0.31591 -0.31555 -0.31616 -0.31677 -0.31713 -0.31749 -0.31784 -0.31779 -0.31838 -0.31898 -0.31908 -0.3195 -0.32009 -0.32093 -0.32127 -0.32118 -0.32202 -0.32285 -0.32318 -0.32376 -0.32459 -0.32475 -0.32532 -0.32564 -0.32621 -0.32687 -0.32666 -0.32705 -0.32762 -0.3268 -0.32692 -0.32721 -0.32733 -0.32788 -0.32852 -0.32907 -0.32962 -0.33025 -0.3308 -0.33134 -0.33188 -0.33251 -0.33279 -0.33225 -0.33206 -0.33259 -0.33204 -0.33238 -0.332 -0.33134 -0.33195 -0.332 -0.33307 -0.33358 -0.33363 -0.33424 -0.33502 -0.33581 -0.33631 -0.3371 -0.33742 -0.33802 -0.33852 -0.33911 -0.33943 -0.33624 -0.33767 -0.33797 -0.33808 -0.33857 -0.33934 -0.33944 -0.34002 -0.34011 -0.34011 -0.34068 -0.34125 -0.34124 -0.34161 -0.3414 -0.34167 -0.34174 -0.34211 -0.34257 -0.34333 -0.34369 -0.34395 -0.3447 -0.34496 -0.34551 -0.34646 -0.34792 -0.34847 -0.34852 -0.34877 -0.34892 -0.34845 -0.34879 -0.34883 -0.34815 -0.34817 -0.34891 -0.34925 -0.34927 -0.34959 -0.35012 -0.35086 -0.35108 -0.35181 -0.35255 -0.35266 -0.35308 -0.35298 -0.35298 -0.35392 -0.3537 -0.35422 -0.35495 -0.35504 -0.35555 -0.35596 -0.35626 -0.35677 -0.35728 -0.35704 -0.35712 -0.35784 -0.35813 -0.35863
0 0 0 -0.10273 -0.10337 -0.10838 -0.10912 -0.10869 -0.1091 -0.1099 -0.11064 -0.11141 0 -0.11539 -0.11607 0 -0.1163 -0.11705 -0.11765 -0.11832 -0.11907 0 0 0 -0.12518 -0.12595 -0.12696 -0.12774 -0.12867 -0.12634 -0.1271 -0.12815 -0.12932 -0.13 -0.13069 -0.13166 -0.1321 -0.13257 -0.13342 -0.13475 -0.13685 -0.13587 -0.13664 -0.13989 -0.14067 -0.13852 -0.13921 -0.14304 -0.14428 -0.14525 -0.14595 -0.14657 -0.14509 -0.14588 -0.14657 -0.14718 -0.15162 -0.15242 -0.15351 -0.15465 -0.15574 -0.15646 -0.15746 -0.15851 -0.15871 -0.1587 -0.15932 -0.16013 -0.16085 0 0 -0.24756 -0.24909 -0.25068 -0.25152 -0.2521 -0.25273 -0.25356 -0.25393 -0.25476 -0.2546 -0.25521 -0.25576 -0.25589 -0.2567 -0.25729 -0.25761 -0.2582 -0.25926 -0.25983 -0.26041 -0.26098 -0.26154 -0.26259 -0.26315 -0.26393 -0.26497 -0.2658 -0.26684 -0.26761 -0.26765 -0.2687 -0.26951 -0.27004 -0.27086 -0.27013 -0.27093 -0.27167 -0.27196 -0.27252 -0.27279 -0.27259 -0.27308 -0.27386 -0.27417 -0.27465 -0.27566 -0.27619 -0.27696 -0.27695 -0.27795 -0.27895 -0.27971 -0.28023 -0.28025 -0.27972 -0.28022 -0.28096 -0.28146 -0.2822 -0.28269 -0.28223 -0.28246 -0.28224 -0.28296 -0.28368 -0.28439 -0.28511 -0.28563 -0.28634 -0.28679 -0.2875 -0.28723 -0.28773 -0.28771 -0.28696 -0.28738 -0.28787 -0.28855 -0.2895 -0.28978 -0.29045 -0.29113 -0.29187 -0.29281 -0.29321 -0.29292 -0.29338 -0.29432 -0.29505 -0.2955 -0.29595 -0.2966 -0.29704 -0.2972 -0.29764 -0.29835 -0.29759 -0.29773 -0.29843 -0.29864 -0.29905 -0.29925 -0.30016 -0.30078 -0.30169 -0.30238 -0.30307 -0.30398 -0.30459 -0.30506 -0.30494 -0.3054 -0.306 -0.30572 -0.30587 -0.30557 -0.30646 -0.30735 -0.30795 -0.30838 -0.30904 -0.30872 -0.30907 -0.30972 -0.30938 -0.30957 -0.30968 -0.30963 -0.31027 -0.31068 -0.31155 -0.31242 -0.31274 -0.31337 -0.31377 -0.31393 -0.31432 -0.31494 -0.31485 -0.31523 -0.31489 -0.31527 -0.31588 -0.31601 -0.31662 -0.31747 -0.31759 -0.31795 -0.31831 -0.31825 -0.31885 -0.3192 -0.31905 -0.31923 -0.32006 -0.32065 -0.32174 -0.32157 -0.32241 -0.32325 -0.32341 -0.32399 -0.32482 -0.32472 -0.32529 -0.32561 -0.32601 -0.32658 -0.32646 -0.32703 -0.32759 -0.32772 -0.32802 -0.3284 -0.328 -0.32882 -0.32937 -0.32974 -0.33012 -0.33022 -0.33103 -0.33158 -0.33186 -0.33249 -0.33303 -0.3324 -0.33248 -0.33238 -0.33219 -0.33236 -0.33243 -0.33158 -0.33237 -0.33289 -0.3335 -0.33401 -0.33407 -0.33485 -0.33546 -0.33624 -0.33657 -0.33735 -0.33767 -0.33818 -0.3383 -0.33909 -0.33959 -0.33621 -0.33698 -0.33747 -0.33777 -0.33854 -0.33912 -0.33893 -0.33932 -0.3398 -0.33989 -0.34046 -0.34122 -0.34121 -0.34129 -0.34118 -0.34145 -0.34172 -0.34179 -0.34235 -0.3433 -0.34366 -0.34412 -0.34468 -0.34523 -0.34569 -0.34694 -0.34839 -0.34895 -0.3492 -0.34945 -0.34929 -0.34913 -0.34968 -0.34951 -0.34832 -0.34846 -0.34889 -0.34871 -0.34862 -0.34885 -0.34958 -0.35011 -0.35085 -0.35179 -0.35273 -0.35326 -0.35379 -0.35379 -0.3539 -0.35463 -0.35462 -0.35493 -0.35513 -0.35523 -0.35574 -0.35626 -0.35666 -0.35771 -0.3579 -0.35777 -0.35774 -0.35825 -0.35854 -0.35904
