0.37415 0.37415 0.37402 0.37415 0.37507 0.3752 0.37546 0.37546 0.36969 0.36995 0.36956 0.36955 0.36955 0.36955 0.36929 0.37073 0.37086 0.37126 0.37152 0.37152 0.37178 0.37178 0.37125 0.37125 0.37112 0.37046 0.37033 0.37033 0.36994 0.36967 0.36954 0.36875 0.36875 0.36586 0.36586 0.36508 0.36494 0.36573 0.36534 0.36468 0.36468 0.36415 0.36415 0.36455 0.36454 0.36428 0.36507 0.36494 0.36612 0.36467 0.36493 0.36467 0.36454 0.36454 0.36427 0.36322 0.36335 0.36375 0.36427 0.36545 0.36493 0.36466 0.36466 0.36427 0.36453 0.36453 0.36348 0.36571 0.36544 0.36492 0.36505 0.36505 0.36492 0.36452 0.36452 0.36386 0.36386 0.36295 0.36281 0.36255 0.36216 0.36202 0.36137 0.36058 0.35927 0.35704 0.35717 0.35703 0.36045 0.36057 0.35716 0.3569 0.35664 0.3569 0.35664 0.3569 0.35913 0.35965 0.35965 0.35427 0.3544 0.35571 0.35558 0.35532 0.35479 0.35427 0.35427 0.35427 0.3544 0.3544 0.35426 0.35426 0.35387 0.35426 0.35439 0.35439 0.35387 0.35387 0.35373 0.35386 0.35399 0.35386 0.35399 0.35399 0.35386 0.35347 0.35333 0.35281 0.35255 0.35241 0.34979 0.34966 0.34966 0.34966 0.34966 0.34926 0.34952 0.34952 0.34874 0.34873 0.34808 0.34808 0.34834 0.34873 0.34808 0.34899 0.34912 0.34952 0.34912 0.3482 0.34859 0 0 0 0 0 0 0 0 0 0 0 0 0 0 0 0 0 0 0 0 0 0 0 0 0 0 0 0 0 0 0 0 0 0 0.16891 0.16917 0.16891 0.16864 0.16864 0.16851 0.16759 0.16759 0.16773 0 0.16484 0.16497 0.16326 0.16274 0.16274 0.16195 0.16208 0.16195 0.16182 0.16169 0.16156 0.16156 0.16143 0.16116 0.1609 0.16077 0.16077 0.15946 0.15946 0.15946 0.1588 0.15854 0.15854 0.15827 0.15841 0.15841 0.15827 0.15827 0.15827 0.15827 0 0 0 0 0 0 0 0 0 0 0 0 0 0 0 0 0 0 0 0.15486 0.15473 0.15473 0.15473 0.16181 0.15341 0.15341 0.16128 0.16141 0.16141 0.16154 0.16102 0.16102 0.16102 0.1618 0.16023 0.16036 0.16036 0.16036 0.16036 0.16036 0.16036 0.16049 0.16036 0.16036 0.16036 0.16036 0.16062 0.16114 0.16101 0.16101 0.1614 0.15944 0.15957 0 0 0 0 0 0.15091 0.15091 0.15065 0.15025 0.15025 0.15025 0.14894 0.14907 0.14881 0.14894 0.14881 0.14881 0.14802 0.14802 0 0 0 0 0 0 0 0 0 0 0 0 0 0 0 0 0 0 0 0 0 0 0 0 0 0 0 0 0 0 0 0 0.15221 0.1509 0.1509 0.15116 0.15103 0.15103 0.15116 0.15103 0.15116 0.15103 0.15129 0.15207 0.15221 0.15168 0.15168 0.15207 0.15207 0.15207 0.15233 0.1522 0.1522 0.1522 0.1522 0.15233 0.15246 0.15259 0.15272 0.15285 0.15285 0.15312 0.15325
0.37328 0.37328 0.37354 0.3738 0.37433 0.37472 0.37459 0.37498 0.36986 0.37012 0.36973 0.36973 0.36841 0.36868 0.36841 0.37012 0.37012 0.37012 0.3709 0.36985 0.37025 0.37051 0.37024 0.37011 0.37011 0.36985 0.37011 0.36972 0.3684 0.36748 0.36722 0.36669 0.36643 0.36604 0.36485 0.36485 0.36485 0.36512 0.36485 0.36446 0.36433 0.36367 0.36354 0.36354 0.36314 0.3634 0.36353 0.36524 0.36629 0.36484 0.36353 0.36366 0.36353 0.36353 0.36313 0.363 0.36274 0.363 0.36366 0.36471 0.36405 0.36392 0.36405 0.36391 0.3626 0.36234 0.36365 0.36509 0.3647 0.36299 0.36312 0.36312 0.36312 0.36312 0.36312 0.36338 0.36351 0.36233 0.36259 0.36193 0.36141 0.36154 0.36049 0.35944 0.35799 0.35734 0.35707 0.35734 0.36062 0.36074 0.35733 0.35681 0.35668 0.35667 0.35628 0.35707 0.3593 0.3593 0.35943 0.35444 0.35483 0.35496 0.35483 0.35483 0.35457 0.35404 0.35417 0.35404 0.35417 0.35443 0.35417 0.35391 0.35364 0.35325 0.35325 0.35351 0.35351 0.35324 0.35311 0.35311 0.35298 0.35311 0.35311 0.35298 0.35311 0.3514 0.35114 0.35074 0.35048 0.35035 0.34943 0.3493 0.34917 0.3493 0.34943 0.34916 0.3489 0.3489 0.34851 0.34824 0.34824 0.34798 0.34837 0.3485 0.34824 0.34798 0.34837 0.3485 0.34837 0.34824 0.34876 0 0 0 0 0 0 0 0 0 0 0 0 0 0 0 0 0 0 0 0 0 0 0 0 0 0 0 0 0 0 0 0 0 0 0.16899 0.16899 0.16886 0.16873 0.16846 0.16846 0.16767 0.16781 0.16767 0 0.16492 0.16492 0.16334 0.16282 0.16282 0.16216 0.16203 0.16203 0.1619 0.16163 0.1615 0.16137 0.16111 0.16098 0.16085 0.15967 0.15966 0.15927 0.1594 0.15927 0.15861 0.15848 0.15835 0.15835 0.15835 0.15835 0.15835 0.15835 0.15822 0.15822 0.15822 0.15822 0.15782 0.15782 0.1573 0.15677 0.15677 0 0 0 0 0 0 0.15506 0.15506 0.15532 0.15532 0 0.1548 0.15467 0.1548 0.15467 0.15401 0.15401 0.15349 0.15349 0.15349 0.16149 0.16149 0.16162 0.16109 0.16109 0.16109 0.16188 0.16017 0.1603 0.1603 0.1603 0.16043 0.16043 0.16043 0.16056 0.16043 0.16043 0.16043 0.16043 0.16043 0.16056 0.16082 0.16056 0.16069 0.15925 0.15938 0.15938 0.15938 0.15938 0.15938 0 0.15059 0.15059 0.15046 0.15033 0.15033 0.15033 0.14901 0.14914 0.14888 0.14901 0.14901 0.14888 0.14809 0.14809 0.15019 0 0 0 0 0 0 0 0 0 0 0 0 0 0 0 0 0 0 0 0 0 0 0 0 0 0 0 0 0.15031 0.14979 0.14979 0.14979 0.14979 0.15097 0.1511 0.1511 0.1511 0.1511 0.1511 0.1511 0.1511 0.1511 0.15057 0.1507 0.1511 0.15136 0.15136 0.15123 0.15123 0.15136 0.15122 0.15122 0.15122 0.15135 0.15135 0.15254 0.15254 0.15267 0.1528 0.1528 0.15319 0.15332
0.36781 0.36781 0.36768 0.36584 0.36571 0.36466 0.36452 0.36452 0.36623 0.36623 0.36649 0.36649 0.3678 0.36806 0.36767 0.36727 0.36662 0.36662 0.36885 0.36911 0.3699 0.36989 0.36989 0.36989 0.36989 0.3695 0.3695 0.36385 0.36411 0.36687 0.36647 0.36542 0.36529 0.3645 0.36463 0.36463 0.36463 0.3645 0.3645 0.36423 0.36384 0.36358 0.36279 0.36279 0.36252 0.36252 0.36252 0.36252 0.36278 0.36252 0.36278 0.36291 0.36291 0.36252 0.36252 0.36252 0.36238 0.36212 0.35871 0.35884 0.3587 0.35831 0.35831 0.36199 0.36172 0.36133 0.36119 0.36119 0.36238 0.36238 0.36211 0.36198 0.36211 0.3625 0.3625 0.36329 0.36368 0.35725 0.35738 0.35738 0.35738 0.35751 0.35738 0.35737 0.35724 0.35724 0.35685 0.35658 0.35698 0.35698 0.35658 0.35658 0.35658 0.35645 0.35605 0.35592 0.35513 0.35513 0.35526 0.35474 0.35461 0.35434 0.35434 0.35421 0.35421 0.35408 0.35421 0.35407 0.35421 0.3542 0.3542 0.35381 0.35341 0.35315 0.35315 0.35328 0.35315 0.35315 0.35289 0.35275 0.35288 0.35315 0.35275 0.35236 0.35065 0.35065 0.35039 0.34999 0.34986 0.3496 0.34894 0.34894 0.34894 0.34894 0.34907 0.34893 0.34867 0.34854 0.34841 0.34814 0.34801 0.34801 0.34841 0.34854 0.34814 0.34814 0.34814 0.3484 0.34814 0.3484 0.34814 0 0 0 0 0 0 0 0 0 0 0 0 0 0 0 0 0 0 0 0 0 0 0 0 0 0 0 0 0 0 0 0 0 0 0.16907 0.1692 0.16907 0.1688 0.16854 0.16841 0.16815 0.16788 0.16788 0 0.165 0.165 0.16394 0.16381 0.16381 0.16329 0.16237 0.16224 0.16197 0.16171 0.16145 0.16132 0.16105 0.16105 0.16079 0.15974 0.15974 0.15948 0.15934 0.15934 0.15869 0.15843 0.15843 0.15843 0.15842 0.15842 0.15829 0.15829 0.15829 0.15829 0.15829 0.15829 0.1579 0.1579 0.15737 0.15711 0.15685 0 0 0 0 0 0 0.15514 0.15514 0.1554 0.1554 0 0.15487 0.15487 0.15474 0.15474 0.15408 0.15408 0.15382 0.15356 0.15356 0 0 0 0 0 0 0 0.16025 0.16025 0.16025 0.16038 0.16051 0.16051 0.16051 0.16064 0.16051 0.16051 0.16038 0.16038 0.16051 0.16064 0.16064 0.16064 0.16077 0.15932 0.15946 0.15946 0.15946 0.15945 0.15945 0 0.15066 0.15066 0.15053 0.1504 0.15027 0.15027 0.15027 0.15027 0.15026 0.15 0.14987 0.14987 0.15026 0.15026 0.15026 0 0 0 0 0 0 0 0 0 0 0 0 0 0 0 0 0 0 0 0 0 0 0 0 0 0 0 0 0.15038 0.14999 0.14986 0.14986 0.14986 0.15104 0.15117 0.15117 0.15117 0.15117 0.15117 0.15117 0.15117 0.15117 0.15064 0.15077 0.15117 0.15143 0.15143 0.1513 0.1513 0.1513 0.1513 0.1513 0.1513 0.1513 0.15143 0.15261 0.15261 0.15274 0.15274 0.15287 0.15326 0.15339
0.36588 0.36562 0.36549 0.36483 0.3647 0.36443 0.36404 0.36404 0.36443 0.36482 0.36522 0.36508 0.36561 0.366 0.366 0.36587 0.36587 0.36587 0.36639 0.36547 0.36547 0.36547 0.36442 0.36429 0.3635 0.36271 0.36271 0.36258 0.36258 0.3631 0.3631 0.36336 0.36336 0.36336 0.3631 0.3631 0.36336 0.36375 0.36375 0.36309 0.3627 0.36257 0.36178 0.36151 0.36112 0.36138 0.36151 0.36112 0.36112 0.36138 0.36138 0.36138 0.36138 0.36111 0.36111 0.36085 0.36085 0.36045 0.35769 0.35796 0.35809 0.35795 0.35795 0.35743 0.35703 0.35703 0.35677 0.35677 0.35703 0.35716 0.35768 0.35663 0.35663 0.35663 0.35873 0.35873 0.35886 0.35637 0.35623 0.35584 0.35584 0.3561 0.35623 0.35584 0.3557 0.35583 0.3557 0.35544 0.35544 0.35609 0.35623 0.35622 0.35609 0.35583 0.3553 0.35491 0.35478 0.35451 0.35491 0.35451 0.35359 0.35333 0.35346 0.35359 0.35346 0.35332 0.35332 0.35306 0.35306 0.35293 0.35266 0.35122 0.35253 0.35122 0.35108 0.35056 0.3503 0.352 0.35161 0.35121 0.35147 0.35174 0.35147 0.35068 0.34976 0.34963 0.3495 0.3491 0.34884 0.34884 0.34871 0.34858 0.34831 0.34831 0.34831 0.34805 0.34779 0.34765 0.34726 0.34713 0.34673 0.34555 0.34555 0.34437 0.3445 0.34502 0.3487 0.34817 0.34765 0.34778 0.34817 0 0 0 0 0 0 0 0 0 0 0 0 0 0 0 0 0 0 0 0 0 0 0 0 0 0 0 0 0 0 0 0 0 0 0.16967 0.16941 0.16915 0.16888 0.16849 0.16836 0.16823 0.16796 0.16783 0 0.16507 0.16507 0.16428 0.16389 0.16363 0.16323 0.16245 0.16231 0.16218 0.16179 0.16152 0.16139 0.161 0.16087 0.15995 0.15968 0.15968 0.15955 0.15929 0.15903 0.15863 0.1585 0.1585 0.1585 0.15837 0.1585 0.15824 0.15823 0.15823 0.15823 0.15823 0.15823 0.15771 0.15771 0.15731 0.15705 0.15692 0 0 0 0 0 0 0.15468 0.15482 0.15468 0.15482 0.15508 0.15481 0.15481 0.15468 0.15468 0.15402 0.15402 0.15389 0.15363 0.15363 0.15376 0.15389 0 0 0 0 0 0.16032 0.16032 0.16032 0.16032 0.16019 0 0 0.15218 0.15218 0.15166 0.15166 0.15166 0.15179 0.15179 0.15993 0.15993 0.15993 0.15953 0.15953 0 0 0 0 0 0.15073 0.1506 0.15047 0.15034 0.15034 0.15034 0.15034 0.15033 0.15033 0.1502 0.15007 0.15007 0.15033 0.15033 0.15033 0.15033 0.15007 0.15007 0.15007 0.15033 0.15033 0 0 0 0 0 0 0 0 0 0 0 0 0.15007 0.15006 0.14993 0.14993 0 0.15033 0.15033 0.15046 0.15046 0.15046 0.15046 0.15019 0.15046 0.14967 0.1498 0 0.15085 0.15111 0.15111 0.15058 0.15058 0.15124 0.15124 0.15124 0.15071 0.15071 0.15098 0.15124 0.15137 0.15137 0.15124 0.15124 0.15124 0.15124 0.15137 0.1515 0.15163 0.15202 0.15202 0.15268 0.15281 0.15294 0.15333 0.15346
0.36579 0.36566 0.3654 0.36487 0.36487 0.36447 0.36421 0.36421 0.36447 0.365 0.365 0.36526 0.36565 0.36617 0.36604 0.36578 0.36578 0.36578 0.36578 0.36525 0.36459 0.36459 0.36459 0.36446 0.36367 0.36288 0.36288 0.36275 0.36156 0.36209 0.36235 0.36248 0.36274 0.36274 0.36274 0.36274 0.36274 0.36287 0.36287 0.36248 0.36195 0.36169 0.36103 0.36076 0.36063 0.36076 0.36102 0.36076 0.36076 0.36076 0.36102 0.36128 0.36102 0.36076 0.36036 0.36036 0.35984 0.35957 0.35786 0.35773 0.35786 0.35733 0.35733 0.3572 0.35694 0.3568 0.3568 0.3568 0.3568 0.35693 0.3568 0.35654 0.35641 0.3568 0.35759 0.35785 0.35903 0.35653 0.35588 0.35561 0.35561 0.35548 0.35548 0.35508 0.35508 0.35508 0.35508 0.35561 0.35587 0.35561 0.35652 0.35626 0.35639 0.356 0.35534 0.35534 0.35468 0.35402 0.35507 0.35441 0.35455 0.35349 0.35349 0.35375 0.35362 0.35231 0.35257 0.35283 0.35283 0.35309 0.3527 0.35138 0.35073 0.35046 0.3502 0.34993 0.35072 0.35256 0.35138 0.35138 0.35164 0.3523 0.35085 0.35085 0.3498 0.3498 0.34967 0.34874 0.34874 0.34874 0.34848 0.34848 0.34835 0.34821 0.34795 0.34795 0.34769 0.34742 0.3469 0.34663 0.34637 0.34545 0.34519 0.34453 0.34426 0.34531 0.34886 0.34886 0.34781 0.34768 0.34833 0 0 0 0 0 0 0 0 0 0 0 0 0 0 0 0 0 0 0 0 0 0 0 0 0 0 0 0 0 0 0 0 0 0 0.16975 0.16949 0.16949 0.16896 0.16844 0.16831 0.16817 0.16804 0.16791 0 0.16515 0.16515 0.16436 0.16384 0.16357 0.16331 0.16252 0.16239 0.16226 0.16173 0.1616 0.16147 0.16107 0.16094 0.16002 0.15976 0.15976 0.15963 0.1591 0.15884 0.15871 0.15857 0.15857 0.15844 0.15844 0.15844 0.15818 0.15818 0.15831 0.15805 0.15831 0.15818 0.15778 0.15765 0.15752 0.15699 0.15699 0 0 0 0 0 0 0.15476 0.15489 0.15476 0.15489 0.15502 0.15489 0.15462 0.15436 0.15436 0.15423 0.1541 0.15397 0.15383 0.15383 0.15383 0.15396 0 0 0 0 0 0.1604 0.16027 0.16027 0.16027 0.16027 0 0 0.15225 0.15225 0.15173 0.15199 0.15199 0.15186 0.15186 0.16 0.16 0.16 0.15961 0.15961 0 0 0 0 0 0.1508 0.15054 0.15041 0.15028 0.15041 0.15041 0.15041 0.15041 0.15041 0.15027 0.15027 0.15027 0.15041 0.15054 0.1504 0.1504 0.15014 0.15014 0.15014 0.15027 0.1504 0 0 0 0 0 0 0 0 0 0 0 0 0.15013 0.15013 0.15 0.15 0 0.1504 0.1504 0.1504 0.15026 0.15026 0.15026 0.15053 0.15053 0.14974 0.14987 0 0.15092 0.15105 0.15105 0.15066 0.15066 0.15131 0.15131 0.15131 0.15079 0.15065 0.15092 0.15105 0.15131 0.15144 0.15131 0.15131 0.15131 0.15131 0.15144 0.15157 0.15183 0.15196 0.15209 0.15275 0.15288 0.15288 0.15354 0.15367
0.36583 0.36557 0.36517 0.36504 0.36478 0.36464 0.36425 0.36438 0.36464 0.36504 0.36503 0.36517 0.36556 0.36622 0.36595 0.36582 0.36582 0.36516 0.36503 0.36463 0.36411 0.36345 0.36226 0.36226 0.35911 0.35924 0.35963 0.36016 0.36081 0.36121 0.36134 0.36134 0.36226 0.36212 0.36226 0.36212 0.36212 0.36225 0.36225 0.36146 0.36133 0.36094 0.36015 0.35975 0.36001 0.36014 0.36041 0.3604 0.36054 0.36053 0.36053 0.36093 0.36053 0.36014 0.35974 0.35961 0.35908 0.35869 0.3579 0.3575 0.3575 0.35698 0.35671 0.35671 0.35671 0.35671 0.35671 0.35645 0.35658 0.35644 0.35657 0.35618 0.35618 0.35644 0.35697 0.3571 0.3567 0.35578 0.35565 0.35552 0.35512 0.35512 0.35486 0.35433 0.3542 0.35433 0.35433 0.3542 0.35235 0.35051 0.35051 0.35064 0.35051 0.35064 0.34985 0.34959 0.35287 0.3534 0.35366 0.35143 0.35103 0.35116 0.35063 0.3509 0.35103 0.35116 0.35195 0.35247 0.35287 0.35286 0.34958 0.34958 0.3501 0.34984 0.34958 0.34918 0.34852 0.34852 0.34839 0.34799 0.34813 0.34655 0.34641 0.34904 0.34694 0.34681 0.34865 0.34851 0.34851 0.34864 0.34838 0.34838 0.34798 0.34798 0.34798 0.34785 0.34746 0.34732 0.34653 0.34614 0.34587 0.34509 0.34495 0.34443 0.34377 0.34324 0.34272 0.34232 0.34232 0.34692 0.34705 0 0 0 0 0 0 0 0 0 0 0 0 0 0 0 0 0 0 0 0 0 0 0 0 0 0 0 0 0 0 0 0 0 0 0.17036 0.17036 0.17036 0.16904 0.16852 0.16839 0.16825 0.16825 0.16825 0.16773 0.16523 0.16523 0.16444 0.16391 0.16365 0.16339 0.16247 0.16233 0.1622 0.16194 0.16168 0.16154 0.16128 0.16128 0.16089 0.15997 0.15983 0.1597 0.15918 0.15891 0.15878 0.15799 0.15799 0.15812 0.15786 0.15786 0.15773 0.15773 0.15799 0.15786 0.15786 0.1576 0.15773 0.15786 0.15759 0.15667 0.15667 0.1568 0.15549 0.15549 0.15549 0.15496 0.15496 0.15483 0.15483 0.15483 0.15496 0.15509 0.15496 0.15417 0.1543 0.1543 0.15417 0.15404 0.15391 0.15391 0.15391 0.15391 0.15391 0.15377 0.15377 0 0 0 0.16034 0.16034 0.15233 0.15233 0.15232 0.15232 0.15259 0.15259 0.15259 0.15232 0.15219 0.15219 0.15206 0.15166 0.15166 0 0 0 0 0 0 0 0 0.15101 0.15074 0.15061 0.15048 0.15035 0.15035 0.15048 0.15048 0.15048 0.15048 0.15035 0.15035 0.15034 0.15048 0.15061 0.15047 0.15047 0.15021 0.15021 0.15034 0.15034 0.15047 0.15034 0.15047 0 0 0 0 0 0 0 0 0 0 0.15021 0.15021 0.15007 0.15007 0.15021 0.15034 0.15034 0.15047 0.15033 0.15007 0.1502 0.14981 0.14981 0.14941 0.14941 0.1506 0.1502 0.1502 0.15046 0.15046 0.15046 0.15112 0.15059 0.15059 0.15072 0.15072 0.15099 0.15112 0.15151 0.15151 0.15151 0.15151 0.15138 0.15138 0.15151 0.15164 0.1519 0.15203 0.15203 0.15269 0.15295 0.15308 0.15374 0.15374
0.36482 0.36482 0.36456 0.36442 0.36442 0.36429 0.36403 0.36429 0.36442 0.36455 0.36481 0.36481 0.36481 0.36494 0.3652 0.3652 0.36494 0.36112 0.36139 0.35994 0.3598 0.3598 0.35941 0.35941 0.35928 0.35941 0.35941 0.35954 0.35954 0.35993 0.36019 0.36019 0.36111 0.36111 0.36111 0.36111 0.36098 0.36071 0.36098 0.36019 0.35979 0.3594 0.35926 0.35887 0.3586 0.35887 0.359 0.35886 0.359 0.359 0.35926 0.35939 0.35925 0.35899 0.3586 0.35846 0.3582 0.35794 0.35728 0.35688 0.35675 0.35635 0.35635 0.35635 0.35635 0.35635 0.35635 0.35622 0.35596 0.35595 0.35582 0.35569 0.3549 0.35437 0.35292 0.35266 0.35292 0.35306 0.35266 0.35266 0.352 0.352 0.35121 0.35134 0.35265 0.35252 0.352 0.35134 0.35068 0.35068 0.35055 0.35054 0.35068 0.35054 0.34975 0.34975 0.34936 0.34936 0.34923 0.34883 0.34922 0.35001 0.34975 0.34962 0.34975 0.34975 0.34974 0.34922 0.34882 0.34908 0.34869 0.34869 0.34869 0.34829 0.34856 0.34829 0.34763 0.34724 0.34711 0.34632 0.34579 0.3446 0.34487 0.34566 0.3446 0.34447 0.3446 0.34631 0.3467 0.34697 0.3471 0.34723 0.3471 0.34657 0.3463 0.34617 0.34696 0.34749 0.34512 0.34486 0.34459 0.34407 0.3438 0.34341 0.34301 0.34288 0.34275 0.34235 0.34222 0.34485 0.34485 0 0 0 0 0 0 0 0 0 0 0 0 0 0 0 0 0 0 0 0 0 0 0 0 0 0 0 0 0 0 0 0 0 0 0.17044 0.17044 0.17044 0.16912 0.16847 0.1686 0.16846 0.16807 0.16807 0.16675 0.16531 0.16531 0.16452 0.16386 0.16386 0.16294 0.16254 0.16241 0.16228 0.16202 0.16175 0.16162 0.16136 0.16123 0.16109 0.16004 0.15991 0.15978 0.15899 0.15899 0.15872 0.15833 0.1582 0.15807 0.15793 0.15793 0.1578 0.15767 0.1578 0.15741 0.15741 0.15714 0.15662 0.15662 0.15662 0.15622 0.15622 0.1553 0.1553 0.15543 0.15543 0.15477 0.1549 0.1549 0.1549 0.1549 0.1549 0.1549 0.15477 0.15424 0.15424 0.15424 0.15411 0.15398 0.15385 0.15372 0.15372 0.15372 0.15371 0.15358 0.15253 0.15253 0.15253 0.15253 0.15253 0.15213 0.15213 0.15227 0.15227 0.1524 0.1524 0.15253 0.15253 0.1524 0.1524 0.1524 0.15213 0.15174 0.15174 0 0 0 0 0 0 0 0 0.15055 0.15068 0.15055 0.15055 0.15042 0.15055 0.15055 0.15055 0.15055 0.15055 0.15055 0.15041 0.15041 0.15055 0.15068 0.15055 0.15055 0.15028 0.15028 0.15041 0.15028 0.14962 0.14962 0.14962 0.14962 0 0 0 0 0 0 0 0 0 0.15028 0.15015 0.15001 0.15001 0.15014 0.15027 0.15027 0.15027 0.14962 0.14975 0.14988 0.14975 0.14962 0.14948 0.14948 0.15001 0.15027 0.14988 0.14988 0.1504 0.1504 0.15053 0.15066 0.1508 0.15066 0.15066 0.15093 0.15119 0.15145 0.15158 0.15158 0.15158 0.15145 0.15132 0.15158 0.15158 0.15171 0.15211 0.15211 0.15263 0.15316 0.15316 0.15381 0.15394
0.36473 0.36446 0.3642 0.3642 0.36407 0.36407 0.36407 0.36406 0.36419 0.36419 0.36446 0.36406 0.36419 0.36445 0.36498 0.36538 0.36472 0.36129 0.3609 0.36037 0.35971 0.35971 0.35958 0.35945 0.35945 0.35918 0.35918 0.35918 0.35944 0.3597 0.3597 0.3597 0.36049 0.36049 0.36036 0.36049 0.36009 0.35996 0.36009 0.35943 0.35917 0.35904 0.35864 0.35838 0.35838 0.35824 0.35838 0.35837 0.35837 0.35837 0.35864 0.35877 0.35877 0.35837 0.35824 0.35811 0.35771 0.35745 0.35692 0.35652 0.35613 0.35639 0.3556 0.3556 0.35639 0.35599 0.35586 0.3556 0.3556 0.35559 0.35559 0.3552 0.35428 0.35375 0.35309 0.3527 0.35269 0.35269 0.35282 0.35269 0.35217 0.35177 0.35124 0.35151 0.3519 0.35177 0.35137 0.35098 0.35084 0.35032 0.35032 0.35031 0.35045 0.35045 0.34979 0.34979 0.34952 0.34926 0.34899 0.34899 0.34886 0.34939 0.34925 0.34925 0.34925 0.34978 0.34991 0.34938 0.34899 0.34886 0.34872 0.34833 0.34819 0.34819 0.34793 0.3478 0.34714 0.34687 0.34635 0.34582 0.34529 0.34477 0.34464 0.34516 0.34476 0.3445 0.34476 0.34674 0.34647 0.34687 0.34687 0.34647 0.34621 0.34581 0.34568 0.34542 0.34594 0.34765 0.34502 0.34423 0.3441 0.3437 0.34344 0.34304 0.34291 0.34291 0.34251 0.34238 0.34238 0.34501 0.34501 0 0 0 0 0 0 0 0 0 0 0 0 0 0 0 0 0 0 0 0 0 0 0 0 0 0 0 0 0 0 0 0 0 0 0 0.17078 0.17078 0.1696 0.16881 0.16881 0.16867 0.16815 0.16815 0.16683 0.16683 0.16683 0.16512 0.16486 0.16486 0.16301 0.16262 0.16262 0.16235 0.16196 0.16196 0.1617 0.16143 0.1613 0.16117 0.16012 0.15998 0.15985 0.15906 0.15893 0.1588 0.15854 0.15827 0.15814 0.15788 0.15788 0.15774 0.15774 0.15774 0.15748 0.15748 0.15722 0.15669 0.15656 0.15656 0.15629 0.15629 0.15537 0.15537 0.15537 0.15537 0.15485 0.15471 0.15485 0.15498 0.15484 0.15498 0.15498 0.15471 0.15432 0.15418 0.15418 0.15405 0.15418 0.15379 0.15366 0.15366 0.15366 0.15379 0.15366 0.1526 0.1526 0.1526 0.1526 0.15247 0.15234 0.15221 0.15221 0.15234 0.15234 0.15247 0.15273 0.15273 0.1526 0.1526 0.1526 0.15247 0.15247 0 0 0 0 0 0 0 0 0 0.15062 0.15062 0.15062 0.15062 0.15049 0.15049 0.15062 0.15062 0.15062 0.15062 0.15062 0.15062 0.15062 0.15075 0.15075 0.15062 0.15049 0.15035 0.15022 0.15048 0.15035 0.14969 0.14983 0.14969 0.14969 0 0 0 0 0 0 0 0 0 0.15035 0.15008 0.14995 0.14995 0.15008 0.15021 0.15035 0.15035 0.14969 0.14982 0.14995 0.14969 0.14955 0.14955 0.14942 0.15021 0.15021 0.15021 0.15008 0.15021 0.1506 0.1506 0.15074 0.15087 0.15074 0.15073 0.151 0.15152 0.15152 0.15152 0.15165 0.15152 0.15152 0.15139 0.15165 0.15165 0.15178 0.15231 0.15257 0.15283 0.15362 0.15389 0.15402 0.15402
0.36437 0.36424 0.36398 0.36358 0.36358 0.36384 0.36384 0.36384 0.36397 0.36384 0.36397 0.36357 0.36305 0.36318 0.36239 0.36278 0.36015 0.36015 0.36028 0.35988 0.35975 0.35975 0.35962 0.35935 0.35922 0.35882 0.35895 0.35922 0.35922 0.35935 0.35935 0.35935 0.35974 0.35974 0.35961 0.35961 0.35921 0.35895 0.35921 0.35881 0.35842 0.35842 0.35802 0.35802 0.35802 0.35789 0.35802 0.35789 0.35762 0.35762 0.35788 0.35854 0.35828 0.35801 0.35788 0.35748 0.35722 0.35696 0.35617 0.35577 0.35537 0.35379 0.35445 0.35445 0.35379 0.35484 0.35484 0.35484 0.35511 0.3551 0.35484 0.35471 0.35379 0.35326 0.3526 0.35207 0.35233 0.35233 0.35246 0.35246 0.35207 0.35141 0.35101 0.35114 0.35114 0.35101 0.35101 0.35088 0.35035 0.35035 0.35009 0.35008 0.35048 0.35035 0.34969 0.34956 0.34956 0.34916 0.3489 0.34863 0.34863 0.34916 0.34902 0.34863 0.3485 0.34691 0.34665 0.34889 0.34863 0.34862 0.34862 0.34796 0.34796 0.34796 0.34757 0.3473 0.34664 0.34638 0.34598 0.34532 0.34493 0.34467 0.34427 0.34427 0.3444 0.34414 0.34374 0.34387 0.34413 0.34413 0.34413 0.34545 0.34545 0.34492 0.34479 0.34466 0.34373 0.34373 0.3436 0.34386 0.34413 0.3432 0.34307 0.34281 0.34268 0.34267 0.34228 0.34201 0.34162 0.34517 0.34517 0 0 0 0 0 0 0 0 0 0 0 0 0 0 0 0 0 0 0 0 0 0 0 0 0 0 0 0 0 0 0 0 0 0 0 0.17073 0.17073 0.16994 0.16915 0.16902 0.16875 0.1677 0.1677 0.16678 0.16678 0.16678 0.16586 0.16507 0.16507 0.16428 0.16388 0.16388 0.16335 0.16243 0.16243 0.16217 0.16151 0.16138 0.16124 0.16006 0.16006 0.1598 0.15914 0.15914 0.15887 0.15861 0.15848 0.15821 0.15795 0.15782 0.15729 0.15742 0.15729 0.1569 0.1569 0.15676 0.15676 0.15663 0.15663 0.15637 0.15624 0.1561 0.15531 0.15531 0.15518 0.15452 0.15465 0.15479 0.15479 0.15452 0.15439 0.15439 0.15439 0.15399 0.15413 0.15413 0.15399 0.15386 0.1536 0.1536 0.1536 0.1536 0.15346 0.1532 0.15268 0.15267 0.15267 0.15254 0.15241 0.15228 0.15228 0.15228 0.15228 0.15228 0.15215 0.15215 0.15214 0.15201 0.15201 0.15201 0.15201 0.15175 0.15175 0.15148 0.15148 0 0 0 0 0.15017 0.15017 0.15043 0.15069 0.15069 0.15069 0.15056 0.15069 0.15069 0.15069 0.15082 0.15082 0.15069 0.15069 0.15069 0.15069 0.15082 0.15069 0.15042 0.15029 0.15016 0.15029 0.1499 0.1499 0.1499 0.14976 0.14963 0.14976 0.14976 0.14989 0.14989 0.15002 0 0 0 0 0.14989 0.15002 0.15002 0.15002 0.15002 0.15002 0.14989 0.14989 0.14976 0.14989 0.14989 0.14976 0.14963 0.14963 0.14962 0.15028 0.15028 0.15028 0.15028 0.15041 0.15054 0.15068 0.15068 0.15081 0.15081 0.1508 0.15094 0.15133 0.15146 0.15159 0.15159 0.15159 0.15146 0.15146 0.15172 0.15185 0.15185 0.15264 0.15264 0.15291 0.1537 0.15396 0.15396 0.15409
0.36375 0.36323 0.36257 0.36243 0.36243 0.36217 0.36204 0.36203 0.36203 0.36032 0.36032 0.35979 0.36071 0.36071 0.36084 0.36045 0.359 0.35913 0.35913 0.359 0.35873 0.359 0.35873 0.35873 0.35873 0.35807 0.3582 0.3582 0.3582 0.35846 0.3582 0.35807 0.35807 0.35806 0.35464 0.3549 0.35358 0.35371 0.35358 0.35371 0.35687 0.35371 0.35371 0.35371 0.35358 0.35358 0.35371 0.35344 0.35344 0.35212 0.35212 0.35186 0.35489 0.35489 0.35528 0.35304 0.35304 0.3562 0.35462 0.35436 0.35409 0.35343 0.35317 0.35277 0.35277 0.35317 0.35303 0.35303 0.35316 0.35316 0.35277 0.35277 0.3525 0.35211 0.35184 0.35118 0.35105 0.35131 0.35131 0.35131 0.35118 0.35052 0.34881 0.34762 0.34749 0.34749 0.34722 0.34749 0.34775 0.34867 0.34907 0.34906 0.34933 0.34933 0.34906 0.3488 0.34867 0.34853 0.34801 0.34761 0.34708 0.34629 0.34616 0.34655 0.34629 0.34576 0.3455 0.34484 0.34457 0.34457 0.34404 0.34352 0.34338 0.34404 0.34404 0.34668 0.34509 0.34483 0.34457 0.34404 0.34377 0.34377 0.34298 0.34298 0.34298 0.34298 0.34298 0.34298 0.34351 0.34351 0.3435 0.3439 0.3439 0.34324 0.34324 0.34297 0.34231 0.34205 0.34218 0.34218 0.34205 0.34033 0.34007 0.33994 0.33981 0.33981 0.33954 0.33928 0.33928 0.33928 0.33928 0 0 0 0 0 0 0 0 0 0 0 0 0 0 0 0 0 0 0 0 0 0 0 0 0 0 0 0 0 0 0 0 0 0 0 0.17081 0.17081 0.17002 0.16897 0.16897 0.16817 0.16778 0.16778 0.16686 0.16686 0.16686 0.16514 0.16514 0.16514 0.16435 0.16409 0.16382 0.16356 0.16251 0.16251 0.16224 0.16159 0.16158 0.16132 0.16013 0.16013 0.15987 0.15908 0.15908 0.15895 0.15816 0.15829 0.15816 0.15802 0.15789 0.15763 0.15737 0.15723 0.15697 0.15684 0.15684 0.15671 0.15671 0.15657 0.15644 0.15618 0.15605 0.1546 0.1546 0.15446 0.15433 0.15433 0.15446 0.15446 0.15433 0.15433 0.1542 0.15433 0.15407 0.15407 0.15407 0.15341 0.15341 0.15327 0.15327 0.15327 0.15327 0.15327 0.15314 0.15275 0.15275 0.15261 0.15248 0.15235 0.15169 0.15169 0.15182 0.15195 0.15195 0.15195 0.15195 0.15208 0.15208 0.15208 0.15208 0.15208 0.15182 0.15182 0.15116 0.15116 0 0 0 0 0.1501 0.15024 0.1501 0.1505 0.15076 0.15076 0.15063 0.15063 0.15076 0.15076 0.15076 0.15089 0.15076 0.15076 0.15076 0.15076 0.15076 0.15049 0.15049 0.1501 0.1501 0.1501 0.14997 0.14983 0.14983 0.1497 0.1497 0.1497 0.1497 0.14957 0.14917 0.14865 0.14865 0.14878 0.14878 0.14944 0.14957 0.1497 0.1497 0.14983 0.14983 0.14983 0.14983 0.14983 0.14983 0.14983 0.14983 0.14983 0.14983 0.14969 0.14969 0.15035 0.15035 0.15048 0.15048 0.15048 0.15061 0.15075 0.15075 0.15088 0.15088 0.15074 0.15101 0.15114 0.1514 0.15153 0.15153 0.15166 0.15153 0.15153 0.1518 0.15193 0.15193 0.15258 0.15271 0.15298 0.15364 0.15364 0.15403 0.15403
0.36379 0.36313 0.36234 0.36221 0.36208 0.36181 0.36168 0.36141 0.36128 0.36049 0.36049 0.36009 0.35996 0.36009 0.36009 0.36062 0.35917 0.3589 0.3589 0.35864 0.35877 0.3589 0.35877 0.3589 0.35863 0.35784 0.35784 0.35784 0.35797 0.35824 0.35784 0.35757 0.35784 0.35784 0.3548 0.3548 0.35428 0.35375 0.35375 0.35375 0.35704 0.35388 0.35374 0.35374 0.35374 0.35374 0.35361 0.35361 0.35282 0.35229 0.35202 0.35202 0.35506 0.35505 0.35545 0.35321 0.35294 0.35413 0.35426 0.35373 0.35373 0.35281 0.35268 0.35241 0.35228 0.35241 0.35241 0.35241 0.3528 0.35228 0.35201 0.35201 0.35201 0.35188 0.35174 0.35082 0.35082 0.35121 0.35121 0.35121 0.35069 0.35069 0.34897 0.34778 0.34739 0.34739 0.34725 0.34765 0.34791 0.34818 0.3487 0.34883 0.34883 0.34923 0.34883 0.34883 0.34843 0.34817 0.34817 0.34672 0.34645 0.34632 0.34632 0.34579 0.34566 0.34553 0.34513 0.34474 0.34474 0.34447 0.34408 0.34368 0.34355 0.3442 0.3442 0.3446 0.3446 0.34473 0.34407 0.34367 0.34341 0.34314 0.34288 0.34248 0.34262 0.34248 0.34248 0.34261 0.34301 0.34314 0.34314 0.34314 0.3434 0.34287 0.34261 0.34261 0.34129 0.34116 0.34129 0.34142 0.34129 0.3401 0.34023 0.33997 0.33997 0.3397 0.3397 0.33944 0.33944 0.33944 0.33943 0 0 0 0 0 0 0 0 0 0 0 0 0 0 0 0 0 0 0 0 0 0 0 0 0 0 0 0 0 0 0 0 0 0 0 0.17129 0.17129 0.17128 0.16905 0.16905 0.16825 0.16786 0.16786 0.16707 0.16707 0.16707 0.16522 0.16522 0.16522 0.16443 0.16417 0.1639 0.16377 0.16272 0.16271 0.16206 0.16206 0.16219 0.1614 0.16034 0.16034 0.15995 0.15915 0.15915 0.15902 0.15823 0.15823 0.1581 0.15797 0.15797 0.1577 0.15731 0.15718 0.15704 0.15691 0.15691 0.15678 0.15678 0.15665 0.15638 0.15625 0.15599 0.15467 0.15467 0.15467 0.1544 0.1544 0.15454 0.1544 0.1544 0.15427 0.15427 0.15427 0.15401 0.15401 0.15401 0.15348 0.15348 0.15335 0.15335 0.15335 0.15335 0.15321 0.15308 0.15308 0.15308 0.15255 0.15255 0.15242 0.15176 0.15176 0.15189 0.15202 0.15202 0.15189 0.15202 0.15202 0.15202 0.15202 0.15216 0.15202 0.15202 0.15202 0.15123 0.15123 0 0 0 0 0.15018 0.15018 0.15018 0.15083 0.15083 0.15083 0.1507 0.1507 0.15083 0.15083 0.15083 0.15083 0.15096 0.15083 0.15083 0.15083 0.15083 0.15057 0.15043 0.15017 0.15017 0.15017 0.15004 0.14991 0.14977 0.14977 0.14977 0.14977 0.14964 0.14951 0.14938 0.14872 0.14872 0.14885 0.14885 0.14951 0.14951 0.14964 0.14977 0.14977 0.1499 0.1499 0.1499 0.1499 0.1499 0.15003 0.15003 0.1499 0.15003 0.15003 0.15003 0.15082 0.15082 0.15069 0.15069 0.15082 0.15082 0.15082 0.15082 0.15095 0.15095 0.15082 0.15108 0.15121 0.15147 0.1516 0.1516 0.15174 0.15174 0.15174 0.152 0.15213 0.152 0.15266 0.15279 0.15305 0.15371 0.15371 0.15424 0.15423
0.3637 0.36317 0.36278 0.35974 0.35974 0.3575 0.35631 0.35631 0.35723 0.35657 0.3567 0.35657 0.35617 0.3563 0.35406 0.35406 0.35485 0.35485 0.35617 0.35564 0.35498 0.35498 0.35485 0.35485 0.35722 0.35748 0.35722 0.35748 0.35708 0.3559 0.35497 0.35471 0.35484 0.35392 0.35392 0.35444 0.35405 0.35352 0.35352 0.35299 0.35352 0.35312 0.35352 0.35338 0.35351 0.35338 0.35338 0.35312 0.35246 0.35219 0.35193 0.35153 0.3539 0.35469 0.35443 0.35166 0.35245 0.35337 0.35337 0.35311 0.35337 0.35205 0.35205 0.35205 0.35192 0.35205 0.35205 0.35191 0.35112 0.34967 0.35139 0.35138 0.35152 0.35151 0.35138 0.35019 0.3494 0.34584 0.34571 0.34584 0.34808 0.3461 0.3461 0.34544 0.3465 0.3465 0.3461 0.34518 0.34491 0.34517 0.34544 0.34517 0.34517 0.34517 0.34477 0.34477 0.34477 0.34491 0.34543 0.3453 0.34596 0.34596 0.34582 0.34543 0.34543 0.3453 0.34477 0.34463 0.34424 0.3441 0.34358 0.34107 0.34094 0.34107 0.34107 0.34107 0.34133 0.34146 0.34133 0.34107 0.34265 0.34265 0.34212 0.34212 0.34212 0.34198 0.34185 0.34212 0.34238 0.34251 0.34238 0.34251 0.34264 0.34237 0.34237 0.34211 0.33987 0.34079 0.34079 0.34066 0.34066 0.34026 0.33986 0.33973 0.33973 0.33973 0.3396 0.33947 0.33946 0.3392 0.33893 0 0 0 0 0 0 0 0 0 0 0 0 0 0 0 0 0 0 0 0 0 0 0 0 0 0 0 0 0 0 0 0 0 0 0 0 0 0.17097 0.17097 0 0 0.16794 0.16794 0.16714 0.16714 0.16714 0.16543 0.16517 0.1649 0.16464 0.16424 0.16411 0.16398 0.16292 0.16306 0.16213 0.16226 0.16213 0.162 0.16147 0.16147 0.16029 0.15936 0.15936 0.15923 0.15844 0.15844 0.15817 0.15804 0.15804 0.15778 0.15751 0.15725 0.15712 0.15699 0.15699 0.15685 0.15672 0.15672 0.15593 0.15606 0.15593 0.15474 0.15474 0.15474 0.15461 0.15461 0.15461 0.15448 0.15448 0.15434 0.15421 0.15408 0.15395 0.15395 0.15395 0.15355 0.15342 0.15342 0.15329 0.15329 0.15329 0.15315 0.15302 0.15223 0.15223 0.15223 0.1521 0.1521 0.15157 0.1517 0.15196 0.15196 0.15196 0.15196 0.15196 0.15196 0.1521 0.1521 0.15209 0.15157 0.15157 0.15209 0.15104 0.15091 0.15091 0.15091 0.15091 0 0.15038 0.15038 0.15038 0.15051 0.1509 0.1509 0.15077 0.15077 0.15077 0.1509 0.15077 0.1509 0.14998 0.14998 0.15077 0.1509 0.1509 0.15064 0.15037 0.15024 0.15011 0.15011 0.14998 0.14984 0.14984 0.14984 0.14984 0.14984 0.14971 0.14958 0.14931 0.14866 0.14879 0.14879 0.14892 0.14958 0.14958 0.14971 0.14984 0.14984 0.14997 0.14997 0.1501 0.1501 0.1501 0.15023 0.15023 0.15036 0.15089 0.15102 0.15102 0.15089 0.15089 0.15089 0.15076 0.15089 0.15089 0.15089 0.15089 0.15102 0.15102 0.15089 0.15115 0.15128 0.15154 0.15168 0.15181 0.15194 0.15194 0.1522 0.1522 0.15233 0.15246 0.15286 0.15286 0.15299 0.15391 0.15391 0.15444 0.15444
0.36374 0.36347 0.36308 0.35991 0.35991 0.35767 0.35648 0.35648 0.3574 0.35674 0.35634 0.35647 0.35634 0.35647 0.35423 0.35423 0.35462 0.35489 0.35515 0.35502 0.35422 0.35422 0.35409 0.35409 0.35514 0.35514 0.35541 0.35554 0.35488 0.35461 0.35448 0.35408 0.35395 0.35369 0.35355 0.35355 0.35316 0.35276 0.35276 0.35276 0.35276 0.35263 0.35236 0.35315 0.35328 0.35302 0.35315 0.35262 0.35117 0.35077 0.35038 0.35169 0.35407 0.35394 0.35459 0.35182 0.35182 0.35235 0.35261 0.35235 0.35274 0.35156 0.3501 0.35024 0.35037 0.35169 0.35129 0.35129 0.35129 0.34984 0.34984 0.35076 0.35102 0.35128 0.35102 0.34957 0.34957 0.346 0.34587 0.346 0.34627 0.34626 0.346 0.34547 0.34534 0.34508 0.34494 0.34481 0.34455 0.34454 0.34507 0.34481 0.34481 0.34481 0.34441 0.34441 0.34441 0.34441 0.34546 0.34533 0.34546 0.34559 0.34533 0.34506 0.3444 0.34427 0.34348 0.34321 0.34282 0.34374 0.34268 0.34084 0.34044 0.34057 0.34031 0.34057 0.34057 0.34057 0.34057 0.34096 0.34109 0.34109 0.34109 0.34096 0.34083 0.34056 0.34056 0.34082 0.34082 0.34082 0.3403 0.34043 0.34082 0.34174 0.34214 0.34148 0.34003 0.33924 0.33923 0.3391 0.33937 0.33923 0.33923 0.33923 0.33923 0.33936 0.33936 0.33923 0.33936 0.33923 0.33923 0 0 0 0 0 0 0 0 0 0 0 0 0 0 0 0 0 0 0 0 0 0 0 0 0 0 0 0 0 0 0 0 0 0 0 0.17118 0.17131 0.17105 0.17105 0 0 0.16802 0.16802 0.16722 0.1663 0.1663 0.16551 0.16511 0.16511 0.16445 0.16432 0.16419 0.16419 0.163 0.16313 0.16221 0.16234 0.16221 0.16181 0.16168 0.16155 0.16036 0.15944 0.15944 0.1593 0.15851 0.15851 0.15812 0.15812 0.15812 0.15798 0.15759 0.15746 0.15719 0.15719 0.15706 0.15679 0.15679 0.15679 0.156 0.156 0.156 0.15495 0.15495 0.15481 0.15468 0.15468 0.15468 0.15455 0.15455 0.15442 0.15402 0.15402 0.15376 0.15376 0.15362 0.15323 0.15336 0.15323 0.15323 0.15323 0.1531 0.15296 0.15283 0.1523 0.1523 0.1523 0.15217 0.15217 0.15164 0.15177 0.15191 0.15124 0.15124 0.15138 0.15138 0.15138 0.15138 0.15111 0.15111 0.15111 0.15085 0.15085 0.15071 0.15085 0.15085 0.15085 0.15071 0.15084 0.15019 0.15032 0.15018 0.15045 0.15045 0.15045 0.15018 0.15018 0.15018 0.15018 0.15018 0.15018 0.14992 0.14992 0.15005 0.15005 0.15005 0.15005 0.15005 0.15005 0.15005 0.15005 0.15005 0.14991 0.14991 0.14978 0.14978 0.14978 0.14965 0.14952 0.14938 0.14872 0.14886 0.14886 0.14899 0.14952 0.14965 0.14978 0.14991 0.14991 0.15004 0.15004 0.15017 0.15017 0.15017 0.15044 0.15043 0.15057 0.15096 0.15109 0.15109 0.15109 0.15109 0.15096 0.15096 0.15096 0.15096 0.15096 0.15096 0.15109 0.15109 0.15109 0.15122 0.15135 0.15161 0.15175 0.15188 0.15214 0.15214 0.15227 0.15241 0.15254 0.15254 0.15293 0.15293 0.15306 0.15399 0.15425 0.15438 0.15451
0.3552 0.3552 0.35533 0.35519 0.35533 0.35427 0.35427 0.3544 0.35374 0.35374 0.35598 0.35651 0.35334 0.35347 0.35387 0.35439 0.35439 0.35439 0.35466 0.35439 0.35386 0.35373 0.35373 0.35373 0.35439 0.35465 0.35465 0.35478 0.35412 0.35386 0.35372 0.35346 0.35333 0.35319 0.35293 0.35293 0.35293 0.35253 0.35253 0.3524 0.35226 0.35226 0.352 0.35187 0.34883 0.34883 0.3487 0.3512 0.35041 0.35001 0.34988 0.34948 0.35041 0.3483 0.3483 0.3479 0.34776 0.34882 0.34882 0.34882 0.34987 0.34935 0.34948 0.34987 0.34987 0.35027 0.34868 0.34868 0.34842 0.34723 0.34696 0.34696 0.34643 0.3467 0.3463 0.34604 0.34603 0.34617 0.34577 0.34603 0.34603 0.34603 0.34564 0.34524 0.34511 0.34497 0.34471 0.34444 0.34444 0.34444 0.34471 0.34457 0.34444 0.34444 0.34418 0.34404 0.34404 0.34404 0.34404 0.34114 0.34127 0.34114 0.3414 0.3414 0.34443 0.3439 0.34311 0.34285 0.34192 0.34179 0.34113 0.34047 0.34007 0.33994 0.33994 0.33994 0.3402 0.3402 0.34007 0.34046 0.34073 0.34059 0.34059 0.34072 0.34059 0.34019 0.34019 0.34019 0.34006 0.33993 0.3398 0.33979 0.33993 0.3394 0.3394 0.33926 0.33874 0.33887 0.33887 0.33887 0.33939 0.33913 0.33886 0.33913 0.33913 0.33939 0.33939 0.33939 0.33925 0.33939 0.33477 0.3349 0 0 0 0 0 0 0 0 0 0 0 0 0 0 0 0 0 0 0 0 0 0 0 0 0 0 0 0 0 0 0 0 0 0 0.17126 0.17139 0.17126 0.17139 0 0 0.16823 0.16823 0.16757 0.16638 0.16638 0.16572 0.16559 0.16559 0.16453 0.1644 0.1644 0.16426 0.16321 0.16321 0.16294 0.16255 0.16268 0.16189 0.16176 0.16162 0.16057 0.15964 0.15964 0.15951 0.15925 0.15911 0.15845 0.15832 0.15832 0.15806 0.15766 0.15753 0.15726 0.15726 0.15713 0.15687 0.15687 0.15674 0.15647 0.15621 0.15607 0.15515 0.15515 0.15515 0.15489 0.15475 0.15475 0.15462 0.15462 0.15436 0.15409 0.15396 0.1537 0.1537 0.15356 0.1533 0.1533 0.1533 0.1533 0.15317 0.15317 0.15303 0.1529 0.15277 0.15264 0.15251 0.15237 0.15237 0.15198 0.15198 0.15198 0.15132 0.15132 0.15145 0.15145 0.15132 0.15145 0.15131 0.15118 0.15118 0.15092 0.15092 0.15079 0.15079 0.15078 0.15078 0.15078 0.15091 0.15025 0.15025 0.15025 0.15039 0.15052 0.15052 0.15025 0.15025 0.15025 0.15025 0.15025 0.15025 0.15012 0.14999 0.15012 0.15012 0.15012 0.15012 0.15012 0.15012 0.15012 0.15012 0.15012 0.14998 0.14985 0.14985 0.14985 0.14985 0.14972 0.14972 0.14972 0.14893 0.14893 0.14893 0.14906 0.14958 0.14985 0.14998 0.14998 0.15011 0.15011 0.15011 0.15024 0.15037 0.15037 0.1505 0.1505 0.15064 0.15103 0.15116 0.15116 0.15116 0.15116 0.15116 0.15116 0.15116 0.15116 0.15116 0.15116 0.15116 0.15129 0.15129 0.15142 0.15142 0.15169 0.15182 0.15182 0.15248 0.15261 0.15261 0.15287 0.153 0.15327 0.15327 0.15327 0.15353 0.15419 0.15432 0.15432 0.15445
0.35523 0.35483 0.35497 0.35483 0.35444 0.35444 0.35404 0.35391 0.35391 0.35364 0.35403 0.3539 0.35337 0.35351 0.35337 0.35337 0.35337 0.35337 0.35311 0.35297 0.35258 0.35218 0.35244 0.35218 0.3531 0.35336 0.35297 0.35297 0.35297 0.35296 0.3527 0.35257 0.35257 0.35217 0.35191 0.35164 0.35151 0.35137 0.35111 0.35045 0.35018 0.35005 0.34965 0.34952 0.34899 0.3486 0.3486 0.34807 0.34754 0.34754 0.34767 0.34767 0.3474 0.3474 0.34714 0.3474 0.347 0.34714 0.34793 0.34845 0.34885 0.34858 0.34858 0.34885 0.34858 0.34845 0.34805 0.34752 0.34713 0.34699 0.34633 0.3462 0.3462 0.3458 0.34593 0.34567 0.34567 0.34541 0.34527 0.34514 0.34514 0.34487 0.34474 0.34421 0.34368 0.34355 0.34329 0.34329 0.34315 0.34328 0.34421 0.34421 0.34381 0.34381 0.34368 0.34328 0.34354 0.34262 0.34288 0.3413 0.34116 0.3409 0.3409 0.34063 0.34063 0.33997 0.33931 0.33944 0.33971 0.33957 0.33944 0.33931 0.33878 0.33812 0.33785 0.33825 0.33825 0.33838 0.33825 0.33851 0.3393 0.33904 0.3393 0.33943 0.3393 0.33903 0.33903 0.3393 0.33903 0.3389 0.33877 0.3385 0.33824 0.33837 0.33837 0.33837 0.3381 0.33784 0.3377 0.33718 0.3377 0.33744 0.33704 0.33704 0.33717 0.33783 0.3377 0.33823 0.33941 0.33308 0.33228 0.33242 0.33175 0.33175 0 0 0 0 0 0 0 0 0 0 0 0 0 0 0 0 0 0 0 0 0 0 0 0 0 0 0 0 0 0 0 0 0.17134 0.17134 0.17134 0.17147 0.17147 0.17134 0.16804 0.16804 0.16712 0.16672 0.16672 0.16619 0.16579 0.16579 0.16553 0.16513 0.16527 0.16381 0.16315 0.16315 0.16302 0.16223 0.16223 0.1621 0.16196 0.16196 0.16064 0.16051 0.16051 0.15945 0.15932 0.15945 0.15853 0.1584 0.15826 0.15813 0.15773 0.1576 0.15734 0.15734 0.15721 0.15707 0.15694 0.15681 0.15654 0.15628 0.15615 0.15562 0.15536 0.15522 0.15509 0.15496 0.15483 0.15469 0.15456 0.15443 0.15416 0.15403 0.15377 0.15364 0.15364 0.15337 0.15337 0.15337 0.15324 0.15324 0.15324 0.15297 0.15284 0.15284 0.15258 0.15244 0.15231 0.15231 0.15165 0.15191 0.15165 0.15165 0.15139 0.15139 0.15139 0.15139 0.15138 0.15138 0.15125 0.15125 0.15112 0.15099 0.15086 0.15072 0.15072 0.15072 0.15072 0.15072 0.15033 0.15033 0.15032 0.15046 0.15046 0.15046 0.15032 0.15032 0.15032 0.15032 0.15032 0.15032 0.15019 0.15006 0.15019 0.15019 0.15019 0.15019 0.15019 0.15019 0.15019 0.15019 0.15005 0.15005 0.14992 0.14992 0.14992 0.14992 0.14979 0.14979 0.14979 0.14926 0.14913 0.14913 0.14913 0.14926 0.15005 0.15005 0.15018 0.15018 0.15018 0.15031 0.15031 0.15044 0.15044 0.15058 0.15058 0.15071 0.1511 0.15124 0.15123 0.15123 0.15123 0.15123 0.15123 0.15123 0.15123 0.15123 0.15123 0.15123 0.15136 0.15136 0.15149 0.15149 0.15163 0.15176 0.15149 0.15242 0.15255 0.15268 0.15294 0.15307 0.15334 0.15334 0.15334 0.15373 0.15413 0.15426 0.15439 0.15452
0.35474 0.3546 0.35474 0.35474 0.35447 0.35447 0.35407 0.35381 0.35367 0.35354 0.3538 0.3538 0.35354 0.35327 0.35327 0.35314 0.35314 0.35287 0.35287 0.35274 0.35208 0.35181 0.35155 0.35234 0.35327 0.35327 0.35353 0.35287 0.35221 0.35221 0.3522 0.3522 0.35207 0.35181 0.35128 0.35128 0.35128 0.35088 0.35075 0.35035 0.34982 0.34956 0.34929 0.34916 0.34902 0.34849 0.34823 0.34823 0.3477 0.34757 0.34757 0.34757 0.3473 0.3473 0.3473 0.34703 0.34703 0.34717 0.34862 0.34862 0.34901 0.34875 0.34822 0.34848 0.34822 0.34808 0.34782 0.34729 0.34729 0.34676 0.34636 0.34636 0.3461 0.34557 0.34557 0.34544 0.3453 0.34504 0.34477 0.34477 0.34477 0.3449 0.34503 0.34385 0.34279 0.34265 0.34265 0.34279 0.34265 0.34331 0.34437 0.34437 0.34397 0.34384 0.3437 0.34318 0.34278 0.34278 0.34304 0.34172 0.3404 0.3404 0.34026 0.33987 0.33974 0.3396 0.33907 0.33868 0.33894 0.33894 0.33868 0.33867 0.33828 0.33775 0.33735 0.33775 0.33761 0.33761 0.33841 0.3392 0.33906 0.3392 0.33946 0.33893 0.33906 0.33893 0.33893 0.33893 0.33906 0.33906 0.33866 0.33866 0.3384 0.33826 0.33773 0.33773 0.338 0.33799 0.33733 0.33654 0.33667 0.33654 0.33641 0.33641 0.3372 0.33786 0.33786 0.33799 0.33957 0.33323 0.33257 0.33191 0.33191 0.33191 0 0 0 0 0 0 0 0 0 0 0 0 0 0 0 0 0 0 0 0 0 0 0 0 0 0 0 0 0 0 0 0 0.17142 0.17156 0.17156 0.17156 0.17156 0.17142 0.16812 0.16812 0.1672 0.16706 0.1668 0.16627 0.16614 0.16587 0.16561 0.16548 0.16534 0.16389 0.16323 0.16323 0.1631 0.1623 0.1623 0.1623 0.16191 0.16204 0.16072 0.16072 0.16059 0.15953 0.15953 0.15953 0.1586 0.15847 0.15834 0.15821 0.15781 0.15768 0.15754 0.15741 0.15728 0.15715 0.15701 0.15701 0.15662 0.15649 0.15622 0.15582 0.15569 0.15556 0.15516 0.15503 0.15503 0.15477 0.15477 0.15463 0.15424 0.1541 0.15384 0.15371 0.15358 0.15344 0.15344 0.15344 0.15331 0.15318 0.15318 0.15291 0.15278 0.15278 0.15252 0.15252 0.15225 0.15238 0.15172 0.15172 0.15159 0.15159 0.15146 0.15146 0.15146 0.15146 0.15146 0.15132 0.15132 0.15132 0.15132 0.15119 0.15093 0.15079 0.15079 0.15079 0.15079 0.15079 0.15066 0.1504 0.15053 0.15053 0.15053 0.1504 0.15026 0.15026 0.15026 0.15013 0.15026 0.15026 0.15013 0.15013 0.15013 0.15026 0.15013 0.15026 0.15026 0.15026 0.15026 0.15026 0.15013 0.15013 0.15013 0.14999 0.14999 0.14999 0.14986 0.14986 0.14986 0.14933 0.14933 0.1492 0.1492 0.14933 0.15012 0.15012 0.15025 0.15025 0.15025 0.15038 0.15038 0.15052 0.15052 0.15065 0.15078 0.15091 0.15117 0.1513 0.1513 0.1513 0.1513 0.1513 0.1513 0.1513 0.1513 0.1513 0.1513 0.1513 0.15143 0.15143 0.15143 0.15157 0.15157 0.15157 0.15156 0.15249 0.15262 0.15262 0.15302 0.15315 0.15341 0.15341 0.15354 0.15381 0.15394 0.15433 0.15433 0.15446
0.35437 0.35437 0.35437 0.35464 0.35437 0.35437 0.35384 0.35371 0.35344 0.35344 0.35384 0.35371 0.35331 0.35304 0.35304 0.35291 0.35278 0.35291 0.35251 0.35238 0.35145 0.35106 0.35092 0.35026 0.35039 0.35039 0.35039 0.35105 0.35131 0.35171 0.35184 0.35171 0.35171 0.35131 0.35091 0.35091 0.35104 0.35052 0.35038 0.34998 0.34946 0.34932 0.34892 0.34879 0.34866 0.34839 0.34826 0.348 0.34773 0.34747 0.34747 0.34733 0.34733 0.34733 0.3472 0.34693 0.3468 0.3472 0.34349 0.34363 0.34402 0.34746 0.34799 0.34825 0.34798 0.34798 0.34785 0.34732 0.34679 0.34243 0.34177 0.34164 0.34468 0.3452 0.34547 0.34494 0.34494 0.34493 0.34414 0.34414 0.34414 0.34242 0.34269 0.34189 0.34189 0.34189 0.34215 0.34189 0.34189 0.34175 0.34453 0.34453 0.344 0.344 0.3436 0.34281 0.34175 0.34003 0.34003 0.33963 0.33976 0.33976 0.33976 0.33923 0.3391 0.33884 0.33818 0.33804 0.33844 0.33817 0.33817 0.33804 0.33791 0.33738 0.33711 0.33711 0.33685 0.33685 0.33619 0.33671 0.33579 0.33579 0.33777 0.33843 0.33869 0.33882 0.33869 0.33856 0.33657 0.33657 0.33657 0.33644 0.33578 0.33591 0.3371 0.3367 0.33445 0.33459 0.33525 0.33577 0.33577 0.33591 0.33577 0.33577 0.33458 0.33471 0.33418 0.33392 0.33405 0.33299 0.33233 0.3318 0.33167 0.33127 0.33193 0 0 0 0 0 0 0 0 0 0 0 0 0 0 0 0 0 0 0 0 0 0 0 0 0 0 0 0 0 0 0 0.17164 0.17164 0.17177 0.17164 0.17164 0.1715 0.1682 0.1682 0.16727 0.16727 0.16727 0.16635 0.16635 0.16648 0.16555 0.16555 0.16555 0.16463 0.16384 0.16383 0.16304 0.16238 0.16238 0.16238 0.16172 0.16172 0.16106 0.16079 0.16066 0.15987 0.15973 0.1596 0.1596 0.15828 0.15841 0.15828 0.15801 0.15775 0.15762 0.15749 0.15735 0.15722 0.15722 0.15709 0.15669 0.15656 0.15629 0.1559 0.15577 0.15563 0.15524 0.1551 0.1551 0.15484 0.15484 0.15471 0.15431 0.15418 0.15391 0.15378 0.15365 0.15352 0.15352 0.15352 0.15338 0.15325 0.15325 0.15299 0.15285 0.15285 0.15259 0.15246 0.15219 0.15219 0.15179 0.15166 0.15166 0.15153 0.15153 0.15153 0.15153 0.15153 0.15153 0.15153 0.1514 0.15139 0.15126 0.15126 0.15113 0.151 0.151 0.151 0.151 0.15099 0.15073 0.1506 0.1506 0.15073 0.1506 0.15046 0.15033 0.1502 0.1502 0.1502 0.1502 0.1502 0.1502 0.15007 0.1502 0.1502 0.1502 0.1502 0.15033 0.1502 0.15033 0.1502 0.1502 0.15019 0.15019 0.15006 0.15006 0.15006 0.15006 0.15006 0.15006 0.14993 0.14993 0.14927 0.1494 0.15019 0.15032 0.15032 0.15032 0.15032 0.15032 0.15045 0.15045 0.15072 0.15072 0.15085 0.15085 0.15098 0.15138 0.15138 0.15138 0.15138 0.15138 0.15138 0.15138 0.15137 0.15137 0.15137 0.15137 0.15137 0.15137 0.15151 0.15164 0.15164 0.15164 0.15164 0.15163 0.15256 0.15256 0.15269 0.15309 0.15322 0.15348 0.15348 0.15361 0.15401 0.15401 0.15441 0.15454 0.15454
0.35018 0.35004 0.35004 0.34991 0.35004 0.35361 0.34964 0.34991 0.34964 0.34964 0.34964 0.34937 0.34911 0.35149 0.35149 0.35096 0.35069 0.35109 0.35109 0.35056 0.3499 0.3495 0.34937 0.3491 0.34897 0.34897 0.34884 0.34844 0.34844 0.34844 0.34897 0.34936 0.34896 0.34843 0.34883 0.34909 0.34936 0.34909 0.34909 0.34896 0.34882 0.34856 0.34816 0.34803 0.34763 0.3475 0.3475 0.3471 0.3467 0.34631 0.34591 0.34564 0.34564 0.34617 0.34683 0.34617 0.34366 0.34379 0.34366 0.3426 0.3418 0.34246 0.34167 0.34167 0.34167 0.34167 0.34127 0.34127 0.3414 0.34193 0.3418 0.3418 0.3414 0.34113 0.34113 0.34087 0.34087 0.34073 0.34073 0.34166 0.34086 0.34047 0.34086 0.34073 0.34046 0.3402 0.34059 0.34073 0.34086 0.34059 0.34059 0.34046 0.34046 0.34046 0.34046 0.34019 0.34006 0.33926 0.339 0.33874 0.33807 0.33768 0.33768 0.33754 0.33741 0.33701 0.33688 0.33675 0.33675 0.33688 0.33688 0.33688 0.33674 0.33621 0.33608 0.33595 0.33595 0.33555 0.33555 0.33555 0.33528 0.33475 0.33488 0.33502 0.33436 0.33435 0.33607 0.33739 0.337 0.33673 0.33673 0.33118 0.33131 0.33131 0.33117 0.33144 0.3317 0.33197 0.33091 0.33064 0.33091 0.33487 0.335 0.33527 0.32945 0.32879 0.32892 0.32892 0.32879 0.32892 0.32892 0.3305 0.3301 0.32944 0.3301 0 0 0 0 0 0 0 0 0 0 0 0 0 0 0 0 0 0 0 0 0 0 0 0 0 0 0 0 0 0 0 0.17172 0.17172 0.17185 0.17158 0.17158 0.17158 0.16828 0.16828 0.16748 0.16722 0.16722 0.16642 0.16642 0.16656 0.16563 0.16497 0.16497 0.1647 0.16391 0.16391 0.16312 0.16246 0.16246 0.16246 0.16179 0.16179 0.16113 0.16074 0.16074 0.15994 0.15968 0.15968 0.15915 0.15835 0.15849 0.15835 0.15809 0.15796 0.15769 0.15756 0.15743 0.15729 0.15716 0.15716 0.15624 0.15637 0.15624 0.15597 0.15584 0.15584 0.15531 0.15518 0.15518 0.15491 0.15491 0.15452 0.15438 0.15425 0.15399 0.15385 0.15372 0.15359 0.15346 0.15346 0.15345 0.15332 0.15332 0.15306 0.15292 0.15292 0.15266 0.15253 0.15226 0.15213 0.15186 0.15173 0.15173 0.1516 0.1516 0.1516 0.1516 0.1516 0.1516 0.1516 0.15133 0.15133 0.15133 0.15133 0.1512 0.15107 0.15107 0.15107 0.15107 0.15107 0.15067 0.15067 0.15067 0.1508 0.15054 0.1504 0.15027 0.15027 0.15027 0.15014 0.15014 0.15014 0.15014 0.15014 0.15014 0.15014 0.15027 0.15027 0.1504 0.15027 0.1504 0.1504 0.1504 0.15027 0.15027 0.15027 0.15 0.15 0.14987 0.15 0.15 0.14921 0.14921 0.14921 0.14934 0.15026 0.15039 0.15039 0.15039 0.15039 0.15052 0.15052 0.15066 0.15079 0.15079 0.15092 0.15105 0.15105 0.15145 0.15145 0.15145 0.15145 0.15145 0.15145 0.15145 0.15158 0.15158 0.15144 0.15144 0.15158 0.15158 0.15158 0.15171 0.15171 0.15171 0.15171 0.15171 0.1525 0.15276 0.1529 0.15316 0.15329 0.15355 0.15355 0.15369 0.15408 0.15421 0.15448 0.15461 0.15474
0.35021 0.35008 0.35007 0.34981 0.3502 0.35378 0.34981 0.34981 0.3498 0.34967 0.34967 0.34927 0.34967 0.35073 0.35073 0.35033 0.3502 0.35033 0.35033 0.35006 0.34927 0.34913 0.349 0.349 0.34874 0.3486 0.34834 0.34834 0.3486 0.3486 0.34873 0.34873 0.3486 0.34833 0.34833 0.34873 0.34926 0.34912 0.34899 0.34899 0.34899 0.34833 0.34819 0.34819 0.34766 0.34753 0.34753 0.34713 0.34634 0.34607 0.34541 0.34475 0.34541 0.34726 0.34726 0.3458 0.34382 0.34355 0.34355 0.3421 0.34183 0.34209 0.34196 0.34156 0.34183 0.34143 0.34143 0.34143 0.34182 0.34182 0.34196 0.34182 0.34156 0.34129 0.34103 0.34089 0.34103 0.34089 0.34089 0.34182 0.34102 0.34063 0.34036 0.34036 0.33996 0.33996 0.34009 0.34036 0.34062 0.34062 0.34062 0.34035 0.34035 0.34035 0.34022 0.34022 0.33995 0.33942 0.33876 0.33836 0.33757 0.33717 0.33717 0.33704 0.33677 0.33638 0.33637 0.33637 0.33624 0.33637 0.33637 0.33637 0.33624 0.33584 0.33571 0.33571 0.33571 0.33544 0.33518 0.33518 0.33491 0.33478 0.33451 0.33438 0.33425 0.33451 0.33623 0.33755 0.33689 0.33689 0.33689 0.33133 0.33107 0.33107 0.3312 0.3312 0.33133 0.3312 0.3308 0.33066 0.3308 0.33503 0.33516 0.33516 0.3296 0.32921 0.32881 0.32894 0.32894 0.32907 0.32947 0.33 0.32986 0.3296 0.33026 0 0 0 0 0 0 0 0 0 0 0 0 0 0 0 0 0 0 0 0 0 0 0 0 0 0 0 0 0 0 0 0.1718 0.1718 0.1718 0.17166 0.17166 0.17153 0.1714 0.17153 0.1677 0.1673 0.1673 0.1673 0.16664 0.16664 0.16664 0.16505 0.16505 0.16505 0.16399 0.16399 0.16333 0.16346 0.16333 0.16306 0.16187 0.16187 0.16174 0.1616 0.16134 0.16068 0.16002 0.16002 0.15922 0.15869 0.15869 0.1583 0.1583 0.15829 0.1579 0.15777 0.15763 0.1575 0.15737 0.15724 0.15631 0.15631 0.15631 0.15618 0.15604 0.15591 0.15551 0.15525 0.15525 0.15512 0.15498 0.15472 0.15459 0.15432 0.15406 0.15392 0.15392 0.15366 0.15366 0.15353 0.15353 0.15339 0.15339 0.15313 0.15313 0.153 0.15286 0.15273 0.15233 0.15233 0.15194 0.15194 0.1518 0.1518 0.15167 0.15167 0.15167 0.15167 0.15167 0.15154 0.1514 0.1514 0.1514 0.1514 0.1514 0.15127 0.15127 0.15127 0.15127 0.15127 0.15114 0.15087 0.15087 0.15087 0.15061 0.15047 0.15034 0.15034 0.15034 0.15021 0.15021 0.15021 0.15021 0.15021 0.15021 0.15034 0.15034 0.15034 0.15047 0.15047 0.15047 0.1506 0.1506 0.1506 0.15047 0.1502 0.15007 0.15007 0.14994 0.14994 0.15007 0.14928 0.14941 0.14941 0.14941 0.15046 0.1506 0.1506 0.1506 0.1506 0.1506 0.15073 0.15086 0.15112 0.15112 0.15126 0.15126 0.15139 0.15152 0.15152 0.15152 0.15152 0.15152 0.15165 0.15165 0.15165 0.15178 0.15165 0.15165 0.15178 0.15191 0.15178 0.15204 0.15165 0.15165 0.15191 0.15191 0.1531 0.15323 0.15323 0.15336 0.15336 0.15363 0.15363 0.15376 0.15429 0.15442 0.15468 0.15481 0.15495
0.34997 0.34984 0.34984 0.34944 0.34918 0.34918 0.34971 0.34984 0.34984 0.3497 0.34944 0.3493 0.34944 0.35023 0.35023 0.34983 0.34983 0.3497 0.3497 0.3493 0.3489 0.3489 0.3489 0.3489 0.3489 0.3485 0.3485 0.34837 0.34837 0.3485 0.3485 0.3485 0.3485 0.34823 0.34797 0.34783 0.34624 0.34452 0.34452 0.34651 0.34597 0.34611 0.34505 0.34491 0.34412 0.34399 0.34465 0.34465 0.34412 0.34438 0.34332 0.34398 0.34319 0.34319 0.34292 0.34266 0.34239 0.34279 0.34265 0.34199 0.34173 0.34173 0.34199 0.34172 0.34172 0.34159 0.34119 0.34146 0.34159 0.34172 0.34172 0.34172 0.34145 0.34119 0.34092 0.34079 0.33735 0.33721 0.33735 0.33735 0.34039 0.34039 0.34025 0.33986 0.33972 0.33959 0.33972 0.34012 0.34038 0.34038 0.34025 0.34025 0.34012 0.34025 0.34011 0.33985 0.33972 0.33919 0.33799 0.33799 0.33773 0.33707 0.33693 0.3364 0.3364 0.336 0.33574 0.33574 0.33574 0.33574 0.33587 0.33587 0.3356 0.33534 0.3352 0.3352 0.33533 0.3352 0.33507 0.33494 0.33441 0.33427 0.33401 0.33374 0.33374 0.33043 0.33043 0.33043 0.33043 0.33056 0.33043 0.32977 0.33043 0.33043 0.33043 0.33056 0.33056 0.33056 0.33042 0.33042 0.32976 0.33003 0.32897 0.32897 0.32923 0.3291 0.32896 0.32883 0.32909 0.32909 0.32936 0.32975 0.32975 0.32962 0.32975 0.32975 0.32975 0 0 0 0 0 0 0 0 0 0 0 0 0 0 0 0 0 0 0 0 0 0 0 0 0 0 0 0 0 0.17175 0.17188 0.17188 0.17174 0.17161 0.17161 0.17148 0.17135 0.16857 0.16738 0.16751 0.16737 0.16737 0.16737 0.16592 0.16512 0.16512 0.16512 0.16459 0.16459 0.1638 0.16367 0.16367 0.16261 0.16261 0.16261 0.16181 0.16155 0.16142 0.16102 0.16102 0.16075 0.16036 0.16035 0.15903 0.15863 0.1585 0.15837 0.1581 0.15797 0.15771 0.15757 0.15744 0.15731 0.15638 0.15638 0.15638 0.15612 0.15612 0.15598 0.15559 0.15532 0.15532 0.15519 0.15519 0.15479 0.15466 0.15453 0.15426 0.15413 0.154 0.15373 0.15373 0.1536 0.1536 0.15346 0.15333 0.1532 0.1532 0.1532 0.15307 0.15307 0.15254 0.15254 0.1524 0.15214 0.15201 0.15187 0.15174 0.15174 0.15174 0.15174 0.15174 0.15161 0.15147 0.15147 0.15147 0.15147 0.15134 0.15134 0.15134 0.15134 0.15147 0.15147 0.15121 0.15094 0.15081 0.15081 0.15068 0.15054 0.15041 0.15041 0.15041 0.15028 0.15028 0.15028 0.15028 0.15028 0.15041 0.15041 0.15054 0.15054 0.15054 0.15067 0.15067 0.15067 0.15067 0.15067 0.15067 0.15014 0.15014 0.15001 0.15001 0.15001 0.15001 0.14961 0.14961 0.14961 0.14961 0.15054 0.15067 0.15067 0.15067 0.15067 0.1508 0.1508 0.15093 0.15133 0.15133 0.15146 0.15146 0.15159 0.15159 0.15172 0.15159 0.15159 0.15159 0.15172 0.15172 0.15185 0.15185 0.15185 0.15185 0.15185 0.15198 0.15211 0.15264 0.15251 0.15238 0.15224 0.15224 0.15317 0.1533 0.1533 0.15343 0.15343 0.15357 0.1537 0.15383 0.15436 0.15449 0.15489 0.15489 0.15502
0.34948 0.34947 0.34934 0.34894 0.34855 0.34894 0.34907 0.34934 0.34934 0.34907 0.34907 0.34894 0.34841 0.34841 0.34841 0.34563 0.34562 0.34456 0.3443 0.34417 0.34416 0.3443 0.34509 0.34522 0.34522 0.34522 0.34522 0.34747 0.34747 0.34747 0.34734 0.34734 0.34747 0.3472 0.34455 0.34468 0.34468 0.34468 0.34455 0.34481 0.34508 0.34481 0.34468 0.34402 0.34388 0.34388 0.34415 0.34428 0.34401 0.34362 0.34335 0.34255 0.34229 0.33818 0.33845 0.34176 0.33858 0.33858 0.33858 0.33752 0.33778 0.33804 0.33804 0.33791 0.3391 0.33844 0.33844 0.33804 0.33817 0.33857 0.33857 0.33843 0.33843 0.33857 0.33843 0.33803 0.33724 0.33724 0.33711 0.33671 0.33658 0.33618 0.33604 0.33604 0.33591 0.33591 0.33617 0.33538 0.33538 0.33511 0.33485 0.33485 0.33485 0.33511 0.33471 0.33405 0.33405 0.33524 0.33537 0.33643 0.33603 0.33577 0.3355 0.3351 0.33524 0.33523 0.33484 0.3347 0.33457 0.33444 0.3347 0.33457 0.33443 0.33443 0.3339 0.33404 0.33404 0.33404 0.3339 0.33364 0.33311 0.33297 0.33271 0.33218 0.33218 0.33032 0.33032 0.33006 0.33005 0.33005 0.33019 0.32992 0.32992 0.32979 0.32952 0.32939 0.32952 0.32952 0.32952 0.32939 0.32925 0.32925 0.32872 0.32859 0.32872 0.32859 0.32859 0.32832 0.32859 0.32859 0.32872 0.32925 0.32925 0.32924 0.32977 0.32951 0.32951 0 0 0 0 0 0 0 0 0 0 0 0 0 0 0 0 0 0 0 0 0 0 0 0 0 0 0 0 0 0.17183 0.17209 0.17196 0.17169 0.17169 0.17156 0.17156 0.17143 0.16865 0.16745 0.16759 0.16759 0.16759 0.16745 0.166 0.1652 0.16533 0.16507 0.16467 0.16467 0.16388 0.16374 0.16374 0.16268 0.16242 0.16229 0.16149 0.16149 0.16136 0.16123 0.16096 0.16083 0.16056 0.16043 0.15911 0.15871 0.15871 0.15844 0.15818 0.15818 0.15765 0.15765 0.15751 0.15738 0.15646 0.15646 0.15632 0.15619 0.15606 0.15606 0.15566 0.1554 0.15539 0.15526 0.15526 0.15486 0.15473 0.1546 0.15433 0.1542 0.1542 0.1538 0.1538 0.1538 0.15367 0.15354 0.1534 0.15327 0.15327 0.15327 0.15327 0.15327 0.15261 0.15261 0.15247 0.15221 0.15221 0.15181 0.15181 0.15194 0.15194 0.15181 0.15181 0.15155 0.15155 0.15155 0.15155 0.15155 0.15141 0.15141 0.15141 0.15141 0.15141 0.15154 0.15128 0.15101 0.15088 0.15088 0.15075 0.15061 0.15048 0.15048 0.15048 0.15035 0.15048 0.15048 0.15035 0.15048 0.15048 0.15061 0.15061 0.15074 0.15074 0.15074 0.15074 0.15088 0.15087 0.15087 0.15074 0.15021 0.15021 0.15008 0.15008 0.15008 0.15008 0.14968 0.14968 0.14968 0.14968 0.1506 0.15074 0.15074 0.15074 0.15074 0.15087 0.15087 0.151 0.15127 0.15126 0.15153 0.15166 0.15166 0.15166 0.15179 0.15166 0.15179 0.15179 0.15179 0.15179 0.15192 0.15192 0.15192 0.15192 0.15205 0.15219 0.15245 0.15258 0.15258 0.15245 0.15245 0.15232 0.15324 0.15337 0.15337 0.15337 0.15351 0.15364 0.15377 0.15377 0.15456 0.15469 0.15496 0.15509 0.15509
0.34951 0.34951 0.34951 0.34871 0.34858 0.34858 0.3495 0.34924 0.34924 0.3491 0.34884 0.34857 0.34804 0.34778 0.34764 0.34632 0.34539 0.34499 0.34433 0.34433 0.34433 0.34472 0.34499 0.34525 0.34498 0.34525 0.34538 0.34737 0.3475 0.3471 0.34697 0.3471 0.3471 0.34697 0.34498 0.34485 0.34471 0.34445 0.34431 0.34445 0.34431 0.34444 0.34431 0.34378 0.34365 0.34365 0.34404 0.34417 0.34364 0.34364 0.34258 0.34245 0.34245 0.33834 0.3386 0.34192 0.33874 0.3386 0.33874 0.33794 0.33807 0.33807 0.33807 0.33833 0.3386 0.33873 0.33833 0.33833 0.33833 0.33859 0.33859 0.33859 0.33833 0.33859 0.33833 0.33819 0.33753 0.337 0.33687 0.3366 0.3366 0.33607 0.33607 0.33607 0.33593 0.33593 0.33607 0.33554 0.3354 0.33527 0.33487 0.33487 0.33487 0.33487 0.33487 0.33421 0.33434 0.33487 0.3354 0.33606 0.33539 0.335 0.33473 0.33473 0.33473 0.33486 0.3346 0.33433 0.3342 0.33406 0.33433 0.33406 0.33393 0.33393 0.3334 0.33353 0.33353 0.3334 0.33326 0.33287 0.3326 0.33247 0.33207 0.3318 0.33167 0.33074 0.33048 0.33008 0.32994 0.32994 0.32994 0.32994 0.32968 0.32954 0.32928 0.32915 0.32928 0.32941 0.32941 0.32914 0.32914 0.32874 0.32861 0.32848 0.32861 0.32848 0.32848 0.32834 0.32834 0.32847 0.3286 0.32927 0.32927 0.3294 0.32966 0.32966 0.32966 0 0 0 0 0 0 0 0 0 0 0 0 0 0 0 0 0 0 0 0 0 0 0 0 0 0 0 0 0 0.1727 0.1727 0.17257 0.17257 0.17243 0.17217 0.1719 0.17177 0.16965 0.16899 0.16899 0.16819 0.16793 0.16766 0.16727 0.1666 0.16647 0.16634 0.16501 0.16501 0.16435 0.16382 0.16382 0.16276 0.16236 0.16236 0.16157 0.16143 0.16143 0.1613 0.16117 0.16104 0.1609 0.1609 0.15984 0.15958 0.15958 0.15958 0.15852 0.15852 0.15772 0.15772 0.15785 0.15746 0.15653 0.15653 0.1564 0.15626 0.15626 0.15613 0.15547 0.15547 0.15547 0.15533 0.15533 0.15507 0.15494 0.1548 0.15454 0.1544 0.15427 0.15401 0.15388 0.15387 0.15374 0.15361 0.15361 0.15348 0.15348 0.15348 0.15334 0.15334 0.15308 0.15308 0.15308 0.15294 0.15294 0.15281 0.15215 0.15228 0.15215 0.15215 0.15241 0.15175 0.15175 0.15175 0.15175 0.15175 0.15175 0.15161 0.15148 0.15161 0.15148 0.15148 0.15148 0.15122 0.15108 0.15095 0.15082 0.15069 0.15055 0.15055 0.15055 0.15055 0.15055 0.15055 0.15055 0.15055 0.15068 0.15081 0.15095 0.15095 0.15095 0.15095 0.15094 0.15108 0.15108 0.15094 0.15094 0.15081 0.15068 0.15041 0.15015 0.15015 0.15041 0.14975 0.14975 0.14975 0.14975 0.15068 0.15081 0.15081 0.15081 0.15081 0.15094 0.15107 0.1512 0.15133 0.15133 0.1516 0.15173 0.15173 0.15173 0.15186 0.15173 0.15186 0.15186 0.15199 0.15199 0.15199 0.15213 0.15213 0.15213 0.15226 0.15239 0.15265 0.15265 0.15265 0.15279 0.15279 0.15292 0.15345 0.15345 0.15358 0.15358 0.15358 0.15384 0.15384 0.15384 0.15463 0.15477 0.1549 0.15516 0.15516
0.3449 0.3445 0.3445 0.34503 0.34503 0.34648 0.34728 0.34834 0.34887 0.34887 0.34847 0.3482 0.34728 0.34728 0.34701 0.34608 0.34542 0.34502 0.34436 0.34422 0.34422 0.34435 0.34448 0.34462 0.34448 0.34448 0.34342 0.34342 0.347 0.34726 0.34713 0.34713 0.34673 0.34647 0.34501 0.34487 0.34461 0.34421 0.34421 0.34421 0.34434 0.34434 0.34394 0.34381 0.34328 0.34341 0.34394 0.34394 0.34341 0.34274 0.33757 0.33744 0.33744 0.33704 0.33704 0.3377 0.3381 0.33836 0.3385 0.3377 0.3381 0.3381 0.33809 0.33823 0.33823 0.33836 0.33822 0.33809 0.33822 0.33836 0.33809 0.33809 0.33782 0.33782 0.33822 0.33782 0.33703 0.33649 0.33636 0.33583 0.3357 0.3357 0.3357 0.33556 0.33503 0.33516 0.33516 0.33503 0.3349 0.3345 0.33437 0.33436 0.33436 0.33436 0.33423 0.3337 0.3341 0.33476 0.33515 0.33489 0.33303 0.33409 0.33409 0.33422 0.33436 0.33449 0.33435 0.33409 0.33369 0.33356 0.33395 0.33369 0.33303 0.33302 0.33289 0.33302 0.33302 0.33302 0.33276 0.33249 0.33209 0.33196 0.33183 0.33169 0.33169 0.32798 0.32798 0.32891 0.32957 0.3297 0.3297 0.32943 0.3293 0.3293 0.3289 0.3289 0.32877 0.32903 0.3289 0.3289 0.32877 0.32863 0.32823 0.3281 0.32823 0.3281 0.3281 0.32797 0.32823 0.32849 0.32876 0.32929 0.32942 0.32955 0.32982 0.33008 0.33021 0 0 0 0 0 0 0 0 0 0 0 0 0 0 0 0 0 0 0 0 0 0 0 0 0 0 0 0 0 0.17305 0.17291 0.17278 0.17265 0.17265 0.17225 0.17198 0.17185 0.16973 0.16907 0.16907 0.16827 0.16814 0.16814 0.16734 0.16668 0.16655 0.16642 0.16536 0.16536 0.16522 0.1639 0.1639 0.1631 0.16257 0.16257 0.16231 0.16164 0.16164 0.16151 0.16138 0.16124 0.16111 0.16124 0.16005 0.15992 0.15978 0.15978 0.15872 0.15872 0.15833 0.15819 0.15819 0.15766 0.15673 0.1566 0.1566 0.15647 0.15634 0.1562 0.15554 0.15554 0.15554 0.15554 0.15541 0.15514 0.15501 0.15488 0.15461 0.15461 0.15448 0.15421 0.15408 0.15395 0.15381 0.15381 0.15368 0.15355 0.15355 0.15355 0.15341 0.15341 0.15315 0.15315 0.15315 0.15302 0.15302 0.15288 0.15248 0.15235 0.15235 0.15235 0.15248 0.15222 0.15208 0.15195 0.15195 0.15195 0.15182 0.15169 0.15169 0.15155 0.15155 0.15155 0.15142 0.15129 0.15115 0.15089 0.15076 0.15076 0.15062 0.15062 0.15076 0.15062 0.15062 0.15062 0.15062 0.15062 0.15075 0.15088 0.15102 0.15102 0.15102 0.15102 0.15102 0.15115 0.15115 0.15115 0.15102 0.15088 0.15075 0.15062 0.15075 0.15088 0.15088 0.15088 0.15088 0.15101 0.15101 0.15101 0.15088 0.15101 0.15088 0.15088 0.15114 0.15114 0.15127 0.15141 0.15141 0.15167 0.15167 0.1518 0.1518 0.15193 0.15193 0.15193 0.15193 0.15207 0.15207 0.1522 0.15233 0.15233 0.15233 0.15246 0.15246 0.15272 0.15272 0.15272 0.15286 0.15286 0.15299 0.15339 0.15352 0.15352 0.15365 0.15365 0.15391 0.15405 0.15405 0.15484 0.15497 0.1551 0.15563 0.15563
0.34479 0.34466 0.34466 0.34506 0.34519 0.34665 0.34744 0.34731 0.3485 0.3485 0.3485 0.34784 0.34664 0.34664 0.34624 0.34465 0.34438 0.34412 0.34359 0.34345 0.34345 0.34305 0.34292 0.34266 0.34265 0.34239 0.34265 0.34358 0.34716 0.34716 0.34716 0.34729 0.34729 0.3457 0.34411 0.34503 0.34411 0.34278 0.34384 0.3441 0.34397 0.3441 0.34384 0.34384 0.3433 0.34304 0.34344 0.3441 0.3429 0.3429 0.33773 0.33733 0.3372 0.33707 0.3372 0.3372 0.33733 0.33759 0.33759 0.33733 0.33759 0.33759 0.33759 0.33759 0.33732 0.33732 0.33732 0.33732 0.33772 0.33772 0.33732 0.33719 0.33705 0.33705 0.33705 0.33665 0.33626 0.33493 0.33453 0.33453 0.33439 0.33439 0.33439 0.33426 0.33386 0.3336 0.3336 0.33359 0.33346 0.3332 0.33293 0.33306 0.33306 0.33306 0.33306 0.3324 0.33319 0.33505 0.33491 0.33505 0.33319 0.33239 0.33239 0.33266 0.33292 0.33319 0.33345 0.33318 0.33278 0.33265 0.33265 0.33239 0.33212 0.33185 0.33185 0.33198 0.33185 0.33185 0.33145 0.33119 0.33145 0.33145 0.33119 0.33132 0.33158 0.32813 0.32813 0.32906 0.32787 0.32826 0.32826 0.328 0.32786 0.32786 0.32786 0.32773 0.32773 0.32786 0.32773 0.32733 0.3272 0.3272 0.32706 0.32706 0.32719 0.32719 0.32719 0.32706 0.32732 0.32745 0.32838 0.32918 0.32957 0.32957 0.32984 0.32984 0.33037 0 0 0 0 0 0 0 0 0 0 0 0 0 0 0 0 0 0 0 0 0 0 0 0 0 0 0 0 0 0.17313 0.17313 0.17299 0.17273 0.17246 0.17193 0.17047 0.17047 0.16955 0.16941 0.16915 0.16835 0.16822 0.16822 0.16742 0.16676 0.16663 0.16649 0.16543 0.16543 0.1653 0.16397 0.16397 0.16318 0.16265 0.16265 0.16251 0.16172 0.16172 0.16158 0.16145 0.16145 0.16132 0.16132 0.16012 0.16012 0.15999 0.15999 0.1588 0.15867 0.15853 0.1584 0.15827 0.15774 0.15681 0.15681 0.15667 0.15641 0.15654 0.15628 0.15561 0.15561 0.15561 0.15561 0.15561 0.15535 0.15521 0.15508 0.15482 0.15468 0.15455 0.15428 0.15415 0.15402 0.15402 0.15388 0.15388 0.15375 0.15362 0.15362 0.15362 0.15349 0.15309 0.15322 0.15335 0.15309 0.15309 0.15282 0.15269 0.15255 0.15255 0.15242 0.15255 0.15242 0.15229 0.15216 0.15216 0.15216 0.15202 0.15176 0.15176 0.15162 0.15149 0.15149 0.15149 0.15136 0.15122 0.15096 0.15096 0.15083 0.15069 0.15082 0.15082 0.15082 0.15069 0.15069 0.15069 0.15082 0.15082 0.15109 0.15122 0.15109 0.15109 0.15109 0.15109 0.15122 0.15122 0.15122 0.15122 0.15095 0.15095 0.15082 0.15082 0.15095 0.15095 0.15095 0.15095 0.15095 0.15108 0.15108 0.15108 0.15108 0.15108 0.15108 0.15108 0.15121 0.15135 0.15148 0.15148 0.15161 0.15174 0.15187 0.15187 0.15201 0.15201 0.15201 0.152 0.15227 0.15227 0.1524 0.15253 0.15253 0.15253 0.15253 0.1528 0.1528 0.15293 0.1528 0.1528 0.15306 0.15293 0.15346 0.15346 0.15372 0.15372 0.15385 0.15412 0.15412 0.15412 0.15491 0.15518 0.15518 0.15571 0.15584
0.34496 0.34469 0.34495 0.34522 0.34482 0.34482 0.34469 0.34468 0.34468 0.34535 0.34535 0.34481 0.34415 0.34415 0.34375 0.34375 0.34375 0.34375 0.34348 0.34322 0.34322 0.34282 0.34242 0.34175 0.34175 0.34162 0.34175 0.34202 0.34202 0.34188 0.34281 0.34055 0.34042 0.3436 0.34321 0.34307 0.34175 0.34175 0.34174 0.34108 0.34095 0.34095 0.34042 0.33922 0.33935 0.33935 0.33935 0.33723 0.33709 0.33723 0.33722 0.33722 0.33722 0.33722 0.33709 0.33709 0.33722 0.33722 0.33735 0.33722 0.33735 0.33748 0.33735 0.33735 0.33735 0.33721 0.33721 0.33735 0.33748 0.33787 0.33708 0.33708 0.33681 0.33681 0.33681 0.33654 0.33376 0.33389 0.33402 0.33389 0.33389 0.33402 0.33402 0.33375 0.33336 0.33322 0.33335 0.33309 0.33309 0.33295 0.33282 0.33282 0.33295 0.33282 0.33255 0.33215 0.33202 0.33162 0.33162 0.33281 0.33202 0.33202 0.33202 0.33202 0.33241 0.33281 0.33294 0.33281 0.33241 0.33228 0.33228 0.33214 0.33174 0.33174 0.33161 0.33161 0.33148 0.33134 0.33121 0.33081 0.32789 0.32789 0.3263 0.3259 0.3259 0.3259 0.32616 0.32683 0.32709 0.32749 0.32749 0.32735 0.32735 0.32735 0.32722 0.32735 0.32722 0.32735 0.32735 0.32655 0.32642 0.32629 0.32642 0.32668 0.32668 0.32668 0.32655 0.32655 0.32668 0.32681 0.32681 0.32814 0.32641 0.32641 0.32986 0.32999 0.32999 0 0 0 0 0 0 0 0 0 0 0 0 0 0 0 0 0 0 0 0 0 0 0 0 0 0 0 0 0 0 0 0.17321 0.17254 0.17254 0.17201 0.17055 0.17055 0.16962 0.16936 0.16936 0.16883 0.16843 0.1683 0.16763 0.16697 0.16697 0.1667 0.16591 0.16591 0.16591 0.16591 0.16484 0.16378 0.16285 0.16285 0.16272 0.16219 0.16193 0.16179 0.16153 0.16153 0.16139 0.16139 0.16033 0.16033 0.16033 0.1602 0.15887 0.15887 0.15874 0.15861 0.15847 0.15781 0.15768 0.15754 0.15741 0.15701 0.15688 0.15675 0.15608 0.15608 0.15595 0.15568 0.15568 0.15542 0.15529 0.15515 0.15489 0.15475 0.15475 0.15436 0.15436 0.15422 0.15409 0.15409 0.15409 0.15409 0.15422 0.15422 0.15422 0.15422 0.15382 0.15369 0.15369 0.15356 0.15356 0.15289 0.15263 0.15263 0.15263 0.15249 0.15263 0.15263 0.15236 0.15236 0.15236 0.15223 0.15209 0.15183 0.15183 0.15183 0.15169 0.15169 0.15169 0.15156 0.15156 0.15143 0.15129 0.15116 0.15103 0.15103 0.15103 0.15103 0.1509 0.1509 0.15076 0.15089 0.15103 0.15116 0.15129 0.15129 0.15116 0.15116 0.15129 0.15142 0.15142 0.15129 0.15129 0.15102 0.15102 0.15102 0.15102 0.15102 0.15102 0.15102 0.15102 0.15102 0.15129 0.15129 0.15129 0.15142 0.15142 0.15128 0.15142 0.15155 0.15155 0.15168 0.15181 0.15194 0.15194 0.15208 0.15208 0.15221 0.15221 0.15221 0.15221 0.15207 0.1526 0.15274 0.15287 0.15287 0.153 0.15313 0.15313 0.1534 0.15353 0.15353 0.15366 0.15353 0.15353 0.15379 0.15379 0.15406 0.15406 0.15406 0.15432 0.15432 0.15432 0.15512 0.15578 0.15591 0.15591 0.15604
0.34432 0.34432 0.34445 0.34485 0.34445 0.34445 0.34445 0.34431 0.34418 0.34418 0.34431 0.34418 0.34325 0.34312 0.34298 0.34258 0.34245 0.34245 0.34245 0.34218 0.34218 0.34192 0.34152 0.33992 0.33992 0.33992 0.33965 0.33952 0.33965 0.33899 0.33899 0.33819 0.33832 0.33859 0.33806 0.33819 0.33859 0.33872 0.33938 0.33925 0.33885 0.33858 0.33805 0.33805 0.33805 0.33765 0.33725 0.33632 0.33619 0.33632 0.33632 0.33632 0.33659 0.33658 0.33658 0.33658 0.33671 0.33685 0.33671 0.33671 0.33685 0.33698 0.33684 0.33684 0.33698 0.33671 0.33684 0.33684 0.33724 0.3375 0.33657 0.33631 0.33617 0.33564 0.33551 0.33378 0.33378 0.33352 0.33338 0.33312 0.33298 0.33311 0.33272 0.33258 0.33232 0.33232 0.33232 0.33178 0.33165 0.33152 0.33019 0.33005 0.33258 0.33258 0.32926 0.32939 0.33071 0.32926 0.32819 0.32819 0.32806 0.32753 0.32753 0.32739 0.32673 0.32673 0.32673 0.32673 0.32752 0.32726 0.32739 0.32726 0.32725 0.32991 0.32977 0.32977 0.32937 0.32871 0.32871 0.32858 0.32751 0.32738 0.32672 0.32605 0.32592 0.32579 0.32578 0.32565 0.32605 0.32645 0.32658 0.32631 0.32631 0.32631 0.32604 0.32631 0.32631 0.32604 0.32604 0.32578 0.32578 0.32577 0.32577 0.32604 0.32604 0.32591 0.32591 0.32577 0.32577 0.32577 0.3259 0.32603 0.32603 0.32564 0.32577 0.32537 0.3255 0.32577 0 0 0 0 0 0 0 0 0 0 0 0 0 0 0 0 0 0 0 0 0 0 0 0 0 0 0 0 0 0 0 0 0 0.17196 0.17196 0.17209 0.17037 0.16957 0.1697 0.16891 0.16864 0.16851 0.16784 0.16745 0.16745 0.16665 0.16678 0.16625 0.16598 0.16598 0.16545 0.16413 0.16267 0.1628 0.16267 0.16227 0.162 0.16187 0.1616 0.1616 0.16067 0.16067 0.16067 0.16041 0.16041 0.16041 0.15934 0.15908 0.15881 0.15868 0.15868 0.15802 0.15775 0.15762 0.15748 0.15722 0.15709 0.15695 0.15655 0.15629 0.15615 0.15602 0.15589 0.15562 0.15549 0.15523 0.15496 0.15483 0.15483 0.15456 0.15443 0.15443 0.15429 0.15429 0.15429 0.15429 0.15429 0.15429 0.15429 0.15429 0.15403 0.15403 0.15389 0.15376 0.15389 0.15349 0.15283 0.15283 0.1527 0.15283 0.15283 0.15256 0.15243 0.15243 0.15243 0.1523 0.15216 0.15203 0.15203 0.15203 0.1519 0.1519 0.15176 0.15163 0.15163 0.1515 0.15136 0.15136 0.1511 0.1511 0.15123 0.1511 0.1511 0.15096 0.15096 0.1511 0.1511 0.15136 0.15136 0.15136 0.15136 0.15136 0.15136 0.15149 0.15149 0.15136 0.15136 0.15123 0.15109 0.15109 0.15109 0.15109 0.15109 0.15109 0.15109 0.15122 0.15136 0.15135 0.15135 0.15149 0.15135 0.15135 0.15162 0.15162 0.15175 0.15188 0.15188 0.15202 0.15215 0.15215 0.15228 0.15228 0.15228 0.15241 0.15241 0.15268 0.15294 0.15281 0.15294 0.15294 0.15307 0.15321 0.15334 0.15347 0.1536 0.1536 0.15387 0.15387 0.15387 0.154 0.154 0.15413 0.15426 0.15426 0.1544 0.15453 0.15466 0.15519 0.15572 0.15599 0.15599 0.15612
0.34408 0.34435 0.34448 0.34461 0.34434 0.34408 0.34408 0.34408 0.34434 0.34447 0.34447 0.34434 0.34328 0.34341 0.34288 0.34274 0.34274 0.34234 0.34168 0.34168 0.34194 0.34154 0.34168 0.33982 0.33955 0.33955 0.33942 0.33915 0.33902 0.33848 0.33848 0.33822 0.33782 0.33782 0.33768 0.33782 0.33808 0.33835 0.33901 0.33887 0.33848 0.33821 0.33781 0.33768 0.33768 0.33754 0.33648 0.33582 0.33581 0.33608 0.33581 0.33608 0.33621 0.33621 0.33634 0.33621 0.33647 0.33634 0.33634 0.33607 0.33607 0.3362 0.3362 0.33713 0.337 0.33687 0.337 0.33686 0.337 0.33766 0.33633 0.33646 0.3362 0.33566 0.33566 0.33367 0.33341 0.33341 0.33314 0.33287 0.33274 0.33287 0.33247 0.33234 0.33207 0.33207 0.33194 0.33154 0.33114 0.33087 0.33034 0.33021 0.33273 0.33273 0.32941 0.32954 0.33087 0.32941 0.32821 0.32781 0.32795 0.32755 0.32755 0.32741 0.32688 0.32688 0.32661 0.32688 0.32701 0.32701 0.32714 0.32701 0.32741 0.33006 0.32993 0.32993 0.3294 0.32886 0.32886 0.32873 0.32767 0.32767 0.32674 0.32581 0.32567 0.32567 0.3258 0.32594 0.3266 0.32647 0.3266 0.32593 0.32593 0.32593 0.3258 0.3258 0.32593 0.3258 0.32566 0.32553 0.32606 0.32579 0.32579 0.32593 0.32579 0.32566 0.32606 0.32566 0.32513 0.32526 0.32552 0.32565 0.32592 0.32592 0.32579 0.32565 0.32565 0.32578 0 0 0 0 0 0 0 0 0 0 0 0 0 0 0 0 0 0 0 0 0 0 0 0 0 0 0 0 0 0 0 0 0 0.17204 0.17204 0.17217 0.17045 0.16965 0.16978 0.16898 0.16859 0.16845 0.16819 0.16766 0.16752 0.16673 0.16673 0.16646 0.16606 0.16606 0.16553 0.1642 0.16274 0.16274 0.16248 0.16208 0.16208 0.16168 0.16168 0.16154 0.16075 0.16075 0.16075 0.16061 0.16048 0.16048 0.15942 0.15942 0.15889 0.15902 0.15875 0.15809 0.15782 0.15782 0.15769 0.15729 0.15716 0.15716 0.15676 0.15649 0.15649 0.15623 0.1561 0.15596 0.1557 0.1553 0.15516 0.15503 0.1549 0.15477 0.15463 0.15463 0.1545 0.1545 0.1545 0.1545 0.1545 0.1545 0.15436 0.15436 0.15436 0.15423 0.15423 0.1541 0.15396 0.15357 0.1529 0.15317 0.15317 0.15303 0.15303 0.15277 0.15263 0.15263 0.1525 0.1525 0.1521 0.15237 0.15237 0.15223 0.1521 0.1521 0.1521 0.15197 0.15197 0.1517 0.1517 0.15157 0.15117 0.15143 0.15143 0.15143 0.15117 0.15104 0.15117 0.15143 0.15143 0.15143 0.1513 0.1513 0.1517 0.1517 0.15156 0.1517 0.1517 0.15169 0.15156 0.15143 0.15143 0.15143 0.15143 0.15143 0.15143 0.15143 0.15143 0.15143 0.15143 0.15143 0.15143 0.15156 0.15143 0.15156 0.15182 0.15182 0.15196 0.15209 0.15209 0.15222 0.15222 0.15235 0.15248 0.15248 0.15248 0.15262 0.15262 0.15288 0.15288 0.15301 0.15315 0.15314 0.15314 0.15328 0.15328 0.15354 0.15367 0.15381 0.15407 0.15407 0.15407 0.1542 0.1542 0.15433 0.15447 0.15447 0.15473 0.15487 0.15486 0.15526 0.15579 0.15593 0.15606 0.15619
0.34398 0.34411 0.34451 0.34451 0.34397 0.34397 0.34357 0.3437 0.3441 0.34052 0.34052 0.3437 0.34025 0.34038 0.34064 0.33985 0.33985 0.34091 0.34104 0.34117 0.34144 0.33838 0.33838 0.33891 0.33904 0.33918 0.33891 0.33864 0.33851 0.33798 0.33798 0.33771 0.33731 0.33718 0.33691 0.33731 0.33757 0.33784 0.33837 0.33837 0.33797 0.33784 0.3373 0.33717 0.33757 0.3373 0.3365 0.33531 0.33557 0.33557 0.3357 0.33557 0.3357 0.33597 0.33597 0.33597 0.33597 0.33597 0.33583 0.33517 0.3353 0.33516 0.3353 0.3349 0.33437 0.3341 0.33423 0.3341 0.3341 0.33423 0.33357 0.3337 0.33356 0.33263 0.33263 0.33303 0.33303 0.33303 0.33276 0.33263 0.33276 0.33263 0.3321 0.33196 0.33196 0.33196 0.33183 0.3309 0.3305 0.33023 0.32877 0.3289 0.32757 0.32757 0.32863 0.3281 0.3281 0.32797 0.32783 0.3277 0.32783 0.3273 0.32717 0.3273 0.3269 0.32677 0.32677 0.32663 0.32663 0.3269 0.3269 0.3269 0.32663 0.32636 0.32676 0.32623 0.3261 0.32596 0.32609 0.3257 0.32516 0.32516 0.3253 0.32543 0.32529 0.32516 0.3233 0.3233 0.32303 0.3229 0.32516 0.32542 0.32569 0.32542 0.32529 0.32529 0.32542 0.32542 0.32528 0.32502 0.32462 0.32302 0.32302 0.32581 0.32515 0.32515 0.32608 0.32528 0.32475 0.32475 0.32488 0.32541 0.32581 0.32594 0.32581 0.3258 0.3258 0.3262 0.32673 0.32673 0 0 0 0 0 0 0 0 0 0 0 0 0 0 0 0 0 0 0 0 0 0 0 0 0 0 0.17411 0.17411 0.17398 0.17385 0.17371 0.17332 0.17345 0.17292 0.17039 0.16973 0.16986 0.16933 0.1684 0.1684 0.16813 0.16773 0.16747 0.16707 0.16694 0.1668 0.1668 0.1668 0.16627 0.16415 0.16335 0.16335 0.16282 0.16282 0.16242 0.16175 0.16175 0.16162 0.16082 0.16082 0.16082 0.16069 0.16069 0.16056 0.16016 0.16016 0.15936 0.15923 0.15936 0.15816 0.1579 0.15776 0.15776 0.15737 0.15723 0.15723 0.15683 0.1567 0.15657 0.15643 0.1563 0.15617 0.15617 0.1555 0.15524 0.15524 0.1551 0.15484 0.1547 0.1547 0.15457 0.15457 0.15457 0.15457 0.15457 0.15457 0.15457 0.15444 0.15444 0.15443 0.15443 0.1543 0.1543 0.1539 0.15337 0.15337 0.15337 0.15324 0.15324 0.15297 0.15284 0.15271 0.15271 0.15284 0.15257 0.15257 0.15244 0.15244 0.1523 0.1523 0.1523 0.15217 0.15217 0.15191 0.15191 0.1519 0.15177 0.15164 0.15164 0.15164 0.15164 0.15137 0.1515 0.1515 0.15164 0.15177 0.15217 0.1519 0.1519 0.15177 0.15177 0.1519 0.1519 0.15177 0.15177 0.15163 0.15163 0.15163 0.15163 0.15163 0.15163 0.15163 0.15163 0.15163 0.15163 0.15163 0.1515 0.1515 0.1515 0.15163 0.15189 0.15189 0.15203 0.15216 0.15216 0.15229 0.15242 0.15242 0.15255 0.15269 0.15269 0.15269 0.15269 0.15282 0.15295 0.15308 0.15308 0.15308 0.15322 0.15335 0.15335 0.15361 0.15361 0.15388 0.15414 0.15414 0.15414 0.15427 0.15427 0.15441 0.15454 0.15467 0.1548 0.15494 0.15507 0.15534 0.156 0.15613 0.15613 0.15626
0.34055 0.34015 0.34015 0.33975 0.33948 0.33975 0.33948 0.33788 0.33788 0.33549 0.33536 0.33549 0.33615 0.33642 0.33801 0.33814 0.33814 0.33814 0.33841 0.33947 0.33907 0.33814 0.33814 0.33801 0.33787 0.33787 0.33774 0.33734 0.33534 0.33521 0.33601 0.33601 0.33574 0.33574 0.33534 0.33547 0.33534 0.33574 0.33614 0.3364 0.33653 0.33746 0.33746 0.33361 0.33374 0.33573 0.3336 0.334 0.334 0.33427 0.3344 0.334 0.33426 0.3344 0.33453 0.33453 0.33453 0.33466 0.33453 0.33426 0.33399 0.33386 0.33386 0.33372 0.33359 0.32947 0.32947 0.32894 0.32801 0.32787 0.3296 0.3296 0.33133 0.33119 0.33119 0.32946 0.3292 0.32946 0.33106 0.33132 0.33212 0.33185 0.33079 0.33065 0.33052 0.32999 0.32919 0.32866 0.32892 0.32866 0.32812 0.32786 0.32746 0.32719 0.32719 0.32732 0.32719 0.32719 0.32706 0.32692 0.32705 0.32679 0.32652 0.32679 0.32639 0.32612 0.32586 0.32559 0.32545 0.32545 0.32559 0.32545 0.32545 0.32545 0.32545 0.32545 0.32505 0.32306 0.32306 0.32399 0.32425 0.32412 0.32412 0.32398 0.32372 0.32372 0.32305 0.32292 0.32292 0.32278 0.32371 0.32159 0.32172 0.32172 0.32172 0.32238 0.32079 0.32078 0.32185 0.32132 0.32158 0.32118 0.32065 0.32065 0.32051 0.32051 0.32065 0.32065 0.32065 0.32091 0.32117 0.32131 0.3233 0.3233 0.32489 0.32516 0.32556 0.32635 0.32688 0.32688 0 0 0 0 0 0 0 0 0 0 0 0 0 0 0 0 0 0 0 0 0 0 0 0 0 0 0.17419 0.17419 0.17419 0.17406 0.17393 0.17353 0.1734 0.173 0.16994 0.16981 0.16981 0.16954 0.16861 0.16848 0.16834 0.16781 0.16755 0.16715 0.16701 0.16701 0.16688 0.16675 0.16661 0.16422 0.16329 0.16329 0.16316 0.16276 0.16263 0.16183 0.16183 0.1617 0.1609 0.1609 0.16076 0.16076 0.16063 0.16063 0.16036 0.16023 0.15943 0.15943 0.15943 0.15824 0.15797 0.15797 0.1577 0.15744 0.15731 0.15717 0.15664 0.15664 0.15664 0.15651 0.15651 0.15624 0.15624 0.15557 0.15544 0.15544 0.15531 0.15478 0.15491 0.15478 0.15478 0.15464 0.15464 0.15464 0.15464 0.15464 0.15464 0.15464 0.15451 0.15451 0.15451 0.15437 0.15424 0.15371 0.15358 0.15344 0.15344 0.15331 0.15331 0.15304 0.15291 0.15291 0.15291 0.15278 0.15278 0.15264 0.15264 0.15264 0.15251 0.15251 0.15251 0.15238 0.15238 0.15211 0.15211 0.15211 0.15197 0.15197 0.15184 0.15184 0.15184 0.15171 0.15157 0.15171 0.15184 0.15197 0.1521 0.1521 0.15197 0.15197 0.15184 0.15184 0.15184 0.15184 0.15184 0.15184 0.15184 0.15183 0.15183 0.15183 0.15183 0.15183 0.15183 0.15183 0.15183 0.15183 0.1517 0.1517 0.1517 0.1517 0.15196 0.1521 0.1521 0.15223 0.15223 0.15249 0.15249 0.15263 0.15276 0.15276 0.15276 0.15276 0.15289 0.15302 0.15302 0.15316 0.15316 0.15329 0.15329 0.15342 0.15342 0.15342 0.15342 0.15329 0.15329 0.15408 0.15408 0.15421 0.15435 0.15448 0.15448 0.15461 0.15488 0.15501 0.15514 0.15554 0.15554 0.15554 0.15634 0.15634
0.34084 0.34031 0.34031 0.33991 0.33964 0.3399 0.33964 0.33804 0.33804 0.33565 0.33551 0.33551 0.33564 0.33657 0.33817 0.3383 0.3383 0.3383 0.33857 0.33896 0.33896 0.3383 0.33803 0.33763 0.33736 0.33736 0.33696 0.33749 0.3355 0.33523 0.3355 0.33537 0.33523 0.33523 0.33483 0.3351 0.33523 0.33536 0.33549 0.33549 0.33589 0.33749 0.33762 0.33376 0.33389 0.33589 0.33389 0.33376 0.33402 0.33362 0.33376 0.33362 0.33376 0.33389 0.33402 0.33415 0.33415 0.33415 0.33442 0.33415 0.33388 0.33388 0.33375 0.33388 0.33321 0.32962 0.32936 0.32909 0.32816 0.32816 0.32882 0.32975 0.33148 0.33135 0.33015 0.32975 0.32935 0.32988 0.33041 0.33121 0.33214 0.33121 0.33121 0.33041 0.33041 0.33014 0.32934 0.32841 0.32828 0.32815 0.32748 0.32735 0.32721 0.32695 0.32708 0.32721 0.32734 0.32721 0.32694 0.32641 0.32641 0.32667 0.32654 0.32667 0.32614 0.32614 0.32548 0.32508 0.32494 0.32494 0.32507 0.32507 0.32494 0.32494 0.32507 0.32494 0.32467 0.324 0.32334 0.3236 0.3236 0.3236 0.3236 0.3232 0.3232 0.32307 0.3228 0.3228 0.32254 0.32293 0.32386 0.32174 0.32187 0.32187 0.32187 0.32253 0.32094 0.32094 0.322 0.32147 0.32173 0.32133 0.3208 0.32027 0.32027 0.32027 0.32053 0.32026 0.32026 0.32079 0.32079 0.32132 0.32345 0.32345 0.32451 0.32558 0.32558 0.3269 0 0 0 0 0 0 0 0 0 0 0 0 0 0 0 0 0 0 0 0 0 0 0 0 0 0 0 0 0.17428 0.17428 0.17428 0.17428 0.17414 0.17388 0.17374 0 0.17002 0.16989 0.16989 0.16949 0.16869 0.16856 0.16842 0.16802 0.16802 0.16776 0.16736 0.16722 0.16696 0.16696 0.16696 0.1643 0.16337 0.16337 0.1631 0.16297 0.16284 0.16204 0.1619 0.1619 0.16097 0.16097 0.16084 0.16084 0.1607 0.1607 0.16044 0.16044 0.15977 0.15977 0.15977 0.15964 0.15898 0.15911 0.15844 0.15844 0.15844 0.15831 0.15671 0.15685 0.15685 0.15685 0.15685 0.15631 0.15631 0.15591 0.15578 0.15565 0.15565 0.15512 0.15511 0.15498 0.15511 0.15498 0.15498 0.15498 0.15498 0.15485 0.15485 0.15471 0.15471 0.15471 0.15471 0.15431 0.15431 0.15378 0.15365 0.15351 0.15351 0.15338 0.15338 0.15325 0.15311 0.15298 0.15298 0.15298 0.15298 0.15285 0.15285 0.15285 0.15271 0.15271 0.15271 0.15271 0.15258 0.15231 0.15231 0.15231 0.15231 0.15218 0.15218 0.15205 0.15204 0.15204 0.15204 0.15204 0.15204 0.15218 0.15218 0.15218 0.15218 0.15204 0.15191 0.15191 0.15191 0.15191 0.15191 0.15191 0.15204 0.15204 0.15191 0.15204 0.15204 0.15217 0.1523 0.15217 0.15217 0.15217 0.15217 0.15217 0.15217 0.15217 0.15204 0.1523 0.15243 0.1523 0.15243 0.1527 0.15283 0.15283 0.15296 0.15296 0.15296 0.15296 0.15309 0.15323 0.15323 0.15323 0.15336 0.15336 0.15336 0.15349 0.15336 0.15336 0.15336 0.15336 0.15336 0.15415 0.15415 0.15429 0.15442 0.15455 0.15468 0.15482 0.15508 0.15508 0.15521 0.15561 0.15561 0.15561 0.15654 0.15654
0.33714 0.33847 0.33621 0.3362 0.33847 0.33847 0.33674 0.33634 0.3362 0.3354 0.3354 0.3354 0.33553 0.33474 0.33487 0.33527 0.33526 0.3354 0.33553 0.33846 0.33832 0.33806 0.33766 0.33739 0.33686 0.33672 0.33646 0.33579 0.33433 0.33486 0.33499 0.33499 0.33486 0.33486 0.33472 0.33472 0.33485 0.33498 0.33498 0.33485 0.33325 0.33312 0.33259 0.33219 0.33192 0.33099 0.33059 0.33032 0.33192 0.33271 0.33298 0.33311 0.33338 0.33338 0.33351 0.33404 0.33417 0.33417 0.33404 0.33404 0.33391 0.33377 0.3335 0.33337 0.32925 0.32938 0.32938 0.32898 0.32818 0.32831 0.32858 0.32844 0.32951 0.32897 0.32951 0.32937 0.32937 0.32977 0.33004 0.32937 0.32924 0.3283 0.32777 0.32804 0.3275 0.32764 0.32737 0.32764 0.32763 0.3275 0.3271 0.3271 0.32683 0.32657 0.32617 0.32417 0.32404 0.32377 0.32377 0.32576 0.32576 0.32443 0.32443 0.32416 0.32403 0.32416 0.32363 0.32443 0.32429 0.32429 0.32443 0.32443 0.32429 0.32429 0.32429 0.32429 0.32402 0.32362 0.32309 0.32322 0.32296 0.32309 0.32309 0.32295 0.32269 0.32269 0.32242 0.32229 0.32215 0.32122 0.32122 0.32122 0.32122 0.31949 0.31869 0.31882 0.31816 0.31816 0.31816 0.31869 0.31869 0.31882 0.31962 0.32002 0.32001 0.32001 0.31988 0.31988 0.31988 0.32015 0.32001 0.31828 0.31841 0.31748 0.31761 0.31655 0.31655 0 0 0 0 0 0 0 0 0 0 0 0 0 0 0 0 0 0 0 0 0 0 0 0 0 0 0 0 0 0.17436 0.17436 0.17436 0.17436 0.17409 0.17396 0.17396 0.17396 0.1701 0.16997 0.16983 0.1697 0.1689 0.16877 0.16863 0.16823 0.1681 0.1677 0.16757 0.1673 0.16704 0.16704 0.16597 0.16597 0.16597 0.16398 0.16318 0.16304 0.16278 0.16225 0.16211 0.16198 0.16091 0.16105 0.16091 0.16078 0.16078 0.16078 0.16051 0.16051 0.15985 0.15985 0.15985 0.15971 0.15878 0.15878 0.15865 0.15852 0.15852 0.15838 0.15838 0.15718 0.15705 0.15718 0.15718 0.15652 0.15652 0.15612 0.15585 0.15585 0.15585 0.15572 0.15572 0.15559 0.15532 0.15519 0.15518 0.15518 0.15505 0.15492 0.15492 0.15492 0.15478 0.15478 0.15478 0.15425 0.15425 0.15385 0.15359 0.15359 0.15358 0.15345 0.15345 0.15332 0.15318 0.15318 0.15318 0.15318 0.15318 0.15305 0.15305 0.15292 0.15292 0.15292 0.15292 0.15278 0.15265 0.15238 0.15238 0.15238 0.15238 0.15238 0.15225 0.15225 0.15225 0.15212 0.15211 0.15211 0.15211 0.15225 0.15225 0.15225 0.15211 0.15211 0.15198 0.15198 0.15185 0.15198 0.15198 0.15198 0.15211 0.15211 0.15198 0.15211 0.15224 0.15224 0.15237 0.15237 0.15237 0.15237 0.15237 0.15237 0.15237 0.15237 0.15251 0.15277 0.1525 0.1525 0.1525 0.15277 0.1529 0.15303 0.15317 0.15317 0.15317 0.15317 0.15317 0.1533 0.1533 0.15343 0.15343 0.15343 0.15343 0.15356 0.15343 0.15343 0.15343 0.15343 0.15343 0.15409 0.15409 0.15436 0.15449 0.15462 0.15476 0.15489 0.15515 0.15529 0.15542 0.15568 0.15568 0.15582 0.15661 0.15661
0.33557 0.33623 0.33556 0.3357 0.33543 0.33516 0.33596 0.33583 0.33569 0.33543 0.33503 0.33489 0.33489 0.33489 0.33489 0.33489 0.33502 0.33489 0.33449 0.33515 0.33395 0.33395 0.33622 0.33329 0.33196 0.33195 0.33182 0.32969 0.32956 0.32916 0.32929 0.32929 0.32929 0.32929 0.33022 0.32995 0.32995 0.33328 0.33394 0.33394 0.33048 0.33048 0.33048 0.33101 0.33074 0.33034 0.33008 0.33008 0.33034 0.32994 0.33234 0.33114 0.33034 0.33047 0.33047 0.33393 0.33393 0.33406 0.33406 0.33393 0.32993 0.32993 0.33313 0.33313 0.3294 0.32873 0.32847 0.3282 0.3274 0.32727 0.32727 0.3266 0.3282 0.3282 0.32833 0.32873 0.32899 0.32899 0.32912 0.32846 0.32793 0.32686 0.32726 0.32699 0.32672 0.32646 0.32646 0.32592 0.32606 0.32592 0.32552 0.32539 0.32552 0.32499 0.32486 0.32445 0.32392 0.32379 0.32392 0.32432 0.32432 0.32392 0.32392 0.32365 0.32365 0.32365 0.32352 0.32338 0.32338 0.32311 0.32311 0.32285 0.32285 0.32285 0.32271 0.32271 0.32271 0.32271 0.32231 0.32231 0.32218 0.32217 0.32231 0.32217 0.32217 0.32217 0.32177 0.32164 0.32137 0.3211 0.32084 0.32097 0.32017 0.31977 0.31857 0.31844 0.31817 0.31817 0.31817 0.3183 0.31844 0.3187 0.3187 0.31883 0.31897 0.31897 0.31896 0.31883 0.3187 0.3187 0.3187 0.31843 0.31816 0.31776 0.31696 0.31656 0.3163 0.3163 0 0 0 0 0 0 0 0 0 0 0 0 0 0 0 0 0 0 0 0 0 0 0 0 0.18069 0.18069 0 0 0.17444 0.17444 0.17457 0.17457 0.17417 0.17404 0.17404 0.17404 0.17018 0.17005 0.17004 0.16951 0.16871 0.16885 0.16858 0.16831 0.16831 0.16778 0.16778 0.16711 0.16698 0.16685 0.16605 0.16512 0.16512 0.16405 0.16325 0.16325 0.16285 0.16232 0.16219 0.16205 0.16099 0.16112 0.16099 0.16085 0.16085 0.16085 0.16072 0.16059 0.15992 0.15992 0.15992 0.15979 0.15886 0.15886 0.15886 0.15859 0.15859 0.15846 0.15846 0.15726 0.15726 0.15726 0.15739 0.15659 0.15659 0.15619 0.15606 0.15606 0.15593 0.15579 0.15579 0.15566 0.15539 0.15539 0.15539 0.15539 0.15526 0.15512 0.15499 0.15499 0.15499 0.15486 0.15486 0.15432 0.15432 0.15392 0.15366 0.15366 0.15366 0.15352 0.15352 0.15339 0.15326 0.15326 0.15326 0.15326 0.15326 0.15326 0.15312 0.15312 0.15312 0.15312 0.15312 0.15299 0.15285 0.15245 0.15245 0.15245 0.15245 0.15245 0.15232 0.15232 0.15232 0.15219 0.15218 0.15232 0.15218 0.15218 0.15218 0.15232 0.15218 0.15205 0.15205 0.15205 0.15192 0.15192 0.15205 0.15205 0.15205 0.15205 0.15205 0.15205 0.15218 0.15231 0.15244 0.15244 0.15244 0.15244 0.15244 0.15258 0.15258 0.15258 0.15258 0.15271 0.15271 0.15257 0.15271 0.15297 0.15297 0.15311 0.15324 0.15324 0.15324 0.15337 0.15337 0.1535 0.1535 0.1535 0.15363 0.15363 0.15363 0.15377 0.15363 0.1535 0.1535 0.1535 0.1535 0.15416 0.1543 0.15443 0.15456 0.15456 0.15496 0.15496 0.15523 0.15563 0.15562 0.15576 0.15589 0.15589 0.15669 0.15669
0.33585 0.33585 0.33572 0.33559 0.33559 0.33559 0.33598 0.33558 0.33532 0.33518 0.33505 0.33492 0.33491 0.33491 0.33491 0.33491 0.33491 0.33464 0.33491 0.33464 0.33424 0.33411 0.33637 0.33344 0.33211 0.33198 0.33184 0.33064 0.32971 0.32958 0.32931 0.32944 0.32944 0.32971 0.3301 0.3301 0.3301 0.33357 0.33343 0.3337 0.33063 0.3305 0.3305 0.33037 0.33023 0.3301 0.32956 0.3297 0.3297 0.32983 0.33049 0.33049 0.33036 0.33049 0.33062 0.33409 0.33435 0.33422 0.33422 0.33382 0.33009 0.33009 0.33328 0.33328 0.32955 0.32835 0.32795 0.32769 0.32689 0.32675 0.32662 0.32662 0.32755 0.32755 0.32755 0.32848 0.32861 0.32888 0.32874 0.32794 0.32808 0.32701 0.32674 0.32661 0.32608 0.32581 0.32568 0.32554 0.32541 0.32541 0.32488 0.32487 0.32474 0.32461 0.32434 0.32434 0.32381 0.32381 0.32381 0.3238 0.3238 0.3238 0.32367 0.32367 0.32353 0.32367 0.32353 0.32327 0.3234 0.32273 0.32273 0.3226 0.32246 0.32233 0.32233 0.32233 0.32233 0.32233 0.32219 0.32193 0.32193 0.32193 0.32232 0.32219 0.32232 0.32219 0.32179 0.32152 0.32126 0.32099 0.32059 0.32059 0.32072 0.31979 0.31846 0.31832 0.31792 0.31819 0.31819 0.31819 0.31832 0.31858 0.31845 0.31858 0.31872 0.31858 0.31858 0.31858 0.31831 0.31831 0.31831 0.31818 0.31791 0.31765 0.31698 0.31671 0.31631 0.31644 0 0 0 0 0 0 0 0 0 0 0 0 0 0 0 0 0 0 0 0 0 0 0 0 0.18078 0.18078 0 0 0 0 0 0 0.17425 0.17399 0.17412 0.17412 0.17425 0.17052 0.17052 0.16972 0.16879 0.16892 0.16853 0.16852 0.16852 0.16812 0.16812 0.16719 0.16692 0.16692 0.16692 0.16519 0.16519 0.16439 0.16426 0.16413 0.16293 0.1624 0.16226 0.16226 0.1616 0.1616 0.16133 0.16106 0.16106 0.16093 0.1608 0.1608 0.16 0.16 0.16 0.16 0.15893 0.15893 0.15893 0.1588 0.1588 0.15866 0.15853 0.15746 0.1576 0.1576 0.1576 0.1572 0.15706 0.15626 0.15626 0.15626 0.15626 0.15613 0.156 0.15586 0.15573 0.1556 0.1556 0.15546 0.15533 0.1552 0.15519 0.15506 0.15493 0.15493 0.15493 0.15493 0.15479 0.15466 0.15386 0.15399 0.15386 0.15373 0.15359 0.15346 0.15346 0.15333 0.15333 0.15346 0.15346 0.15346 0.15333 0.15332 0.15332 0.15332 0.15332 0.15332 0.15319 0.15266 0.15266 0.15266 0.15252 0.15252 0.15252 0.15239 0.15239 0.15239 0.15239 0.15239 0.15226 0.15226 0.15226 0.15225 0.15225 0.15212 0.15199 0.15199 0.15199 0.15199 0.15212 0.15212 0.15212 0.15212 0.15212 0.15212 0.15225 0.15238 0.15252 0.15265 0.15265 0.15265 0.15265 0.15278 0.15278 0.15278 0.15278 0.15291 0.15304 0.15304 0.15304 0.15318 0.15331 0.15331 0.15344 0.15331 0.15331 0.15344 0.15344 0.15357 0.15357 0.15357 0.15371 0.15371 0.15371 0.15397 0.15384 0.15371 0.1537 0.1537 0.15357 0.1545 0.1545 0.15463 0.15477 0.15503 0.15517 0.15543 0.1557 0.15583 0.15596 0.1561 0.1561 0.1561 0.15676 0.15689
0.33548 0.33534 0.33361 0.33481 0.33468 0.33481 0.33507 0.33467 0.33467 0.33481 0.33467 0.3348 0.33467 0.3348 0.33467 0.3348 0.33467 0.33453 0.33453 0.3344 0.334 0.33266 0.3328 0.33027 0.33026 0.3312 0.3312 0.3304 0.32986 0.3296 0.32933 0.32946 0.32946 0.32959 0.32986 0.32999 0.32972 0.33039 0.33026 0.33212 0.32972 0.33039 0.33052 0.33039 0.33025 0.32985 0.32958 0.32958 0.32972 0.32972 0.32998 0.32985 0.32985 0.32971 0.32851 0.32851 0.32825 0.32718 0.32718 0.32678 0.32531 0.32531 0.32531 0.32558 0.32704 0.32717 0.32757 0.32717 0.32677 0.32637 0.32624 0.32624 0.3253 0.32504 0.32504 0.3253 0.32504 0.3249 0.3249 0.32503 0.3257 0.32556 0.3261 0.32596 0.3257 0.32516 0.32503 0.32503 0.32503 0.32489 0.32463 0.32463 0.32462 0.32422 0.32409 0.32396 0.32382 0.32382 0.32382 0.32382 0.32395 0.32382 0.32382 0.32369 0.32355 0.32368 0.32355 0.32342 0.32302 0.32301 0.32261 0.32235 0.32235 0.32208 0.32208 0.32195 0.32194 0.32181 0.32181 0.32168 0.32168 0.32154 0.32167 0.31928 0.31928 0.32061 0.31954 0.32061 0.32074 0.32047 0.32034 0.32034 0.31914 0.31794 0.31807 0.31794 0.3178 0.3178 0.3178 0.3178 0.3178 0.31807 0.31793 0.31846 0.31833 0.31833 0.31833 0.31833 0.31806 0.31793 0.31793 0.31793 0.31766 0.31739 0.31699 0.31646 0.31633 0.31619 0 0 0 0 0 0 0 0 0 0 0 0 0 0 0 0 0 0 0 0 0 0 0 0 0.18073 0.18073 0.18073 0.18073 0 0 0 0 0.17433 0.1742 0.1742 0.1742 0.17353 0.17353 0.17127 0.1698 0.1698 0.1698 0.16874 0.1686 0.1686 0.16834 0.1682 0.1674 0.16714 0.167 0.167 0.165 0.165 0.16447 0.16434 0.16447 0.16434 0.16274 0.16274 0.16207 0.16207 0.16207 0.16127 0.16114 0.16114 0.161 0.161 0.161 0.1606 0.1602 0.1602 0.16007 0.15927 0.15914 0.15914 0.159 0.159 0.15874 0.15874 0.15794 0.15767 0.15767 0.15767 0.15727 0.15727 0.15687 0.1566 0.15647 0.15634 0.15634 0.1562 0.15607 0.1558 0.1558 0.1558 0.15554 0.15553 0.15527 0.15527 0.15513 0.155 0.155 0.155 0.15487 0.15487 0.15473 0.15433 0.1542 0.15407 0.1538 0.15367 0.15353 0.15353 0.15353 0.1534 0.15353 0.15353 0.15353 0.1534 0.1534 0.1534 0.15353 0.1534 0.1534 0.1534 0.15286 0.15286 0.15286 0.15273 0.15273 0.15259 0.15259 0.15259 0.15246 0.15259 0.15259 0.15233 0.15233 0.15246 0.15246 0.15246 0.15232 0.15219 0.15219 0.15206 0.15206 0.15219 0.15219 0.15219 0.15219 0.15219 0.15232 0.15245 0.15259 0.15272 0.15272 0.15272 0.15272 0.15272 0.15285 0.15298 0.15298 0.15298 0.15312 0.15312 0.15312 0.15312 0.15325 0.15338 0.15338 0.15351 0.15338 0.15338 0.15351 0.15351 0.15365 0.15365 0.15365 0.15378 0.15378 0.15378 0.15404 0.15391 0.15378 0.15378 0.15378 0.15404 0.15457 0.15457 0.15471 0.15484 0.15524 0.15537 0.1555 0.15577 0.1559 0.15604 0.15643 0.15683 0.15683 0.1571 0.1571
0.33457 0.33417 0.33337 0.3331 0.33323 0.3331 0.3331 0.3331 0.33309 0.33323 0.33323 0.33363 0.33376 0.33403 0.33389 0.33389 0.33376 0.33336 0.33336 0.33362 0.33335 0.33242 0.33162 0.33082 0.33042 0.33042 0.33002 0.32975 0.32948 0.32922 0.32895 0.32908 0.32841 0.32921 0.32975 0.32975 0.32988 0.33054 0.33041 0.33227 0.32987 0.32987 0.33054 0.33041 0.32947 0.32894 0.32881 0.3288 0.3288 0.32894 0.32893 0.3288 0.3292 0.32893 0.32867 0.32773 0.32747 0.32733 0.32733 0.32693 0.32533 0.3252 0.32533 0.32586 0.32613 0.32613 0.32613 0.32586 0.32572 0.32546 0.32532 0.32506 0.32506 0.32492 0.32465 0.32479 0.32412 0.32519 0.32505 0.32518 0.32465 0.32478 0.32465 0.32465 0.32425 0.32398 0.32371 0.32398 0.32411 0.32411 0.32384 0.32384 0.32398 0.32384 0.32384 0.32384 0.32371 0.32371 0.32371 0.32371 0.32384 0.3237 0.3237 0.32357 0.32357 0.32357 0.32357 0.32303 0.3229 0.3225 0.3221 0.32197 0.32143 0.32143 0.3213 0.32103 0.32129 0.32103 0.32089 0.32076 0.32076 0.32049 0.32036 0.31943 0.31942 0.31996 0.31956 0.31942 0.31942 0.32022 0.32009 0.31942 0.31929 0.31809 0.31755 0.31768 0.31755 0.31742 0.31755 0.31755 0.31728 0.31741 0.31781 0.31755 0.31768 0.31741 0.31741 0.31728 0.31714 0.31728 0.31714 0.31727 0.31714 0.31647 0.31714 0.31634 0.31634 0.31634 0 0 0 0 0 0 0 0 0 0 0 0 0 0 0 0 0 0 0 0 0 0 0 0 0.18081 0.18081 0.18081 0.18081 0 0 0 0 0.17441 0.17428 0.17401 0.17401 0.17361 0.17361 0.17135 0.16988 0.17001 0.17001 0.16881 0.16881 0.16855 0.16828 0.16828 0.16748 0.16735 0.16721 0.16708 0.16508 0.16481 0.16468 0.16455 0.16455 0.16441 0.16281 0.16281 0.16215 0.16215 0.16215 0.16135 0.16135 0.16121 0.16121 0.16108 0.16095 0.16081 0.16054 0.16041 0.16028 0.15934 0.15934 0.15921 0.15934 0.15921 0.15881 0.15881 0.15788 0.15774 0.15761 0.15761 0.15734 0.15721 0.15708 0.15668 0.15668 0.15654 0.15641 0.15641 0.15627 0.15601 0.15587 0.15587 0.15574 0.15561 0.15547 0.15534 0.15521 0.15507 0.15507 0.15507 0.15494 0.15494 0.1548 0.15454 0.1544 0.15414 0.15414 0.15374 0.15374 0.1536 0.1536 0.1536 0.1536 0.1536 0.1536 0.15347 0.15347 0.1536 0.1536 0.1536 0.1536 0.15347 0.15293 0.15293 0.15293 0.1528 0.1528 0.1528 0.15266 0.15266 0.15266 0.15266 0.1528 0.15253 0.15253 0.15253 0.15253 0.15253 0.1524 0.15226 0.15213 0.15213 0.15226 0.15226 0.15226 0.15226 0.15226 0.15226 0.15239 0.15252 0.15279 0.15292 0.15292 0.15292 0.15292 0.15292 0.15292 0.15306 0.15319 0.15319 0.15332 0.15332 0.15319 0.15332 0.15332 0.15345 0.15345 0.15345 0.15345 0.15345 0.15345 0.15358 0.15358 0.15372 0.15372 0.15372 0.15372 0.15385 0.15398 0.15398 0.15385 0.15385 0.15398 0.15425 0.15451 0.15465 0.15491 0.15504 0.15531 0.15544 0.15558 0.15598 0.15611 0.15611 0.15651 0.15664 0.15704 0.15717 0.15731
0.33459 0.33405 0.33299 0.33259 0.33272 0.33259 0.33245 0.33245 0.33245 0.33245 0.33245 0.33311 0.33338 0.33351 0.33338 0.33351 0.33324 0.33298 0.33298 0.33324 0.33324 0.33191 0.33137 0.33084 0.33057 0.33031 0.33017 0.32964 0.3291 0.32897 0.32883 0.32897 0.3279 0.32763 0.3271 0.3271 0.3271 0.32736 0.32736 0.33149 0.32763 0.32789 0.32763 0.32789 0.32896 0.32842 0.32829 0.32842 0.32856 0.32855 0.32855 0.32829 0.32802 0.32642 0.32642 0.32722 0.32695 0.32508 0.32495 0.32508 0.32508 0.32521 0.32535 0.32548 0.32534 0.32561 0.32534 0.32534 0.32521 0.32521 0.32494 0.32494 0.32481 0.32454 0.32427 0.32427 0.32387 0.32347 0.3212 0.32107 0.324 0.32413 0.32413 0.324 0.32387 0.32347 0.32333 0.32373 0.32386 0.32386 0.32386 0.32386 0.32386 0.32386 0.32372 0.32386 0.32386 0.32372 0.32372 0.32372 0.32386 0.32372 0.32372 0.32345 0.32345 0.32372 0.32332 0.32305 0.32278 0.32225 0.32185 0.32211 0.32118 0.32091 0.32078 0.32078 0.32078 0.32091 0.32078 0.32051 0.32051 0.32024 0.31984 0.31931 0.31944 0.31944 0.31944 0.31917 0.3189 0.3181 0.3181 0.31783 0.31557 0.31557 0.3149 0.3149 0.31437 0.3145 0.31436 0.31423 0.31436 0.3145 0.31676 0.31716 0.31743 0.31743 0.31729 0.31689 0.31676 0.31676 0.31676 0.31689 0.31676 0.31609 0.31422 0.31435 0.31395 0.31395 0 0 0 0 0 0 0 0 0 0 0 0 0 0 0 0 0 0 0 0 0 0 0 0 0.18076 0.18076 0.18076 0.18076 0 0 0 0.17396 0.17409 0.17383 0.17383 0.17396 0.17316 0.17316 0.17143 0.17049 0.17036 0.17023 0.16943 0.16943 0.16876 0.16836 0.16836 0.16756 0.16756 0.16756 0.16676 0.16502 0.16489 0.16476 0.16476 0.16476 0.16409 0.16369 0.16369 0.16276 0.16222 0.16222 0.16156 0.16142 0.16142 0.16129 0.16115 0.16115 0.16089 0.16062 0.16049 0.16035 0.15995 0.16009 0.15955 0.15955 0.15942 0.15875 0.15888 0.15795 0.15782 0.15768 0.15755 0.15742 0.15728 0.15715 0.15701 0.15688 0.15688 0.15661 0.15648 0.15648 0.15621 0.15608 0.15595 0.15595 0.15581 0.15554 0.15541 0.15541 0.15528 0.15514 0.15514 0.15501 0.15501 0.15501 0.15488 0.15474 0.15461 0.15461 0.15461 0.15381 0.15381 0.15394 0.15394 0.15394 0.15394 0.15381 0.15381 0.15381 0.15367 0.15367 0.15367 0.15367 0.15354 0.15314 0.153 0.153 0.15287 0.15287 0.15274 0.15274 0.15287 0.15287 0.15287 0.15287 0.15273 0.15273 0.15273 0.15273 0.15273 0.1526 0.15247 0.15233 0.15233 0.15246 0.15246 0.1526 0.15246 0.15246 0.15246 0.1526 0.15273 0.15286 0.15299 0.15299 0.15299 0.15299 0.15299 0.15313 0.15313 0.15313 0.15339 0.15339 0.15326 0.15326 0.15339 0.15339 0.15352 0.15352 0.15352 0.15352 0.15352 0.15352 0.15366 0.15366 0.15379 0.15379 0.15379 0.15379 0.15379 0.15392 0.15392 0.15392 0.15392 0.15405 0.15418 0.15472 0.15472 0.15498 0.15525 0.15538 0.15551 0.15565 0.15591 0.15631 0.15631 0.15658 0.15711 0.15725 0.15724 0.15751
