1.9437 1.7689 1.7149 1.7178 1.6414 1.6132 1.6099 1.6126 1.6033 1.606 1.6086 1.6234 1.62 1.6227 1.6254 1.6281 1.6248 1.6335 1.6362 1.6268 1.6294 1.6261 1.6228 1.6136 1.6162 1.6368 0 0 0 0 0 0 0 0 0 0 0 0 0 0 0 0 0 0 0 0 0 0 0 0 0 0 0 0 0 0 0 0 0 0 0 0 0 0 0 0 0 0 0 0 0 0 0 0 0 0 0 0 0 0 0 0 0 0 0 0 0 0 0 0 0 0 0 0 0 0 0 0 0 0 0 0 0 0 0 0 0 0 0 0 0 0 0 0 0 0 0 0 0 0 0 0 0 0 0 0 0 0 0 0 0 0 0 0 0 0 0 0 0 0 0 0 0 0 0 0 0 0 0 0 0 0 0 0 0 0 0 0 0 0 0 0 0 0 0 0 0 0 0 0 0 0 0 0 0 0 0 0 0 0 0 0 0 0 0 0 0 0 0 0 0 0 0 0 0 0 0 0 0 0 0 0 0 0 0 0 0 0 0 0 0 0 0 0 0 0 0 0 0 0 0 0 0 0 0 0 0 0 0 0 0 0 0 0 0 0 0 0 0 0 0 0 0 0 0 0 0 0 0 0 0 0 0 0 0 0 0 0 0 0 0 0 0 0 0 0 0 0 0 0 0 0 0 0 0 0 0 0 0.17409 0.17429 0.17449 0 0 0 0 0 0 0 0 0 0 0 0 0 1.3012 1.3054 1.3123 1.3138 1.3126 1.3168 1.3237 1.3252 1.3267 1.3282 1.3296 1.3339 1.3409 1.3423 1.3467 1.3538 1.3582 1.3625 1.3669 1.3684 1.3728 1.3772 1.3876 1.3921 1.4086 1.4132 1.4147 1.4194 1.4271 1.438 1.4428 1.4444 1.4523 1.4507 1.4555 1.4635 1.4651 1.47 1.4716 1.4699 1.4715 1.4764 1.292 1.2958 1.2372 1.2183 1.2108 1.2055 1.194 1.191 1.1923 1.1915 1.1928 1.192 1.1828 1.1799 1.1832 1.1929 1.1983 1.1954 1.1946 1.1938 1.195 1.1963 1.1997 1.2009
1.7887 1.5849 1.5817 1.5785 1.5638 1.5781 1.5924 1.5951 1.5918 1.5829 1.5972 1.6118 1.6145 1.6172 1.6199 1.6225 1.6192 1.6219 1.6245 1.6212 1.6179 1.6147 1.6114 1.6081 1.5991 1.596 1.5429 1.5191 1.5164 0 0 0 0 0 0 0 0 0 0 0 0 0 0 0 0 0 0 0 0 0 0 0 0 0 0 0 0 0 0 0 0 0 0 0 0 0 0 0 0 0 0 0 0 0 0 0 0 0 0 0 0 0 0 0 0 0 0 0 0 0 0 0 0 0 0 0 0 0 0 0 0 0 0 0 0 0 0 0 0 0 0 0 0 0 0 0 0 0 0 0 0 0 0 0 0 0 0 0 0 0 0 0 0 0 0 0 0 0 0 0 0 0 0 0 0 0 0 0 0 0 0 0 0 0 0 0 0 0 0 0 0 0 0 0 0 0 0 0 0 0 0 0 0 0 0 0 0 0 0 0 0 0 0 0 0 0 0 0 0 0 0 0 0 0 0 0 0 0 0 0 0 0 0 0 0 0 0 0 0 0 0 0 0 0 0 0 0 0 0 0 0 0 0 0 0 0 0 0 0 0 0 0 0 0 0 0 0 0 0 0 0 0 0 0 0 0 0 0 0 0 0 0 0 0 0 0 0 0 0 0 0 0 0 0 0 0 0.16207 0.16226 0.16412 0.16443 0.16463 0.16518 0.16537 0.16628 0.16659 0.16679 0.16867 0.16886 0.16966 0.17433 0.17453 0 0 0 0 0 0 0 0 0 0 0 1.2907 1.2921 1.3015 1.3084 1.3098 1.314 1.3155 1.3224 1.3239 1.3309 1.3324 1.3311 1.3326 1.3369 1.3411 1.3455 1.347 1.357 1.3612 1.3656 1.3672 1.3716 1.376 1.3804 1.3878 1.3924 1.4119 1.4134 1.4181 1.4165 1.4243 1.4383 1.4431 1.4478 1.4526 1.451 1.4558 1.4638 1.4687 1.4703 1.4751 1.4701 1.4717 1.4767 1.2922 1.2961 1.2285 1.2011 1.2002 1.1972 1.1879 1.1871 1.1863 1.1855 1.1847 1.1859 1.183 1.1801 1.1835 1.1931 1.1965 1.1956 1.1948 1.194 1.1952 1.1986 1.1999 1.2032
1.7893 1.5854 1.5763 1.5674 1.5643 1.5669 1.587 1.5896 1.5807 1.5775 1.5918 1.6062 1.6149 1.6116 1.6143 1.611 1.6196 1.6163 1.619 1.6157 1.6125 1.6151 1.6059 1.6027 1.5824 1.5681 1.5488 1.5195 1.5168 0 0 0 0 0 0 0 0 0 0 0 0 0 0 0 0 0 0 0 0 0 0 0 0 0 0 0 0 0 0 0 0 0 0 0 0 0 0 0 0 0 0 0 0 0 0 0 0 0 0 0 0 0 0 0 0 0 0 0 0 0 0 0 0 0 0 0 0 0 0 0 0 0 0 0 0 0 0 0 0 0 0 0 0 0 0 0 0 0 0 0 0 0 0 0 0 0 0 0 0 0 0 0 0 0 0 0 0 0 0 0 0 0 0 0 0 0 0 0 0 0 0 0 0 0 0 0 0 0 0 0 0 0 0 0 0 0 0 0 0 0 0 0 0 0 0 0 0 0 0 0 0 0 0 0 0 0 0 0 0 0 0 0 0 0 0 0 0 0 0 0 0 0 0 0 0 0 0 0 0 0 0 0 0 0 0 0 0 0 0 0 0 0 0 0 0 0 0 0 0 0 0 0 0 0 0 0 0 0 0 0 0 0 0 0 0 0 0 0 0 0 0 0 0 0 0 0 0 0 0 0 0 0 0 0 0 0 0.16211 0.1623 0.16416 0.16435 0.16478 0.16509 0.1654 0.16631 0.16651 0.16682 0.1687 0.16889 0.16969 0 0 0 0 0 0 0 0 0 0 0 0 0 1.2909 1.2924 1.3098 1.314 1.3128 1.317 1.3212 1.3254 1.3296 1.3339 1.3354 1.3397 1.3412 1.3455 1.347 1.3513 1.3557 1.36 1.3644 1.3688 1.3732 1.3776 1.3791 1.3896 1.394 1.3986 1.4121 1.4137 1.4152 1.4168 1.4246 1.4449 1.4465 1.4545 1.4561 1.4545 1.4592 1.4673 1.4722 1.4771 1.4787 1.4769 1.4819 1.4901 1.4883 0 1.2287 1.2078 1.2026 1.1995 1.1881 1.1873 1.1865 1.1836 1.1849 1.1861 1.1832 1.1824 1.1879 1.1933 1.1946 1.1938 1.1929 1.1921 1.1933 1.2009 1.2022 1.2035
1.6969 1.5512 1.5652 1.5679 1.5648 1.5674 1.5816 1.5843 1.5696 1.5779 1.5864 1.6008 1.6094 1.6061 1.6088 1.6115 1.6082 1.605 1.6135 1.6103 1.607 1.6096 1.5947 1.5917 1.566 1.5521 1.5385 1.5251 1.5224 0 0 0 0 0 0 0 0 0 0 0 0 0 0 0 0 0 0 0 0 0 0 0 0 0 0 0 0 0 0 0 0 0 0 0 0 0 0 0 0 0 0 0 0 0 0 0 0 0 0 0 0 0 0 0 0 0 0 0 0 0 0 0 0 0 0 0 0 0 0 0 0.12547 0.12537 0.12555 0.12573 0.12572 0.1259 0.12608 0.12626 0 0 0 0 0 0 0 0 0 0 0 0 0 0 0 0 0 0 0 0 0 0 0 0 0 0 0 0 0 0 0 0 0 0 0 0 0 0 0 0 0 0 0 0 0 0 0 0 0 0 0 0 0 0 0 0 0 0 0 0 0 0 0 0 0 0 0 0 0 0 0 0 0 0 0 0 0 0 0 0 0 0 0 0 0 0 0 0 0 0 0 0 0 0 0 0 0 0 0 0 0 0 0 0 0 0 0 0 0 0 0 0 0 0 0 0 0 0 0 0 0 0 0 0 0 0 0 0 0 0 0 0 0 0 0 0 0 0 0 0 0 0 0 0 0 0 0 0 0 0 0 0 0 0 0 0 0.15927 0.15945 0.16119 0.16138 0.16419 0.16438 0.16469 0.16512 0.16532 0.16635 0.16666 0.16685 0.16729 0.16929 0.16949 0.17041 0.17072 0 0 0 0 0 0 0 0 0 0 0 0 0 1.3264 1.3197 1.3185 1.32 1.3269 1.3284 1.3355 1.337 1.3385 1.3427 1.3442 1.3457 1.3501 1.3516 1.356 1.3631 1.3675 1.369 1.3763 1.3779 1.3824 1.3899 1.3914 1.3958 1.4156 1.414 1.4155 1.4171 1.4248 1.4484 1.4531 1.4579 1.4628 1.4611 1.466 1.4708 1.4757 1.4839 1.4855 1.4871 1.4887 1.497 1.5055 0 1.2199 1.2124 1.2071 1.2019 1.1904 1.1896 1.1888 1.1859 1.1851 1.1864 1.1834 1.1826 1.1881 1.1935 1.1948 1.1898 1.191 1.1923 1.1936 1.199 1.2024 1.2037
1.6385 1.5573 1.5599 1.5569 1.5595 1.5564 1.5705 1.5731 1.5586 1.5669 1.5753 1.5837 1.5922 1.5832 1.5743 1.5713 1.5682 1.5708 1.5734 1.5703 1.5673 1.5643 1.5503 1.5529 1.5233 1.5154 1.5127 1.51 1.5023 0 0 0 0 0 0 0 0 0 0 0 0 0 0 0 0 0 0 0 0 0 0 0 0 0 0 0 0 0 0 0 0 0 0 0 0 0 0 0 0 0 0 0 0 0 0 0 0 0 0 0 0 0 0 0 0 0 0 0 0 0 0 0 0 0 0 0 0 0.1261 0.12629 0 0.12541 0.12549 0.12567 0.12576 0.12584 0.12593 0.12611 0.12629 0 0 0 0 0 0 0 0 0 0 0 0 0 0 0 0 0 0 0 0 0 0 0 0 0 0 0 0 0 0 0 0 0 0 0 0 0 0 0 0 0 0 0 0 0 0 0 0 0 0 0 0 0 0 0 0 0 0 0 0 0 0 0 0 0 0 0 0 0 0 0 0 0 0 0 0 0 0 0 0 0 0 0 0 0 0 0 0 0 0 0 0 0 0 0 0 0 0 0 0 0 0 0 0 0 0 0 0 0 0 0 0 0 0 0 0 0 0 0 0 0 0 0 0 0 0 0 0 0 0 0 0 0 0 0 0 0 0 0 0 0 0 0 0 0 0 0 0 0 0 0 0.15718 0.15737 0.15755 0.15774 0 0.1593 0.15948 0.16122 0.16141 0.16398 0.16429 0.16461 0.16492 0.16511 0.1659 0.16621 0.16617 0.16732 0.16908 0.16928 0.16984 0.17003 0.17083 0 0 0 0 0 0 0 0 0 0 0 0 1.3267 1.3173 1.3215 1.3257 1.3299 1.3314 1.3357 1.3399 1.3415 1.3458 1.3473 1.3488 1.3503 1.3547 1.3562 1.3634 1.3678 1.3693 1.3796 1.3811 1.3827 1.3901 1.3917 1.3991 1.4127 1.4142 1.4158 1.4205 1.4282 1.4518 1.4534 1.4582 1.4696 1.4679 1.4695 1.4744 1.4792 1.4842 1.4925 1.4907 1.4957 1.5008 1.4989 1.5176 1.2201 1.2192 1.2161 1.1915 1.1928 1.1919 1.1911 1.1861 1.1853 1.1866 1.1858 1.187 1.1904 1.1937 1.195 1.19 1.1912 1.1904 1.1917 1.1993 1.2026 1.2039
1.6202 1.5927 1.5604 1.5573 1.56 1.5626 1.5652 1.5678 1.5591 1.5617 1.57 1.5784 1.581 1.5721 1.5635 1.5549 1.5575 1.56 1.557 1.5541 1.5457 1.5428 1.5293 1.5318 1.5082 1.5055 1.508 1.5002 1.5077 0 0 0 0 0 0 0 0 0 0 0 0 0 0 0 0 0 0 0 0 0 0 0 0 0 0 0 0 0 0 0 0 0 0 0 0 0 0 0 0 0 0 0 0 0 0 0 0 0 0 0 0 0 0 0 0 0 0 0 0 0 0 0 0 0 0 0 0 0.12613 0.12632 0 0.12553 0.12562 0.12571 0.12579 0.12588 0.12596 0.12614 0.12632 0 0 0 0 0 0 0 0 0 0 0 0 0 0 0 0 0 0 0 0 0 0 0 0 0 0 0 0 0 0 0 0 0 0 0 0 0 0 0 0 0 0 0 0 0 0 0 0 0 0 0 0 0 0 0 0 0 0 0 0 0 0 0 0 0 0 0 0 0 0 0 0 0 0 0 0 0 0 0 0 0 0 0 0 0 0 0 0 0 0 0 0 0 0 0 0 0 0 0 0 0 0 0 0 0 0 0 0 0 0 0 0 0 0 0 0 0 0 0 0 0 0 0 0 0 0 0 0 0 0 0 0 0 0 0 0 0 0 0 0 0 0 0 0 0 0 0 0 0 0 0 0.15721 0.1574 0.15759 0.15777 0 0.15933 0.15952 0.16125 0.16144 0.1639 0.16433 0.16452 0.16495 0.16514 0.16581 0.16601 0.16632 0.16735 0.16912 0.16943 0.16975 0.17019 0.17087 0 0 0 0 0 0 0 0 0 0 0 0 0 1.3175 1.3217 1.3232 1.333 1.3345 1.336 1.3431 1.3446 1.3461 1.3476 1.352 1.3535 1.3577 1.3565 1.3665 1.3709 1.3724 1.3799 1.3814 1.3829 1.3904 1.3948 1.3994 1.4129 1.4145 1.4192 1.4269 1.4346 1.4586 1.4633 1.465 1.4731 1.4715 1.4763 1.4779 1.4862 1.4911 1.4962 1.4943 1.496 1.5011 1.5027 1.5178 1.2203 1.2284 1.2275 1.1918 1.1972 1.1985 1.1934 1.1863 1.1855 1.1847 1.1881 1.1914 1.1927 1.194 1.1952 1.1965 1.1936 1.1927 1.1961 1.2016 1.205 1.2041
1.6024 1.5813 1.5608 1.5578 1.5604 1.5688 1.5599 1.5683 1.5595 1.5678 1.5704 1.5788 1.5757 1.567 1.5583 1.5553 1.5469 1.5494 1.552 1.5491 1.5407 1.5325 1.5298 1.5323 1.5035 1.506 1.5033 1.5007 1.5031 0 0 0 0 0 0 0 0 0 0 0 0 0 0 0 0 0 0 0 0 0 0 0 0 0 0 0 0 0 0 0 0 0 0 0 0 0 0 0 0 0 0 0 0 0 0 0 0 0 0 0 0 0 0 0 0 0 0 0 0 0 0 0 0 0 0 0 0 0.12588 0.12587 0.12605 0.12576 0.12536 0.12564 0.12573 0.12571 0.1259 0 0 0 0 0 0 0 0 0 0 0 0 0 0 0 0 0 0 0 0 0 0 0 0 0 0 0 0 0 0 0 0 0 0 0 0 0 0.12473 0.1249 0.12548 0 0 0 0 0 0 0 0 0 0 0 0 0 0 0 0 0 0 0 0 0 0 0 0 0 0 0 0 0 0 0 0 0 0 0 0 0 0 0 0 0 0 0 0 0 0 0 0 0 0 0 0 0 0 0 0 0 0 0 0 0 0 0 0 0 0 0 0 0 0 0 0 0 0 0 0 0 0 0 0 0 0 0 0 0 0 0 0 0 0 0 0 0 0 0 0 0 0 0 0 0 0 0 0 0 0 0 0 0 0 0 0.15546 0.15565 0.15725 0.15743 0.15762 0.1578 0.15799 0.15829 0.15848 0.1589 0.16088 0.16106 0.16125 0.16144 0.16402 0.16434 0.16561 0.16592 0.16611 0.16799 0.16831 0.16947 0.16978 0.17022 0.1709 0 0 0 0 0 0 0 0 0 0 0 0 0 1.3259 1.3247 1.3289 1.3332 1.3347 1.339 1.3462 1.3477 1.3492 1.3507 1.3522 1.3565 1.3609 1.3595 1.3668 1.3712 1.3756 1.3771 1.3817 1.3861 1.3906 1.3951 1.3997 1.4102 1.4148 1.4225 1.4333 1.4381 1.4588 1.4669 1.4685 1.4767 1.4749 1.4766 1.4815 1.4864 1.4948 1.4965 1.4946 1.4962 1.5013 1.503 1.5148 1.2433 1.2354 1.2413 1.2245 1.2082 1.2052 1.1958 1.1866 1.1878 1.187 1.1925 1.1937 1.195 1.1963 1.1975 1.1967 1.1959 1.195 1.1963 1.2018 1.2052 1.2043
1.5909 1.5759 1.5556 1.5639 1.5666 1.5635 1.5604 1.5688 1.56 1.5626 1.5709 1.5793 1.5704 1.5506 1.5477 1.5448 1.5419 1.539 1.5415 1.5333 1.5305 1.5224 1.5144 1.5117 1.4988 1.5012 1.5037 1.5061 1.5035 0 0 0 0 0 0 0 0 0 0 0 0 0 0 0 0 0 0 0 0 0 0 0 0 0 0 0 0 0 0 0 0 0 0 0 0 0 0 0 0 0 0 0 0 0 0 0 0 0 0 0 0 0 0 0 0 0 0 0 0 0 0 0 0 0 0.12641 0.12621 0.12639 0.12591 0.12581 0.12608 0.1256 0.1252 0.12538 0.12556 0.12526 0.12544 0.12533 0.12532 0.1255 0.12548 0.12566 0.12584 0.12602 0 0 0 0 0 0 0 0 0 0 0 0 0 0 0 0 0 0 0 0 0 0 0 0 0 0 0 0 0 0 0.12476 0.12503 0.12551 0 0 0 0 0 0 0 0 0 0 0 0 0 0 0 0 0 0 0 0 0 0 0 0 0 0 0 0 0 0 0 0 0 0 0 0 0 0 0 0 0 0 0 0 0 0 0 0 0 0 0 0 0 0 0 0 0 0 0 0 0 0 0 0 0 0 0 0 0 0 0 0 0 0 0 0 0 0 0 0 0 0 0 0 0 0 0 0 0 0 0 0 0 0 0 0.14758 0.14776 0.14794 0.14811 0.14841 0.1487 0.14888 0 0.1511 0.15128 0.15205 0.15223 0.15241 0.15353 0.15371 0.15378 0.15408 0.15544 0.15586 0.15604 0.1567 0.15689 0.15778 0.15821 0.15839 0.15858 0.15948 0.15966 0.16081 0.16099 0.1613 0.16209 0.16228 0.16583 0.16614 0.1679 0.1681 0.1695 0.16981 0.17025 0.17081 0 0 0 0 0 0 0 0 0 0 0 0 0 1.3261 1.3389 1.3431 1.3446 1.3434 1.3477 1.352 1.3564 1.3579 1.3623 1.3638 1.3625 1.3669 1.3655 1.3728 1.3773 1.3759 1.3804 1.3819 1.3894 1.3968 1.3984 1.4029 1.4135 1.4212 1.4352 1.4431 1.451 1.4623 1.4704 1.4753 1.4802 1.4819 1.4835 1.4851 1.49 1.4985 1.5034 1.5017 1.5033 1.5083 1.5134 1.5151 1.2142 1.2288 1.2256 1.2203 1.2128 1.2076 1.196 1.1868 1.1881 1.1893 1.1948 1.196 1.1973 1.1986 1.1999 1.199 1.1982 1.1953 1.1965 1.202 1.2054 1.2046
1.5914 1.5764 1.5617 1.5587 1.5728 1.5582 1.5609 1.5635 1.5604 1.5687 1.5713 1.5739 1.5709 1.5455 1.5426 1.5398 1.5315 1.534 1.5365 1.5231 1.5256 1.5229 1.5097 1.507 1.5044 1.5017 1.5041 1.5066 1.509 0 0 0 0 0 0 0 0 0 0 0 0 0 0 0 0 0 0 0 0 0 0 0 0 0 0 0 0 0 0 0 0 0 0 0 0 0 0 0 0 0 0 0 0 0 0 0 0 0 0 0 0 0 0 0 0 0 0 0 0 0 0 0 0 0 0.12644 0.12634 0.12633 0.12642 0.12584 0.12612 0.12563 0.12523 0.12541 0.1255 0.12529 0.12538 0.12546 0.12545 0.12553 0.12561 0.1257 0.12578 0.12605 0 0 0 0 0 0 0 0 0 0 0 0 0 0 0 0 0 0 0 0 0 0 0 0 0 0 0 0 0 0 0.12489 0.12506 0.12554 0 0 0 0 0 0 0 0 0 0 0 0 0 0 0 0 0 0 0 0 0 0 0 0 0 0 0 0 0 0 0 0 0 0 0 0 0 0 0 0 0 0 0 0 0 0 0 0 0 0 0 0 0 0 0 0 0 0 0 0 0 0 0 0 0 0 0 0 0 0 0 0 0 0 0 0 0 0 0 0 0 0 0 0 0 0 0 0 0 0 0 0 0 0 0 0.14761 0.14779 0.14797 0.14826 0.14855 0.14862 0.14891 0 0.15113 0.15132 0.15208 0.15226 0.15244 0.15356 0.15363 0.15381 0.15411 0.15547 0.15589 0.15608 0.15673 0.15692 0.1577 0.15824 0.15842 0.15861 0.15951 0.1597 0.16084 0.16103 0.16145 0.16188 0.16231 0.16586 0.16618 0.16794 0.16813 0.16953 0.16997 0.17029 0.17085 0 0 0 0 0 0 0 0 0 0 0 0 0 1.346 1.3475 1.349 1.3477 1.3492 1.3507 1.3551 1.3595 1.3639 1.3654 1.3699 1.3685 1.37 1.3686 1.3761 1.3776 1.3791 1.3835 1.3851 1.3896 1.3971 1.4017 1.4032 1.4169 1.4245 1.445 1.4497 1.4578 1.4659 1.474 1.4756 1.4873 1.4889 1.4837 1.4887 1.4938 1.4987 1.5072 1.5053 1.507 1.5086 1.5137 1.5257 1.2144 1.2179 1.2192 1.2183 1.2086 1.2056 1.1963 1.1891 1.1883 1.1916 1.1992 1.2004 1.2017 1.1988 1.198 1.2013 1.2047 1.2018 1.201 1.2022 1.2035 1.2048
1.5918 1.5539 1.5508 1.5534 1.5675 1.5587 1.5613 1.5639 1.5497 1.5523 1.5549 1.5575 1.5489 1.5137 1.5058 1.5031 1.5056 1.5081 1.5106 1.5079 1.5103 1.5128 1.5101 1.5074 1.5099 1.5021 1.5045 1.507 1.5094 0 0 0 0 0 0 0 0 0 0 0 0 0 0 0 0 0 0 0 0 0 0 0 0 0 0 0 0 0 0 0 0 0 0 0 0 0 0 0 0 0 0 0 0 0 0 0 0 0 0 0.12928 0.12938 0.12958 0.12977 0.12996 0 0 0 0 0 0 0 0 0.12686 0.12714 0.12647 0.12637 0.12636 0.12645 0.12587 0.12605 0.12556 0.12536 0.12544 0.12562 0.12513 0.12541 0.12539 0.12538 0.12546 0.12555 0.12563 0.12581 0.1253 0.12558 0.12576 0.12584 0.12602 0.12492 0.1243 0.12448 0.12475 0.12473 0.12491 0.12508 0.12506 0.12524 0.12561 0.12579 0 0 0 0 0 0 0 0 0 0 0 0 0 0 0 0.12492 0.12509 0.12557 0 0 0 0 0 0 0 0 0 0 0 0 0 0 0 0 0 0 0 0 0 0 0 0 0 0 0 0 0 0 0 0 0 0 0 0 0 0 0 0 0 0 0 0 0 0 0 0 0 0 0 0 0 0 0 0 0 0 0 0 0 0 0 0 0 0 0 0 0 0 0 0 0 0 0 0 0 0 0 0 0 0 0 0 0 0 0 0 0 0 0 0 0 0 0 0.14753 0.14782 0.148 0.14818 0.14847 0.14865 0.14882 0.14935 0.15105 0.15123 0.15141 0.15159 0.15271 0.15324 0.15354 0.15372 0.15379 0.15503 0.15569 0.15587 0.15629 0.15707 0.15725 0.15744 0.15762 0.15864 0.15894 0.15913 0.16087 0.16106 0.1616 0.16203 0.16234 0.1677 0.16802 0.16881 0.16901 0.16969 0.17 0.17032 0.171 0 0 0 0 0 0 0 0 0 0 0 0 0 1.3434 1.3449 1.3493 1.348 1.3495 1.351 1.3554 1.3569 1.3613 1.3657 1.3702 1.3659 1.3674 1.3689 1.3733 1.3748 1.3764 1.3809 1.3853 1.3899 1.3974 1.4019 1.4035 1.4202 1.4248 1.4452 1.45 1.4548 1.4662 1.4709 1.4792 1.4841 1.4857 1.484 1.4856 1.4873 1.4889 1.4905 1.4921 1.4937 1.492 1.4936 1.5054 1.2102 1.2159 1.215 1.2164 1.2088 1.2036 1.2006 1.1955 1.1926 1.196 1.1994 1.2029 1.1998 1.199 1.2024 1.2037 1.207 1.2062 1.2054 1.2109 1.2101 1.2092
1.6351 1.5543 1.5513 1.5539 1.5679 1.5591 1.5617 1.5587 1.5446 1.5528 1.561 1.5635 1.5494 1.509 1.501 1.4932 1.4957 1.5033 1.5058 1.5083 1.5056 1.5132 1.5105 1.5182 1.5207 1.5232 0 0 0 0 0 0 0 0 0 0 0 0 0 0 0 0 0 0 0 0 0 0 0 0 0 0 0 0 0 0 0 0 0 0 0 0 0 0 0 0 0 0 0 0 0 0 0 0 0 0 0 0 0 0.12932 0.1296 0.1297 0.1299 0.13 0 0 0 0 0 0 0 0 0.12689 0.12717 0.1265 0.12649 0.12639 0.12639 0.1259 0.12608 0.12559 0.12539 0.12548 0.12546 0.12516 0.12524 0.12533 0.12463 0.12491 0.12499 0.12537 0.12535 0.12533 0.12551 0.12569 0.12538 0.12556 0.12495 0.12433 0.12451 0.12469 0.12476 0.12494 0.12511 0.12519 0.12536 0.12554 0.12571 0.12589 0 0 0 0 0 0 0 0 0 0.12531 0.12559 0.12545 0.12562 0.1258 0.12495 0.12512 0.1256 0 0 0 0 0 0 0 0 0 0 0 0 0 0 0 0 0 0 0 0 0 0 0 0 0 0 0 0 0 0 0 0 0 0 0 0 0 0 0 0 0 0 0 0 0 0 0 0 0 0 0 0 0 0 0 0 0 0 0 0 0 0 0 0 0 0 0 0 0 0 0 0 0 0 0 0 0 0 0 0 0 0 0 0 0 0 0 0 0 0 0 0 0 0.14662 0.1468 0.14733 0.14773 0.14803 0.14821 0.1485 0.14868 0.14897 0.14938 0.15015 0.15032 0.15144 0.15162 0.15262 0.15292 0.15334 0.15352 0.15382 0.15506 0.15536 0.15566 0.15632 0.1571 0.15716 0.15735 0.15765 0.15867 0.15886 0.15916 0.1609 0.16109 0.16164 0.16206 0.16237 0.16773 0.16805 0.16885 0.16916 0.1696 0.17004 0.17047 0.17091 0 0 0 0 0 0 0 0 0 0 0 0 0 1.3465 1.3452 1.3467 1.3482 1.3498 1.3513 1.3585 1.36 1.3616 1.3689 1.3705 1.372 1.3705 1.372 1.3766 1.3781 1.3825 1.3871 1.3886 1.393 1.3976 1.4022 1.4066 1.4235 1.4313 1.4455 1.4534 1.4584 1.4664 1.4745 1.4794 1.4878 1.486 1.4876 1.4892 1.4842 1.4892 1.4908 1.4924 1.494 1.4889 1.4939 1.5057 1.2105 1.2096 1.2109 1.2122 1.2048 1.2039 1.2051 1.2001 1.1993 1.2005 1.1996 1.2031 1.2001 1.2013 1.2026 1.2082 1.2137 1.2129 1.2121 1.2176 1.2146 1.2115
0.30229 0.30256 0.30356 0.30408 0.30475 0.3046 0.30512 0 0 0 0 0 1.5388 1.5094 1.4963 1.4886 1.4911 1.4935 1.5011 0.31134 0.31186 0.31262 0.31313 0.31365 0 0 0 0 0 0 0 0 0 0 0 0 0 0.32395 0.32447 0.32525 0.32814 0.32865 0 0 0 0 0 0 0 0 0 0 0 0 0 0 0 0 0 0 0 0 0 0 0 0 0 0 0 0 0 0 0 0 0 0 0 0 0 0.12954 0.12964 0.12983 0.13002 0.13022 0 0 0 0 0 0 0 0.12683 0.12683 0.12701 0.12653 0.12672 0.1269 0.12642 0.12593 0.12611 0.12543 0.12532 0.12541 0.1254 0.1251 0.12528 0.12536 0.12466 0.12494 0.12502 0.1252 0.12538 0.12546 0.12545 0.12552 0.12551 0.12549 0.12547 0.12456 0.12464 0.12472 0.12489 0.12497 0.12514 0.12522 0.12539 0.12557 0.12574 0.12592 0 0 0 0 0 0 0 0 0 0.12534 0.12551 0.12558 0.12565 0.12583 0.12549 0.12566 0.12593 0 0 0 0 0 0 0 0 0 0 0 0 0 0 0 0 0 0 0 0 0 0 0 0 0 0 0 0 0 0 0 0 0 0 0 0 0 0 0 0 0 0 0 0 0 0 0 0 0 0 0 0 0 0 0 0 0 0 0 0 0 0 0 0 0 0 0 0 0 0 0 0 0 0 0 0 0 0 0 0 0 0 0 0 0 0 0 0 0 0 0 0 0 0.14665 0.14683 0.14724 0.14765 0.14806 0.14824 0.14853 0.14882 0.149 0.14941 0.15018 0.15035 0.15206 0.15224 0.15265 0.15283 0.15325 0.15343 0.15361 0.15509 0.15528 0.15558 0.15612 0.15677 0.15708 0.15738 0.15757 0.1587 0.15889 0.15919 0.16093 0.16124 0.16167 0.1621 0.16253 0.16777 0.16808 0.169 0.1692 0.16963 0.17007 0.17039 0.17095 0 0 0 0 0 0 0 0 0 0 0 0 0 1.3439 1.3483 1.347 1.3485 1.35 1.3515 1.3588 1.3603 1.3647 1.3692 1.3766 1.3722 1.3708 1.3753 1.3768 1.3813 1.3858 1.3874 1.3918 1.3963 1.4009 1.4025 1.4069 1.4238 1.4315 1.4458 1.457 1.4618 1.4667 1.4715 1.4797 1.4881 1.4897 1.4879 1.4895 1.4845 1.4894 1.491 1.496 1.4976 0 0 0 0 1.2098 1.2089 1.208 1.2028 1.202 1.2011 1.1982 1.1995 1.1985 1.202 1.2033 1.1982 1.2037 1.2049 1.2085 1.2139 1.2131 1.2144 1.2157 1.2126 1.2097
0.30197 0.30157 0.30208 0.30243 0.30294 0.30254 0.30288 0.30422 0.30498 0.30724 0.30817 0.30843 0.3092 0.30904 0.3098 0.30981 0.31032 0.31083 0.30787 0.30863 0.31041 0.3116 0.31254 0.31279 0.31356 0.31407 0.31527 0.31578 0 0 0 0 0 0 0 0 0 0.32404 0.32482 0.32604 0.32726 0.32875 0 0 0 0 0 0 0 0 0 0 0 0 0 0 0 0 0 0 0 0 0 0 0 0 0 0 0 0 0 0 0 0 0 0 0 0 0 0.12957 0.12967 0.12968 0.12987 0.13006 0.13082 0 0 0 0 0.12659 0.12677 0.12686 0.12696 0.12705 0.12657 0.12665 0.12684 0.12645 0.12577 0.12595 0.12527 0.12536 0.12544 0.12533 0.12522 0.12531 0.12539 0.1247 0.12497 0.12505 0.12523 0.12531 0.12549 0.12548 0.12555 0.12544 0.12542 0.1255 0.12459 0.12467 0.12484 0.12492 0.125 0.12517 0.12515 0.12532 0.1254 0.12557 0.12565 0.12522 0.1253 0.12547 0.12545 0.12562 0.12529 0.12516 0.12533 0.1255 0.12547 0.12554 0.12561 0.12579 0.12606 0.12582 0.12579 0.12617 0.12634 0.12651 0.12658 0.12675 0.12692 0 0 0 0 0 0 0 0 0 0 0 0 0 0 0 0 0 0 0 0 0 0 0 0 0 0 0 0 0 0 0 0 0 0 0 0 0 0 0 0 0 0 0 0 0 0 0 0 0 0 0 0 0 0 0 0 0 0 0 0 0 0 0 0 0 0 0 0 0 0 0 0 0 0 0 0 0 0 0 0 0 0 0.14402 0.14431 0.14448 0.14477 0.14506 0.14512 0.1453 0.14686 0.14715 0.1478 0.14809 0.14838 0.14868 0.14897 0.14915 0.14956 0.15032 0.15062 0.15127 0.15133 0.15257 0.15275 0.15316 0.15335 0.15353 0.15489 0.15519 0.15549 0.15591 0.15681 0.15711 0.15741 0.1576 0.15862 0.15892 0.15923 0.16085 0.16115 0.16182 0.16225 0.16256 0.16479 0.16498 0.16771 0.16923 0.16955 0.1701 0.17054 0.17098 0 0 0 0 0 0 0 0 0 0 0 0 0 1.3442 1.3486 1.3501 1.3488 1.3503 1.3546 1.359 1.3605 1.3679 1.3723 1.3768 1.3725 1.3711 1.3756 1.38 1.3845 1.3861 1.3905 1.392 1.3966 1.4012 1.4056 1.4132 1.4272 1.4318 1.4492 1.4573 1.4621 1.4702 1.4751 1.4767 1.4849 1.4866 1.4882 1.4865 1.4814 1.483 1.4847 1.4765 1.4747 0 0 0 0 1.21 1.2113 1.2104 1.1987 1.1959 1.1928 1.192 1.1954 1.1967 1.198 1.2013 1.1984 1.1997 1.203 1.2064 1.2142 1.2154 1.2125 1.2115 1.2107 1.2056
0.30181 0.3015 0.30176 0.30185 0.30236 0.30204 0.30296 0.30347 0.30506 0.30733 0.30826 0.30785 0.30836 0.30871 0.30896 0.30931 0.30982 0.3094 0.30864 0.30889 0.30982 0.31101 0.31177 0.31228 0.31296 0.3139 0.31467 0.31587 0 0 0 0 0 0 0 0 0 0.32439 0.32465 0.32639 0.32831 0.3291 0 0 0 0 0 0 0 0 0 0 0 0 0 0 0 0 0 0 0 0 0 0 0 0 0 0 0 0 0 0 0 0 0 0 0 0 0 0.1297 0.12961 0.12971 0.1299 0.1301 0.13085 0 0 0 0 0.12662 0.1268 0.1269 0.12689 0.12717 0.12669 0.12669 0.12687 0.12686 0.1258 0.12599 0.1253 0.12539 0.12538 0.12536 0.12525 0.12534 0.12532 0.12473 0.125 0.12508 0.12517 0.12525 0.12543 0.12541 0.12559 0.12537 0.12545 0.12553 0.12462 0.1248 0.12478 0.12495 0.12503 0.1251 0.12508 0.12515 0.12523 0.1254 0.12568 0.12525 0.12533 0.1255 0.12557 0.12545 0.12542 0.12529 0.12536 0.12553 0.1255 0.12567 0.12585 0.12602 0.12609 0.12585 0.12602 0.1264 0.12657 0.12664 0.12671 0.12688 0.12695 0 0 0 0 0 0 0 0 0 0 0 0 0 0 0 0 0 0 0 0 0 0 0 0 0 0 0 0 0 0 0 0 0 0 0 0 0 0 0 0 0 0 0 0 0 0 0 0 0 0 0 0 0 0 0 0 0 0 0 0 0 0 0 0 0 0 0 0 0 0 0 0 0 0 0 0 0 0 0 0 0 0 0.14405 0.14422 0.14451 0.14469 0.14498 0.14527 0.14533 0.14689 0.14718 0.14783 0.14812 0.14841 0.14882 0.149 0.1493 0.14971 0.15012 0.15077 0.15106 0.15136 0.1526 0.1529 0.15331 0.15349 0.15356 0.15492 0.15522 0.15552 0.15594 0.15684 0.15714 0.15744 0.15787 0.15865 0.15895 0.15926 0.16088 0.16119 0.16173 0.16252 0.16271 0.16482 0.16501 0.16774 0.16926 0.16946 0.17026 0.17045 0.17101 0 0 0 0 0 0 0 0 0 0 0 0 0 1.3501 1.3488 1.3503 1.3547 1.3534 1.3578 1.3593 1.3637 1.3682 1.3756 1.38 1.3757 1.3743 1.3787 1.3833 1.3877 1.3922 1.3938 1.3983 1.3999 1.4043 1.4089 1.4227 1.4305 1.4352 1.4495 1.4576 1.4624 1.4673 1.4689 1.477 1.4819 1.4835 1.4851 1.4834 1.4817 1.4833 1.4817 1.4768 1.4718 0 0 0 0 1.219 1.2159 1.2106 1.1989 1.1939 1.1931 1.1923 1.1956 1.1969 1.1982 1.1994 1.1965 1.1978 1.2012 1.2067 1.2144 1.2157 1.2127 1.2118 1.2109 1.2059
0.3019 0.30175 0.30185 0.30128 0.30137 0.30147 0.30239 0.30289 0.30298 0.30391 0.3055 0.30668 0.30719 0.3077 0.30821 0.30872 0.30881 0.30906 0.30872 0.30855 0.30948 0.31024 0.31118 0.31143 0.3122 0.31339 0.31407 0.31286 0.31337 0.31344 0.31395 0.31506 0.31556 0.3159 0.31684 0.31735 0.31803 0.31967 0.32018 0.32253 0.32515 0.3254 0 0 0 0 0 0 0 0 0 0 0 0 0 0 0 0 0 0 0 0 0 0 0 0 0 0 0 0 0 0 0 0 0 0 0 0 0 0 0.12936 0.12965 0.12862 0.12882 0.12901 0 0 0 0 0.12665 0.12684 0.12693 0.12692 0.12701 0.12672 0.12672 0.12681 0.1269 0.12602 0.12621 0.12524 0.12532 0.12541 0.12539 0.12529 0.12527 0.12526 0.12495 0.12513 0.12521 0.1252 0.12528 0.12536 0.12544 0.12552 0.1254 0.12548 0.12556 0.12524 0.12542 0.12491 0.12498 0.12506 0.12513 0.12501 0.12509 0.12526 0.12534 0.12551 0.12538 0.12536 0.12553 0.1255 0.12548 0.12545 0.12542 0.12549 0.12556 0.12563 0.12581 0.12598 0.12615 0.12632 0.12639 0.12646 0.12653 0.1267 0.12677 0.12684 0.12701 0.12719 0.12695 0.12712 0.12729 0.12746 0.12763 0.1278 0.12787 0.12804 0.12842 0.12859 0.12897 0.12946 0.12963 0 0 0 0 0 0.12971 0.12988 0.13016 0.13033 0 0 0 0 0.13043 0.1306 0 0 0 0.13171 0.13188 0.13227 0.13244 0.13261 0 0 0 0 0 0 0 0 0 0 0 0 0 0 0 0 0 0 0 0 0 0 0 0 0 0 0 0 0 0 0 0 0 0 0 0 0 0 0 0 0 0.14275 0.14292 0.14275 0.14304 0.14322 0.14408 0.14425 0.14443 0.14472 0.14512 0.1453 0.14559 0.14692 0.14721 0.14785 0.14815 0.14844 0.14885 0.14915 0.14933 0.14974 0.15015 0.15068 0.15098 0.15127 0.15275 0.15293 0.15334 0.15364 0.15394 0.15495 0.15525 0.15567 0.15597 0.15675 0.15705 0.15748 0.15766 0.15844 0.15886 0.15917 0.16127 0.16146 0.16225 0.16328 0.16346 0.16365 0.16384 0.16753 0.16785 0.16804 0.17017 0.17037 0.17081 0 0 0 0 0 0 0 0 0 0 0 0 0 1.3476 1.3519 1.3535 1.355 1.3537 1.358 1.3624 1.3639 1.3655 1.3758 1.3774 1.3759 1.3775 1.382 1.3864 1.391 1.3955 1.3971 1.3986 1.4031 1.4076 1.4122 1.4262 1.4308 1.4355 1.4466 1.4545 1.4561 1.4675 1.4691 1.4739 1.4789 1.4838 1.4821 1.4837 1.4788 1.4804 1.4787 1.4737 1.4721 1.4934 1.4916 0 0 1.2237 1.2184 1.2131 1.2014 1.1984 1.1954 1.1946 1.1979 1.1971 1.1963 1.1976 1.1967 1.198 1.1972 1.2027 1.2146 1.2138 1.2129 1.212 1.2111 1.2061
0.3005 0.30076 0.30086 0.30054 0.30088 0.30072 0.30123 0.30173 0.3024 0.30358 0.30408 0.30459 0.3051 0.30602 0.30653 0.30704 0.30737 0.30805 0.30813 0.30796 0.30872 0.30948 0.30999 0.31049 0.31117 0.31236 0.31304 0.31251 0.31302 0.31301 0.31377 0.31428 0.31452 0.31459 0.31466 0.31517 0.3148 0.31512 0.31563 0.31631 0.31206 0.31273 0.31367 0 0 0 0 0 0 0 0 0 0 0 0 0 0 0 0 0 0 0 0 0 0 0 0 0 0 0 0 0 0 0 0 0 0 0 0 0.13023 0.1294 0.12968 0.12866 0.12885 0.12904 0 0 0 0 0.12668 0.12687 0.12705 0.12696 0.12705 0.12676 0.12685 0.12693 0.12702 0.12606 0.12624 0.12536 0.12535 0.12544 0.12543 0.12532 0.1253 0.12529 0.12508 0.12516 0.12524 0.12523 0.12531 0.12539 0.12537 0.12545 0.12533 0.12531 0.12539 0.12488 0.12506 0.12494 0.12501 0.12509 0.12516 0.12504 0.12512 0.12519 0.12526 0.12534 0.12541 0.12539 0.12556 0.12553 0.12551 0.12558 0.12545 0.12562 0.12559 0.12576 0.12584 0.12601 0.12618 0.12635 0.12652 0.1266 0.12666 0.12684 0.1267 0.12677 0.12684 0.12691 0.12697 0.12694 0.12711 0.12728 0.12745 0.12762 0.12748 0.12765 0.12834 0.12862 0.12879 0.12907 0.12903 0.1292 0.12926 0.12944 0.12961 0.12978 0.12974 0.13001 0.13018 0.13036 0.13042 0.13059 0.13076 0.13072 0.13046 0.13063 0.13123 0.13086 0.13114 0.13174 0.13202 0.13219 0.13247 0.13264 0.13281 0.13266 0.13283 0.133 0.13328 0.13345 0.13373 0.1339 0.13418 0.13424 0.13441 0.1348 0.13497 0.13569 0.13586 0.13603 0.13621 0.13627 0.13644 0.13661 0.13678 0 0 0 0 0 0 0 0 0 0 0 0 0 0 0 0 0 0 0 0 0.14278 0.14284 0.14278 0.14296 0.14325 0.14411 0.14417 0.14423 0.14463 0.14504 0.14533 0.1455 0.14695 0.14724 0.14789 0.14818 0.14847 0.14888 0.14906 0.14936 0.14977 0.15018 0.15071 0.15101 0.1513 0.15196 0.15308 0.15349 0.15379 0.15397 0.15498 0.15528 0.15559 0.15589 0.15678 0.15709 0.15727 0.15745 0.15799 0.15902 0.1592 0.1607 0.16089 0.16216 0.16331 0.1635 0.16369 0.16387 0.16756 0.16764 0.16795 0.17008 0.17028 0.17084 0 0 0 0 0 0 0 0 0 0 0 0 1.3435 1.3478 1.3522 1.3537 1.3581 1.3568 1.3611 1.3627 1.3672 1.3687 1.3761 1.3746 1.3762 1.3777 1.3822 1.3897 1.3942 1.3958 1.4002 1.4018 1.4063 1.4109 1.4156 1.4264 1.4342 1.4358 1.4469 1.4516 1.4564 1.4613 1.4661 1.471 1.4791 1.4808 1.4758 1.4774 1.4725 1.4708 1.4691 1.4675 1.4691 1.4707 1.4626 0 0 1.2195 1.2186 1.2133 1.2016 1.1965 1.1956 1.1948 1.1981 1.1973 1.1944 1.1957 1.1949 1.1961 1.1953 1.1987 1.2084 1.2119 1.2132 1.2145 1.2114 1.2063
0.29935 0.29986 0.30012 0.30021 0.30047 0.30039 0.30065 0.30115 0.30191 0.30325 0.30375 0.30384 0.30451 0.30501 0.30603 0.30653 0.30704 0.30729 0.30779 0.30762 0.30812 0.30889 0.30956 0.31006 0.31083 0.31176 0.31252 0.31209 0.31242 0.31292 0.3136 0.31411 0.31418 0.31364 0.31388 0.31438 0.31471 0.31495 0.31571 0.31639 0.31215 0.31282 0.31375 0 0 0 0 0 0 0 0 0 0 0 0 0 0 0 0 0 0 0 0 0 0 0 0 0 0 0 0 0 0 0 0 0 0 0 0 0.13026 0.12952 0.12971 0.12897 0.12907 0.12935 0 0 0 0 0.127 0.12709 0.12709 0.12708 0.12717 0.12717 0.12697 0.12706 0.12715 0.12647 0.12675 0.12549 0.12548 0.12557 0.12555 0.12515 0.12524 0.12532 0.12511 0.12529 0.12527 0.12535 0.12544 0.12542 0.1254 0.12538 0.12527 0.12525 0.12523 0.12491 0.12499 0.12506 0.12504 0.12512 0.12519 0.12507 0.12515 0.12522 0.12529 0.12537 0.12544 0.12552 0.12559 0.12566 0.12564 0.12571 0.12558 0.12565 0.12572 0.12579 0.12597 0.12614 0.12631 0.12648 0.12655 0.12662 0.12669 0.12676 0.12673 0.1268 0.12687 0.12693 0.127 0.12707 0.12714 0.12731 0.12748 0.12755 0.12761 0.12768 0.12837 0.12854 0.12882 0.1291 0.12906 0.12912 0.12929 0.12946 0.12964 0.12981 0.12987 0.13004 0.13021 0.13039 0.13045 0.13062 0.13079 0.13085 0.13092 0.13109 0.13126 0.13122 0.13128 0.13156 0.13205 0.13222 0.1325 0.13267 0.13284 0.13279 0.13286 0.13303 0.1332 0.13348 0.13376 0.13404 0.13421 0.13427 0.13444 0.13472 0.135 0.13572 0.13589 0.13606 0.13624 0.1363 0.13647 0.13664 0.13681 0 0 0 0 0 0 0 0 0 0 0 0 0 0 0 0 0 0 0 0 0.14281 0.14287 0.14281 0.14299 0.14328 0.14414 0.1442 0.14437 0.14466 0.14507 0.14536 0.14553 0.14698 0.14751 0.14792 0.14821 0.1485 0.14891 0.14921 0.14939 0.14992 0.15021 0.15074 0.15104 0.15134 0.15199 0.15311 0.15364 0.15394 0.15436 0.15501 0.15532 0.15562 0.15604 0.15681 0.15712 0.15742 0.15748 0.15803 0.15917 0.15935 0.16074 0.16092 0.16219 0.16334 0.16353 0.16396 0.16403 0.16748 0.16779 0.16798 0.17012 0.17031 0 0 0 0 0 0 0 0 0 0 0 0 0 1.3437 1.3481 1.3553 1.3568 1.3583 1.3599 1.3614 1.3659 1.3703 1.3718 1.3764 1.3749 1.3764 1.378 1.3825 1.3929 1.3974 1.3989 1.4035 1.4081 1.4128 1.4174 1.4189 1.4297 1.4376 1.4424 1.444 1.4487 1.4567 1.4616 1.4664 1.4713 1.4794 1.481 1.4761 1.4744 1.4694 1.4678 1.4662 1.4646 1.4662 1.4645 1.4629 0 0 1.2197 1.2144 1.2113 1.1996 1.1967 1.1958 1.1971 1.1963 1.1996 1.1967 1.198 1.1951 1.1964 1.1955 1.1989 1.2065 1.2099 1.2134 1.2189 1.2137 1.2107
0.29837 0.29888 0.29938 0.29964 0.29998 0.30007 0.2999 0.30066 0.30133 0.30333 0.30317 0.30351 0.30401 0.30451 0.30502 0.30569 0.30619 0.3067 0.3072 0.30728 0.30779 0.30855 0.30922 0.30955 0.31049 0.31142 0.31193 0.312 0.31225 0.31275 0.31351 0.31376 0.31409 0.31329 0.31353 0.31386 0.31436 0.31486 0.31536 0.31542 0.31162 0.31246 0.31278 0 0 0 0 0 0 0 0 0 0 0 0 0 0 0 0 0 0 0 0 0 0 0 0 0 0 0 0 0 0 0 0 0 0 0 0 0 0 0 0.12854 0.12882 0.12892 0 0 0 0.1276 0.12703 0.12712 0.12712 0.12711 0.12721 0.1271 0.1271 0.12709 0.12718 0.12621 0.1264 0.12552 0.12551 0.1256 0.12558 0.12509 0.12527 0.12525 0.12514 0.12522 0.1253 0.12539 0.12547 0.12545 0.12533 0.12541 0.1251 0.12528 0.12526 0.12494 0.12512 0.12509 0.12507 0.12525 0.12522 0.1252 0.12518 0.12525 0.12532 0.1255 0.12547 0.12555 0.12562 0.12569 0.12567 0.12574 0.12561 0.12568 0.12575 0.12582 0.126 0.12617 0.12634 0.12651 0.12658 0.12665 0.12683 0.12679 0.12676 0.12683 0.1269 0.12696 0.12703 0.1271 0.12717 0.12734 0.12751 0.12768 0.12775 0.12792 0.1283 0.12857 0.12885 0.12902 0.12909 0.12915 0.12932 0.12949 0.12967 0.12984 0.1299 0.13007 0.13024 0.13031 0.13048 0.13065 0.13082 0.13088 0.13095 0.13112 0.13129 0.13125 0.13142 0.13169 0.13208 0.13225 0.13253 0.1327 0.13287 0.13282 0.13289 0.13306 0.13334 0.13361 0.13378 0.13406 0.13424 0.13441 0.13458 0.13475 0.13492 0.13564 0.13581 0.13609 0.13626 0.13633 0.1365 0.13667 0.13673 0.1369 0.1373 0.13747 0.13764 0.13781 0.13798 0.13849 0.13866 0.13928 0.13968 0.13985 0.14036 0.14054 0.14071 0.14134 0.14151 0.14169 0.14209 0.14237 0.14255 0.14272 0.1429 0.14296 0.14313 0.14353 0.14394 0.14411 0.14463 0.14481 0.1451 0.14539 0.14556 0.14666 0.14742 0.14795 0.14824 0.14853 0.14906 0.14924 0.14942 0.14995 0.15024 0.15077 0.15107 0.15125 0.15237 0.15314 0.15367 0.15397 0.15439 0.15504 0.15535 0.15553 0.15607 0.15685 0.15727 0.15757 0.15787 0.15889 0.1592 0.15938 0.16089 0.16107 0.16186 0.16277 0.16296 0.16628 0.16647 0.16763 0.16783 0.16802 0.16906 0.16925 0 0 0 0 0 0 0 0 0 0 0 0 0 1.344 1.3455 1.3585 1.3571 1.3586 1.3601 1.3646 1.3662 1.3677 1.3721 1.3766 1.3752 1.3738 1.3782 1.3828 1.3932 1.3977 1.3992 1.4068 1.4115 1.4161 1.4207 1.4254 1.4332 1.4379 1.4395 1.4443 1.449 1.4538 1.4619 1.4667 1.4716 1.4764 1.478 1.4764 1.478 1.4697 1.4681 1.4665 1.4648 1.4664 1.468 1.4167 1.4182 1.212 1.2111 1.2146 1.2115 1.202 1.1969 1.196 1.1973 1.1986 1.1978 1.1969 1.1961 1.1974 1.1966 1.1978 1.2012 1.2067 1.2123 1.2157 1.2191 1.2139 1.2131
0.29195 0.29245 0.29311 0.2936 0.29426 0.29376 0.29392 0.29441 0.29465 0.29539 0.29622 0.29654 0.29704 0.29753 0.29785 0.29835 0.29943 0.29992 0.30058 0.30065 0.30115 0.30164 0.30196 0.30245 0.30569 0.30635 0.30874 0.30692 0.30741 0.31111 0.3123 0.3128 0.31261 0.30798 0.30874 0.31072 0.31226 0.3132 0.31387 0.31331 0.31188 0.31176 0.31163 0.31186 0.31261 0.31497 0 0 0 0 0 0 0 0 0 0 0 0 0 0 0 0 0 0 0 0 0 0 0 0 0 0 0 0 0 0 0 0 0 0 0 0 0.12857 0.12867 0.12885 0.12886 0.12839 0.12858 0.12763 0.12706 0.12725 0.12715 0.12715 0.12724 0.12723 0.12713 0.12722 0.12721 0.12615 0.12643 0.12546 0.12535 0.12543 0.12513 0.12502 0.1252 0.12519 0.12517 0.12525 0.12534 0.12542 0.1255 0.12548 0.12536 0.12535 0.12513 0.12521 0.12529 0.12507 0.12515 0.12522 0.1251 0.12528 0.12535 0.12523 0.1253 0.12538 0.12535 0.12543 0.1255 0.12548 0.12555 0.12562 0.1256 0.12557 0.12564 0.12571 0.12578 0.12585 0.12602 0.1262 0.12637 0.12644 0.12661 0.12658 0.12665 0.12682 0.12669 0.12686 0.12682 0.12699 0.12706 0.12713 0.1273 0.12737 0.12754 0.12771 0.12788 0.12805 0.12833 0.1285 0.12877 0.12895 0.12901 0.12908 0.12935 0.12952 0.12959 0.12976 0.12993 0.13 0.13006 0.13023 0.1304 0.13057 0.13074 0.13091 0.13098 0.13115 0.13121 0.13127 0.13155 0.13172 0.132 0.13228 0.13256 0.13273 0.1329 0.13296 0.13302 0.13319 0.13347 0.13364 0.13381 0.13409 0.13426 0.13444 0.13461 0.13478 0.13506 0.13567 0.13584 0.13601 0.13618 0.13636 0.13653 0.13659 0.13665 0.13693 0.1371 0.1375 0.13767 0.13784 0.13823 0.13852 0.1388 0.13931 0.1396 0.14 0.14028 0.14057 0.14097 0.14125 0.14154 0.14172 0.142 0.14229 0.14258 0.14275 0.14293 0.14299 0.14316 0.14345 0.14397 0.14414 0.14455 0.14484 0.14513 0.1453 0.14548 0.14577 0.14652 0.1467 0.14839 0.14857 0.14909 0.14927 0.14957 0.14998 0.15027 0.1508 0.1511 0.15128 0.15181 0.15211 0.15217 0.15388 0.15407 0.15484 0.15538 0.15556 0.1561 0.15688 0.1573 0.15772 0.1579 0.15893 0.15923 0.15942 0.16092 0.16123 0.16165 0.1628 0.16299 0.16499 0.16518 0.1673 0.16786 0.16805 0.16909 0.16929 0 0 0 0 0 0 0 0 0 0 0 0 0 1.3442 1.3429 1.3558 1.3573 1.356 1.3604 1.3619 1.3664 1.3708 1.3724 1.3769 1.3754 1.38 1.3815 1.3889 1.3964 1.4039 1.4086 1.4132 1.4178 1.4194 1.4303 1.4319 1.4366 1.4413 1.4366 1.4382 1.4429 1.4509 1.4588 1.4604 1.4685 1.4766 1.4783 1.4733 1.4783 1.4765 1.4716 1.4732 1.4716 1.4732 1.4748 1.4169 1.4185 1.2123 1.2135 1.2127 1.2118 1.2023 1.2013 1.1985 1.1954 1.1988 1.1959 1.1972 1.1964 1.1976 1.1968 1.1981 1.1993 1.2048 1.2082 1.2095 1.2129 1.2099 1.2112
0.29204 0.29253 0.29319 0.29368 0.29418 0.29426 0.294 0.29449 0.29473 0.29548 0.29614 0.29663 0.29712 0.29761 0.29768 0.29843 0.29951 0.30001 0.30067 0.30057 0.30106 0.30172 0.30204 0.30254 0.30577 0.30644 0.30883 0.307 0.3075 0.31145 0.3117 0.31246 0.3114 0.30807 0.309 0.3101 0.31104 0.3124 0.3129 0.3134 0.31328 0.3114 0.31172 0.31194 0.31288 0.31505 0 0 0 0 0 0 0 0 0 0 0 0 0 0 0 0 0 0 0 0 0 0 0 0 0 0 0 0 0 0 0 0 0 0 0 0 0 0.1287 0.12879 0.12889 0.12842 0.12861 0.12823 0.12842 0.12861 0.12728 0.12727 0.12736 0.12746 0.12707 0.12716 0.12724 0.12618 0.12646 0.12549 0.12538 0.12546 0.12516 0.12515 0.12513 0.12522 0.1252 0.12528 0.12546 0.12545 0.12563 0.12561 0.1254 0.12528 0.12516 0.12524 0.12532 0.1251 0.12518 0.12525 0.12523 0.12531 0.12538 0.12536 0.12543 0.12541 0.12549 0.12546 0.12563 0.12551 0.12548 0.12555 0.12552 0.1256 0.12567 0.12574 0.12581 0.12588 0.12606 0.12623 0.1263 0.12647 0.12664 0.12661 0.12668 0.12675 0.12682 0.12689 0.12696 0.12702 0.12709 0.12716 0.12733 0.1275 0.12767 0.12784 0.12801 0.12818 0.12836 0.12853 0.1288 0.12897 0.12893 0.12911 0.12928 0.12955 0.12962 0.12979 0.12985 0.13003 0.1302 0.13026 0.13032 0.13049 0.13077 0.13084 0.13101 0.13107 0.13113 0.1313 0.13147 0.13175 0.13214 0.13231 0.13248 0.13276 0.13293 0.13321 0.13327 0.13344 0.13361 0.13378 0.13395 0.13412 0.1344 0.13447 0.13475 0.13492 0.1352 0.13559 0.13587 0.13604 0.13621 0.13639 0.13656 0.13662 0.13668 0.13696 0.13713 0.13753 0.13781 0.13798 0.13838 0.13866 0.13895 0.13945 0.13974 0.14003 0.14031 0.1406 0.141 0.14128 0.14157 0.14175 0.14203 0.14232 0.14249 0.14278 0.14296 0.14302 0.1433 0.14359 0.14434 0.14452 0.14458 0.14475 0.14504 0.14533 0.14562 0.1458 0.14655 0.14673 0.14842 0.14871 0.14912 0.14942 0.14971 0.15013 0.15042 0.15083 0.15113 0.15143 0.15184 0.15214 0.1522 0.15392 0.1541 0.15487 0.15576 0.15595 0.15625 0.15726 0.15757 0.15787 0.15806 0.15896 0.15926 0.15945 0.16095 0.16114 0.16169 0.1644 0.16471 0.16502 0.16521 0.16734 0.16874 0.16893 0.16913 0.16932 0 0 0 0 0 0 0 0 0 0 0 0 0 1.339 1.3432 1.3532 1.3547 1.3563 1.3607 1.3622 1.3667 1.3711 1.3756 1.3772 1.3757 1.3802 1.3877 1.3892 1.3996 1.4042 1.4089 1.4197 1.4212 1.4228 1.4337 1.4321 1.4369 1.4385 1.4337 1.4384 1.44 1.448 1.4559 1.4607 1.4656 1.4737 1.4753 1.4769 1.4785 1.4802 1.4784 1.4768 1.475 1.4767 1.4783 1.4172 1.4187 1.2125 1.2116 1.2129 1.2098 1.2068 1.2015 1.1965 1.1957 1.199 1.1961 1.1953 1.1966 1.1978 1.197 1.1962 1.1974 1.2029 1.2042 1.2076 1.2067 1.208 1.2072
0.2913 0.29179 0.29228 0.29319 0.29368 0.29376 0.29384 0.29416 0.29423 0.29472 0.29522 0.29554 0.29603 0.29669 0.29718 0.29623 0.29494 0.29543 0.29957 0.30065 0.30097 0.30147 0.30153 0.30142 0.30268 0.30112 0.3016 0.30071 0.30137 0.30454 0.30503 0.30595 0.30644 0.3065 0.30821 0.30896 0.30841 0.30934 0.30895 0.30944 0.30994 0.30937 0.31109 0.31158 0.31278 0.31407 0 0 0 0 0 0 0 0 0 0 0 0 0 0 0 0 0 0 0 0 0 0 0 0 0 0 0 0 0 0 0 0 0 0 0 0 0.12854 0.12854 0.12873 0.12883 0.12855 0.12874 0.12893 0.12845 0.12864 0.12731 0.12731 0.1274 0.12749 0.127 0.12719 0.12728 0.12631 0.12649 0.12552 0.12541 0.1255 0.12539 0.12518 0.12526 0.12525 0.12523 0.12532 0.12549 0.12548 0.12566 0.12564 0.12543 0.12541 0.12519 0.12527 0.12535 0.12513 0.12521 0.12528 0.12526 0.12534 0.12541 0.12529 0.12537 0.12554 0.12541 0.12549 0.12566 0.12554 0.12561 0.12558 0.12545 0.12552 0.1256 0.12577 0.12584 0.12591 0.12608 0.12626 0.12643 0.1265 0.12667 0.12664 0.12671 0.12678 0.12674 0.12692 0.12698 0.12705 0.12712 0.12729 0.12736 0.12753 0.1277 0.12798 0.12804 0.12832 0.12849 0.12856 0.12883 0.129 0.12896 0.12913 0.12941 0.12948 0.12975 0.12982 0.12999 0.13006 0.13023 0.13029 0.13046 0.13052 0.1307 0.13087 0.13093 0.13099 0.13106 0.13123 0.1315 0.13167 0.13206 0.13234 0.13251 0.13279 0.13296 0.13313 0.1333 0.13347 0.13364 0.13381 0.13409 0.13415 0.13443 0.1346 0.13489 0.13506 0.13534 0.13573 0.1359 0.13607 0.13635 0.13641 0.13659 0.13665 0.13671 0.13688 0.13716 0.13756 0.13784 0.13801 0.13841 0.13869 0.13897 0.13948 0.13977 0.14006 0.14023 0.14051 0.14103 0.1412 0.14149 0.14166 0.14195 0.14224 0.14252 0.1427 0.14299 0.14305 0.14333 0.14351 0.14437 0.14455 0.14461 0.1449 0.14507 0.14536 0.14554 0.14594 0.1467 0.14688 0.14845 0.14874 0.14915 0.14945 0.14974 0.15016 0.15045 0.15086 0.15116 0.15146 0.15187 0.15288 0.15318 0.15371 0.15401 0.1549 0.15603 0.15622 0.15676 0.1573 0.15748 0.15778 0.15797 0.15911 0.15929 0.1596 0.16158 0.16177 0.16304 0.16407 0.16462 0.16493 0.16488 0.16689 0.16804 0.16824 0 0 0 0 0 0 0 0 0 0 0 0 0 1.3278 1.332 1.3335 1.3379 1.3478 1.3493 1.3537 1.3552 1.3596 1.367 1.3714 1.3759 1.3744 1.3789 1.3775 1.3879 1.3925 1.3999 1.4076 1.4122 1.4199 1.4245 1.4292 1.434 1.4356 1.4371 1.4419 1.434 1.4355 1.4403 1.445 1.4562 1.461 1.4626 1.4772 1.4788 1.4772 1.4788 1.4804 1.4852 1.4803 1.4819 1.4869 1.4885 1.4175 1.419 1.2127 1.214 1.2109 1.21 1.2048 1.2018 1.1989 1.1959 1.1992 1.1963 1.1976 1.1968 1.196 1.1972 1.1964 1.1955 1.1968 1.1981 1.2015 1.2048 1.2061 1.2031
0.29039 0.29088 0.29154 0.29203 0.29318 0.29301 0.29317 0.29366 0.29348 0.2938 0.29371 0.29319 0.29468 0.29576 0.29608 0.29513 0.2952 0.29551 0.29965 0.29955 0.30003 0.30053 0.30059 0.30125 0.30174 0.3012 0.30091 0.30097 0.30266 0.30376 0.30451 0.30517 0.30592 0.30597 0.30646 0.30695 0.30823 0.30942 0.30904 0.30847 0.30879 0.30963 0.30994 0.31131 0.3118 0.31416 0 0 0 0 0 0 0 0 0 0 0 0 0 0 0 0 0 0 0 0 0 0 0 0 0 0 0 0 0 0 0 0 0 0 0 0 0.12857 0.12857 0.12867 0.12867 0.12858 0.12877 0.12887 0.12848 0.12867 0.12734 0.12734 0.12743 0.12752 0.12704 0.12732 0.12712 0.12634 0.12652 0.12555 0.12535 0.12553 0.12551 0.12521 0.12529 0.12528 0.12526 0.12535 0.12543 0.12551 0.12569 0.12538 0.12526 0.12534 0.12522 0.1252 0.12538 0.12516 0.12514 0.12521 0.12519 0.12537 0.12544 0.12532 0.12549 0.12557 0.12554 0.12552 0.12569 0.12567 0.12564 0.12541 0.12548 0.12555 0.12552 0.1257 0.12587 0.12594 0.12611 0.12629 0.12636 0.12653 0.1266 0.12667 0.12674 0.12681 0.12677 0.12695 0.12701 0.12708 0.12725 0.12732 0.12749 0.12766 0.12773 0.12801 0.12818 0.12835 0.12852 0.12859 0.12876 0.12893 0.12899 0.12917 0.12944 0.12951 0.12978 0.12985 0.13002 0.13008 0.13026 0.13032 0.13049 0.13055 0.13072 0.13079 0.13085 0.13102 0.13108 0.13125 0.13153 0.1317 0.13209 0.13237 0.13254 0.13282 0.13299 0.13316 0.13333 0.1335 0.13367 0.13384 0.13401 0.13429 0.13446 0.13463 0.13491 0.1352 0.13537 0.13576 0.13593 0.13621 0.13638 0.13644 0.13661 0.13667 0.13673 0.13702 0.13719 0.13758 0.13787 0.13804 0.13844 0.13872 0.139 0.13951 0.13969 0.14008 0.14026 0.14043 0.14083 0.14112 0.1414 0.14169 0.14186 0.14215 0.14255 0.14284 0.14302 0.14319 0.14336 0.14365 0.1444 0.14458 0.14475 0.14493 0.14522 0.14551 0.14568 0.14597 0.14673 0.14691 0.14848 0.14866 0.14942 0.1496 0.14977 0.1503 0.1506 0.15101 0.15131 0.15161 0.1519 0.15291 0.15321 0.15374 0.15404 0.15493 0.15606 0.15625 0.15691 0.15721 0.15763 0.15782 0.158 0.15914 0.15933 0.15963 0.16162 0.1618 0.16307 0.1641 0.16429 0.16484 0.16492 0.16692 0.16808 0.16827 0 0 0 0 0 0 0 0 0 0 0 0 0 1.3281 1.3351 1.3338 1.3353 1.3452 1.3496 1.3539 1.3555 1.3599 1.3701 1.3716 1.3761 1.3747 1.3762 1.3807 1.3941 1.3956 1.4002 1.4109 1.4155 1.4202 1.4248 1.4295 1.4343 1.4358 1.4374 1.439 1.4374 1.4422 1.4437 1.4485 1.4596 1.4612 1.4628 1.4775 1.4791 1.484 1.4856 1.4872 1.4922 1.4938 1.4954 1.497 1.5055 1.5036 1.5088 1.2129 1.2142 1.2133 1.2102 1.2072 1.2042 1.2033 1.2004 1.2017 1.1986 1.1999 1.2012 1.1983 1.1995 1.1987 1.1958 1.197 1.2004 1.2017 1.2072 1.2063 1.2055
0.28635 0.28684 0.28716 0.28747 0.28812 0.28861 0.28909 0.28999 0.29022 0.29054 0.29161 0.29209 0.29258 0.29247 0.29296 0.29446 0.29511 0.29559 0.29812 0.29895 0.29944 0.29993 0.30024 0.30073 0.30122 0.29965 0.30057 0.30088 0.30137 0.30324 0.30398 0.30465 0.30531 0.30545 0.30568 0.30617 0.30464 0.30513 0.30684 0.30733 0.30737 0.30663 0.30693 0.3076 0.3079 0.3138 0 0 0 0 0 0 0 0 0 0 0 0 0 0 0 0 0 0 0 0 0 0 0 0 0 0 0 0 0 0 0 0 0 0 0 0 0.1286 0.12861 0.1287 0.12871 0.12861 0.1288 0.12899 0.12747 0.12766 0.12718 0.12737 0.12746 0.12755 0.12697 0.12716 0.12638 0.12618 0.12636 0.12655 0.12557 0.12565 0.12564 0.12524 0.12532 0.12531 0.12529 0.12538 0.12546 0.12554 0.12562 0.12521 0.12529 0.12537 0.12515 0.12523 0.12531 0.12509 0.12517 0.12524 0.12522 0.1254 0.12547 0.12535 0.12552 0.1256 0.12557 0.12565 0.12572 0.1257 0.12577 0.12554 0.12551 0.12558 0.12555 0.12573 0.1258 0.12597 0.12614 0.12621 0.12639 0.12656 0.12673 0.1267 0.12677 0.12684 0.1268 0.12698 0.12704 0.12721 0.12728 0.12735 0.12752 0.12769 0.12786 0.12804 0.12821 0.12838 0.12855 0.12862 0.12879 0.12896 0.12902 0.12919 0.12937 0.12954 0.12971 0.12988 0.13005 0.13011 0.13028 0.13035 0.13041 0.13058 0.13075 0.13092 0.13088 0.13105 0.13111 0.13128 0.13156 0.13184 0.13212 0.1324 0.13257 0.13284 0.13302 0.13319 0.13336 0.13353 0.1337 0.13387 0.13404 0.13432 0.13449 0.13466 0.13494 0.13522 0.13539 0.13579 0.13607 0.13624 0.13641 0.13647 0.13664 0.1367 0.13688 0.13705 0.13733 0.13761 0.1379 0.13807 0.13846 0.13864 0.13903 0.13943 0.13972 0.14011 0.14029 0.14046 0.14086 0.14115 0.14132 0.14172 0.14189 0.14218 0.14258 0.14287 0.14305 0.14322 0.14339 0.1438 0.14443 0.14461 0.14478 0.14496 0.14525 0.14554 0.14571 0.14647 0.14664 0.14682 0.14828 0.14845 0.14968 0.14974 0.1498 0.15045 0.15063 0.15104 0.15134 0.15164 0.15193 0.15223 0.15241 0.15389 0.15419 0.15496 0.1561 0.15628 0.15694 0.15724 0.15766 0.15797 0.15815 0.15929 0.15948 0.15966 0 0 0 0.16546 0.16565 0.16584 0.16615 0.16719 0.16799 0.16818 0 0 0 0 0 0 0 0 0 0 0 0 0 1.3367 1.3354 1.3341 1.3356 1.3483 1.3498 1.3571 1.3586 1.363 1.3675 1.3719 1.3734 1.3749 1.3795 1.381 1.3914 1.3959 1.4035 1.4112 1.4158 1.4205 1.4251 1.4298 1.4314 1.4329 1.4377 1.4393 1.4408 1.4424 1.444 1.452 1.4599 1.4648 1.4664 1.4811 1.4827 1.4843 1.4859 1.4909 1.4993 1.5009 1.4991 1.5007 1.5058 1.5074 1.509 1.2153 1.2145 1.2113 1.2084 1.2074 1.2087 1.2057 1.2006 1.2019 1.1989 1.2001 1.2035 1.2006 1.1998 1.201 1.1981 1.1994 1.2027 1.204 1.2095 1.2087 1.2078
0.28528 0.28601 0.28666 0.28714 0.28762 0.28811 0.28842 0.28865 0.28914 0.28987 0.29035 0.29083 0.2909 0.29104 0.29152 0.29217 0.29299 0.29313 0.2948 0.29622 0.29713 0.29745 0.29793 0.29859 0.29865 0.29819 0.29884 0.29915 0.29583 0.29631 0.29696 0.29727 0.29852 0.30205 0.30227 0.30258 0.30262 0.30355 0.30403 0.30451 0.30543 0.30565 0.30596 0.30644 0.30674 0.31388 0 0 0 0 0 0 0 0 0 0 0 0 0 0 0 0 0 0 0 0 0 0 0 0 0 0 0 0 0 0 0 0 0 0 0.12844 0.12873 0.12864 0.12873 0.12883 0.12846 0.12855 0.12874 0.12893 0.12751 0.12769 0.12721 0.1274 0.12749 0.12691 0.127 0.12719 0.12641 0.12621 0.12649 0.12667 0.12551 0.12559 0.12558 0.12527 0.12535 0.12534 0.12532 0.12541 0.12549 0.12557 0.12565 0.12524 0.12522 0.1253 0.12509 0.12516 0.12514 0.12512 0.1252 0.12527 0.12525 0.12533 0.1254 0.12528 0.12535 0.12553 0.1255 0.12558 0.12565 0.12563 0.1257 0.12577 0.12564 0.12561 0.12568 0.12576 0.12593 0.126 0.12617 0.12624 0.12631 0.12649 0.12666 0.12663 0.1267 0.12676 0.12683 0.127 0.12707 0.12714 0.12731 0.12738 0.12755 0.12762 0.12779 0.12796 0.12813 0.1283 0.12858 0.12864 0.12882 0.12899 0.12905 0.12922 0.12939 0.12957 0.12974 0.12991 0.12997 0.13004 0.13021 0.13038 0.13044 0.13061 0.13078 0.13095 0.13102 0.13119 0.13125 0.13142 0.13159 0.13187 0.13215 0.13232 0.13249 0.13277 0.13304 0.13322 0.13339 0.13356 0.13384 0.13401 0.13418 0.13435 0.13452 0.1348 0.13497 0.13525 0.13553 0.13582 0.13599 0.13616 0.13633 0.13639 0.13656 0.13662 0.13668 0.13697 0.13714 0.13764 0.13781 0.1381 0.13849 0.13878 0.13906 0.13946 0.13975 0.14014 0.14032 0.1406 0.14089 0.14118 0.14135 0.14175 0.14192 0.1421 0.14261 0.1429 0.14319 0.14336 0.14354 0.14371 0.14446 0.14475 0.14493 0.1451 0.14539 0.14569 0.14598 0.1465 0.14667 0.14685 0.14831 0.14848 0.14971 0.14989 0.14983 0.1506 0.15078 0.15119 0.15149 0.15179 0.15208 0.15238 0.15244 0.15333 0.15422 0.155 0.15613 0.15643 0.15697 0.15727 0.15757 0.158 0.15818 0.15944 0.15963 0.1597 0 0.16415 0.16434 0.16549 0.1658 0.166 0.16607 0.16686 0.16802 0.16822 0 0 0 0 0 0 0 0 0 0 0 0 0 1.3313 1.3328 1.3316 1.3303 1.3457 1.3473 1.3545 1.3588 1.3632 1.3706 1.3721 1.3737 1.3752 1.3797 1.3813 1.3917 1.3961 1.4037 1.4114 1.416 1.4207 1.4253 1.4301 1.4316 1.4332 1.438 1.4395 1.4411 1.449 1.4538 1.4586 1.4667 1.4683 1.4732 1.4847 1.4863 1.4912 1.4929 1.4945 1.5029 1.5079 1.5028 1.5045 1.5061 1.2021 1.2034 1.2025 1.206 1.2073 1.2021 1.2034 1.2067 1.2059 1.2029 1.2021 1.2012 1.2025 1.2081 1.2072 1.2063 1.2076 1.2025 1.2059 1.2051 1.2085 1.214 1.2152 1.2102
0.2852 0.28552 0.28616 0.28648 0.28713 0.28744 0.28775 0.28799 0.28847 0.28895 0.28985 0.28991 0.29022 0.29053 0.29101 0.29183 0.29231 0.29304 0.29429 0.29537 0.29619 0.29668 0.29742 0.2979 0.29813 0.29827 0.29832 0.29863 0.29592 0.29622 0.2967 0.297 0.29861 0.30213 0.30235 0.30266 0.30271 0.30319 0.30367 0.30442 0.30525 0.30538 0.30586 0.30652 0.30683 0 0 0 0 0 0 0 0 0 0 0 0 0 0 0 0 0 0 0 0 0 0 0 0 0 0 0 0 0 0 0 0 0 0 0 0.12848 0.12867 0.12886 0.12895 0.12896 0.12849 0.12858 0.12877 0.12887 0.12754 0.12773 0.12734 0.12743 0.12752 0.12695 0.12703 0.12712 0.12721 0.12653 0.12671 0.1269 0.12554 0.12572 0.12551 0.1254 0.12548 0.12527 0.12536 0.12544 0.12562 0.1256 0.12578 0.12527 0.12525 0.12533 0.12531 0.12519 0.12517 0.12505 0.12513 0.1253 0.12528 0.12536 0.12543 0.12531 0.12538 0.12556 0.12563 0.12571 0.12568 0.12576 0.12573 0.1258 0.12567 0.12564 0.12571 0.12589 0.12596 0.12603 0.1261 0.12627 0.12634 0.12652 0.12659 0.12665 0.12672 0.12679 0.12686 0.12693 0.1271 0.12717 0.12734 0.12741 0.12758 0.12775 0.12782 0.12809 0.12826 0.12844 0.12861 0.12867 0.12884 0.12912 0.12908 0.12925 0.12942 0.12959 0.12976 0.12994 0.13 0.13006 0.13024 0.13041 0.13058 0.13075 0.13092 0.13109 0.13126 0.13132 0.13149 0.13156 0.13173 0.1319 0.13217 0.13235 0.13252 0.13279 0.13307 0.13325 0.13353 0.1337 0.13387 0.13404 0.13432 0.13449 0.13466 0.13494 0.13511 0.13528 0.13556 0.13574 0.13591 0.13608 0.13636 0.13642 0.13648 0.13665 0.13671 0.137 0.13728 0.13756 0.13784 0.13801 0.13841 0.1387 0.13909 0.1396 0.13989 0.14029 0.14046 0.14063 0.14092 0.14109 0.14138 0.14178 0.14195 0.14213 0.14276 0.14293 0.14345 0.14362 0.14357 0.14374 0.14472 0.1449 0.14507 0.14525 0.14566 0.14583 0.14612 0.14653 0.14682 0.14688 0.14845 0.14875 0.14963 0.14992 0.15022 0.15063 0.15093 0.15134 0.15164 0.15193 0.15223 0.15253 0.15271 0.15336 0.15496 0.15515 0.15628 0.15634 0.157 0.1573 0.15761 0.15863 0.15905 0.15959 0.15978 0.16009 0 0.16418 0.16437 0.16577 0.16596 0.16627 0.16646 0.1669 0.16806 0.16825 0 0 0 0 0 0 0 0 0 0 0 0 0 1.3316 1.3331 1.3319 1.3334 1.3488 1.3475 1.3547 1.362 1.3635 1.3739 1.3754 1.3798 1.3785 1.38 1.3844 1.3949 1.3994 1.4101 1.4179 1.4194 1.424 1.4287 1.4335 1.4351 1.4366 1.4414 1.4462 1.4477 1.459 1.4638 1.4687 1.4834 1.4885 1.4934 1.4984 1.5 1.5016 1.5033 1.5049 1.5133 1.5185 1.5166 1.5149 1.5131 1.2023 1.2014 1.2027 1.204 1.2031 1.2001 1.1993 1.2049 1.2039 1.201 1.2023 1.2014 1.2091 1.2169 1.2182 1.2195 1.2208 1.2155 1.2168 1.2139 1.2173 1.225 1.2198 1.2167
0.28396 0.28502 0.2855 0.28557 0.28604 0.28677 0.28667 0.28698 0.28721 0.28769 0.28917 0.2894 0.28971 0.28985 0.2905 0.29115 0.29205 0.29253 0.29395 0.2946 0.29568 0.29642 0.2969 0.29739 0.29761 0.29775 0.2978 0.29811 0.29565 0.29613 0.29635 0.2963 0.29599 0.29699 0.29746 0.29873 0.29692 0.2974 0.29901 0.29949 0.29996 0.30061 0.30091 0.30174 0 0 0 0 0 0 0 0 0 0 0 0 0 0 0 0 0 0 0 0 0 0 0 0 0 0 0 0 0 0 0 0 0 0 0 0.12822 0.12842 0.1287 0.12889 0.12908 0.12937 0.12937 0.12899 0.12918 0.12814 0.12776 0.12795 0.12747 0.12699 0.12717 0.12679 0.12697 0.12706 0.12715 0.12666 0.12694 0.12606 0.12634 0.12652 0.12554 0.12553 0.12571 0.12521 0.12539 0.12557 0.12565 0.12563 0.12581 0.1253 0.12528 0.12536 0.12524 0.12522 0.1252 0.12508 0.12516 0.12534 0.12531 0.12539 0.12546 0.12534 0.12551 0.12559 0.12566 0.12574 0.12581 0.12568 0.12576 0.12583 0.1257 0.12567 0.12574 0.12592 0.12599 0.12606 0.12613 0.1263 0.12637 0.12654 0.12662 0.12658 0.12675 0.12682 0.12679 0.12696 0.12703 0.1272 0.12737 0.12744 0.12761 0.12778 0.12795 0.12812 0.12829 0.12846 0.12864 0.1287 0.12887 0.12904 0.12911 0.12928 0.12945 0.12962 0.12979 0.12986 0.12992 0.13009 0.13026 0.13044 0.1305 0.13078 0.13095 0.13112 0.13129 0.13146 0.13152 0.13159 0.13186 0.13193 0.1322 0.13237 0.13255 0.13282 0.133 0.13327 0.13355 0.13373 0.1339 0.13418 0.13435 0.13452 0.1348 0.13497 0.13514 0.13531 0.13548 0.13576 0.13594 0.13611 0.13628 0.13634 0.13651 0.13657 0.13674 0.13702 0.1372 0.13748 0.13787 0.13805 0.13844 0.13861 0.13878 0.13952 0.14037 0.14043 0.1406 0.14066 0.14095 0.14112 0.14141 0.14181 0.14198 0.14239 0.14279 0.14308 0.14348 0.14365 0.14394 0.14435 0.14475 0.14493 0.14522 0.14539 0.14569 0.14586 0.14615 0.14667 0.14697 0.14726 0.14825 0.14843 0.14954 0.14983 0.15013 0.15066 0.15096 0.15137 0.15167 0.15196 0.15226 0.15256 0.15286 0.15339 0.15369 0.15387 0.15607 0.15637 0.15703 0.15722 0.15752 0.15902 0.1592 0.15963 0.15981 0.16012 0.16126 0.16145 0.16224 0.16556 0.16599 0.1663 0.16662 0.16693 0 0 0 0 0 0 0 0 0 0 0 0 0 0 1.3221 1.3236 1.3362 1.3348 1.3392 1.3491 1.3506 1.355 1.3594 1.3667 1.377 1.3785 1.3801 1.3846 1.3831 1.3847 1.3951 1.3997 1.4104 1.4181 1.4227 1.4274 1.4322 1.4338 1.4385 1.4401 1.4448 1.4496 1.4544 1.4624 1.4705 1.4788 1.4837 1.4921 1.497 1.5021 1.5071 1.5087 1.507 1.5087 1.524 1.5292 1.5273 1.5255 1.5307 1.2025 1.2016 1.2007 1.1999 1.1969 1.1939 1.1974 1.1987 1.2 1.199 1.1982 1.1995 1.2093 1.2149 1.2184 1.2175 1.2188 1.2136 1.2128 1.2162 1.2175 1.2209 1.22 1.2148
0.28198 0.28303 0.28368 0.28382 0.28447 0.28494 0.28484 0.28531 0.28562 0.28609 0.28766 0.28797 0.28828 0.28876 0.28509 0.28556 0.28603 0.2854 0.2857 0.28872 0.28885 0.28932 0.28645 0.28692 0.28739 0.28725 0.28754 0.2925 0.2896 0.29006 0.29018 0.29021 0.29068 0.29515 0.29624 0.29688 0.29604 0.29651 0.29575 0.29649 0.2981 0.29875 0.29922 0.30182 0 0 0 0 0 0 0 0 0 0 0 0 0 0 0 0 0 0 0 0 0 0 0 0 0 0 0 0 0 0 0 0 0 0 0 0.12826 0.12854 0.12873 0.12892 0.12911 0.12931 0.1294 0.12884 0.12903 0.12817 0.12779 0.12798 0.12721 0.12702 0.12721 0.12682 0.127 0.12709 0.12718 0.12669 0.12687 0.12609 0.12637 0.12655 0.12548 0.12556 0.12564 0.12524 0.12542 0.1256 0.12568 0.12566 0.12584 0.12533 0.12551 0.12539 0.12527 0.12535 0.12533 0.12511 0.12519 0.12527 0.12534 0.12542 0.12549 0.12537 0.12554 0.12562 0.12569 0.12577 0.12584 0.12582 0.12589 0.12586 0.12573 0.1257 0.12577 0.12585 0.12602 0.12609 0.12626 0.12633 0.1264 0.12647 0.12654 0.12661 0.12668 0.12685 0.12682 0.12699 0.12706 0.12723 0.1274 0.12757 0.12764 0.12781 0.12798 0.12815 0.12832 0.12849 0.12867 0.12884 0.12901 0.12907 0.12924 0.12931 0.12948 0.12965 0.12972 0.12989 0.12995 0.13002 0.13008 0.13025 0.13042 0.13059 0.13087 0.13115 0.13132 0.13149 0.13155 0.13172 0.13189 0.13206 0.13223 0.1324 0.13257 0.13285 0.13302 0.1332 0.13347 0.13375 0.13392 0.1341 0.13438 0.13455 0.13483 0.135 0.13517 0.13534 0.13551 0.13568 0.13586 0.13603 0.13631 0.13637 0.13654 0.1366 0.13677 0.13705 0.13734 0.13762 0.1379 0.13807 0.13847 0.13875 0.13881 0.13955 0.14028 0.14057 0.14063 0.14081 0.14098 0.14115 0.14133 0.14195 0.14213 0.14219 0.14282 0.14311 0.14351 0.1438 0.14409 0.14438 0.14478 0.14496 0.14525 0.14542 0.14572 0.14589 0.14618 0.14671 0.147 0.14729 0.14793 0.14811 0.14957 0.14975 0.15016 0.15069 0.15099 0.1514 0.1517 0.152 0.15229 0.15259 0.15289 0.15354 0.15372 0.1539 0.1561 0.1564 0.15695 0.15725 0.15755 0.15797 0.15816 0.15966 0.15996 0.16015 0.1613 0.16148 0.16227 0.16559 0.16602 0.16634 0.16665 0.16696 0 0 0 0 0 0 0 0 0 0 0 0 0 0 1.3169 1.3211 1.3309 1.3324 1.3366 1.3494 1.348 1.3581 1.3596 1.367 1.3772 1.3818 1.3833 1.3879 1.3864 1.388 1.3984 1.403 1.4107 1.4184 1.423 1.4309 1.4356 1.4372 1.4419 1.4404 1.4483 1.453 1.4546 1.4692 1.4741 1.4824 1.4907 1.4924 1.5008 1.5092 1.5108 1.5125 1.5106 1.5123 1.5243 1.526 1.5276 1.5258 1.5309 1.1963 1.1954 1.1967 1.1938 1.1929 1.1921 1.1913 1.1946 1.1959 1.193 1.1964 1.1976 1.2095 1.2151 1.2143 1.2177 1.2169 1.2139 1.213 1.2121 1.2133 1.219 1.2182 1.2129
0.28173 0.28237 0.28301 0.28332 0.2838 0.28444 0.28433 0.28481 0.28528 0.28576 0.28741 0.28746 0.28794 0.28825 0.28517 0.28547 0.28594 0.28531 0.28578 0.2888 0.28893 0.2894 0.28653 0.28657 0.28704 0.28733 0.2878 0.29258 0.28968 0.2898 0.29026 0.29029 0.29076 0.29541 0.29536 0.296 0.29586 0.29598 0.29584 0.2963 0.29739 0.29768 0.29833 0.3019 0 0 0 0 0 0 0 0 0 0 0 0 0 0 0 0 0 0 0 0 0 0 0 0 0 0 0 0 0 0 0 0 0 0 0 0.12829 0.12857 0.12876 0.12896 0.12915 0.12934 0.12953 0.12887 0.12906 0.12859 0.12887 0 0.12725 0.12743 0.12762 0.12704 0.12694 0.12703 0.12721 0.12672 0.1269 0.12622 0.1264 0.12658 0.12551 0.12569 0.12587 0.12576 0.12554 0.12563 0.12581 0.12579 0.12587 0.12595 0.12593 0.12542 0.1254 0.12558 0.12536 0.12504 0.12512 0.1253 0.12537 0.12545 0.12543 0.1254 0.12557 0.12565 0.12572 0.1258 0.12587 0.12585 0.12592 0.12599 0.12576 0.12583 0.1258 0.12598 0.12605 0.12612 0.12629 0.12636 0.12643 0.1265 0.12657 0.12664 0.12681 0.12688 0.12695 0.12712 0.12709 0.12726 0.12743 0.1276 0.12777 0.12784 0.12801 0.12829 0.12846 0.12863 0.1288 0.12887 0.12904 0.12921 0.12928 0.12945 0.12962 0.12968 0.12975 0.12992 0.12988 0.13005 0.13011 0.13028 0.13045 0.13062 0.1309 0.13118 0.13135 0.13141 0.13158 0.13175 0.13192 0.13209 0.13226 0.13243 0.1326 0.13288 0.13305 0.13322 0.1335 0.13378 0.13395 0.13423 0.13441 0.13469 0.13486 0.13503 0.1352 0.13537 0.13554 0.13582 0.13588 0.13617 0.13634 0.1364 0.13657 0.13663 0.1368 0.13708 0.13736 0.13776 0.13804 0.13822 0.13861 0.13901 0.13918 0.13992 0.1402 0.1406 0.14077 0.14095 0.14112 0.14141 0.14147 0.14221 0.1425 0.1429 0.14319 0.14336 0.14365 0.14383 0.14412 0.14452 0.14481 0.1451 0.14528 0.14557 0.14586 0.14615 0.14644 0.14685 0.14703 0.14732 0.14796 0.14814 0.1496 0.1499 0.15007 0.15072 0.15102 0.15155 0.15173 0.15203 0.15244 0.15262 0.15292 0.15357 0.15411 0.15429 0.15637 0.15655 0.15698 0.15728 0.15782 0.15801 0.15819 0.15969 0.16023 0.16042 0.16205 0.16224 0.16447 0.16598 0.16618 0.16637 0.16668 0.16724 0 0 0 0 0 0 0 0 0 0 0 0 0 0 1.3199 1.3214 1.3256 1.3298 1.3369 1.3468 1.3483 1.3584 1.3627 1.3701 1.3805 1.382 1.3866 1.394 1.3925 1.3971 1.4048 1.4094 1.414 1.4217 1.4264 1.4374 1.4359 1.4374 1.4454 1.4469 1.455 1.4631 1.4679 1.4794 1.4844 1.4894 1.4978 1.4994 1.5044 1.5164 1.518 1.5162 1.5144 1.5126 1.5211 1.5263 1.521 1.5226 1.5312 1.1965 1.1978 1.1948 1.1961 1.1931 1.1902 1.1936 1.1928 1.1961 1.1953 1.1945 1.1979 1.212 1.2176 1.2167 1.2202 1.2215 1.2162 1.2132 1.2123 1.2158 1.2213 1.2161 1.2153
0.2814 0.28204 0.28252 0.28299 0.28371 0.28436 0.28391 0.2838 0.27808 0.27854 0.27901 0.27964 0.27993 0.28056 0.28491 0.28538 0.28543 0.28496 0.28509 0.28479 0.28457 0.28504 0.2849 0.28614 0.28643 0.28689 0.28675 0.28739 0.28785 0.28927 0.28974 0.2902 0.29049 0.29261 0.29465 0.29512 0.29542 0.29527 0.29556 0.29603 0.2965 0.29697 0.29646 0.29675 0.29358 0.29422 0 0 0 0 0 0 0 0 0 0 0 0 0 0 0 0 0 0 0 0 0 0 0 0 0 0 0 0 0 0 0 0 0 0.12832 0.12861 0.12889 0.12908 0.12918 0.12937 0.12956 0.1289 0.12909 0.12862 0.1289 0 0.12718 0.12727 0.12736 0.12698 0.12697 0.12706 0.12724 0.12675 0.12703 0.12625 0.12585 0.12603 0.12602 0.1262 0.12638 0.12588 0.12538 0.12566 0.12574 0.12582 0.1259 0.12598 0.12596 0.12545 0.12553 0.12571 0.12549 0.12507 0.12515 0.12533 0.1253 0.12538 0.12546 0.12543 0.12551 0.12568 0.12575 0.12583 0.1259 0.12587 0.12595 0.12592 0.12579 0.12576 0.12583 0.12601 0.12608 0.12615 0.12632 0.12639 0.12646 0.12663 0.1267 0.12667 0.12684 0.12691 0.12688 0.12705 0.12712 0.12729 0.12746 0.12763 0.1277 0.12787 0.12804 0.12832 0.12849 0.12866 0.12883 0.1289 0.12907 0.12924 0.1293 0.12948 0.12965 0.12971 0.12978 0.12984 0.12991 0.13008 0.13014 0.13031 0.13048 0.13065 0.13082 0.1311 0.13138 0.13144 0.13161 0.13178 0.13195 0.13212 0.1324 0.13246 0.13263 0.13291 0.13308 0.13325 0.13353 0.1337 0.13398 0.13415 0.13443 0.13472 0.13489 0.13506 0.13523 0.13551 0.13568 0.13596 0.13602 0.1362 0.13637 0.13643 0.1366 0.13677 0.13694 0.13711 0.13739 0.1379 0.13807 0.13836 0.13864 0.13893 0.13921 0.14006 0.14034 0.14063 0.14092 0.14098 0.14126 0.14155 0.14184 0.14224 0.14253 0.14293 0.14322 0.14339 0.14368 0.14397 0.14415 0.14467 0.14496 0.14525 0.14542 0.1456 0.14601 0.1463 0.14659 0.147 0.14717 0.14747 0.14811 0.14829 0.14963 0.14981 0.1501 0.15063 0.15093 0.15158 0.15176 0.15206 0.15247 0.15277 0.15307 0.1536 0.15556 0.15574 0.1564 0.15659 0.15701 0.15731 0.15785 0.15816 0.15846 0.1596 0.1617 0.16189 0.16208 0.16227 0.1639 0.1659 0.16609 0.16628 0.16659 0.16691 0 0 0 0 0 0 0 0 0 0 0 0 0 0 1.3147 1.3189 1.3258 1.33 1.3344 1.347 1.3485 1.3615 1.366 1.3734 1.3838 1.3882 1.3897 1.3943 1.3958 1.4004 1.4081 1.4126 1.4174 1.422 1.4298 1.4346 1.4393 1.4409 1.4425 1.4504 1.4585 1.4633 1.4714 1.4797 1.4913 1.493 1.5014 1.5065 1.5115 1.5201 1.5183 1.5199 1.5147 1.5128 1.5214 1.5266 1.5177 1.516 1.521 1.5056 0 1.1866 1.192 1.1933 1.1925 1.1938 1.1971 1.1984 1.1976 1.1989 1.2002 1.2143 1.22 1.2169 1.2204 1.2239 1.2186 1.2177 1.2168 1.216 1.2259 1.2207 1.2176
0.27355 0.27401 0.27522 0.2736 0.27423 0.27469 0.27214 0.27276 0.27766 0.27812 0.27841 0.27887 0.27934 0.27921 0.28423 0.2847 0.2828 0.28377 0.28423 0.28453 0.28482 0.28495 0.28498 0.2851 0.28539 0.28585 0.28649 0.28712 0.28776 0.2884 0.28912 0.28958 0.29022 0.29121 0.29263 0.29328 0.29409 0.29421 0.29415 0.29418 0.29482 0.29528 0.29557 0.29551 0.29366 0.2943 0 0 0 0 0 0 0 0 0 0 0 0 0 0 0 0 0 0 0 0 0 0 0 0 0 0 0 0 0 0 0 0 0 0.12835 0.12855 0.12892 0.12912 0.12931 0.1295 0.12959 0.12893 0.12912 0.12865 0.12893 0 0.12712 0.12702 0.12711 0.12691 0.127 0.12709 0.12708 0.12678 0.12706 0.12628 0.12579 0.12607 0.12615 0.12614 0.12612 0.12591 0.12541 0.12559 0.12577 0.12585 0.12593 0.12591 0.1259 0.12548 0.12556 0.12554 0.12562 0.1251 0.12518 0.12526 0.12533 0.12541 0.12538 0.12536 0.12554 0.12571 0.12568 0.12576 0.12593 0.1259 0.12598 0.12605 0.12582 0.12589 0.12586 0.12593 0.12611 0.12618 0.12635 0.12642 0.12649 0.12666 0.12673 0.1268 0.12687 0.12694 0.12691 0.12708 0.12715 0.12732 0.12749 0.12756 0.12773 0.1279 0.12807 0.12834 0.12852 0.12869 0.12886 0.12893 0.1291 0.12927 0.12933 0.1295 0.12968 0.12974 0.12981 0.12987 0.12983 0.13 0.13017 0.13034 0.13051 0.13068 0.13085 0.13113 0.1313 0.13147 0.13164 0.13181 0.13209 0.13226 0.13243 0.1326 0.13266 0.13294 0.13311 0.13328 0.13345 0.13373 0.13401 0.13418 0.13436 0.13464 0.13492 0.13509 0.13526 0.13554 0.13571 0.13599 0.13616 0.13634 0.13651 0.13657 0.13674 0.1368 0.13697 0.13714 0.13765 0.13782 0.1381 0.13827 0.13856 0.13907 0.13924 0.14009 0.14037 0.14066 0.14095 0.14101 0.14129 0.14169 0.14198 0.14238 0.14256 0.14296 0.14325 0.14342 0.14371 0.144 0.14429 0.1447 0.14499 0.14528 0.14545 0.14575 0.14615 0.14644 0.14662 0.14714 0.14732 0.14785 0.14814 0.14832 0.14955 0.14984 0.15014 0.15067 0.15096 0.15161 0.15179 0.15209 0.15239 0.15292 0.15334 0.15376 0.15394 0.15459 0.15596 0.15614 0.15704 0.15722 0.15776 0.15807 0.15837 0.15963 0.16174 0.16192 0.16211 0.1623 0.16393 0.16593 0.16612 0.16631 0.1665 0.16694 0 0 0 0 0 0 0 0 0 0 0 0 0 0 1.3177 1.3246 1.3288 1.3359 1.3431 1.3473 1.3517 1.3647 1.3721 1.3795 1.3869 1.3914 1.396 1.4037 1.4022 1.4098 1.4145 1.4161 1.4176 1.4254 1.4301 1.438 1.4427 1.4443 1.4491 1.454 1.4652 1.4734 1.4783 1.49 1.5018 1.5069 1.512 1.5171 1.5223 1.5345 1.5326 1.5342 1.529 1.5201 1.5217 1.5268 1.5215 1.5197 1.5179 1.5059 0 1.1868 1.1902 1.1957 1.1948 1.1961 1.1996 1.2029 1.2022 1.2034 1.2068 1.2167 1.2246 1.2216 1.2228 1.2263 1.2232 1.2245 1.2214 1.2227 1.2284 1.2274 1.2201
0.27363 0.27409 0.2753 0.27368 0.27431 0.27477 0.27222 0.27284 0.2779 0.27761 0.27807 0.2782 0.27882 0.27929 0.28431 0.28478 0.28287 0.28351 0.2838 0.28427 0.28473 0.28519 0.28523 0.28501 0.2853 0.28559 0.28622 0.28686 0.28749 0.2883 0.28876 0.28906 0.28969 0.29077 0.29158 0.29283 0.29382 0.29429 0.29326 0.29373 0.29402 0.29483 0.29512 0.29523 0.2949 0.29483 0 0 0 0 0 0 0 0 0 0 0 0 0 0 0 0 0 0 0 0 0 0 0 0 0 0 0 0 0 0 0 0 0 0 0.12877 0.12896 0.12953 0.12981 0.12991 0.13001 0.1302 0 0 0 0 0.12715 0.12705 0.12714 0.12694 0.12694 0.12702 0.12711 0.12701 0.1271 0.12718 0.12591 0.126 0.12618 0.12607 0.12615 0.12614 0.12544 0.12562 0.1258 0.12578 0.12596 0.12575 0.12593 0.12561 0.12559 0.12567 0.12565 0.12533 0.12541 0.12529 0.12536 0.12554 0.12541 0.12539 0.12557 0.12564 0.12571 0.12579 0.12596 0.12604 0.12601 0.12608 0.12595 0.12592 0.12599 0.12607 0.12624 0.12631 0.12638 0.12655 0.12662 0.12669 0.12687 0.12683 0.1269 0.12707 0.12704 0.12721 0.12718 0.12735 0.12752 0.12759 0.12776 0.12793 0.1281 0.12837 0.12854 0.12882 0.12899 0.12906 0.12913 0.1293 0.12936 0.12953 0.1297 0.12966 0.12984 0.1299 0.12986 0.13003 0.1302 0.13048 0.13065 0.13092 0.13109 0.13126 0.13143 0.13161 0.13178 0.13195 0.13212 0.13229 0.13246 0.13263 0.1328 0.13297 0.13314 0.13331 0.13348 0.13376 0.13404 0.13421 0.13438 0.13466 0.13495 0.13512 0.13529 0.13557 0.13574 0.13602 0.13619 0.13636 0.13654 0.13671 0.13688 0.13705 0.13722 0.13739 0.13768 0.13807 0 0.13898 0.13926 0.13955 0.13972 0.14 0.14029 0.14069 0.14098 0.14115 0.14144 0.14172 0.14201 0.14241 0.14259 0.14299 0.14328 0.14345 0.14374 0.14403 0.14432 0.14484 0.14513 0.14542 0.1456 0.14589 0.1463 0.14647 0.14677 0.14718 0.14747 0.14776 0.14817 0.14835 0.14946 0.14975 0.15005 0.1507 0.15099 0.15164 0.15206 0.15235 0.15277 0.15307 0.1536 0.1539 0.1542 0.1545 0.15599 0.15617 0.15695 0.15737 0.15756 0.15822 0.1584 0.15979 0.16177 0.16196 0.16215 0.16233 0.16396 0.1662 0.16652 0.16683 0.16714 0.16794 0 0 0 0 0 0 0 0 0 0 0 0 0 0 1.3261 1.3276 1.3319 1.339 1.3433 1.3504 1.3519 1.3678 1.3752 1.3827 1.3931 1.3947 1.3994 1.4039 1.4085 1.4101 1.4209 1.4163 1.4209 1.4225 1.4304 1.4383 1.4398 1.4446 1.4526 1.4574 1.4688 1.4737 1.482 1.497 1.5055 1.5106 1.5157 1.5244 1.5295 1.5383 1.54 1.5417 1.5362 1.5273 1.5255 1.5271 1.5288 1.5234 1.5216 1.1886 1.1816 1.1829 1.1904 1.198 1.1972 1.1963 1.1998 1.2032 1.2024 1.2057 1.2091 1.2192 1.227 1.2218 1.2252 1.2287 1.2257 1.2247 1.2238 1.2251 1.2286 1.2276 1.2203
0.26974 0.27003 0.27065 0.27185 0.27122 0.27168 0.27197 0.27242 0.27187 0.27232 0.27311 0.27204 0.27249 0.27708 0.27881 0.27902 0.27947 0.28053 0.28099 0.28324 0.28438 0.28468 0.28497 0.28457 0.28478 0.28506 0.28552 0.28434 0.28645 0.28786 0.28832 0.28861 0.28925 0.29023 0.28921 0.2895 0.29145 0.29191 0.29123 0.29248 0.29145 0.29226 0.29405 0.29434 0.29426 0.29392 0 0 0 0 0 0 0 0 0 0 0 0 0 0 0 0 0 0 0 0 0 0 0 0 0 0 0 0 0 0 0 0 0 0 0.12927 0.12946 0.13003 0.12994 0.13013 0.13013 0.13023 0 0 0 0 0.12737 0.12727 0.12765 0.12698 0.12697 0.12706 0.12714 0.12704 0.12713 0.12712 0.12566 0.12593 0.12612 0.12601 0.12609 0.12617 0.12557 0.12565 0.12583 0.12591 0.12599 0.12568 0.12586 0.12554 0.12572 0.1257 0.12568 0.12576 0.12593 0.12542 0.12549 0.12567 0.12524 0.12542 0.1256 0.12577 0.12574 0.12582 0.12599 0.12596 0.12604 0.12611 0.12598 0.12605 0.12602 0.1261 0.12627 0.12634 0.12641 0.12658 0.12665 0.12682 0.1269 0.12696 0.12714 0.12721 0.12707 0.12724 0.12731 0.12738 0.12755 0.12761 0.12779 0.12796 0.12813 0.1284 0.12857 0.12875 0.12902 0.12909 0.12915 0.12933 0.12939 0.12956 0.12973 0.12969 0.12986 0.12993 0.12999 0.13006 0.13033 0.13061 0.13078 0.13095 0.13112 0.13129 0.13146 0.13174 0.13181 0.13198 0.13215 0.13232 0.13249 0.13266 0.13283 0.133 0.13317 0.13334 0.13351 0.13379 0.13407 0.13424 0.13441 0.13469 0.13498 0.13515 0.13532 0.1356 0.13577 0.13605 0.13622 0.13639 0.13657 0.13674 0.13691 0.13708 0.13725 0.13753 0.13771 0.1381 0 0.13912 0.13929 0.13958 0.13975 0.14003 0.14032 0.14072 0.14089 0.14118 0.14147 0.14175 0.14193 0.14244 0.14262 0.14302 0.14331 0.14348 0.14389 0.14418 0.14435 0.14487 0.14516 0.14545 0.14563 0.14592 0.14633 0.1465 0.1468 0.14721 0.1475 0.14779 0.14855 0.14873 0.14949 0.14978 0.15008 0.15061 0.15102 0.15167 0.15197 0.15239 0.1528 0.1531 0.15364 0.15382 0.15424 0.15454 0.15519 0.15537 0.15639 0.15752 0.15771 0.15885 0.15903 0.15994 0.16024 0.16043 0.16194 0.16212 0.16484 0.16503 0.16655 0.16686 0.16742 0.16809 0 0 0 0 0 0 0 0 0 0 0 0 0 0 1.3263 1.3278 1.3322 1.3392 1.3463 1.3507 1.355 1.3711 1.3785 1.383 1.3934 1.3981 1.4026 1.4072 1.4088 1.4135 1.418 1.4196 1.4243 1.4259 1.4338 1.4385 1.4433 1.4449 1.4529 1.461 1.469 1.474 1.4823 1.4973 1.5058 1.5109 1.5196 1.5247 1.5298 1.535 1.5367 1.5384 1.533 1.5241 1.5257 1.5239 1.5221 1.5237 1.5219 1.1888 1.186 1.1852 1.1906 1.2003 1.2016 1.1987 1.2021 1.2055 1.2068 1.2081 1.2116 1.2215 1.2295 1.2241 1.2276 1.2289 1.2259 1.2249 1.2219 1.2253 1.2288 1.2257 1.2227
0.26965 0.26977 0.27073 0.27193 0.2713 0.27176 0.27204 0.2725 0.27194 0.27172 0.27234 0.27212 0.27257 0.27716 0.27889 0.27909 0.27955 0.28061 0.28107 0.28332 0.28395 0.28441 0.28436 0.28388 0.28434 0.28463 0.28396 0.28442 0.28653 0.28699 0.28788 0.28791 0.28837 0.28979 0.28929 0.28958 0.29153 0.29199 0.29131 0.29089 0.29038 0.29101 0.29147 0.29237 0.29239 0.294 0 0 0 0 0 0 0 0 0 0 0 0 0 0 0 0 0 0 0 0 0 0 0 0 0 0 0 0 0 0 0 0 0 0 0.1293 0.12959 0.12987 0.13006 0.13026 0.13007 0.13026 0 0 0 0 0.12741 0.1275 0.12768 0.12701 0.1271 0.12718 0.12727 0.12707 0.12716 0.12715 0.12578 0.12587 0.12605 0.12594 0.12602 0.1261 0.1256 0.12578 0.12576 0.12594 0.12602 0.12571 0.12589 0.12567 0.12575 0.12583 0.12581 0.12579 0.12597 0.12555 0.12562 0.1257 0.12527 0.12565 0.12582 0.126 0.12577 0.12585 0.12602 0.1261 0.12617 0.12614 0.12611 0.12618 0.12605 0.12623 0.1263 0.12637 0.12654 0.12661 0.12678 0.12696 0.12713 0.1272 0.12727 0.12734 0.1273 0.12737 0.12744 0.12751 0.12768 0.12775 0.12792 0.12809 0.12826 0.12854 0.12871 0.12888 0.12905 0.12912 0.12929 0.12935 0.12953 0.12959 0.12976 0.12983 0.12989 0.13006 0.13013 0.13019 0.13047 0.13075 0.13092 0.13109 0.13137 0.13143 0.1316 0.13177 0.13194 0.13211 0.13228 0.13235 0.13252 0.13269 0.13286 0.13303 0.1332 0.13337 0.13354 0.13382 0.1341 0.13427 0.13455 0.13483 0.135 0.13517 0.13535 0.13563 0.13591 0.13608 0.13625 0.13642 0.13671 0.13688 0.13705 0.13722 0.13739 0.13768 0.13796 0.13813 0 0.13915 0.13932 0.13961 0.13978 0.14006 0.14035 0.14075 0.14092 0.1411 0.1415 0.14178 0.14196 0.14247 0.14265 0.14305 0.14334 0.14351 0.14392 0.14421 0.1445 0.1449 0.14508 0.14537 0.14566 0.14583 0.14624 0.14653 0.14683 0.14735 0.14764 0.14805 0.14846 0.14876 0.14952 0.14982 0.15011 0.15076 0.15094 0.15135 0.15212 0.1523 0.15283 0.15313 0.15367 0.15397 0.15427 0.15457 0.15522 0.1554 0.15642 0.15756 0.15774 0.15888 0.15907 0.15997 0.16028 0.16046 0.16197 0.16216 0.16487 0.16506 0.1667 0.16714 0.16757 0.16813 0 0 0 0 0 0 0 0 0 0 0 0 0 0 1.3266 1.3281 1.3351 1.3423 1.3466 1.3538 1.3581 1.3714 1.3817 1.3861 1.3968 1.4043 1.4059 1.4106 1.4122 1.4137 1.4214 1.4199 1.4277 1.4293 1.4372 1.442 1.4435 1.4483 1.4596 1.4644 1.4726 1.4742 1.4826 1.4976 1.5027 1.5112 1.5163 1.5215 1.5266 1.5353 1.537 1.5387 1.5403 1.5209 1.526 1.5207 1.5258 1.524 1.5256 1.1891 1.1904 1.1875 1.1972 1.2071 1.2106 1.2031 1.2044 1.21 1.2135 1.2148 1.2183 1.2262 1.2297 1.2266 1.2279 1.2314 1.2239 1.2252 1.2242 1.2255 1.2313 1.2303 1.2272
0.26923 0.26936 0.26964 0.26926 0.26805 0.26833 0.26995 0.26939 0.27018 0.2713 0.27209 0.27203 0.27164 0.27192 0.27219 0.27264 0.27377 0.27371 0.27433 0.27614 0.27659 0.27841 0.27955 0.28 0.28123 0.28203 0.28171 0.28242 0.28288 0.28334 0.28336 0.28364 0.2847 0.2855 0.28517 0.28563 0.28669 0.28715 0.28743 0.28859 0.28958 0.29003 0.29067 0.2913 0.2914 0.29097 0.2916 0 0 0 0 0 0 0 0 0 0 0 0 0 0 0 0 0 0 0 0 0 0 0 0 0 0 0 0 0 0 0 0 0 0.12943 0.12962 0.12991 0.1301 0.13029 0.12992 0.13011 0 0 0 0 0.12744 0.12762 0.12771 0.12723 0.12722 0.12731 0.1274 0.1272 0.12719 0.12728 0.12717 0.12735 0.12579 0.12587 0.12596 0.12613 0.12622 0.1264 0.12589 0.12597 0.12606 0.12594 0.12612 0.1257 0.12578 0.12586 0.12584 0.12582 0.126 0.12568 0.12575 0.12583 0.1258 0.12588 0.12596 0.12603 0.1259 0.12588 0.12605 0.12612 0.1262 0.12627 0.12614 0.12621 0.12608 0.12626 0.12633 0.1264 0.12657 0.12674 0.12681 0.12699 0.12716 0.12723 0.1274 0.12747 0.12744 0.1274 0.12747 0.12764 0.12781 0.12788 0.12805 0.12812 0.12829 0.12857 0.12884 0.12901 0.12919 0.12915 0.12932 0.12939 0.12956 0.12973 0.12979 0.12986 0.12992 0.13009 0.13016 0.13022 0.1305 0.13078 0.13095 0.13123 0.1314 0.13146 0.13163 0.1318 0.13197 0.13214 0.13242 0.13238 0.13255 0.13272 0.13289 0.13306 0.13323 0.13351 0.13368 0.13385 0.13413 0.13441 0.13458 0.13486 0.13514 0.13531 0.13549 0.13577 0.13594 0.13622 0.13628 0.13656 0.13674 0.13691 0.13708 0.13725 0.13742 0.1377 0.13799 0.13827 0.13878 0.13884 0.13901 0.13964 0.13992 0.14009 0.14038 0.14067 0.14095 0.14113 0.14153 0.14181 0.1421 0.14239 0.14268 0.14308 0.14325 0.14354 0.14383 0.14412 0.14441 0.14493 0.14511 0.1454 0.14557 0.14586 0.14627 0.14656 0.14686 0.14738 0.14767 0.14808 0.14838 0.14855 0.14955 0.14985 0.15014 0.15067 0.15097 0.15126 0.15203 0.15233 0.15286 0.15316 0.1537 0.154 0.1543 0.15483 0.15549 0.15567 0.15728 0.15759 0.15789 0.15891 0.1591 0.16012 0.16091 0.16109 0.16272 0.16291 0.16599 0.1663 0.16674 0.16717 0.16761 0.16828 0 0 0 0 0 0 0 0 0 0 0 0 0 0 1.3214 1.3256 1.3354 1.3426 1.3468 1.3569 1.3613 1.3716 1.379 1.3864 1.4 1.4046 1.4093 1.4077 1.4093 1.4079 1.4217 1.4233 1.4249 1.4327 1.4375 1.4454 1.447 1.4486 1.4631 1.4647 1.4729 1.4745 1.4829 1.4978 1.5029 1.508 1.5166 1.5218 1.5269 1.532 1.5373 1.539 1.5406 1.5247 1.5228 1.521 1.5226 1.5243 1.5224 1.1978 1.1906 1.1835 1.1974 1.2116 1.2129 1.2076 1.2069 1.2125 1.216 1.2173 1.2207 1.2264 1.2277 1.2246 1.2281 1.2294 1.2263 1.2231 1.2244 1.228 1.2293 1.2306 1.2296
0.26749 0.26612 0.26657 0.26734 0.26763 0.26791 0.26852 0.26914 0.26975 0.27054 0.27098 0.27126 0.27104 0.27148 0.27193 0.27221 0.27283 0.27293 0.27236 0.2728 0.27376 0.27403 0.27757 0.27802 0.28036 0.28099 0.28162 0.28173 0.28218 0.28246 0.28274 0.2811 0.28155 0.28218 0.2821 0.28255 0.28037 0.28099 0.28196 0.28241 0.28179 0.28224 0.28445 0.2849 0.28624 0.28669 0.29168 0 0 0 0 0 0 0 0 0 0 0 0 0 0 0 0 0 0 0 0 0 0 0 0 0 0 0 0 0 0 0 0 0 0.12946 0.12975 0.12994 0.13004 0.13023 0.12995 0.13014 0 0 0 0 0.12737 0.12756 0.12775 0.12717 0.12726 0.12725 0.12734 0.12723 0.12722 0.12673 0.12691 0.12709 0.12582 0.126 0.12608 0.12617 0.12615 0.12613 0.12573 0.12591 0.12609 0.12617 0.12615 0.12573 0.12581 0.12589 0.12597 0.12595 0.12603 0.12561 0.12568 0.12586 0.12593 0.12591 0.12599 0.12616 0.12573 0.12591 0.12608 0.12615 0.12623 0.1263 0.12617 0.12624 0.12611 0.12618 0.12636 0.12643 0.1266 0.12677 0.12684 0.12702 0.12719 0.12726 0.12743 0.1275 0.12747 0.12753 0.1276 0.12767 0.12784 0.12801 0.12819 0.12825 0.12843 0.1287 0.12887 0.12904 0.12921 0.12928 0.12935 0.12941 0.12959 0.12976 0.12982 0.12989 0.13006 0.13012 0.13019 0.13036 0.13064 0.13081 0.13108 0.13125 0.13142 0.1316 0.13166 0.13183 0.13211 0.13228 0.13245 0.1324 0.13268 0.13286 0.13303 0.1332 0.13337 0.13354 0.13371 0.13399 0.13427 0.13444 0.13461 0.13489 0.13517 0.13534 0.13551 0.1358 0.13597 0.13625 0.13642 0.13659 0.13676 0.13705 0.13722 0.13739 0.13756 0.13785 0.13802 0.13853 0.13881 0.13887 0.13904 0.13967 0.13995 0.14012 0.1403 0.1407 0.14087 0.14116 0.14156 0.14184 0.14202 0.14242 0.14271 0.143 0.14328 0.14346 0.14375 0.14404 0.14433 0.14485 0.14514 0.14543 0.14572 0.14601 0.1463 0.1466 0.14689 0.14741 0.14771 0.14811 0.14841 0.14859 0.1497 0.14999 0.15029 0.15082 0.15112 0.1513 0.15206 0.15248 0.1529 0.15331 0.15373 0.15391 0.15409 0.15487 0.15552 0.1557 0.15732 0.15762 0.1578 0.15894 0.15913 0.16015 0.16094 0.16112 0.16191 0.1621 0.16602 0.16634 0.16665 0.16745 0.16764 0.16832 0.16863 0.16882 0 0 0 0 0 0 0 0 0 0 0 0 1.3217 1.315 1.3274 1.34 1.3499 1.3572 1.3615 1.3747 1.3851 1.3896 1.4064 1.408 1.4125 1.4141 1.4096 1.4143 1.4188 1.4236 1.4283 1.4362 1.4409 1.4425 1.4505 1.4521 1.4633 1.4683 1.4732 1.4748 1.4797 1.4914 1.4965 1.5049 1.5134 1.5185 1.5201 1.5359 1.5376 1.5356 1.5373 1.5215 1.5196 1.5213 1.5161 1.5142 1.5125 1.1981 1.1825 1.1838 1.2019 1.2184 1.2175 1.2079 1.2092 1.2127 1.2183 1.2196 1.2231 1.2266 1.2257 1.2248 1.2261 1.2296 1.2243 1.2256 1.2291 1.2282 1.2317 1.233 1.2343
0.26707 0.26653 0.26681 0.26726 0.26737 0.26782 0.26826 0.26888 0.26949 0.27011 0.27056 0.27084 0.27061 0.27105 0.27133 0.27178 0.27222 0.2725 0.27226 0.27237 0.27315 0.27411 0.27765 0.2781 0.28027 0.28107 0.28135 0.2818 0.28208 0.28202 0.28212 0.28118 0.2811 0.28173 0.28218 0.28263 0.28044 0.28089 0.28151 0.28195 0.28187 0.28231 0.28453 0.28498 0.28631 0.28676 0 0 0 0 0 0 0 0 0 0 0 0 0 0 0 0 0 0 0 0 0 0 0 0 0 0 0 0 0 0 0 0 0 0 0.12968 0.12987 0.12997 0.13007 0.13026 0.13036 0.13055 0 0 0 0 0.12741 0.12759 0.12778 0.1272 0.12729 0.12737 0.12737 0.12717 0.12725 0.12676 0.12704 0.12722 0.12614 0.12613 0.12621 0.12629 0.12618 0.12617 0.12576 0.12594 0.12612 0.1261 0.12618 0.12576 0.12584 0.12592 0.126 0.12598 0.12616 0.12574 0.12571 0.12589 0.12596 0.12604 0.12612 0.12619 0.12606 0.12614 0.12621 0.12618 0.12626 0.12633 0.1262 0.12627 0.12614 0.12632 0.12639 0.12656 0.12663 0.1268 0.12698 0.12715 0.12732 0.12739 0.12746 0.12763 0.1277 0.12777 0.12774 0.12791 0.12808 0.12815 0.12832 0.12849 0.12866 0.12883 0.12901 0.12907 0.12924 0.12931 0.12938 0.12955 0.12962 0.12979 0.12985 0.13002 0.13009 0.13026 0.13043 0.1306 0.13077 0.13094 0.13111 0.13128 0.13145 0.13162 0.1318 0.13197 0.13214 0.13231 0.13248 0.13254 0.13282 0.13299 0.13316 0.13344 0.13351 0.13368 0.13385 0.13402 0.1343 0.13447 0.13475 0.13503 0.13531 0.13537 0.13554 0.13583 0.13611 0.13639 0.13656 0.13673 0.13702 0.13719 0.13736 0.13753 0.1377 0.13799 0.13827 0.13867 0.13895 0.13901 0.1393 0.13958 0.13987 0.14015 0.14033 0.14061 0.1409 0.14119 0.14147 0.14187 0.14205 0.14245 0.14262 0.14291 0.1432 0.14349 0.14378 0.14418 0.14447 0.14488 0.14517 0.14557 0.14586 0.14616 0.14656 0.14686 0.14703 0.14756 0.14774 0.14814 0.14855 0.14873 0.14985 0.15014 0.15044 0.15097 0.15126 0.1518 0.15221 0.15263 0.15316 0.15346 0.15388 0.15406 0.15412 0.15549 0.15579 0.15609 0.15747 0.15789 0.15807 0.15909 0.15928 0.16054 0.16121 0.16152 0.16195 0.16213 0.16618 0.16637 0.16741 0.1676 0.16791 0.16835 0.16866 0.16886 0 0 0 0 0 0 0 0 0 0 0 0 0 1.3153 1.3195 1.3487 1.3502 1.3603 1.3706 1.378 1.3884 1.396 1.419 1.4206 1.4222 1.4238 1.4254 1.4175 1.4191 1.4364 1.4348 1.446 1.4443 1.4428 1.454 1.4556 1.4702 1.4786 1.4767 1.4751 1.4834 1.4884 1.5001 1.5051 1.5137 1.5153 1.5204 1.5398 1.5379 1.5395 1.5376 1.5217 1.5199 1.5181 1.5164 1.5145 1.5059 1.511 0 1.1986 1.2022 1.2253 1.2244 1.2146 1.2159 1.2172 1.2207 1.2198 1.2233 1.2269 1.2282 1.2229 1.2263 1.2298 1.2245 1.2258 1.2294 1.2307 1.2363 1.2376 1.2389
0.26682 0.2666 0.26688 0.26717 0.26728 0.26756 0.26817 0.26862 0.26923 0.26985 0.27013 0.27024 0.27035 0.27062 0.27073 0.27117 0.27179 0.27207 0.27183 0.27193 0.27254 0.27247 0.27309 0.27336 0.2738 0.28028 0.27797 0.27859 0.28043 0.28123 0.28168 0.27969 0.28031 0.28076 0.2798 0.28042 0.27982 0.28044 0.28106 0.2815 0.28124 0.28106 0.28133 0.28159 0.28221 0.28265 0 0 0 0 0 0 0 0 0 0 0 0 0 0 0 0 0 0 0 0 0 0 0 0 0 0 0 0 0 0 0 0 0 0 0 0 0.13029 0.1302 0.13029 0.13049 0.13068 0 0 0 0 0.12744 0.12762 0.12781 0.12723 0.12732 0.12731 0.1274 0.1272 0.12728 0.12708 0.12707 0.12725 0.12617 0.12587 0.12615 0.12623 0.12621 0.12629 0.12579 0.12597 0.12605 0.12613 0.12621 0.12589 0.12587 0.12595 0.12603 0.12601 0.12619 0.12557 0.12574 0.12592 0.12599 0.12607 0.12615 0.12622 0.12609 0.12617 0.12624 0.12621 0.12629 0.12636 0.12623 0.1263 0.12617 0.12635 0.12652 0.12659 0.12676 0.12693 0.12701 0.12718 0.12735 0.12742 0.12759 0.12776 0.12773 0.1279 0.12787 0.12794 0.12811 0.12818 0.12835 0.12852 0.12869 0.12886 0.12904 0.1291 0.12927 0.12923 0.12941 0.12958 0.12964 0.12982 0.12988 0.13005 0.13022 0.13039 0.13046 0.13074 0.1308 0.13097 0.13114 0.13131 0.13148 0.13165 0.13182 0.132 0.13217 0.13234 0.13251 0.13268 0.13285 0.13302 0.1333 0.13347 0.13364 0.1337 0.13388 0.13416 0.13433 0.13461 0.13478 0.13506 0.13523 0.1354 0.13557 0.13586 0.13614 0.13642 0.13659 0.13676 0.13694 0.13711 0.13739 0.13756 0.13773 0.13802 0.1383 0.1387 0.13887 0.13904 0.13933 0.13961 0.1399 0.14007 0.14036 0.14064 0.14081 0.1411 0.1415 0.14179 0.14208 0.14236 0.14254 0.14294 0.14311 0.1434 0.14381 0.14421 0.1445 0.14491 0.1452 0.1456 0.14589 0.14619 0.1466 0.14689 0.14718 0.14759 0.14777 0.14829 0.14859 0.14876 0.14988 0.15017 0.15047 0.15111 0.15141 0.15183 0.15224 0.15266 0.15319 0.15349 0.15391 0.15409 0.15439 0.15564 0.15594 0.15624 0.15821 0.15852 0.1587 0.15948 0.15967 0.1601 0.16136 0.16167 0.16198 0.16217 0.16621 0.16652 0.16744 0.16775 0.16807 0.1685 0.171 0.1712 0.17176 0.17196 0.17276 0.17296 0.17316 0 0 0 0 0 0 0 0 0 0.17402 0.17422 0.17429 0.17448 0.17493 1.3782 0.17358 0.17377 0.17409 0.17429 0.17623 1.4241 1.4319 1.4399 0 0 0 0 1.4383 1.443 0 0 0 0 0 1.4989 1.4837 1.4919 0.17556 0.17588 0.17671 0.1769 0.17709 1.5436 1.5417 1.5398 1.5415 1.522 1.5202 1.515 1.5166 1.5251 0 0 0 0 1.2308 1.2277 1.2268 1.2193 1.2184 1.2219 1.2187 1.22 1.2258 1.2271 1.2262 1.2209 1.2244 1.2278 1.227 1.2283 1.2317 1.233 1.2366 1.2401 1.2391
0.26524 0.26054 0.26098 0.26175 0.26202 0.26246 0.2629 0.26283 0.26327 0.26371 0.26414 0.26719 0.26679 0.26723 0.26699 0.26743 0.26889 0.26916 0.26892 0.26987 0.27065 0.27178 0.27273 0.27318 0.2737 0.27432 0.27494 0.27867 0.27912 0.27939 0.27932 0.27654 0.27716 0.27769 0.27787 0.27875 0.27893 0.27937 0.27964 0.2799 0.27964 0.27972 0.28034 0.2806 0.28122 0.28095 0.28139 0.28218 0.2828 0 0 0 0 0 0 0 0 0 0 0 0 0 0 0 0 0 0 0 0 0 0 0 0 0 0 0 0 0 0 0 0.13059 0.13079 0.13032 0.13014 0.13033 0.13052 0.13071 0 0 0 0 0.12747 0.12718 0.12746 0.12726 0.12735 0.12734 0.12743 0.12704 0.12722 0.12721 0.1271 0.12719 0.1262 0.1259 0.12608 0.12626 0.12624 0.12633 0.12582 0.126 0.12608 0.12616 0.12594 0.12592 0.1259 0.12598 0.12606 0.12604 0.12612 0.1257 0.12587 0.12595 0.12612 0.1261 0.12618 0.12625 0.12612 0.1262 0.12627 0.12624 0.12632 0.12629 0.12616 0.12633 0.1263 0.12637 0.12655 0.12662 0.12679 0.12686 0.12703 0.12721 0.12738 0.12745 0.12762 0.12779 0.12797 0.12762 0.12779 0.12797 0.12814 0.12821 0.12838 0.12855 0.12872 0.12879 0.12896 0.12913 0.1292 0.12926 0.12933 0.1295 0.12957 0.12974 0.12991 0.12998 0.13015 0.13042 0.13059 0.13076 0.13094 0.131 0.13117 0.13134 0.13151 0.13168 0.13185 0.13203 0.1322 0.13237 0.13254 0.13271 0.13288 0.13305 0.13333 0.13361 0.13367 0.13373 0.1339 0.13408 0.13436 0.13453 0.1347 0.13498 0.13515 0.13532 0.13549 0.13589 0.13617 0.13634 0.13662 0.13679 0.13696 0.13714 0.13731 0.13759 0.13776 0.13805 0.13833 0.13873 0.1389 0.13907 0.13936 0.13964 0.13993 0.1401 0.14039 0.14067 0.14084 0.14102 0.1413 0.14159 0.14188 0.14205 0.14234 0.14251 0.14257 0.14332 0.14361 0.14436 0.14453 0.14505 0.14534 0.14563 0.14593 0.14622 0.14674 0.14703 0.14733 0.14762 0.14791 0.14821 0.1485 0.14868 0.14991 0.1502 0.1505 0.15115 0.15144 0.15186 0.15216 0.15257 0.15322 0.15364 0.15406 0.15424 0.15442 0.15567 0.15597 0.15615 0.15824 0.15855 0.15873 0.15952 0.1597 0.16013 0.16139 0.1617 0.16201 0.1622 0.16323 0.16643 0.16663 0.16803 0.1681 0.16854 0.16994 0.17038 0.17167 0.17199 0.17255 0.17275 0.17295 0.17486 0.17518 0 0 0 0 0 0.17329 0.17349 0.1738 0.174 0.17407 0.17452 0.17471 0.17491 0.17349 0.1738 0.17388 0.17407 0.17476 0.17383 0.1739 0.17422 0 0 0 0 1.4386 1.4433 0 0 0 0 0 0.17489 0.17508 0.17527 0.17546 0.17565 0.17649 0.17668 0.17687 0.17706 0.17725 1.5437 1.5418 1.5258 1.524 1.5118 1.5134 1.5254 0 0 0 0 1.2334 1.2324 1.2182 1.2239 1.223 1.2243 1.2189 1.2203 1.2238 1.2273 1.2264 1.2189 1.2224 1.2259 1.2272 1.2285 1.2298 1.2332 1.2368 1.2403 1.2394
0.26465 0.26062 0.26089 0.26149 0.2621 0.26253 0.26297 0.26307 0.26334 0.26378 0.26422 0.2671 0.26703 0.26697 0.26698 0.26767 0.26863 0.26906 0.26899 0.26943 0.27021 0.27134 0.27229 0.27291 0.27378 0.27414 0.27501 0.27857 0.27885 0.27895 0.27939 0.27662 0.27706 0.27733 0.27759 0.27786 0.27812 0.27857 0.27883 0.27909 0.27883 0.27927 0.27953 0.28014 0.28058 0.28102 0.28146 0.2819 0.28288 0 0 0 0 0 0 0 0 0 0 0 0 0 0 0 0 0 0 0 0 0 0 0 0 0 0 0 0 0 0 0 0.13063 0.13082 0.13092 0.13092 0.13112 0 0 0 0 0 0 0.12769 0.12721 0.12749 0.12748 0.12729 0.12737 0.12756 0.12707 0.12725 0.12724 0.12723 0.12722 0.12624 0.12593 0.12621 0.12629 0.12637 0.12636 0.12585 0.12603 0.12611 0.12619 0.12617 0.12605 0.12593 0.12591 0.12599 0.12607 0.12615 0.12612 0.126 0.12608 0.12626 0.12623 0.12631 0.12638 0.12605 0.12623 0.1263 0.12627 0.12625 0.12632 0.12619 0.12626 0.12633 0.1264 0.12658 0.12665 0.12682 0.12689 0.12706 0.12724 0.12741 0.12748 0.12765 0.12782 0.128 0.12765 0.12782 0.128 0.12817 0.12834 0.12851 0.12868 0.12875 0.12882 0.12899 0.12906 0.12923 0.12929 0.12936 0.12953 0.1296 0.12977 0.12983 0.13 0.13018 0.13035 0.13062 0.13079 0.13086 0.13114 0.13131 0.13148 0.13154 0.13171 0.13188 0.13206 0.13223 0.1325 0.13257 0.13274 0.13291 0.13319 0.13336 0.13364 0.13381 0.13376 0.13393 0.13411 0.13439 0.13456 0.13473 0.13501 0.13518 0.13535 0.13552 0.1358 0.13609 0.13637 0.13654 0.13682 0.13699 0.13717 0.13745 0.13762 0.13779 0.13796 0.1387 0.13887 0.13893 0.1391 0.13939 0.13967 0.13996 0.14013 0.14042 0.1407 0.14088 0.14105 0.14133 0.14151 0.1418 0.14208 0.14226 0.14243 0.1426 0.14346 0.14364 0.14439 0.14456 0.14508 0.14537 0.14578 0.14596 0.14636 0.14689 0.14706 0.14736 0.14765 0.14794 0.14835 0.14853 0.14871 0.14994 0.15023 0.15041 0.15118 0.15147 0.15189 0.1523 0.1526 0.15325 0.15355 0.15409 0.15439 0.15457 0.15558 0.15612 0.15619 0.1584 0.15846 0.15912 0.15955 0.15985 0.16016 0.16143 0.16185 0.16228 0.16259 0.16326 0.16647 0.16666 0.16915 0.16947 0.16966 0.16998 0.17042 0.17171 0.1719 0.17247 0.17266 0.17298 0.17489 0.17521 0 0 0 0 0 0.17332 0.17352 0.17372 0.17391 0.17411 0.1743 0.17475 0.17494 0.17352 0.17371 0.17391 0.1741 0.1748 0.17386 0.17393 0.17413 0 0 0 0 0 0 0 0 0 0 0 0.17492 0.17511 0.1753 0.1755 0.17569 0.17652 0.17671 0.1769 0.1771 0.17729 1.5368 1.5529 1.5366 1.5418 0 0 0 0 0 0 0 0 0 1.2184 1.2197 1.2299 1.2223 1.2214 1.2249 1.2285 1.2253 1.2244 1.2213 1.2248 1.2283 1.2295 1.2308 1.2322 1.2334 1.237 1.2383 1.2396
