0 0 0 0 0 0 0 0 0 0 0 0 0 0 0 0 0 0 0 0 0 0 0 0 0 0 0 0 0 0 0 0 0 0 0 0 0 0 0 0 0 0 0 0 0 0 0 0 0 0 0 0 0 0 0 0 0 0 0 0 0 0 0 0 0 0 0 0 0 0 0 0 0 0 0 0 0 0 0 0 0 0 0 0 0 0 0 0 0 0 0 0 0 0 0 0 0 0 0 0 0 0 0 0 0 0 0 0 0 0 0 0 0 0 0 0 0 0 0.89788 0.88517 0.883 0.87908 0.86188 0.85645 0.85761 0.84573 0.84199 0.83679 0.83307 0.83567 0.82888 0.8284 0.83731 0.83518 0.83146 0.82774 0.82721 0.8235 0.82138 0.81768 0.81557 0.81196 0.80829 0.80321 0.79956 0.79746 0.79536 0.7918 0.78971 0.78762 0.78699 0.78643 0.78433 0.78367 0.78013 0.77651 0.77442 0.77233 0.77173 0.76814 0.76321 0.75971 0.75622 0.75273 0.75066 0.74858 0.74651 0.74304 0.73959 0.73614 0.73408 0.73201 0.72858 0.72652 0.72582 0.71976 0.71643 0.71438 0.71233 0.71155 0.7095 0.70878 0.70539 0.70334 0.70004 0.69667 0.69463 0.69258 0.68799 0.68472 0.68146 0.67943 0.67618 0.67416 0.67213 0.67252 0.66928 0.66365 0.66043 0.65961 0.66117 0.66032 0.65947 0.65744 0.6554 0.65219 0.65256 0.65169 0.65087 0.64882 0.6444 0.64114 0.6391 0.63478 0.63389 0.63185 0.62529 0.61875 0.61569 0.61369 0.61169 0.60857 0.60547 0.60132 0.59615 0.59418 0.5922 0.5892 0.58723 0.58525 0.58328 0.58131 0.57833 0.57944 0.57847 0.57749 0.5755 0.57556 0.57357 0.57158 0.56756 0.56459 0.56261 0.56062 0.55767 0.5537 0.55173 0.54975 0.54778 0.54581 0.54478 0.54476 0.54372 0.54079 0.53787 0.53397 0.52829 0.5254 0.52253 0.51966 0.51588 0.51308 0.51024 0.5083 0.50552 0.50359 0.5025 0.50056 0.49952 0.49758 0.49564 0.4937 0.49346 0.49151 0.4887 0.48676 0.48482 0.48288 0.48093 0.47735 0.47541 0.47511 0.47317 0.47206 0.46851 0.46496 0.46303 0.4611 0.45835 0.45642 0.45373 0.45256 0.44988 0.44871 0.44758 0.44639 0.44525 0.44331 0.44137 0.44017 0.43822 0.43556 0.43285 0.4302 0.42602 0.42339 0.42147 0.41885 0.41618 0.41357 0.41097 0.40906 0.40509 0.40388 0.40335 0.4028 0.40161 0.39831 0.39573 0.39382 0.38926 0.38803 0.38679 0.38555 0.38495 0.38369 0.38246 0.38055 0.37927 0.3793 0.37674 0.37159 0.36843 0.36529 0.35972 0.35723 0.3536 0.35174 0.34987 0.34801 0.34614 0.34368 0.34297 0.34224 0.34154 0.33966 0.33891 0.33644 0.33514 0.33325 0.3308 0.32948 0.32703 0.32515 0.32327 0.32138 0.31844 0.31711 0.31523 0.31335
0 0 0 0 0 0 0 0 0 0 0 0 0 0 0 0 0 0 0 0 0 0 0 0 0 0 0 0 0 0 0 0 0 0 0 0 0 0 0 0 0 0 0 0 0 0 0 0 0 0 0 0 0 0 0 0 0 0 0 0 0 0 0 0 0 0 0 0 0 0 0 0 0 0 0 0 0 0 0 0 0 0 0 0 0 0 0 0 0 0 0 0 0 0 0 0 0 0 0 0 0 0 0 0 0 0 0 0 0 0 0 0 0 0 0 0 0 0 0.89248 0.88679 0.88287 0.87895 0.8601 0.85797 0.85584 0.84716 0.84031 0.83349 0.82986 0.82778 0.82416 0.81749 0.81084 0.80735 0.82813 0.82601 0.8239 0.82178 0.81967 0.81914 0.81544 0.81333 0.80816 0.80457 0.79943 0.79734 0.79679 0.79168 0.78959 0.7875 0.78686 0.7863 0.78565 0.78355 0.78144 0.7779 0.77581 0.77371 0.77303 0.76951 0.76592 0.761 0.7575 0.75401 0.75053 0.74846 0.74638 0.74292 0.73946 0.73601 0.73395 0.73189 0.72845 0.7264 0.7257 0.72099 0.7163 0.71425 0.71348 0.71143 0.70937 0.70866 0.70527 0.70322 0.69992 0.69787 0.6945 0.69122 0.68918 0.68583 0.68257 0.67809 0.67484 0.67404 0.67201 0.67119 0.66796 0.66353 0.66031 0.65829 0.66104 0.6602 0.65935 0.65731 0.65528 0.65207 0.65244 0.65157 0.65075 0.6487 0.64428 0.64224 0.63898 0.6358 0.63377 0.63173 0.62517 0.61863 0.61557 0.61462 0.61262 0.60957 0.60646 0.60231 0.59714 0.59516 0.59318 0.59011 0.58711 0.58514 0.58418 0.58119 0.57821 0.57932 0.57835 0.57737 0.57644 0.57544 0.57345 0.57146 0.56744 0.56545 0.56346 0.5605 0.55852 0.55454 0.55161 0.55059 0.54766 0.54569 0.54467 0.54464 0.5436 0.54068 0.53869 0.53386 0.5291 0.52529 0.52241 0.52046 0.51576 0.51297 0.51103 0.50734 0.50625 0.50348 0.50238 0.50045 0.4994 0.49746 0.49635 0.49359 0.49247 0.49052 0.48858 0.48583 0.4839 0.48276 0.48082 0.47723 0.4753 0.47499 0.47305 0.47195 0.46756 0.46485 0.46292 0.46016 0.45823 0.45631 0.45438 0.45169 0.45052 0.44859 0.44821 0.44628 0.44513 0.44393 0.44126 0.44005 0.43811 0.43617 0.43273 0.43008 0.42591 0.42327 0.42136 0.41798 0.41607 0.41276 0.41085 0.40825 0.40566 0.40445 0.40323 0.40341 0.40078 0.39958 0.39628 0.39504 0.38981 0.38792 0.38668 0.38543 0.38548 0.38357 0.38166 0.38107 0.37979 0.37986 0.37726 0.3734 0.36894 0.36517 0.35779 0.35535 0.35287 0.35102 0.34976 0.34729 0.34603 0.34473 0.34345 0.34272 0.34143 0.3401 0.33879 0.33633 0.33445 0.33314 0.33125 0.3288 0.32748 0.32452 0.32264 0.32076 0.31888 0.317 0.31512 0.31324
0 0 0 0 0 0 0 0 0 0 0 0 0 0 0 0 0 0 0 0 0 0 0 0 0 0 0 0 0 0 0 0 0 0 0 0 0 0 0 0 0 0 0 0 0 0 0 0 0 0 0 0 0 0 0 0 0 0 0 0 0 0 0 0 0 0 0 0 0 0 0 0 0 0 0 0 0 0 0 0 0 0 0 0 0 0 0 0 0 0 0 0 0 0 0 0 0 0 0 0 0 0 0 0 0 0 0 0 0.83248 0.83049 0.83296 0.8265 0.8245 0.82997 0.81325 0.81128 0.81653 0.81313 0.84113 0.87634 0.87593 0.87038 0.85832 0.85455 0.85243 0.84384 0.83701 0.83028 0.82512 0.82151 0.81944 0.81584 0.81224 0.81474 0.82649 0.82589 0.82377 0.82166 0.82113 0.81901 0.81689 0.81477 0.80655 0.80296 0.7993 0.79721 0.79512 0.79155 0.78946 0.78737 0.78528 0.78319 0.78255 0.78342 0.77988 0.77778 0.77568 0.77358 0.76998 0.76938 0.76579 0.76087 0.75879 0.7553 0.75041 0.74694 0.74347 0.74002 0.73657 0.73451 0.73245 0.73039 0.72833 0.72627 0.72557 0.72087 0.71618 0.71278 0.71208 0.71004 0.70665 0.7072 0.70515 0.70184 0.69847 0.69643 0.69438 0.6911 0.68906 0.68571 0.68245 0.67674 0.67472 0.6727 0.67189 0.67107 0.66663 0.6622 0.66019 0.65817 0.65973 0.66008 0.65923 0.65719 0.6564 0.65195 0.65349 0.65144 0.65179 0.64974 0.64416 0.64211 0.63886 0.63568 0.63365 0.63161 0.62505 0.61964 0.61764 0.61451 0.6125 0.6105 0.60634 0.60219 0.59702 0.59504 0.59306 0.58999 0.58699 0.58604 0.58305 0.58006 0.5791 0.57814 0.57823 0.57625 0.57632 0.57433 0.57333 0.57134 0.56836 0.56533 0.56438 0.56136 0.5584 0.55443 0.55245 0.55048 0.5485 0.54652 0.54455 0.54452 0.54348 0.54056 0.53764 0.53467 0.52991 0.52424 0.52137 0.51942 0.51656 0.51285 0.51091 0.50807 0.50529 0.50336 0.50316 0.50033 0.49928 0.49817 0.49541 0.49429 0.49235 0.49128 0.48847 0.48572 0.48458 0.48264 0.4807 0.47796 0.47603 0.47409 0.47131 0.46938 0.46666 0.46313 0.4612 0.45928 0.45653 0.45461 0.45269 0.45077 0.44965 0.44773 0.44735 0.44542 0.44423 0.44308 0.44036 0.4392 0.43726 0.43533 0.43339 0.42996 0.42579 0.42316 0.42124 0.41786 0.41525 0.41264 0.41004 0.40814 0.40486 0.40365 0.40244 0.40189 0.39998 0.39808 0.3955 0.39359 0.3897 0.38846 0.38656 0.38467 0.38407 0.38346 0.38223 0.3816 0.381 0.37975 0.37782 0.37392 0.36945 0.36382 0.35648 0.35405 0.35219 0.34973 0.34965 0.34779 0.34592 0.34406 0.34275 0.34261 0.34187 0.34057 0.33868 0.33622 0.3338 0.33245 0.33057 0.32816 0.32628 0.3244 0.32197 0.3201 0.31822 0.31689 0.31447 0.31313
0 0 0 0 0 0 0 0 0 0 0 0 0 0 0 0 0 0 0 0 0 0 0 0 0 0 0 0 0 0 0 0 0 0 0 0 0 0 0 0 0 0 0 0 0 0 0 0 0 0 0 0 0 0 0 0 0 0 0 0 0 0 0 0 0 0 0 0 0 0 0 0 0 0 0 0 0 0 0 0 0 0 0 0 0 0 0 0 0 0 0 0 0 0 0 0 0 0 0 0 0 0 0 0 0 0 0 0 0.83236 0.83341 0.83436 0.83084 0.82883 0.82985 0.81314 0.81116 0.81641 0.81301 0.84101 0.87621 0.87074 0.86694 0.85655 0.85278 0.84902 0.84061 0.83533 0.83016 0.82499 0.82138 0.81931 0.81877 0.81974 0.8207 0.82788 0.82736 0.82524 0.82471 0.82259 0.81888 0.81834 0.81465 0.80642 0.80284 0.7977 0.79561 0.79352 0.79143 0.78788 0.78725 0.7837 0.78162 0.78098 0.78185 0.77975 0.77614 0.77555 0.77195 0.77136 0.76776 0.76716 0.76216 0.75866 0.75517 0.75029 0.74821 0.74335 0.7399 0.73645 0.73308 0.73233 0.73027 0.72821 0.72615 0.72545 0.72203 0.71869 0.71401 0.71196 0.7073 0.70653 0.70708 0.70377 0.70172 0.6971 0.6963 0.69302 0.69098 0.68893 0.68559 0.68355 0.67662 0.6746 0.67379 0.67298 0.67216 0.66892 0.66208 0.66007 0.66044 0.6608 0.66114 0.66036 0.65832 0.65628 0.65424 0.6546 0.65255 0.65167 0.64962 0.64403 0.64199 0.63995 0.63556 0.63238 0.63035 0.62493 0.61952 0.61639 0.61439 0.61238 0.61038 0.60622 0.60207 0.59794 0.59596 0.59295 0.59097 0.58899 0.58701 0.58395 0.58096 0.58 0.57802 0.57711 0.57713 0.57514 0.57421 0.57222 0.57122 0.56824 0.56625 0.56426 0.56227 0.56028 0.55727 0.55528 0.55431 0.55131 0.54837 0.54639 0.54535 0.54436 0.54044 0.53846 0.53455 0.52979 0.52413 0.52218 0.51931 0.51645 0.51359 0.51165 0.50971 0.50777 0.50582 0.50478 0.50283 0.50089 0.49983 0.497 0.49505 0.49398 0.49203 0.48922 0.48641 0.48447 0.48338 0.48059 0.47785 0.47507 0.47313 0.47041 0.46848 0.46572 0.46301 0.46026 0.45834 0.45642 0.45373 0.45258 0.45065 0.44954 0.44761 0.44644 0.4453 0.44337 0.44218 0.44024 0.43909 0.43715 0.43521 0.4325 0.42985 0.42644 0.42305 0.42184 0.4185 0.41514 0.41183 0.40993 0.40803 0.40475 0.40285 0.40232 0.4011 0.3992 0.39729 0.39538 0.39348 0.39025 0.38835 0.38645 0.3839 0.38395 0.3827 0.38079 0.38149 0.38088 0.37895 0.37703 0.37447 0.36934 0.36308 0.35699 0.35394 0.35147 0.34962 0.34893 0.34767 0.34581 0.34395 0.34323 0.3425 0.34121 0.33987 0.33857 0.33611 0.33369 0.33234 0.33046 0.32805 0.32617 0.32373 0.32131 0.31998 0.31756 0.31677 0.31435 0.31248
0 0 0 0 0 0 0 0 0 0 0 0 0 0 0 0 0 0 0 0 0 0 0 0 1.7957 1.659 1.6557 1.6622 1.6638 1.9742 1.6472 1.6489 1.6406 1.6422 1.6998 1.9857 1.6225 1.6192 1.6159 1.6173 0 0 0 0 0 0 0 0 0 0 0 0 0 0 0 0 0 0 0 0 0 0 0 0 0 0 0 0 0 0 0 0 0 0 0 0 0 0 0 0 0 0 0 0 0 0 0 0 0 0 0 0 0 0 0 0 0 0 0 0 0 0 0 0 0 0 0 0 0.84742 0.8393 0.83728 0.83527 0.83325 0.82973 0.82621 0 0 0.84295 0.83931 0.87442 0.87227 0.86681 0.85807 0.85265 0.8457 0.8373 0.83366 0.83003 0.82641 0.82587 0.82378 0.82476 0.82419 0.82674 0.82935 0.82883 0.8283 0.82458 0.82404 0.82034 0.81979 0.81609 0.80778 0.80419 0.79758 0.79696 0.79487 0.79131 0.78921 0.78712 0.78358 0.78004 0.77941 0.7802 0.77811 0.77753 0.77392 0.77333 0.76973 0.76764 0.76704 0.76204 0.75994 0.75505 0.75156 0.74669 0.74323 0.73977 0.73632 0.73296 0.7322 0.72885 0.72809 0.72603 0.72397 0.72062 0.71857 0.71389 0.71049 0.70845 0.7064 0.70569 0.7049 0.69902 0.69565 0.69494 0.6929 0.69209 0.69005 0.68677 0.68473 0.67895 0.67692 0.6761 0.67407 0.67325 0.67 0.66437 0.66234 0.66151 0.66068 0.66102 0.65899 0.6582 0.65616 0.65287 0.65448 0.65243 0.64916 0.64834 0.64269 0.6395 0.63747 0.63315 0.63112 0.6291 0.62254 0.61828 0.61521 0.61321 0.61226 0.60921 0.6061 0.60085 0.59782 0.59584 0.59283 0.58976 0.58778 0.5858 0.58281 0.58084 0.57887 0.5779 0.57699 0.57501 0.57503 0.57409 0.5721 0.5711 0.56812 0.56613 0.56414 0.56215 0.56113 0.55817 0.55516 0.55419 0.5522 0.54825 0.54627 0.54523 0.54324 0.54126 0.5374 0.5335 0.52967 0.52401 0.52114 0.51919 0.51724 0.51438 0.51244 0.50959 0.50765 0.5066 0.50466 0.5036 0.50077 0.49883 0.49776 0.49581 0.49386 0.49192 0.48997 0.48716 0.48521 0.48327 0.48047 0.47773 0.47495 0.47223 0.4703 0.46836 0.4656 0.4629 0.46097 0.45823 0.45631 0.45438 0.45246 0.45135 0.44942 0.4475 0.44632 0.44439 0.44399 0.44206 0.44013 0.4397 0.43703 0.4351 0.43316 0.43045 0.42633 0.4244 0.42172 0.41839 0.41502 0.41242 0.40982 0.40791 0.40394 0.40274 0.40153 0.40099 0.39841 0.3965 0.3946 0.3927 0.39014 0.38824 0.38568 0.38379 0.38254 0.38129 0.38067 0.38137 0.38013 0.37821 0.37561 0.37306 0.36923 0.36421 0.35746 0.3544 0.35197 0.35011 0.34882 0.34756 0.3451 0.34384 0.34252 0.34238 0.34223 0.34034 0.33846 0.33599 0.33411 0.3328 0.33035 0.32794 0.32606 0.32362 0.32175 0.31987 0.31745 0.31612 0.31478 0.31183
0 0 0 0 0 0 0 0 0 0 0 0 0 0 0 0 0 0 0 0 0 0 0 0 1.7954 1.6588 1.6555 1.662 1.6636 1.9193 1.647 1.6487 1.6404 1.642 1.6996 1.883 1.6223 1.619 1.56 1.5613 1.5536 1.5504 1.5472 0 0 0 0 0 0 0 0 0 0 0 0 0 0 0 0 0 0 0 0 0 0 0 0 0 0 0 0 0 0 0 0 0 0 0 0 0 0 0 0 0 0 0 0 0 0 0 0 0 0 0 0 0 0 0 0 0 0 0 0 0 0 0 0 0 0.8473 0.84375 0.83868 0.83969 0.83616 0.83112 0.82016 0.81675 0.81617 0.81277 0.83919 0.87429 0.87214 0.86668 0.85629 0.85088 0.84246 0.83407 0.83199 0.82991 0.82782 0.82881 0.82672 0.82777 0.82872 0.82974 0.83242 0.83189 0.82976 0.82763 0.82392 0.82179 0.82124 0.81754 0.80922 0.80407 0.79745 0.79536 0.79474 0.79118 0.78909 0.78554 0.782 0.77992 0.77783 0.77864 0.77798 0.77589 0.77379 0.77027 0.7696 0.76751 0.76691 0.76332 0.75982 0.75773 0.75004 0.74796 0.74171 0.73826 0.73759 0.73284 0.73078 0.72873 0.7253 0.72461 0.72256 0.71915 0.71709 0.71504 0.71172 0.70967 0.70628 0.70557 0.70352 0.69757 0.69428 0.6935 0.69277 0.69197 0.68993 0.68788 0.68461 0.68127 0.67924 0.6772 0.67644 0.67312 0.67109 0.66665 0.66342 0.66259 0.66056 0.65972 0.65887 0.65683 0.65479 0.65158 0.65312 0.65108 0.64787 0.64583 0.63911 0.63593 0.63391 0.63074 0.62872 0.62443 0.61909 0.61596 0.61397 0.61197 0.60997 0.60798 0.60487 0.60073 0.59667 0.59572 0.59271 0.58964 0.58664 0.58466 0.58269 0.58072 0.57774 0.57678 0.57581 0.57489 0.57491 0.57292 0.57198 0.57098 0.568 0.56602 0.56402 0.56203 0.56101 0.55806 0.55607 0.55408 0.55209 0.54813 0.54615 0.54511 0.54312 0.5402 0.53629 0.53245 0.52863 0.52389 0.52102 0.51999 0.51804 0.51518 0.51323 0.51038 0.50933 0.50649 0.50544 0.50349 0.50154 0.49959 0.49764 0.4957 0.49462 0.4918 0.48899 0.48704 0.4851 0.48315 0.48035 0.47677 0.47484 0.47211 0.47018 0.46741 0.46549 0.46278 0.46003 0.45811 0.45701 0.45508 0.45316 0.45199 0.45006 0.44738 0.44621 0.44428 0.44388 0.44194 0.44001 0.43959 0.43765 0.43421 0.43227 0.43034 0.42692 0.42429 0.42236 0.41827 0.41491 0.4116 0.40901 0.4078 0.40383 0.40263 0.40073 0.39883 0.39694 0.39572 0.39315 0.39125 0.38936 0.3868 0.38491 0.38237 0.38178 0.38053 0.37992 0.37998 0.37806 0.37678 0.37486 0.37232 0.36911 0.36596 0.35496 0.35372 0.35186 0.35 0.34814 0.34685 0.34499 0.34372 0.34241 0.34286 0.34211 0.34081 0.33892 0.33646 0.33457 0.33212 0.33023 0.32783 0.32539 0.32295 0.32108 0.31921 0.31734 0.31546 0.31413 0.31172
0 0 0 0 0 0 0 0 0 0 0 0 0 0 0 0 0 0 0 0 0 0 0 0 1.7952 1.6586 1.6553 1.9201 1.9163 1.9124 1.6468 1.6485 1.8878 1.8904 1.8866 1.9157 1.9812 1.721 1.5598 1.5611 1.5534 1.5502 1.547 0 0 0 0 0 0 0 0 0 0 0 0 0 0 0 0 0 0 0 0 0 0 0 0 0 0 0 0 0 0 0 0 0 0 0 0 0 0 0 0 0 0 0 0 0 0 0 0 0 0 0 0 0 0 0 0 0 0 0 0 0 0 0 0 0 0.84871 0.84819 0.84616 0.83806 0.84057 0.84315 0.82004 0.81663 0.81605 0.81266 0 0.87416 0.87367 0.86986 0.85617 0.85404 0.85192 0.84024 0.83651 0.83604 0.83548 0.83807 0.83442 0.83384 0.83333 0.83442 0.8355 0.83336 0.83123 0.83068 0.82696 0.82482 0.82269 0.81741 0.81215 0.80542 0.79733 0.79524 0.79617 0.79252 0.79043 0.78833 0.78333 0.78124 0.7806 0.77995 0.77938 0.77728 0.77661 0.77308 0.76948 0.76739 0.76679 0.7632 0.76259 0.75901 0.75271 0.74784 0.74298 0.73953 0.73746 0.73272 0.72928 0.72723 0.72389 0.72184 0.72107 0.71902 0.71697 0.71492 0.71159 0.70955 0.7075 0.70545 0.70207 0.6962 0.69416 0.69213 0.69265 0.69185 0.69111 0.68776 0.68571 0.68245 0.68041 0.67708 0.67632 0.673 0.67097 0.66533 0.6621 0.66127 0.66044 0.65959 0.65756 0.65671 0.65349 0.65263 0.65424 0.65095 0.64775 0.64571 0.63783 0.63351 0.6315 0.62948 0.62633 0.62318 0.61898 0.61585 0.61385 0.61185 0.61097 0.60897 0.60586 0.60276 0.59759 0.5956 0.59362 0.59061 0.58863 0.58665 0.58359 0.5806 0.57863 0.57766 0.57569 0.57478 0.57479 0.57386 0.57286 0.57191 0.56887 0.56688 0.56391 0.56289 0.5609 0.55794 0.55595 0.55294 0.55197 0.54897 0.54698 0.54499 0.54301 0.54008 0.53717 0.53234 0.52851 0.52378 0.52183 0.52079 0.51975 0.51779 0.51493 0.51207 0.51012 0.50906 0.508 0.50515 0.5032 0.50036 0.49753 0.49558 0.49363 0.49168 0.48887 0.48692 0.48498 0.48303 0.48024 0.47665 0.47393 0.472 0.47085 0.46813 0.4662 0.46344 0.46152 0.45959 0.45924 0.45731 0.45537 0.45424 0.45231 0.44957 0.44763 0.4457 0.44455 0.44262 0.44068 0.43874 0.43753 0.43337 0.43144 0.43022 0.4261 0.42341 0.42149 0.41886 0.4155 0.41219 0.40889 0.40699 0.40441 0.40183 0.40062 0.39804 0.39615 0.39426 0.39304 0.39048 0.38858 0.38603 0.38414 0.3816 0.38101 0.38042 0.3798 0.3805 0.37858 0.37667 0.37538 0.3722 0.37029 0.36899 0.35485 0.35361 0.35114 0.34989 0.34803 0.34674 0.34548 0.34476 0.34289 0.3433 0.342 0.3407 0.33881 0.33635 0.33446 0.33314 0.33069 0.32715 0.32527 0.32284 0.32097 0.3191 0.31722 0.31535 0.31402 0.31161
0 0 0 0 0 0 0 0 0 0 0 0 0 0 0 0 0 0 0 0 0 0 0 0 0 0 0 1.9199 1.9161 1.9122 1.6716 1.6733 1.8876 1.8902 1.8864 1.9155 1.9809 1.6837 1.5596 1.5609 1.5577 1.55 1.5468 0 0 0 0 0 0 0 0 0 0 0 0 0 0 0 0 0 0 0 0 0 0 0 0 0 0 0 0 0 0 0 0 0 0 0 0 0 0 0 0 0 1.8196 1.8222 1.8181 1.814 0 1.6195 1.6212 1.6174 0 0 0 0 0 0 0 0 0 1.3619 1.3587 0 0 0 0 0 0.84706 0.84969 0.85077 0.844 0.84507 0.84613 0.82585 0.82384 0 0.75218 0.75157 0.74972 0.74788 0.85007 0.85274 0.85063 0.84851 0.84011 0.83638 0.83591 0.83535 0.83479 0.83268 0.83371 0.8316 0.8343 0.83537 0.83323 0.8311 0.82896 0.82525 0.82312 0.82098 0.81728 0.81046 0.8053 0.7972 0.79511 0.79449 0.79394 0.7903 0.78821 0.78466 0.78257 0.78048 0.77983 0.77925 0.77715 0.77505 0.77145 0.76936 0.76726 0.76517 0.76307 0.76098 0.75888 0.75259 0.74772 0.74147 0.7394 0.73734 0.73259 0.73054 0.72711 0.72376 0.72171 0.72095 0.71762 0.71422 0.71352 0.71147 0.70942 0.70604 0.70533 0.70069 0.69482 0.69279 0.69076 0.69253 0.69173 0.68845 0.68641 0.68437 0.68103 0.67777 0.67695 0.67371 0.67167 0.66844 0.664 0.66198 0.65996 0.66032 0.65947 0.65744 0.65541 0.65455 0.65251 0.65288 0.65083 0.64763 0.64559 0.63771 0.63569 0.63252 0.62936 0.62734 0.62306 0.61886 0.61573 0.61373 0.61285 0.60974 0.6099 0.60574 0.60264 0.5985 0.59652 0.59453 0.59152 0.58851 0.58653 0.58347 0.5815 0.57851 0.57755 0.57664 0.57566 0.57573 0.57374 0.57274 0.57074 0.56875 0.56676 0.56379 0.56277 0.56078 0.55782 0.55583 0.55384 0.55083 0.54885 0.54686 0.54487 0.54195 0.53903 0.53705 0.53315 0.52932 0.52459 0.52263 0.52159 0.51963 0.51767 0.51572 0.51285 0.5109 0.50894 0.50877 0.50681 0.50308 0.50024 0.49829 0.49546 0.49439 0.49157 0.48962 0.48681 0.48486 0.48292 0.48097 0.47654 0.4746 0.47188 0.47073 0.4688 0.46609 0.46415 0.4614 0.46029 0.45836 0.45719 0.45526 0.45413 0.45139 0.4487 0.44677 0.44558 0.44444 0.4425 0.44056 0.43862 0.43591 0.43397 0.43204 0.43011 0.42669 0.42406 0.42213 0.41875 0.41613 0.41208 0.40947 0.40757 0.40498 0.4024 0.4005 0.39793 0.39604 0.39482 0.39292 0.39103 0.38847 0.38592 0.38403 0.38149 0.3809 0.3803 0.37905 0.37906 0.37715 0.37655 0.37526 0.37142 0.36951 0.36635 0.35535 0.35288 0.35164 0.34978 0.34792 0.34663 0.34536 0.34465 0.34333 0.34319 0.34189 0.34059 0.3387 0.33623 0.33435 0.33303 0.33058 0.3276 0.32572 0.32273 0.32086 0.31899 0.31711 0.31524 0.31337 0.31149
0 0 0 0 0 0 0 0 0 0 0 0 0 0 0 0 0 0 0 0 0 0 0 0 0 0 0 1.9197 1.9158 1.912 1.6713 1.6731 1.8938 1.89 1.8861 1.8823 1.9807 1.6834 1.5594 1.5607 1.562 1.5633 1.5466 0 0 0 0 0 0 0 0 0 0 0 0 0 0 0 0 0 0 0 0 0 0 0 0 0 0 0 0 0 0 0 0 0 0 0 0 0 0 0 0 0 1.8194 1.822 1.8179 1.8137 0 1.6192 1.6209 1.6172 0 0 0 0 0 0 0 0 0 1.3617 1.3585 0 0 0 0 0 0.84846 0.84491 0.85378 0.85012 0.85278 0.85071 0.82573 0.82372 0 0.75207 0.75146 0.74961 0.74777 0.84995 0.84784 0.83942 0.83889 0.83525 0.83316 0.83416 0.83369 0.83313 0.83256 0.83359 0.83308 0.83577 0.83684 0.8347 0.83097 0.82884 0.82354 0.82299 0.81928 0.81716 0.81033 0.80517 0.79855 0.79646 0.79592 0.79528 0.79464 0.78962 0.78599 0.78244 0.7818 0.7797 0.77761 0.77551 0.77342 0.77133 0.76638 0.7643 0.76221 0.76013 0.75945 0.75735 0.75107 0.74759 0.74134 0.73789 0.73583 0.73247 0.72904 0.72699 0.72227 0.72023 0.71954 0.71614 0.71282 0.70943 0.70874 0.70535 0.70332 0.70128 0.69799 0.69345 0.69142 0.69064 0.68861 0.68782 0.68579 0.68375 0.68172 0.67846 0.67765 0.67562 0.67237 0.67034 0.6659 0.66028 0.65827 0.65745 0.659 0.65817 0.65614 0.65293 0.65208 0.65005 0.65276 0.65071 0.64628 0.64308 0.63874 0.63442 0.6324 0.62924 0.62836 0.62521 0.61874 0.61448 0.61361 0.61273 0.61073 0.60873 0.60777 0.60252 0.59949 0.5964 0.59441 0.59243 0.58942 0.58744 0.58444 0.58138 0.57839 0.5785 0.57752 0.57554 0.57561 0.57461 0.57262 0.57167 0.56863 0.56664 0.56367 0.56265 0.55969 0.5577 0.55469 0.55372 0.55173 0.54778 0.54485 0.54381 0.54183 0.53891 0.53693 0.53396 0.53106 0.52724 0.52527 0.52423 0.52134 0.51938 0.51651 0.51454 0.51168 0.51062 0.50866 0.50758 0.50385 0.50189 0.49905 0.49622 0.4934 0.49058 0.48864 0.48583 0.48308 0.48029 0.47921 0.47563 0.4737 0.47176 0.46983 0.46952 0.46597 0.46481 0.46211 0.46094 0.45901 0.45789 0.45595 0.45321 0.45127 0.44859 0.44586 0.44472 0.44353 0.4416 0.43966 0.43851 0.43579 0.43386 0.43193 0.43075 0.42806 0.42541 0.42272 0.41934 0.41672 0.41266 0.41075 0.40815 0.40625 0.40434 0.40039 0.3985 0.39593 0.3947 0.39348 0.39158 0.38902 0.38646 0.38457 0.38138 0.38014 0.3789 0.377 0.37511 0.37386 0.37259 0.3707 0.3713 0.36939 0.36252 0.35582 0.35339 0.3521 0.35024 0.34898 0.34712 0.34697 0.34628 0.34381 0.34366 0.34236 0.34047 0.33916 0.3367 0.33423 0.33292 0.33046 0.32802 0.32561 0.32317 0.3213 0.31942 0.31755 0.31567 0.31433 0.31192
0 0 0 0 0 0 0 0 0 0 0 0 0 0 0 0 0 0 0 0 0 0 0 0 0 0 0 1.6037 1.6004 1.6018 1.594 0 1.8871 1.8898 1.8859 1.6849 1.6867 1.678 1.5592 1.556 1.5573 1.5677 1.5969 0 0 0 0 0 0 0 0 0 0 0 0 0 0 0 0 0 0 0 0 0 0 0 0 0 0 0 0 0 0 0 0 0 0 0 0 0 0 0 0 0 1.7861 1.6339 1.6356 1.6157 1.6174 1.619 1.6153 1.617 1.6864 1.5525 1.5489 1.5453 1.3353 1.336 1.3912 1.326 1.3229 1.3197 1.3166 1.4035 1.4045 1.586 1.5822 1.5218 1.5181 1.5244 1.5259 1.5323 1.5185 1.5098 1.5112 1.5025 0 0.75196 0.75135 0.71515 0.71453 0.71276 0.82594 0.83151 0.8341 0.83203 0.83149 0.83249 0.83357 0.83454 0.8309 0.83507 0.83617 0.83725 0.83671 0.83617 0.82925 0.82554 0.82341 0.8197 0.81758 0.81546 0.8102 0.80505 0.79999 0.79789 0.79579 0.79516 0.79606 0.79241 0.78586 0.78377 0.78167 0.77814 0.77748 0.77539 0.77329 0.76835 0.76484 0.76276 0.76067 0.75859 0.75932 0.75583 0.75094 0.74607 0.74261 0.73916 0.73571 0.73235 0.72891 0.72686 0.72215 0.72147 0.71806 0.71474 0.71134 0.70931 0.706 0.70396 0.70193 0.69864 0.69535 0.69208 0.6913 0.68928 0.68849 0.68646 0.68443 0.6824 0.68037 0.67834 0.67631 0.67428 0.67225 0.66902 0.66458 0.65896 0.65695 0.65614 0.6577 0.65686 0.65483 0.65281 0.6496 0.64758 0.65147 0.64943 0.64616 0.64296 0.63747 0.6343 0.63113 0.62912 0.62824 0.62509 0.61862 0.61436 0.61349 0.61261 0.61061 0.60966 0.60661 0.6035 0.59937 0.59738 0.5943 0.59231 0.5893 0.58732 0.58533 0.58126 0.57828 0.57731 0.5764 0.57642 0.57549 0.57555 0.5725 0.57051 0.56851 0.56652 0.56453 0.56253 0.55957 0.55758 0.55457 0.55258 0.5506 0.54671 0.54372 0.54275 0.54171 0.53879 0.53681 0.53483 0.53285 0.52804 0.52608 0.52411 0.52214 0.52017 0.51729 0.51533 0.51246 0.5105 0.50943 0.50747 0.50462 0.50177 0.49894 0.49435 0.49241 0.49047 0.48598 0.48491 0.48045 0.47938 0.47824 0.47387 0.47274 0.47165 0.46972 0.4694 0.46663 0.4647 0.46276 0.46083 0.45889 0.45854 0.45503 0.4539 0.45116 0.44847 0.44654 0.44461 0.44421 0.44227 0.43955 0.43761 0.43495 0.43302 0.43181 0.43064 0.42794 0.42529 0.42261 0.41998 0.4173 0.41254 0.41064 0.40804 0.40682 0.40354 0.40096 0.39838 0.39649 0.39459 0.39403 0.39147 0.38891 0.38635 0.3838 0.38126 0.37873 0.37749 0.37436 0.37248 0.3712 0.36995 0.36743 0.36129 0.36005 0.35699 0.35571 0.35327 0.35199 0.35013 0.34887 0.34701 0.34745 0.34617 0.34484 0.34355 0.34225 0.34094 0.33847 0.33658 0.33412 0.33337 0.33092 0.3279 0.32602 0.32362 0.32174 0.31931 0.31798 0.3161 0.31422 0.31181
0 0 0 0 0 0 0 0 0 0 0 0 0 0 0 0 0 0 0 0 0 0 0 0 1.7772 1.5604 1.5573 1.5542 1.5775 1.5924 1.5938 1.7469 1.6795 1.6761 1.6777 1.6846 1.6865 1.6778 1.5591 1.5558 1.5571 1.5494 1.5967 1.7318 1.7338 0 0 0 0 0 0 0 0 0 0 0 0 0 0 0 0 0 0 0 0 0 0 0 0 0 1.8426 1.8385 0 0 0 0 0 0 0 0 0 0 0 0 1.7859 1.6336 1.6354 1.6208 1.6225 1.6188 1.6151 1.6276 1.6404 1.5522 1.529 1.4922 1.3351 1.3585 1.371 1.3407 1.3227 1.3196 1.3164 1.4033 1.4 1.5858 1.582 1.5417 1.523 1.5193 1.5307 1.527 1.5183 1.5096 1.5059 1.5023 0 0.75185 0.75124 0.71173 0.71216 0.71153 0.8273 0.82524 0.82319 0.8257 0.83446 0.83391 0.83498 0.83603 0.83392 0.83495 0.83765 0.83872 0.83659 0.83604 0.83072 0.827 0.82328 0.81958 0.81745 0.81533 0.81008 0.80492 0.7983 0.79776 0.79566 0.79357 0.79739 0.79228 0.78574 0.78364 0.78155 0.77801 0.77592 0.7724 0.77174 0.76822 0.76329 0.76121 0.75913 0.75847 0.75919 0.7557 0.74942 0.74595 0.74249 0.73903 0.73559 0.73222 0.72879 0.72545 0.72203 0.72135 0.71794 0.71326 0.70994 0.70664 0.70334 0.70005 0.69929 0.696 0.69272 0.68945 0.68993 0.68915 0.68713 0.6851 0.68184 0.68105 0.6778 0.67333 0.67253 0.67052 0.66971 0.66648 0.66205 0.65884 0.65564 0.65602 0.65519 0.65437 0.65235 0.65033 0.64831 0.64629 0.64894 0.64574 0.64139 0.63937 0.6362 0.63418 0.63101 0.629 0.62584 0.62383 0.61737 0.61424 0.61337 0.61138 0.61049 0.60849 0.60649 0.60228 0.60029 0.59726 0.59527 0.59328 0.5902 0.58822 0.58522 0.58222 0.57917 0.57826 0.57628 0.5763 0.57537 0.57437 0.57238 0.57039 0.56839 0.5664 0.56441 0.56041 0.55842 0.55644 0.55445 0.55246 0.54952 0.54754 0.5436 0.54358 0.54065 0.53961 0.53669 0.53471 0.53175 0.52885 0.52688 0.52491 0.52293 0.52096 0.51808 0.51521 0.51235 0.51039 0.50842 0.50646 0.50361 0.50077 0.49882 0.49424 0.49142 0.48948 0.48586 0.48393 0.47953 0.47841 0.47733 0.47291 0.47183 0.47069 0.4696 0.46929 0.46735 0.46541 0.46424 0.46153 0.46036 0.45923 0.45572 0.45378 0.45184 0.44836 0.44643 0.44449 0.44177 0.43985 0.4364 0.43526 0.43334 0.43141 0.43097 0.42976 0.42711 0.42518 0.42325 0.41986 0.41649 0.41313 0.41122 0.40862 0.40671 0.40411 0.40085 0.39895 0.39637 0.39515 0.39325 0.39135 0.38945 0.38756 0.38435 0.3818 0.37926 0.37738 0.37485 0.37297 0.37049 0.36798 0.36547 0.3618 0.35994 0.35746 0.3556 0.35435 0.35187 0.35062 0.34876 0.34746 0.34734 0.34661 0.34473 0.34285 0.34155 0.34025 0.33836 0.33589 0.33401 0.33326 0.3308 0.32726 0.32539 0.32351 0.32163 0.3192 0.31787 0.3165 0.31411 0.31169
0 0 0 0 0 0 0 0 0 0 0 0 0 0 0 0 0 0 0 0 0 0 0 0 1.777 1.5602 1.5702 1.5671 1.5509 1.5922 1.5936 1.7467 1.6793 1.6759 1.6775 0 0 1.7145 1.7274 1.7129 0 1.7388 1.7352 1.7316 1.7336 0 0 0 0 0 0 0 0 0 0 0 0 0 0 0 0 0 0 0 0 0 0 0 0 0 1.8423 1.8383 0 0 0 0 0 0 0 0 0 0 0 0 1.7856 1.6334 1.6352 1.6152 1.6169 1.6186 1.6203 1.6111 1.6402 1.5879 1.5484 1.4691 1.3349 1.3662 1.3827 1.3256 1.3225 1.4311 1.4149 1.4031 1.4041 1.5856 1.5818 1.5213 1.5177 1.524 1.5254 1.5268 1.5231 1.5244 1.5207 1.502 0 0 0 0.71162 0.71092 0.71142 0.82717 0.82512 0.82307 0.83023 0.83906 0.84012 0.83955 0.84067 0.83855 0.84126 0.84234 0.8434 0.83966 0.83591 0.83218 0.82845 0.82315 0.82103 0.8189 0.8152 0.80995 0.80479 0.79974 0.79608 0.79554 0.79344 0.79726 0.79369 0.78714 0.78352 0.78142 0.77789 0.7758 0.77227 0.76876 0.76667 0.76459 0.76109 0.75901 0.75834 0.75766 0.75558 0.7493 0.74583 0.74236 0.7403 0.73546 0.7334 0.73005 0.72662 0.72327 0.71986 0.71782 0.71314 0.70855 0.70652 0.70322 0.69993 0.69664 0.69462 0.69135 0.68808 0.68856 0.68779 0.68577 0.68375 0.68172 0.68093 0.67645 0.67443 0.6712 0.6704 0.66838 0.66636 0.66193 0.65872 0.65671 0.6559 0.65626 0.65424 0.65223 0.65139 0.64819 0.64734 0.64765 0.64562 0.64243 0.63925 0.63608 0.63406 0.63204 0.62774 0.62572 0.62485 0.61838 0.61412 0.61325 0.61238 0.61037 0.60837 0.60637 0.60327 0.60127 0.59927 0.59618 0.59528 0.59328 0.5902 0.58821 0.5852 0.58113 0.58015 0.57817 0.57618 0.57625 0.57425 0.57226 0.56928 0.56827 0.5653 0.56331 0.56029 0.5583 0.55632 0.55433 0.55234 0.54941 0.54742 0.54449 0.5444 0.54147 0.53949 0.53751 0.53553 0.53262 0.52966 0.52768 0.52668 0.52373 0.52175 0.51887 0.51509 0.51313 0.51027 0.50831 0.50634 0.50438 0.50066 0.4987 0.49587 0.49218 0.48937 0.48661 0.48381 0.48108 0.47829 0.47721 0.47364 0.47251 0.47058 0.47027 0.47162 0.4705 0.46855 0.4666 0.46383 0.46188 0.46155 0.4596 0.45603 0.45328 0.44899 0.44706 0.44512 0.44245 0.43973 0.43707 0.43515 0.43322 0.43129 0.43086 0.42964 0.42771 0.42577 0.42313 0.42045 0.41782 0.41446 0.41184 0.40993 0.40728 0.4061 0.40209 0.39951 0.39693 0.39571 0.39448 0.39324 0.39066 0.38942 0.3862 0.38234 0.3811 0.37856 0.37602 0.37285 0.37097 0.36787 0.36536 0.36228 0.36041 0.35854 0.35668 0.35481 0.35237 0.35108 0.34921 0.34794 0.34783 0.34709 0.34407 0.34274 0.34144 0.33955 0.33825 0.33636 0.3339 0.33258 0.33069 0.32715 0.32527 0.32284 0.32096 0.31909 0.31776 0.31588 0.314 0.31105
0 0 0 0 0 0 0 0 0 0 0 0 0 0 0 0 0 0 0 0 0 0 0 0 1.7768 1.6095 1.5926 1.5894 1.5999 1.6739 1.6655 1.6572 1.7825 1.7789 1.7753 1.6388 1.6404 1.7474 1.7383 1.7402 0 1.8777 1.8804 1.8765 1.8726 0 1.5924 1.5891 1.5858 1.5412 1.5424 1.9989 1.9946 0 1.5205 1.5217 1.807 1.8094 0 0 0 0 0 0 0 0 0 0 0 0 1.8761 1.872 2.009 2.062 2.0574 0 0 0 0 0 0 0 0 0 1.7169 1.719 1.715 1.7542 1.7565 1.8526 1.8483 1.8441 1.64 1.6197 1.6324 1.4689 1.3971 1.3817 1.3866 1.3254 1.3223 1.4224 1.4105 1.3947 1.3873 1.3963 1.393 1.3896 1.5175 1.5189 1.5201 1.5215 1.5228 1.5293 1.5307 1.5476 0 0 0 0.71152 0.71081 0.71132 0.81508 0.81306 0.84469 0.83785 0.84048 0.84154 0.84105 0.84055 0.83843 0.84275 0.84221 0.84167 0.84113 0.83738 0.83046 0.82833 0.82461 0.81932 0.81878 0.81665 0.80834 0.80467 0.79805 0.79596 0.79386 0.79331 0.79414 0.79203 0.78702 0.78339 0.77985 0.77776 0.77423 0.77215 0.76863 0.76512 0.76304 0.76238 0.75889 0.75963 0.75754 0.75545 0.74917 0.7457 0.74363 0.74017 0.73672 0.73328 0.72992 0.7265 0.72315 0.71974 0.71641 0.71301 0.70842 0.70639 0.7031 0.69854 0.694 0.69198 0.68997 0.68671 0.68844 0.68643 0.68565 0.68239 0.68037 0.68081 0.67633 0.67431 0.67108 0.67027 0.66705 0.66624 0.66302 0.6586 0.65779 0.65697 0.65733 0.6565 0.65329 0.65126 0.65042 0.64722 0.64753 0.64667 0.64347 0.63913 0.63596 0.63394 0.63192 0.62876 0.6256 0.62473 0.61932 0.61513 0.61426 0.61225 0.6113 0.60825 0.60625 0.60425 0.60225 0.60025 0.59716 0.59516 0.59425 0.59225 0.58917 0.5861 0.58202 0.5811 0.57911 0.57606 0.57513 0.57413 0.57115 0.56916 0.56717 0.56518 0.56319 0.56017 0.55819 0.5562 0.55421 0.55127 0.54929 0.54635 0.54532 0.54428 0.54136 0.53937 0.53739 0.53541 0.53151 0.52954 0.52756 0.52656 0.52361 0.52163 0.51875 0.51498 0.51301 0.51015 0.50819 0.50623 0.50338 0.50142 0.49946 0.49488 0.49206 0.48925 0.4865 0.48456 0.48176 0.47983 0.4771 0.47517 0.47239 0.4713 0.47016 0.47234 0.47038 0.46926 0.4673 0.46453 0.46421 0.46387 0.4611 0.45833 0.45397 0.45042 0.44774 0.4458 0.44307 0.44192 0.43695 0.43576 0.43311 0.4319 0.43074 0.42953 0.42835 0.42566 0.42372 0.42034 0.41771 0.41434 0.41242 0.40981 0.40717 0.40598 0.40266 0.40008 0.3975 0.39627 0.39436 0.39312 0.39121 0.38931 0.38674 0.38288 0.38034 0.37909 0.37527 0.37338 0.37086 0.36775 0.36466 0.36217 0.3603 0.35905 0.35599 0.3547 0.35226 0.35097 0.34854 0.34723 0.34712 0.34639 0.34336 0.34208 0.34074 0.33944 0.33813 0.33567 0.33378 0.33247 0.33058 0.32704 0.32516 0.32273 0.3214 0.31952 0.3171 0.31522 0.31389 0.31093
0 0 0 0 0 0 0 0 0 0 0 0 0 0 0 0 0 0 0 0 0 0 0 0 1.7766 1.6093 1.6155 1.6122 1.6423 1.6637 1.6653 1.657 1.7372 1.7447 1.7302 1.6386 1.6402 1.7472 1.7436 1.74 2.2585 1.8775 1.8802 1.8763 1.8724 0 1.5922 1.5889 1.5856 1.541 1.5422 1.9986 1.9944 0 1.5203 1.5216 1.8068 1.8092 0 0 0 0 0 1.6756 1.6774 1.6683 1.6647 1.661 1.6574 1.6538 1.8622 1.7797 1.7757 1.7718 1.7679 1.8085 0 0 0 0 0 1.5896 1.5861 1.5825 1.7167 1.7187 1.727 1.7414 1.7885 1.791 1.8001 1.8027 1.6398 1.636 1.6322 1.4687 1.3969 1.3937 1.3904 1.3252 1.3221 1.4179 1.3978 1.3741 1.3709 1.3961 1.3928 1.3894 1.5026 1.5136 1.525 1.5213 1.5277 1.5393 1.5459 1.5422 0 0 0 0.71142 0.70966 0.71121 0.81497 0.81294 0.8462 0.84409 0.84353 0.84141 0.84254 0.84042 0.83991 0.84101 0.84209 0.84315 0.841 0.83566 0.83033 0.82661 0.82448 0.82077 0.81865 0.81495 0.8097 0.80454 0.79793 0.79583 0.79374 0.79319 0.79401 0.79045 0.78689 0.78327 0.77973 0.7762 0.77411 0.77059 0.76851 0.765 0.76292 0.76084 0.76018 0.75809 0.75882 0.75393 0.75045 0.74697 0.74351 0.74005 0.7366 0.73316 0.7298 0.72637 0.72037 0.71833 0.71629 0.71033 0.70703 0.70373 0.70044 0.69589 0.69017 0.68935 0.6886 0.68659 0.68832 0.68631 0.68553 0.68227 0.68148 0.67946 0.67744 0.67419 0.67217 0.66894 0.66692 0.66491 0.6629 0.66088 0.65767 0.65685 0.6584 0.65756 0.65435 0.65232 0.64912 0.6471 0.64741 0.64538 0.64335 0.63901 0.63353 0.63152 0.63065 0.6275 0.62548 0.62461 0.62033 0.61614 0.61414 0.61319 0.61118 0.60813 0.60613 0.60413 0.60317 0.60116 0.59813 0.59613 0.59413 0.59213 0.58905 0.58705 0.58398 0.58098 0.579 0.577 0.57601 0.57402 0.57202 0.57003 0.56705 0.56403 0.56204 0.55811 0.55613 0.55415 0.55115 0.54918 0.5472 0.54523 0.54426 0.54322 0.54124 0.53925 0.53727 0.53529 0.53238 0.52942 0.52842 0.52547 0.52349 0.52152 0.51864 0.51486 0.51289 0.51003 0.50807 0.50611 0.50238 0.50042 0.49847 0.49477 0.49107 0.48913 0.48638 0.48444 0.48165 0.47972 0.47778 0.47505 0.47312 0.47198 0.47166 0.47222 0.47193 0.46914 0.46719 0.46523 0.46491 0.46457 0.46179 0.45902 0.45465 0.45031 0.44762 0.44568 0.44295 0.44181 0.43684 0.43491 0.43299 0.43179 0.43063 0.42941 0.42895 0.4263 0.42361 0.42022 0.41759 0.41492 0.41231 0.4097 0.40847 0.40587 0.40323 0.39996 0.39806 0.39682 0.39492 0.39301 0.39176 0.38919 0.38663 0.38211 0.37957 0.37833 0.3758 0.37327 0.37075 0.36764 0.36392 0.36147 0.35961 0.35832 0.35526 0.3534 0.35097 0.34968 0.34782 0.34596 0.34641 0.34572 0.34325 0.34138 0.34063 0.33875 0.3386 0.33613 0.33367 0.33235 0.3299 0.32745 0.32505 0.32261 0.32074 0.31941 0.31593 0.31406 0.3127 0.31082
0 0 0 0 0 0 0 0 0 0 0 0 0 0 0 0 0 0 0 0 0 0 0 0 0 1.6669 1.6585 1.6552 1.6569 1.6735 1.6701 1.7516 1.7425 1.7335 1.7299 1.7264 1.7229 1.8049 1.8072 1.8982 2.2582 1.8838 1.8734 1.876 1.8721 0 1.592 1.5887 1.794 1.8086 1.8883 1.9984 1.9941 0 1.5201 1.5214 1.8066 1.809 0 0 0 0 0 1.6753 1.6827 1.6735 1.6645 1.6608 1.6626 1.6536 1.8619 1.7794 1.7755 1.7779 1.774 1.8083 0 0 0 0 0 1.5894 1.5909 1.5823 0 1.8006 1.7965 1.7924 1.7883 1.7776 1.7801 1.7957 1.7915 1.7808 1.7702 0 0 0 0 0 0 1.4177 1.4186 1.37 1.3707 1.4658 1.5497 1.4916 1.4928 1.5233 1.5248 1.5362 1.5428 1.5707 1.5831 1.5847 0 0 0 0 0.71513 0.7145 0.83608 0.84179 0.84608 0.84715 0.84666 0.84454 0.84404 0.84353 0.8414 0.84249 0.84356 0.84302 0.84087 0.83553 0.83021 0.82649 0.82277 0.82065 0.81852 0.81639 0.81114 0.80598 0.79936 0.79726 0.79516 0.79453 0.79388 0.79032 0.78524 0.78314 0.7796 0.77607 0.77399 0.7719 0.76838 0.7663 0.7628 0.76072 0.76005 0.75797 0.7587 0.7552 0.74892 0.74545 0.74477 0.73993 0.73648 0.73173 0.7283 0.72625 0.72025 0.71821 0.71617 0.71021 0.70563 0.70361 0.70032 0.69577 0.69005 0.68923 0.68848 0.68772 0.69319 0.69116 0.68664 0.68338 0.68259 0.67934 0.67732 0.67529 0.67449 0.67125 0.66802 0.66479 0.66278 0.66076 0.65994 0.65911 0.65947 0.65744 0.65541 0.65455 0.65135 0.64815 0.64612 0.6441 0.64207 0.63773 0.63341 0.6314 0.63053 0.62623 0.62536 0.62449 0.62134 0.6182 0.61507 0.61419 0.61106 0.60906 0.60706 0.60505 0.60305 0.60214 0.60013 0.59704 0.59503 0.59411 0.59001 0.58801 0.58386 0.58187 0.57988 0.57894 0.578 0.576 0.574 0.572 0.56792 0.56391 0.56192 0.55799 0.55499 0.55301 0.55007 0.5481 0.54613 0.54511 0.54414 0.54216 0.54206 0.53914 0.53809 0.53517 0.53226 0.5293 0.52922 0.52632 0.52434 0.5214 0.51852 0.51564 0.51367 0.50902 0.50706 0.50599 0.50226 0.50031 0.49835 0.49378 0.49096 0.48821 0.48708 0.48433 0.48239 0.48045 0.47851 0.47573 0.47464 0.4727 0.47238 0.47293 0.47181 0.46903 0.46707 0.46512 0.46479 0.46445 0.46168 0.4581 0.45454 0.44944 0.4475 0.44477 0.44363 0.44169 0.43672 0.4348 0.43288 0.43167 0.43051 0.4293 0.42884 0.42689 0.42425 0.42156 0.41892 0.41555 0.41363 0.4117 0.40904 0.40712 0.4052 0.4012 0.39929 0.39738 0.39618 0.39427 0.39301 0.3911 0.38782 0.38396 0.38141 0.37886 0.37633 0.37379 0.37191 0.3669 0.36381 0.36194 0.3595 0.35821 0.35515 0.35329 0.35086 0.349 0.34771 0.34585 0.34574 0.34561 0.34255 0.34126 0.34052 0.33921 0.33848 0.33602 0.33413 0.33224 0.33035 0.3279 0.32602 0.32306 0.32063 0.31875 0.31528 0.31395 0.31208 0.31021
0 0 0 0 0 0 0 0 0 0 0 0 0 0 0 0 0 0 0 0 0 0 0 0 0 0 0 0 0 0 0 0 0 0 2.23 2.2254 2.2299 2.0728 2.0685 2.0722 2.3359 2.3412 2.2675 2.2439 2.2393 1.8551 1.8576 1.9 1.7938 1.8083 1.8881 0 0 0 1.6334 1.63 0 0 0 0 1.6915 1.6935 1.7294 1.7257 1.6992 1.6789 1.6643 1.666 1.6679 1.6752 1.677 1.6679 1.7816 1.7777 1.7799 1.776 1.7115 1.7019 1.6697 1.6604 1.6905 1.6151 1.6011 1.6078 1.6696 1.6715 1.7962 1.7921 1.7946 1.7839 1.7864 1.7954 1.798 1.7872 1.77 0 1.4342 1.4352 1.4318 1.4156 1.4166 1.4435 1.3417 1.3423 1.3278 1.3284 1.4007 1.4016 1.4461 1.4426 1.4391 1.536 1.5426 1.5758 1.5883 1.5682 1.5643 1.5768 1.5729 1.6137 0 0.84272 0.8422 0.84331 0.84431 0.84702 0.84491 0.84441 0.84229 0.8434 0.84127 0.84075 0.84504 0.84289 0.83914 0.8354 0.83167 0.82794 0.82423 0.81894 0.81839 0.8147 0.81101 0.80585 0.80071 0.79861 0.79651 0.79587 0.79376 0.79165 0.78511 0.78157 0.77948 0.77595 0.77386 0.77177 0.76969 0.76618 0.76267 0.76059 0.75993 0.75784 0.75857 0.75368 0.7488 0.74533 0.74187 0.7398 0.73497 0.73161 0.72818 0.72613 0.72013 0.71809 0.71605 0.71137 0.70678 0.70476 0.70146 0.69691 0.69237 0.69162 0.68961 0.68885 0.69307 0.69104 0.68652 0.68326 0.68124 0.67922 0.67719 0.67517 0.67437 0.67113 0.6679 0.66708 0.66386 0.66184 0.65982 0.66018 0.66053 0.6585 0.65647 0.65443 0.65123 0.64803 0.64484 0.64397 0.64079 0.63761 0.63329 0.63013 0.62927 0.62611 0.62524 0.62437 0.62122 0.61808 0.61608 0.61295 0.61206 0.60894 0.60804 0.60604 0.60403 0.60421 0.60111 0.59692 0.59491 0.59291 0.5909 0.58789 0.58482 0.58389 0.57976 0.57883 0.57788 0.57588 0.57283 0.57084 0.5678 0.56281 0.5618 0.55685 0.55487 0.55193 0.54996 0.54799 0.54697 0.54499 0.54301 0.54104 0.541 0.53902 0.53703 0.53505 0.53116 0.52918 0.52721 0.52523 0.52326 0.52128 0.5184 0.51553 0.51176 0.50891 0.50695 0.50588 0.50214 0.50107 0.49736 0.49366 0.49003 0.48809 0.48696 0.48502 0.48228 0.48034 0.4784 0.47646 0.47452 0.47258 0.47143 0.47282 0.47003 0.46891 0.46613 0.46418 0.46467 0.46271 0.46075 0.45718 0.45362 0.44933 0.44659 0.44466 0.44272 0.44157 0.43583 0.43468 0.43199 0.43084 0.4304 0.42918 0.42872 0.42607 0.42413 0.42144 0.41881 0.41613 0.41421 0.41228 0.40966 0.40774 0.40509 0.40249 0.40125 0.39865 0.39811 0.39619 0.39493 0.39436 0.39107 0.3878 0.38523 0.38068 0.37621 0.37432 0.37243 0.36864 0.36491 0.36125 0.35938 0.3581 0.35566 0.35379 0.35132 0.34889 0.3476 0.34574 0.34563 0.34491 0.34244 0.34174 0.33986 0.33852 0.33837 0.33591 0.33344 0.33213 0.33024 0.32779 0.3259 0.32294 0.32051 0.31864 0.31516 0.31279 0.31143 0.30956
0 0 0 0 0 0 0 0 0 0 0 0 0 0 0 0 0 0 0 0 0 0 0 0 0 0 0 0 0 0 0 0 0 0 2.2297 2.2252 2.2297 2.0725 2.0683 2.072 2.3057 2.301 2.1075 2.1114 2.239 1.8549 1.8704 1.8998 1.7935 1.7898 1.8292 1.9681 1.7204 1.7225 1.6332 1.6297 0 0 0 0 1.6483 1.6768 1.6896 1.6971 1.6989 1.6897 1.6695 1.6658 1.6677 1.675 1.6768 1.6677 1.7814 1.7774 1.7797 1.7758 1.6331 1.6565 1.6528 1.6546 1.6564 1.5941 1.6009 1.6289 1.647 1.6713 1.796 1.7919 1.7944 1.7902 1.7861 1.7886 1.7978 1.7869 1.7697 0 1.434 1.435 1.4316 1.351 1.3517 1.3485 1.3415 1.3422 1.3352 1.3282 1.4005 1.4014 1.4459 1.4424 1.4389 1.5358 1.5475 1.5649 1.5718 1.5733 1.5695 1.5656 1.5727 1.6135 0 0.8426 0.84207 0.84318 0.84264 0.84208 0.84478 0.84266 0.84054 0.84328 0.83953 0.84223 0.84331 0.84436 0.84061 0.83527 0.83154 0.8294 0.82568 0.81882 0.81512 0.813 0.80932 0.80573 0.79911 0.79701 0.79336 0.79281 0.79071 0.78708 0.78208 0.7771 0.77502 0.7715 0.76943 0.76735 0.76528 0.76178 0.75829 0.75622 0.75556 0.7549 0.75564 0.75075 0.74588 0.74381 0.74175 0.73829 0.73485 0.73149 0.72806 0.72471 0.7213 0.71925 0.71592 0.71253 0.70794 0.70591 0.70261 0.69806 0.69478 0.69402 0.692 0.68873 0.69295 0.69091 0.6864 0.68191 0.68112 0.6791 0.67707 0.67505 0.67425 0.67101 0.66898 0.66696 0.66374 0.66292 0.66089 0.66126 0.6616 0.65956 0.65753 0.65549 0.65228 0.64791 0.64471 0.64385 0.63951 0.63518 0.63202 0.63116 0.628 0.62599 0.62399 0.62311 0.6211 0.61796 0.61708 0.61283 0.61194 0.60882 0.60903 0.60702 0.60501 0.60409 0.60208 0.5968 0.59479 0.59279 0.59078 0.58777 0.58577 0.58377 0.58177 0.57871 0.57776 0.57471 0.57271 0.56967 0.5667 0.56172 0.55974 0.55479 0.55282 0.55181 0.54888 0.54787 0.54685 0.54487 0.5429 0.54092 0.53895 0.53796 0.53598 0.53302 0.53012 0.5263 0.52525 0.52237 0.52131 0.51935 0.51647 0.51361 0.51075 0.507 0.50594 0.50487 0.50203 0.50095 0.49812 0.49267 0.48991 0.48711 0.48436 0.4841 0.48216 0.48022 0.47828 0.4755 0.47441 0.47247 0.47131 0.47104 0.46909 0.46714 0.46519 0.46324 0.46293 0.46097 0.4574 0.45465 0.4519 0.44841 0.44573 0.4438 0.44187 0.44067 0.43571 0.43306 0.43187 0.42995 0.43028 0.42907 0.42789 0.42595 0.42401 0.42062 0.41795 0.41602 0.41409 0.41216 0.40955 0.40762 0.4057 0.40305 0.40252 0.39992 0.39867 0.39745 0.39618 0.397 0.39366 0.39107 0.38779 0.38186 0.37674 0.37485 0.37232 0.36853 0.3648 0.36172 0.35985 0.35799 0.35554 0.35368 0.35121 0.34878 0.34692 0.34507 0.34492 0.34365 0.34178 0.34045 0.33916 0.33841 0.33768 0.33522 0.33276 0.33088 0.32956 0.32768 0.32579 0.32283 0.31985 0.31747 0.314 0.31214 0.31082 0.30842
0 0 0 0 0 0 0 0 0 0 0 0 0 0 0 0 0 0 0 0 0 0 0 0 0 0 0 0 0 0 0 0 0 0 0 0 0 2.36 2.3654 2.4458 2.3054 2.3007 2.1072 2.1111 2.2387 1.8611 1.8508 1.8996 1.9513 1.8392 1.829 1.9678 1.7202 1.7222 1.633 1.6347 0 0 0 0 1.6481 1.6445 1.6783 1.6747 1.6765 1.759 1.7026 1.6602 1.6675 1.6748 1.6766 1.6675 1.7686 1.7709 1.7733 1.7818 1.6383 1.6399 1.6417 1.6489 1.6344 1.599 1.5954 1.6341 1.6523 1.6654 1.7957 1.8183 1.8074 1.7966 1.7859 1.7883 1.7975 1.8 1.7892 0 1.4381 1.4304 1.4314 1.3509 1.3515 1.3483 1.3413 1.342 1.3388 1.3318 1.5804 1.4491 1.4457 1.4422 1.4387 1.5407 1.5422 1.554 1.5609 1.5623 1.5747 1.5873 1.5945 1.6133 0 0 0.84515 0.84306 0.84096 0.84041 0.84302 0.84091 0.84042 0.84477 0.84425 0.84854 0.84969 0.84592 0.84376 0.8416 0.83944 0.83561 0.82872 0.81869 0.81342 0.81131 0.80919 0.80404 0.79898 0.79533 0.79177 0.78968 0.78759 0.7855 0.77906 0.77553 0.77345 0.76994 0.76643 0.76436 0.76373 0.76023 0.75674 0.75468 0.75403 0.75337 0.7527 0.74782 0.74576 0.74369 0.74162 0.73817 0.73472 0.73136 0.72931 0.72725 0.7252 0.72314 0.72108 0.71903 0.71562 0.7123 0.71152 0.7082 0.70615 0.70277 0.69947 0.69611 0.69539 0.69204 0.69 0.68673 0.68469 0.68389 0.68063 0.67981 0.67778 0.67574 0.67128 0.67046 0.66722 0.66639 0.66436 0.66478 0.66274 0.65944 0.65741 0.65779 0.65457 0.65012 0.64692 0.64373 0.63939 0.63622 0.6319 0.62989 0.62903 0.62588 0.62614 0.62413 0.62098 0.61784 0.61696 0.61383 0.61294 0.60981 0.60781 0.608 0.60489 0.60288 0.60087 0.59668 0.59467 0.59375 0.58965 0.58866 0.58666 0.58365 0.58165 0.57965 0.57969 0.57664 0.57364 0.5706 0.56658 0.56258 0.55962 0.55467 0.5527 0.55073 0.54876 0.54775 0.54578 0.54475 0.54278 0.5408 0.53883 0.53685 0.53487 0.53197 0.52907 0.52618 0.52422 0.52134 0.52029 0.51741 0.51636 0.51259 0.50973 0.50688 0.50582 0.50387 0.50191 0.49996 0.498 0.49173 0.48893 0.48618 0.48425 0.48312 0.48038 0.47925 0.47817 0.47538 0.47429 0.47235 0.4712 0.47092 0.46897 0.46702 0.4659 0.46313 0.46118 0.46004 0.45648 0.45453 0.45103 0.4483 0.44562 0.4429 0.44176 0.43982 0.43638 0.43445 0.43253 0.43133 0.43017 0.42971 0.42778 0.42655 0.42315 0.41976 0.41783 0.41521 0.41328 0.41136 0.40943 0.40751 0.40558 0.40366 0.40173 0.40048 0.39855 0.39662 0.39676 0.39619 0.39354 0.39095 0.38767 0.38175 0.37663 0.37473 0.3722 0.36783 0.3641 0.36161 0.35974 0.3573 0.35543 0.35357 0.3511 0.34867 0.34738 0.34552 0.34425 0.34294 0.34108 0.33979 0.33905 0.3383 0.33757 0.33453 0.33212 0.33077 0.32945 0.327 0.32512 0.32217 0.31974 0.31735 0.31338 0.31152 0.30967 0.30831
0 0 0 0 0 0 0 0 0 0 0 0 0 0 0 0 0 0 0 0 0 0 0 0 0 0 0 0 0 0 2.0471 2.0507 2.0389 2.0423 2.2946 2.2995 2.2853 2.0107 2.0066 2.2712 2.2477 2.2524 2.2478 1.7642 1.7665 1.7628 2.0184 2.0218 1.98 1.8846 1.8806 1.9973 1.9634 1.952 1.9194 1.9083 1.9688 1.9212 1.9242 1.8921 1.8811 0 1.6001 1.6372 1.5932 1.7528 1.7254 1.693 1.6893 1.7083 1.8678 1.7358 1.7561 1.7583 1.7605 1.7088 1.6653 1.6561 1.6634 1.6708 1.6504 1.6305 1.6161 1.6284 1.6521 1.5543 1.5508 1.7848 1.8005 1.7963 1.7726 1.7815 1.7774 1.7864 1.8229 0 1.4599 1.4476 1.4399 1.4541 1.5205 1.5218 1.5134 1.3894 1.358 1.3869 1.6019 1.4444 1.4455 1.442 1.4385 1.5405 1.5368 1.5433 1.55 1.5568 1.5745 1.5815 1.5999 1.613 0 0 0.84979 0.84768 0.84713 0.84664 0.84453 0.84403 0.84191 0.84626 0.84573 0.84842 0.84956 0.84739 0.84363 0.84147 0.83931 0.83715 0.82859 0.82014 0.81487 0.81275 0.80907 0.80547 0.7973 0.79521 0.79311 0.78956 0.78892 0.78683 0.77893 0.77541 0.77333 0.76982 0.76774 0.76424 0.7636 0.76011 0.75662 0.75456 0.75249 0.75184 0.75117 0.7491 0.74424 0.74217 0.74011 0.73805 0.7333 0.73124 0.72919 0.72713 0.72371 0.72302 0.72224 0.72018 0.71685 0.71479 0.71274 0.70934 0.70862 0.70524 0.70319 0.69856 0.69652 0.69447 0.69119 0.68915 0.68711 0.68507 0.68302 0.68098 0.67894 0.6769 0.67358 0.67154 0.66951 0.66747 0.66424 0.66339 0.66261 0.65814 0.65728 0.65525 0.65204 0.64766 0.64564 0.64245 0.63927 0.6361 0.63178 0.62977 0.62662 0.62576 0.62375 0.62287 0.62086 0.61772 0.61572 0.61483 0.61281 0.60858 0.60769 0.60678 0.60367 0.60276 0.60075 0.59765 0.59455 0.59363 0.59054 0.58854 0.58654 0.5856 0.58153 0.58052 0.57957 0.57757 0.57556 0.57251 0.56952 0.56246 0.5595 0.55358 0.55162 0.55061 0.54865 0.54763 0.54661 0.54464 0.54266 0.54068 0.53777 0.53673 0.53383 0.53185 0.52896 0.52607 0.52318 0.52214 0.51926 0.5173 0.51533 0.51337 0.51051 0.50587 0.50482 0.50375 0.50179 0.49896 0.49613 0.49162 0.48712 0.4852 0.48327 0.48301 0.48027 0.47914 0.4772 0.47527 0.47333 0.47224 0.47108 0.4708 0.46886 0.46691 0.46578 0.46301 0.46106 0.45911 0.45636 0.45361 0.45092 0.44743 0.4455 0.44278 0.44085 0.43971 0.437 0.43507 0.43314 0.43198 0.43077 0.43031 0.42837 0.42643 0.42303 0.42039 0.41702 0.41509 0.41317 0.41124 0.40932 0.40808 0.40615 0.40422 0.40229 0.40036 0.39981 0.39788 0.39731 0.39607 0.39343 0.39083 0.38687 0.38163 0.37651 0.37398 0.37209 0.36708 0.36399 0.3615 0.35963 0.35719 0.35532 0.35285 0.35099 0.34796 0.3467 0.34541 0.34414 0.34228 0.34041 0.34023 0.33894 0.33819 0.33688 0.33442 0.332 0.33065 0.32877 0.32689 0.32501 0.3215 0.31911 0.3167 0.31327 0.31087 0.30902 0.30716
0 0 0 0 0 0 0 0 0 0 0 0 0 0 0 0 0 0 0 0 0 0 0 0 0 0 0 0 0 0 2.0469 2.0504 2.0386 2.0421 2.2943 2.2706 2.2946 2.0105 2.0064 2.271 2.2474 2.2521 2.2475 1.764 1.7662 1.7626 2.0182 2.0216 1.9798 1.8979 1.8804 1.9971 1.9559 1.9445 1.9262 1.9363 1.9538 1.928 1.9098 1.8987 1.8878 0 1.5999 1.5964 1.5929 1.7525 1.7548 1.7331 1.7234 1.7024 1.8676 1.7356 1.7259 1.7399 1.7241 1.7028 1.6818 1.6894 1.703 1.6992 1.6839 1.6744 1.6266 1.6175 1.6744 1.5541 1.5505 1.7846 1.7805 1.7961 1.7594 1.7618 1.7577 1.7473 1.8226 0 1.4597 1.4607 1.4573 1.4539 1.5203 1.5216 1.5132 1.3892 1.3859 1.3867 1.6017 1.4487 1.4408 1.4418 1.4383 1.5403 1.5213 1.5176 1.5446 1.546 1.6076 1.6092 1.6167 1.6128 0 0 0.84967 0.85404 0.85355 0.84815 0.84603 0.84553 0.84178 0.84613 0.8456 0.84998 0.84782 0.84726 0.8435 0.84134 0.83751 0.83702 0.82846 0.82001 0.81474 0.81419 0.8105 0.80683 0.79873 0.79508 0.79299 0.78943 0.7888 0.78824 0.78026 0.77673 0.77321 0.76969 0.76762 0.76698 0.76348 0.76141 0.7565 0.75443 0.75378 0.75171 0.74824 0.74618 0.74551 0.74205 0.73999 0.73523 0.73179 0.72844 0.72769 0.72434 0.72359 0.72418 0.72212 0.72142 0.71935 0.71863 0.71657 0.7145 0.71243 0.71036 0.70697 0.70233 0.70028 0.69822 0.69486 0.6928 0.69075 0.68747 0.68665 0.68208 0.68004 0.67799 0.67723 0.6739 0.67186 0.66862 0.66531 0.66327 0.66249 0.6592 0.65598 0.65512 0.65074 0.64754 0.64435 0.64233 0.63799 0.63482 0.63281 0.62965 0.62764 0.62564 0.62363 0.62162 0.61961 0.61648 0.61447 0.61247 0.61158 0.60742 0.60542 0.60556 0.60245 0.60045 0.59844 0.59644 0.59233 0.59243 0.59042 0.58842 0.58642 0.58548 0.58241 0.57941 0.57946 0.57745 0.57544 0.57552 0.57247 0.56435 0.55938 0.55346 0.5515 0.54953 0.54853 0.54751 0.54554 0.54357 0.5416 0.53963 0.53671 0.53568 0.53278 0.53173 0.52884 0.52503 0.52307 0.5211 0.52005 0.51718 0.51522 0.51326 0.51129 0.50844 0.50559 0.50363 0.50256 0.5006 0.49777 0.49063 0.48788 0.48508 0.48402 0.48289 0.48015 0.47902 0.47793 0.476 0.47485 0.47375 0.4718 0.47152 0.46957 0.46679 0.46484 0.46208 0.45932 0.45738 0.45624 0.45274 0.45 0.44652 0.44459 0.44266 0.44074 0.43881 0.43688 0.43573 0.43452 0.43336 0.43214 0.43172 0.42901 0.42707 0.42367 0.42173 0.41905 0.41567 0.41374 0.41182 0.4092 0.40869 0.40676 0.4055 0.4029 0.40096 0.40108 0.39984 0.3986 0.39595 0.39331 0.38868 0.38542 0.38152 0.37768 0.37514 0.37388 0.36819 0.36388 0.36201 0.35952 0.35765 0.35402 0.35155 0.35031 0.34784 0.34543 0.34414 0.34403 0.34216 0.34144 0.3407 0.33996 0.33923 0.33677 0.33431 0.33243 0.33001 0.32813 0.3257 0.32382 0.3198 0.31739 0.31501 0.3116 0.30924 0.3074 0.30506
0 0 0 0 0 0 0 0 0 0 0 0 0 0 0 0 0 0 0 0 0 0 0 0 0 0 0 0 0 0 2.0467 2.0502 2.0384 2.0419 2.2195 2.2423 2.3137 2.0029 2.0061 2.224 2.418 2.413 2.2379 1.7697 1.766 1.9994 2.0028 2.0685 1.8881 1.8841 1.8735 1.9241 1.927 1.9372 1.9189 1.9289 1.9463 1.9207 1.9096 1.9055 1.8738 1.8631 1.9072 1.8753 1.8644 1.8537 1.8563 1.7388 1.735 1.7371 1.6871 1.6834 1.7139 1.7337 1.7239 1.7026 1.6816 1.695 1.7145 1.7106 1.6951 1.6799 1.6317 1.6227 1.5824 1.5788 0 0 0 0 1.6402 1.642 1.6326 1.6344 1.7243 1.5786 1.5102 1.5114 1.61 1.4493 1.4459 1.5313 1.5277 0 1.5873 1.5835 1.5744 1.5145 1.506 1.5684 1.5594 1.5878 1.5839 1.6661 1.6681 1.652 1.6362 1.6321 1.6458 1.6478 1.6497 0 0.85933 0.85719 0.85342 0.84966 0.8459 0.84215 0.84004 0.84115 0.84386 0.84494 0.846 0.84553 0.84169 0.83954 0.83738 0.8369 0.82991 0.82146 0.81461 0.81406 0.81038 0.80826 0.79861 0.79496 0.79441 0.78931 0.78867 0.78658 0.78158 0.7766 0.77308 0.76957 0.7675 0.76543 0.76335 0.75986 0.75637 0.75431 0.75366 0.75159 0.74952 0.74745 0.74399 0.74193 0.73986 0.73642 0.73167 0.72962 0.72757 0.72552 0.72217 0.72406 0.72336 0.71994 0.71923 0.71717 0.71644 0.71438 0.71231 0.71024 0.70685 0.70221 0.70015 0.6981 0.69473 0.69268 0.69193 0.68988 0.68652 0.68325 0.6812 0.67915 0.67711 0.67506 0.67174 0.66969 0.66519 0.66315 0.66237 0.65908 0.65704 0.65383 0.65062 0.64742 0.64423 0.64337 0.63903 0.63701 0.63269 0.63068 0.62867 0.62552 0.62351 0.6215 0.61836 0.6153 0.61435 0.61235 0.61035 0.60834 0.6053 0.60433 0.60233 0.60033 0.59729 0.59529 0.59221 0.59021 0.5903 0.58937 0.5863 0.58329 0.58129 0.57929 0.57828 0.57628 0.57532 0.5754 0.5713 0.56423 0.56024 0.55335 0.55138 0.54942 0.54745 0.54644 0.54447 0.5425 0.54053 0.53762 0.5366 0.53463 0.53266 0.53069 0.5278 0.52583 0.52387 0.52099 0.51993 0.51797 0.516 0.51404 0.51297 0.50921 0.50814 0.50618 0.50333 0.50137 0.49853 0.49139 0.4869 0.48497 0.48471 0.48278 0.48084 0.47976 0.47782 0.47588 0.47473 0.47279 0.47252 0.4714 0.47028 0.46668 0.46555 0.46196 0.4592 0.45726 0.45456 0.45338 0.44988 0.44566 0.44294 0.44181 0.44062 0.43869 0.43677 0.43561 0.43441 0.43324 0.43279 0.43161 0.4289 0.42695 0.42501 0.42161 0.42037 0.41556 0.41363 0.4117 0.40977 0.40857 0.40805 0.40539 0.40278 0.40152 0.40096 0.40043 0.39849 0.39514 0.39254 0.38722 0.38401 0.38209 0.37885 0.37694 0.37504 0.36871 0.36377 0.3619 0.36003 0.35754 0.35391 0.35144 0.34959 0.34717 0.34532 0.34403 0.34392 0.34261 0.34074 0.34118 0.34042 0.33912 0.33723 0.33477 0.33178 0.33043 0.32802 0.32558 0.32371 0.31914 0.31728 0.3149 0.31149 0.30863 0.30679 0.30441
0 0 0 0 0 0 0 0 0 0 0 0 0 0 0 0 0 0 0 0 0 0 0 0 0 0 0 0 0 0 1.6198 1.6165 1.6179 1.61 2.1495 2.1536 2.2844 2.0027 2.0059 2.2237 2.4177 2.4127 2.2376 1.7695 1.7658 1.9992 1.7078 1.7042 1.8879 1.864 1.8472 1.9239 1.9339 1.9227 1.9117 1.9358 1.9533 1.9275 1.9164 1.9053 1.8736 1.8696 1.886 1.8819 1.8642 1.7169 1.7132 1.7267 1.7348 1.7251 1.7096 1.6945 1.7079 1.7216 1.7003 1.6851 1.6702 1.6776 1.691 1.6814 1.672 1.6739 1.6315 1.6171 1.5977 1.5786 1.7561 1.7521 1.7481 0 1.6399 1.6418 1.6324 1.6286 1.724 1.5784 1.51 1.5112 1.6097 1.449 1.4457 1.5163 1.5127 1.5092 1.5056 1.6051 1.5957 1.5142 1.5058 1.5682 1.5592 1.5875 1.5837 1.6842 1.6863 1.6577 1.6418 1.6437 1.6516 0.86229 0.86182 0.85309 0.84301 0.84411 0.84201 0.8399 0.8378 0.8357 0.8336 0.83617 0.8389 0.84481 0.84588 0.84372 0.84157 0.83941 0.83725 0.83677 0.82978 0.81976 0.81449 0.81394 0.80869 0.8051 0.79848 0.79483 0.79429 0.79064 0.79009 0.78646 0.78146 0.77793 0.7744 0.76945 0.76737 0.7653 0.7618 0.75974 0.75483 0.75143 0.75212 0.75006 0.74799 0.74733 0.74387 0.7432 0.73704 0.73498 0.73155 0.72682 0.72477 0.72144 0.72069 0.72129 0.72059 0.71854 0.71648 0.71704 0.71498 0.71425 0.71218 0.71012 0.70805 0.70209 0.69871 0.69666 0.69461 0.69256 0.69051 0.68975 0.6877 0.68435 0.68108 0.68024 0.67819 0.67493 0.67289 0.66957 0.66633 0.66429 0.66099 0.65895 0.65574 0.6537 0.6505 0.64613 0.64294 0.64209 0.63775 0.63458 0.63142 0.62826 0.62626 0.62318 0.62225 0.62138 0.61718 0.61518 0.61318 0.61118 0.60806 0.60718 0.60518 0.60318 0.60118 0.59918 0.59608 0.59197 0.58998 0.58901 0.5881 0.5861 0.58517 0.58317 0.58117 0.57811 0.57717 0.57517 0.57317 0.57117 0.56916 0.5621 0.55915 0.55226 0.5503 0.5493 0.54733 0.54537 0.54435 0.54239 0.54042 0.53751 0.53554 0.53358 0.53068 0.52964 0.52768 0.52479 0.52283 0.52087 0.518 0.51694 0.51589 0.51302 0.51196 0.50731 0.50447 0.50251 0.4988 0.49597 0.49233 0.48789 0.4851 0.48317 0.48292 0.48266 0.47992 0.47964 0.4777 0.47656 0.47462 0.47435 0.4724 0.47212 0.47016 0.46738 0.46461 0.46103 0.45832 0.45638 0.45364 0.45251 0.44977 0.44629 0.44362 0.44169 0.44129 0.43936 0.43743 0.43623 0.43506 0.43385 0.43344 0.43149 0.42954 0.42684 0.42414 0.42295 0.421 0.41688 0.41495 0.41232 0.41039 0.40987 0.40793 0.40527 0.40266 0.40073 0.39809 0.39687 0.39221 0.39029 0.3818 0.38056 0.37867 0.37743 0.37682 0.37747 0.37623 0.37301 0.36424 0.36299 0.3605 0.35743 0.35319 0.35133 0.34834 0.34593 0.34408 0.3428 0.34321 0.34194 0.34122 0.34107 0.34031 0.33843 0.33712 0.33465 0.3322 0.33032 0.32791 0.32547 0.32304 0.31958 0.31716 0.31479 0.31189 0.30953 0.30718 0.3043
0 0 0 0 0 0 0 0 0 0 0 0 0 0 0 0 0 0 0 0 0 0 0 0 0 0 0 0 0 0 1.6196 1.6163 1.6177 1.6098 2.1493 2.1533 2.2841 2.0024 2.0056 2.2234 2.4174 2.4124 2.2373 1.8612 1.8638 1.9989 1.7076 1.704 1.8876 1.8444 1.8469 1.9592 1.9337 1.9225 1.9114 1.9427 1.9678 1.9344 1.9161 1.905 1.887 1.8899 1.8997 1.8817 1.8639 1.7167 1.7187 1.7149 1.7227 1.7366 1.7328 1.7057 1.7019 1.7097 1.7001 1.6793 1.6756 1.6831 1.6908 1.6812 1.6775 1.6737 1.6313 1.6222 1.6239 1.6202 1.7558 1.7518 1.7478 0 1.6397 1.6304 1.6158 1.6284 0 0 1.534 1.5403 1.5569 1.5481 1.5197 1.5161 1.5173 1.5137 1.5054 1.6501 1.6403 1.5702 1.5718 1.6637 1.6839 1.6922 1.7005 1.7349 1.7241 1.6397 1.6357 1.6676 1.6635 0.86216 0.85838 0.85296 0.84609 0.84243 0.84188 0.83823 0.83613 0.83403 0.83347 0.83605 0.83716 0.84308 0.84414 0.84359 0.84144 0.83928 0.8388 0.83664 0.82966 0.81963 0.81436 0.81224 0.81012 0.80497 0.79836 0.79471 0.79416 0.79052 0.78842 0.78633 0.78278 0.77925 0.77572 0.76932 0.76868 0.76661 0.76311 0.76104 0.75471 0.75265 0.75059 0.74853 0.74787 0.74581 0.74374 0.74029 0.73692 0.73217 0.73012 0.7254 0.72336 0.71995 0.71927 0.71988 0.71911 0.71841 0.71636 0.7143 0.7162 0.71413 0.71206 0.70999 0.7066 0.70197 0.69991 0.69785 0.69449 0.69244 0.69169 0.68963 0.68757 0.68552 0.68468 0.68262 0.68184 0.6785 0.67524 0.67072 0.6674 0.66417 0.66087 0.66009 0.6568 0.65358 0.65038 0.64484 0.64282 0.64081 0.63879 0.63562 0.63245 0.62929 0.62614 0.62306 0.62213 0.62013 0.61812 0.61506 0.61306 0.61106 0.60795 0.60706 0.60506 0.60306 0.60106 0.59796 0.59596 0.59186 0.58986 0.58889 0.5869 0.58491 0.58505 0.58305 0.58105 0.57905 0.57705 0.57505 0.57305 0.57105 0.568 0.56296 0.558 0.55214 0.55018 0.54918 0.54817 0.54621 0.54424 0.54227 0.5403 0.53833 0.53542 0.53346 0.53056 0.5286 0.52664 0.52468 0.52271 0.52075 0.51788 0.51683 0.51487 0.5138 0.51094 0.50809 0.50524 0.5024 0.49868 0.49673 0.49391 0.48946 0.48666 0.48474 0.48367 0.48254 0.48061 0.48033 0.47838 0.47729 0.47534 0.47424 0.47312 0.47117 0.46922 0.46727 0.46449 0.46015 0.45739 0.4547 0.45196 0.45159 0.4489 0.44697 0.44504 0.44311 0.44192 0.4415 0.43883 0.43839 0.43645 0.4345 0.43256 0.43061 0.42943 0.42672 0.42478 0.42208 0.42089 0.41894 0.417 0.41432 0.41238 0.41116 0.40849 0.40516 0.40255 0.3999 0.39869 0.39605 0.39144 0.38751 0.38299 0.38045 0.37856 0.37731 0.3767 0.37999 0.37806 0.37483 0.37229 0.36659 0.36283 0.35913 0.35369 0.35122 0.34823 0.34582 0.34453 0.34325 0.3431 0.34238 0.34165 0.34208 0.34078 0.33947 0.33758 0.33511 0.33266 0.33077 0.32832 0.32592 0.32404 0.32054 0.31867 0.31574 0.31333 0.31097 0.30857 0.30473
0 0 0 0 0 0 0 0 0 0 0 0 0 0 0 0 0 0 0 0 0 0 0 0 0 0 0 0 0 0 1.6194 1.6161 1.6175 1.6096 0 1.9598 1.9558 2.0022 1.9981 2.2141 1.9825 1.9785 1.9744 1.7631 1.7595 1.9987 1.9945 0 1.8353 1.8378 1.8213 1.9518 1.9334 1.9152 1.9042 1.9497 1.975 1.9414 1.9229 1.9118 1.9007 1.9036 1.9064 1.8884 1.857 1.7165 1.7184 1.7147 1.7167 1.7364 1.7326 1.694 1.6903 1.7095 1.6999 1.6904 1.6809 1.6885 1.6905 1.6867 1.6887 1.6849 1.631 1.6166 1.6183 1.62 1.7556 1.7516 1.7476 0 1.6395 1.6193 1.5785 1.5445 1.7173 1.3942 1.395 1.5351 1.5365 1.5328 1.5195 1.5159 1.522 1.5184 1.5297 1.644 1.6401 1.6304 1.6918 1.6815 1.6836 1.6982 1.7066 1.7346 1.8418 1.8374 0 0 0 0.86204 0.85826 0.85449 0.84596 0.84386 0.84176 0.83965 0.83755 0.83545 0.83335 0.83592 0.83703 0.84134 0.84401 0.84186 0.83971 0.83756 0.837 0.83484 0.82795 0.8195 0.81424 0.81212 0.80844 0.80484 0.79823 0.79458 0.79249 0.78893 0.78684 0.78621 0.78266 0.77912 0.7756 0.77063 0.76856 0.76648 0.76441 0.76091 0.756 0.75394 0.75188 0.74981 0.74635 0.74429 0.74223 0.74017 0.7341 0.73067 0.72732 0.72528 0.72186 0.71983 0.71779 0.71976 0.71899 0.71694 0.71489 0.71418 0.71473 0.71401 0.71194 0.70987 0.70648 0.70184 0.69847 0.69642 0.69568 0.69362 0.69279 0.68951 0.68745 0.68661 0.68455 0.68506 0.68299 0.67965 0.67759 0.67179 0.66854 0.66405 0.662 0.65996 0.65668 0.65346 0.64909 0.64355 0.6427 0.64068 0.63982 0.6378 0.63118 0.62917 0.62602 0.62294 0.62201 0.62001 0.61913 0.616 0.61294 0.60982 0.60783 0.60583 0.60598 0.60294 0.59984 0.59675 0.59475 0.59065 0.58975 0.58877 0.58577 0.58479 0.58386 0.58393 0.58193 0.57893 0.57693 0.57592 0.57293 0.57093 0.56788 0.56186 0.55891 0.553 0.55103 0.55003 0.54806 0.54704 0.54507 0.5412 0.53924 0.53821 0.53531 0.53334 0.53044 0.52941 0.52652 0.52364 0.5226 0.52063 0.51867 0.51671 0.51565 0.51369 0.51172 0.50797 0.50601 0.50228 0.50033 0.49838 0.49555 0.49273 0.4891 0.48716 0.48523 0.48495 0.48135 0.48021 0.47996 0.47717 0.47523 0.47412 0.47301 0.47022 0.46745 0.46633 0.46438 0.45763 0.45494 0.45301 0.45109 0.44992 0.44799 0.44606 0.44413 0.44221 0.4418 0.44138 0.441 0.43983 0.4371 0.43439 0.43244 0.4305 0.42779 0.42736 0.42466 0.42272 0.42003 0.41883 0.41688 0.4142 0.41299 0.41105 0.40838 0.40504 0.40243 0.4005 0.39857 0.39593 0.39198 0.38805 0.38418 0.37968 0.37845 0.3772 0.37659 0.37987 0.37795 0.37535 0.37217 0.3671 0.36396 0.36145 0.35415 0.35111 0.34869 0.34627 0.34442 0.34313 0.34414 0.34342 0.34272 0.34373 0.34183 0.33936 0.33804 0.335 0.33254 0.33066 0.32821 0.32581 0.32393 0.32094 0.31855 0.31614 0.31322 0.31136 0.30846 0.30511
0 0 0 0 0 0 0 0 0 0 0 0 0 0 0 0 0 0 0 0 0 0 0 0 0 0 0 0 0 0 1.6192 1.6159 1.6173 1.6094 0 1.8982 1.9486 1.9728 1.9978 2.187 1.9257 1.9425 1.9178 1.7629 1.7592 1.9618 1.9577 0 1.8351 1.7019 1.7037 1.8686 1.8847 1.8875 1.8835 1.8795 1.9974 1.8782 1.8878 1.8975 1.8797 1.8621 1.9204 1.8608 1.8567 1.722 1.7125 1.7087 1.705 1.7362 1.7323 1.6769 1.6901 1.7034 1.6939 1.6845 1.6864 1.6941 1.6961 1.6923 1.6942 1.6962 1.6201 1.6271 1.6288 1.6198 1.749 1.7513 1.7473 0 1.6393 1.6411 1.5479 1.5443 1.5814 1.394 1.3948 1.3915 1.4519 1.4664 1.5193 1.5157 1.5218 1.5281 1.5294 1.6267 1.6284 1.6593 1.6853 1.6874 1.702 1.7041 1.7191 1.761 1.7981 1.7798 1.7686 0 0 0.86357 0.85978 0.8495 0.84584 0.84373 0.84163 0.83798 0.83588 0.83378 0.83476 0.83426 0.83529 0.838 0.83907 0.83694 0.8348 0.83266 0.83211 0.83155 0.82466 0.81623 0.81105 0.81042 0.80831 0.80316 0.79811 0.79601 0.79236 0.78881 0.78672 0.78463 0.78253 0.779 0.77547 0.77195 0.76987 0.76779 0.76571 0.76221 0.75588 0.75382 0.75175 0.74969 0.74762 0.74556 0.7421 0.74004 0.73259 0.73054 0.7272 0.72378 0.72045 0.7197 0.71638 0.71964 0.71759 0.71682 0.71476 0.71271 0.71461 0.71388 0.71181 0.70975 0.70503 0.7004 0.6971 0.69505 0.693 0.69219 0.68891 0.68809 0.68481 0.68398 0.68572 0.68622 0.68543 0.68208 0.67873 0.67294 0.66962 0.66511 0.66188 0.65741 0.65302 0.64982 0.64662 0.64227 0.64142 0.64172 0.6397 0.63768 0.63336 0.62905 0.62704 0.6239 0.62189 0.61882 0.61682 0.61482 0.61282 0.60971 0.60659 0.6046 0.60371 0.60172 0.59759 0.5956 0.59361 0.58951 0.58854 0.58656 0.58565 0.58366 0.58374 0.58281 0.58181 0.57775 0.57681 0.5758 0.57281 0.56976 0.56673 0.55973 0.55679 0.55288 0.55091 0.54895 0.54698 0.54597 0.544 0.54109 0.54006 0.53809 0.53519 0.53322 0.53033 0.52836 0.5264 0.52352 0.52156 0.5196 0.51765 0.51569 0.51373 0.51357 0.5116 0.50785 0.50589 0.50305 0.50021 0.49826 0.49718 0.49349 0.49067 0.48872 0.48678 0.48483 0.48203 0.48009 0.479 0.47706 0.47427 0.47317 0.47122 0.47011 0.4665 0.46456 0.46262 0.45675 0.45401 0.45133 0.44941 0.44905 0.44712 0.4452 0.44402 0.44209 0.44247 0.44205 0.44166 0.43971 0.43776 0.43427 0.43156 0.42962 0.42768 0.42573 0.42309 0.42115 0.41921 0.41727 0.41603 0.41482 0.41288 0.41093 0.40899 0.40425 0.4016 0.39967 0.39775 0.39445 0.39121 0.38794 0.38472 0.37957 0.37833 0.37709 0.37584 0.37908 0.37716 0.37397 0.37206 0.36761 0.36446 0.36195 0.35404 0.351 0.34858 0.34616 0.34431 0.34302 0.34462 0.3439 0.34375 0.34479 0.3423 0.33982 0.33735 0.33546 0.33243 0.33055 0.3281 0.32513 0.3227 0.32083 0.31844 0.31657 0.31365 0.31179 0.30939 0.3055
0 0 0 0 0 0 0 0 0 0 0 0 0 0 0 0 0 0 0 0 0 0 0 0 0 0 0 0 0 0 0 0 0 0 0 1.898 1.9007 2.0017 1.9976 2.1867 1.9255 1.9284 1.9175 1.7922 1.7885 1.9616 1.9575 0 0 1.7017 1.7035 1.8684 1.8579 1.8738 1.8765 1.8725 2.0126 1.878 1.8875 1.8904 1.8794 1.8619 0 0 0 0 0 1.8444 1.8403 0 0 1.7225 1.7187 1.7032 1.6824 1.673 1.6862 1.7054 1.7075 1.7154 1.7294 1.7315 1.7098 1.6941 1.6787 1.6636 0 0 0 0 0 0 1.5477 1.5641 1.5812 1.3938 1.3987 1.4119 1.4298 1.4482 1.519 1.5155 1.5119 1.5329 1.5292 1.6321 1.6282 1.6591 1.6851 1.7121 1.7601 1.7626 1.7583 1.7813 1.8121 1.7795 1.7683 0 0 0 0 0.85102 0.84571 0.84361 0.8415 0.83622 0.83576 0.83366 0.83309 0.83252 0.83203 0.83466 0.83574 0.83361 0.83148 0.82935 0.8288 0.82825 0.82296 0.81453 0.81092 0.8103 0.8067 0.80303 0.79798 0.79433 0.79224 0.79014 0.78805 0.78595 0.78241 0.78032 0.77535 0.77326 0.76975 0.76767 0.76701 0.76493 0.75859 0.75652 0.75304 0.75238 0.74891 0.74684 0.74338 0.74131 0.73385 0.73042 0.72707 0.72503 0.72299 0.72095 0.71891 0.71951 0.71874 0.71542 0.71464 0.71393 0.71449 0.71242 0.71169 0.70829 0.70365 0.69903 0.69566 0.69238 0.69288 0.69083 0.68878 0.68544 0.68469 0.68386 0.68559 0.6861 0.68658 0.68323 0.67988 0.67528 0.67076 0.66625 0.66051 0.65729 0.65054 0.64734 0.64533 0.64215 0.64246 0.6416 0.64305 0.63987 0.63784 0.63352 0.62921 0.62492 0.62177 0.61977 0.6167 0.61358 0.6127 0.60959 0.60759 0.60448 0.60249 0.6016 0.59747 0.59438 0.5924 0.58939 0.58842 0.58542 0.58553 0.58354 0.58362 0.58163 0.57963 0.57763 0.57564 0.57469 0.57269 0.56964 0.56563 0.55962 0.55667 0.55276 0.5508 0.54883 0.54782 0.54585 0.54388 0.54192 0.53995 0.53798 0.53601 0.53404 0.53021 0.5301 0.52813 0.52524 0.52328 0.5204 0.51844 0.51648 0.51451 0.51255 0.51238 0.50774 0.50578 0.50293 0.50098 0.49902 0.49707 0.49424 0.49142 0.48861 0.48752 0.48558 0.48192 0.48083 0.47973 0.47609 0.47415 0.47221 0.4711 0.46916 0.46639 0.46445 0.46174 0.45663 0.45313 0.45121 0.4493 0.44969 0.44776 0.44508 0.4439 0.44197 0.44309 0.44271 0.44155 0.43882 0.4361 0.43415 0.43221 0.4295 0.42756 0.42491 0.42297 0.42029 0.41835 0.41716 0.41591 0.4147 0.41349 0.41154 0.40887 0.40481 0.40081 0.39956 0.39696 0.39433 0.39039 0.38651 0.38396 0.37946 0.37822 0.37633 0.37572 0.37833 0.37704 0.37386 0.37194 0.36749 0.36497 0.36246 0.35393 0.35089 0.34903 0.34605 0.34364 0.34236 0.34566 0.34611 0.34599 0.34526 0.34277 0.34029 0.33724 0.33535 0.33289 0.33043 0.32855 0.32502 0.32259 0.32127 0.31939 0.31697 0.3151 0.31323 0.31135 0.30742
0 0 0 0 0 0 0 0 0 0 0 0 0 0 0 0 0 0 0 0 0 0 0 0 0 0 0 0 0 0 0 0 1.8147 1.8171 0 1.8464 1.8426 1.8389 1.8414 2.1097 1.7735 1.7698 1.7661 1.7625 1.7588 2.0282 2.0317 0 0 0 0 1.8168 1.8382 1.8669 1.8762 1.8858 1.8818 1.8778 1.8942 1.897 1.9069 1.9532 2.1982 2.1935 0 0 0 0 0 0 0 0 0 1.7088 1.6822 1.6728 1.6803 1.6936 1.6899 1.6976 1.6996 1.6899 1.6919 1.6998 1.7018 1.7279 0 1.8505 1.8462 1.842 1.8378 0 1.5883 1.5742 1.5809 1.3936 1.4026 1.4286 1.4253 1.3608 1.3615 1.4773 1.4738 0 1.6828 1.655 1.651 1.6768 1.6848 1.6994 1.7269 1.7292 1.7251 1.7017 1.7976 1.7792 1.768 0 0 0.85834 0.85788 0.8509 0.84714 0.84348 0.84138 0.83773 0.83563 0.83353 0.83143 0.8324 0.82876 0.83131 0.8308 0.82868 0.82976 0.82763 0.8255 0.82338 0.81967 0.8144 0.81229 0.81017 0.80658 0.80291 0.79786 0.79576 0.79512 0.79002 0.78946 0.78736 0.78373 0.78019 0.7781 0.77314 0.77249 0.76897 0.76689 0.76481 0.75847 0.7564 0.75433 0.75085 0.75018 0.74531 0.74325 0.7398 0.73373 0.72899 0.72695 0.72353 0.7215 0.71946 0.71742 0.71803 0.71599 0.71529 0.71325 0.71247 0.71436 0.7123 0.71157 0.70817 0.70353 0.6989 0.69554 0.69225 0.69145 0.69071 0.68736 0.68661 0.68457 0.68374 0.68676 0.68597 0.68518 0.68183 0.67849 0.67515 0.66937 0.66487 0.66038 0.6548 0.65042 0.64605 0.64404 0.64203 0.64234 0.64148 0.64177 0.63975 0.63657 0.63339 0.62909 0.6248 0.62279 0.61965 0.61659 0.61458 0.61146 0.61058 0.60747 0.60436 0.60237 0.60038 0.59735 0.59427 0.59228 0.59029 0.58729 0.58632 0.58433 0.58342 0.58244 0.58044 0.57951 0.57646 0.57446 0.57352 0.57047 0.5675 0.56447 0.5595 0.55558 0.55361 0.55068 0.54871 0.5477 0.54573 0.54377 0.54275 0.53983 0.5388 0.53683 0.53392 0.53195 0.52998 0.52894 0.52605 0.52408 0.52211 0.51923 0.51726 0.5153 0.51333 0.51316 0.5094 0.50744 0.5037 0.50086 0.49891 0.49695 0.495 0.49217 0.49022 0.48741 0.48632 0.48266 0.48071 0.47962 0.47598 0.47404 0.47293 0.47182 0.46987 0.4671 0.46356 0.4608 0.4557 0.45302 0.4511 0.44994 0.44882 0.44689 0.44417 0.44379 0.44112 0.44224 0.44103 0.43909 0.43715 0.43449 0.43255 0.42984 0.42791 0.42598 0.42333 0.4214 0.41947 0.41754 0.41704 0.4158 0.41385 0.41264 0.41143 0.40948 0.40469 0.40137 0.39944 0.39685 0.39356 0.38962 0.3864 0.38384 0.3787 0.37746 0.37622 0.37561 0.37885 0.37629 0.37438 0.37183 0.36738 0.36486 0.36234 0.35619 0.35196 0.34892 0.34538 0.34409 0.3428 0.34495 0.34659 0.34587 0.34456 0.34208 0.3396 0.3377 0.33581 0.33334 0.33145 0.32843 0.32547 0.32248 0.32061 0.31983 0.31741 0.31499 0.31365 0.31124 0.30834
0 0 0 0 0 0 0 0 0 0 0 0 0 0 0 0 0 0 0 0 0 0 0 0 0 0 0 0 0 0 0 0 1.8145 1.7585 1.7605 1.8276 1.8362 1.8263 1.8164 2.1094 1.7732 1.7696 1.7659 1.7918 1.7586 2.028 2.0315 0 0 0 0 1.8165 1.8127 1.8666 1.8693 1.8856 1.8951 1.9049 1.9219 1.9321 1.9067 1.9529 2.198 2.1932 0 0 0 0 0 0 0 0 0 1.7144 1.6597 1.6615 1.703 1.7227 1.7188 1.6744 1.665 1.6558 1.652 1.7293 1.7316 1.7276 0 1.8502 1.846 1.8418 1.8375 0 1.5473 1.5637 1.5401 1.3934 1.3702 1.3709 1.3877 1.3764 1.3613 1.3739 1.3747 1.4701 1.4666 1.6317 1.6278 1.6705 1.6846 1.6389 1.6888 1.7034 1.6684 1.7014 1.7974 1.779 1.7678 0 0 0.85822 0.85775 0.84123 0.8439 0.8418 0.84125 0.83597 0.83234 0.83025 0.82969 0.82921 0.82397 0.82188 0.82131 0.82082 0.82174 0.82122 0.82062 0.8185 0.81797 0.81427 0.81216 0.80856 0.80645 0.80278 0.7992 0.7971 0.795 0.7929 0.79079 0.78869 0.78361 0.78304 0.77942 0.77445 0.77236 0.76885 0.76677 0.76468 0.75976 0.75627 0.7542 0.75073 0.74866 0.74519 0.74313 0.73967 0.73222 0.72887 0.72683 0.72341 0.72275 0.71934 0.7173 0.71526 0.71458 0.71119 0.70915 0.70846 0.71163 0.70958 0.70752 0.70413 0.69951 0.69489 0.69161 0.68834 0.69009 0.68928 0.68724 0.68519 0.68315 0.6811 0.68535 0.68457 0.6825 0.68043 0.67582 0.67257 0.66679 0.6623 0.65908 0.6535 0.64794 0.64475 0.64275 0.63957 0.63989 0.63904 0.63818 0.63616 0.63415 0.63213 0.62897 0.62468 0.62267 0.61953 0.61647 0.61334 0.61134 0.61046 0.60735 0.60535 0.60336 0.60026 0.59723 0.59524 0.59216 0.58915 0.58717 0.58417 0.58219 0.58223 0.57924 0.57725 0.57527 0.57329 0.5713 0.56932 0.56635 0.56437 0.56239 0.55841 0.55643 0.55349 0.55152 0.5486 0.54663 0.54562 0.54365 0.54263 0.54065 0.53962 0.53671 0.53474 0.53277 0.53172 0.52974 0.52777 0.52488 0.5229 0.52002 0.51805 0.51608 0.51411 0.51304 0.51018 0.50821 0.50447 0.50163 0.49967 0.49771 0.49488 0.49292 0.49097 0.48815 0.4862 0.48425 0.48145 0.4795 0.47671 0.47392 0.47198 0.47087 0.47059 0.46781 0.46344 0.45992 0.45559 0.45366 0.45099 0.44982 0.4479 0.44598 0.44406 0.44293 0.44174 0.43982 0.43789 0.43596 0.43403 0.43138 0.42946 0.42753 0.42484 0.42292 0.42176 0.41983 0.41861 0.41742 0.41619 0.41568 0.41374 0.4118 0.41131 0.40936 0.40458 0.40126 0.39866 0.39603 0.39344 0.38819 0.38497 0.38243 0.37859 0.37735 0.37611 0.37486 0.37873 0.37681 0.37426 0.37172 0.36789 0.36536 0.36285 0.35731 0.35421 0.34711 0.3447 0.34286 0.34158 0.34429 0.34588 0.34517 0.34386 0.34196 0.33891 0.33759 0.3357 0.33437 0.3319 0.32888 0.32588 0.32237 0.32049 0.31972 0.31729 0.31542 0.31354 0.31167 0.30876
0 0 0 0 0 0 0 0 0 0 0 0 0 0 0 0 0 0 0 0 0 0 0 0 0 0 0 0 0 0 0 0 1.8143 1.7869 1.7603 1.7855 1.8237 1.826 1.8727 1.8753 1.773 1.7694 1.7657 1.8096 1.856 0 0 0 0 0 0 0 1.8703 1.8731 1.8624 1.8921 1.9018 1.9117 1.9432 1.9611 1.9643 2.2024 2.1977 2.1929 0 0 0 0 0 0 0 0 0 1.7083 1.7104 1.8246 1.7443 1.7465 1.7487 1.663 1.6593 1.6555 1.6518 1.7475 1.7374 1.7213 1.8062 1.7015 1.6917 1.7677 1.6383 1.6346 1.5471 1.5484 1.5399 0 1.37 1.3786 1.3794 1.3762 1.3689 1.3697 1.3745 1.4699 1.4664 1.6035 1.5996 1.5903 1.6197 1.6102 1.6008 1.6722 1.6326 1.6287 1.6482 1.6442 0 0 0 0 0 0.84267 0.84057 0.84168 0.84113 0.83748 0.83375 0.83012 0.8265 0.82747 0.82385 0.81871 0.81663 0.81606 0.8201 0.81951 0.8174 0.81688 0.81626 0.81572 0.81203 0.80992 0.8078 0.80421 0.8021 0.79844 0.79634 0.79277 0.79067 0.78856 0.78501 0.78436 0.78082 0.77576 0.77367 0.77015 0.76807 0.76456 0.76389 0.76181 0.7569 0.75201 0.74853 0.74647 0.74301 0.73955 0.7321 0.72875 0.72671 0.72329 0.72125 0.72058 0.71718 0.71514 0.71183 0.71107 0.70903 0.70699 0.7089 0.70686 0.70607 0.70276 0.69813 0.69228 0.689 0.68698 0.68866 0.68916 0.68589 0.68507 0.68303 0.68227 0.68394 0.68316 0.6811 0.67776 0.6745 0.67118 0.66667 0.66218 0.65658 0.65338 0.64664 0.64346 0.64146 0.63945 0.63977 0.63776 0.63806 0.63604 0.63288 0.63201 0.62885 0.62456 0.62141 0.61941 0.61635 0.61435 0.61234 0.61034 0.60834 0.60523 0.60434 0.60124 0.59815 0.59512 0.59204 0.59005 0.58603 0.58405 0.581 0.58009 0.57912 0.57613 0.57309 0.57012 0.5702 0.56717 0.56519 0.56223 0.55928 0.55829 0.55534 0.55434 0.55141 0.54944 0.54651 0.5455 0.54353 0.54251 0.54148 0.53856 0.53659 0.53369 0.53172 0.5316 0.53061 0.52673 0.52476 0.52279 0.5199 0.51884 0.51687 0.5149 0.51292 0.51006 0.5072 0.50435 0.50239 0.50043 0.49847 0.49563 0.49281 0.49085 0.4889 0.48694 0.48328 0.48218 0.47938 0.47743 0.47717 0.47521 0.47242 0.47047 0.46852 0.46492 0.46139 0.45705 0.45513 0.45244 0.45127 0.44934 0.44741 0.44549 0.44356 0.44242 0.4397 0.43777 0.43511 0.43242 0.43049 0.42857 0.42594 0.42402 0.4221 0.42018 0.41972 0.41924 0.41801 0.41607 0.41487 0.41293 0.41168 0.41192 0.40997 0.40518 0.40114 0.39854 0.39525 0.39333 0.3861 0.38355 0.38101 0.37847 0.37724 0.37599 0.37474 0.3793 0.37737 0.37478 0.37285 0.36969 0.36711 0.3652 0.36267 0.36325 0.347 0.34459 0.34331 0.34091 0.34418 0.34518 0.34447 0.34316 0.34127 0.33822 0.33633 0.33558 0.33369 0.33179 0.32933 0.32577 0.32337 0.322 0.32012 0.31878 0.31585 0.31397 0.31209 0.30968
2.5578 2.7451 2.7528 0 0 0 0 0 0 0 0 0 0 0 0 0 0 0 0 0 0 0 0 0 0 0 0 0 0 0 0 0 1.8571 1.7926 1.7601 1.7853 1.8296 1.8197 1.8344 1.8751 1.7275 1.7519 1.7204 1.8532 1.8558 0 0 0 0 0 0 0 1.8701 1.8728 1.8622 1.8649 1.9085 1.9327 1.965 1.9757 1.964 2.2021 2.1974 2.1926 0 0 0 0 0 0 0 0 0 1.7081 1.7101 1.8244 1.7441 1.7402 1.7485 1.5984 1.5949 1.8 1.7328 1.735 1.7372 1.7332 1.7293 1.6953 1.7154 1.7297 1.6381 1.6343 1.5468 1.5433 1.5397 1.461 1.3504 1.3705 1.3793 1.3841 1.3808 1.3775 1.3703 1.456 1.457 1.6312 1.6329 1.6291 1.6309 1.6212 1.6288 1.6481 1.6152 1.6113 1.6187 1.6263 0 0 0 0 0 0.84098 0.83889 0.83836 0.83945 0.83572 0.83363 0.82846 0.82484 0.82581 0.82067 0.81859 0.81651 0.81594 0.81687 0.81637 0.81427 0.81517 0.81464 0.81253 0.81042 0.80831 0.8062 0.80253 0.80042 0.79832 0.79621 0.79264 0.79054 0.78844 0.78634 0.78279 0.77917 0.77708 0.77498 0.77003 0.76794 0.76585 0.76235 0.75885 0.75536 0.75048 0.74841 0.74634 0.74288 0.73943 0.73336 0.72993 0.72659 0.72454 0.7225 0.72175 0.71842 0.71638 0.71434 0.70967 0.70891 0.70822 0.70744 0.70673 0.70468 0.70005 0.69544 0.68966 0.68764 0.68562 0.6873 0.68904 0.68324 0.68243 0.68168 0.68086 0.6826 0.68304 0.6797 0.67764 0.67438 0.66986 0.66655 0.66087 0.65646 0.65089 0.64534 0.64334 0.64134 0.63823 0.63965 0.63764 0.63563 0.63477 0.63046 0.6296 0.62759 0.6233 0.6213 0.61929 0.61623 0.61423 0.61223 0.61022 0.60711 0.60622 0.60312 0.60222 0.59803 0.59603 0.59301 0.58891 0.58591 0.58393 0.58088 0.57997 0.579 0.57602 0.57298 0.571 0.57008 0.5681 0.56507 0.56212 0.56014 0.5572 0.55523 0.55423 0.55129 0.54932 0.54639 0.54443 0.54436 0.54239 0.54136 0.53939 0.53647 0.5345 0.5316 0.53056 0.52951 0.52753 0.52464 0.52267 0.51979 0.51872 0.51585 0.51478 0.51281 0.50994 0.50709 0.50512 0.50227 0.50031 0.49835 0.49552 0.49269 0.49073 0.48878 0.48597 0.48402 0.48206 0.48011 0.47816 0.47621 0.47509 0.47231 0.46952 0.4684 0.46481 0.46204 0.45694 0.45501 0.45308 0.45115 0.45003 0.44884 0.44691 0.44423 0.44304 0.44111 0.43917 0.43573 0.43308 0.43115 0.42774 0.42582 0.4239 0.42127 0.42077 0.41885 0.41838 0.41645 0.41526 0.41402 0.41282 0.41088 0.40962 0.40841 0.40367 0.40035 0.39772 0.39447 0.39255 0.38532 0.38278 0.38024 0.37836 0.37648 0.37588 0.37527 0.37918 0.37726 0.37466 0.37274 0.37019 0.36766 0.36508 0.35467 0.35223 0.35037 0.34617 0.34376 0.34191 0.34347 0.34507 0.34377 0.34305 0.34057 0.33753 0.33621 0.3349 0.333 0.33111 0.32866 0.32565 0.3227 0.32082 0.32001 0.31761 0.31574 0.31386 0.31144 0.30903
2.5686 2.7448 2.7524 0 0 0 0 0 0 0 0 0 0 0 0 0 0 0 0 0 0 0 0 0 0 0 0 0 0 0 0 0 1.8632 1.7635 1.7543 1.827 1.8293 1.8195 1.8218 1.8748 1.7273 1.7404 1.7202 2.2212 2.2166 0 0 0 0 0 0 0 1.9246 1.9276 2.0199 2.0156 1.9511 1.9469 1.995 1.9984 1.9864 0 0 0 0 0 0 0 0 0 0 0 0 1.7079 1.7099 1.8241 1.8538 1.8776 1.8594 1.5982 1.5946 1.7998 1.7573 1.7348 1.7369 1.7208 1.7108 1.701 1.7211 1.7294 1.7316 1.7276 1.5466 1.5785 1.5444 1.4608 1.3503 1.3703 1.3791 1.392 1.4052 1.3936 1.3701 1.4558 1.4568 1.6658 1.6738 1.6638 1.648 1.6325 1.6286 1.6478 1.6037 1.6054 1.6128 1.6261 0 0 0 0 0 0.84242 0.83254 0.83358 0.83459 0.83405 0.83042 0.82526 0.82165 0.8211 0.81902 0.81542 0.81486 0.81279 0.81373 0.81315 0.81256 0.81205 0.81144 0.81083 0.80872 0.80662 0.80451 0.80093 0.79883 0.79672 0.79462 0.79106 0.78896 0.78686 0.78621 0.78411 0.77904 0.77695 0.77486 0.77133 0.77067 0.76715 0.76081 0.7559 0.75383 0.75176 0.74829 0.74622 0.74276 0.74208 0.73324 0.73119 0.72776 0.7271 0.72505 0.723 0.72095 0.7189 0.7155 0.71083 0.70879 0.70809 0.70866 0.70787 0.70323 0.6986 0.69281 0.68954 0.68627 0.68425 0.68718 0.68892 0.68188 0.68108 0.68156 0.68203 0.68119 0.68163 0.67957 0.67504 0.67178 0.66974 0.66523 0.66075 0.65634 0.65077 0.64523 0.64212 0.64012 0.63811 0.63953 0.63868 0.63436 0.63235 0.62811 0.62611 0.62518 0.62318 0.62118 0.61917 0.61611 0.61411 0.61316 0.6101 0.6081 0.60499 0.603 0.601 0.59791 0.59591 0.59392 0.58982 0.58681 0.58483 0.58183 0.57986 0.57788 0.5769 0.57392 0.57293 0.56996 0.56897 0.56495 0.56298 0.56002 0.55708 0.55511 0.55314 0.55117 0.5492 0.54628 0.54431 0.54425 0.54227 0.5403 0.53927 0.53636 0.53438 0.53241 0.53044 0.52847 0.52558 0.52361 0.52164 0.51876 0.51861 0.51663 0.51376 0.51179 0.51072 0.50697 0.505 0.50216 0.50019 0.49911 0.4954 0.49257 0.49062 0.48952 0.48757 0.48475 0.4828 0.48084 0.47804 0.47609 0.47414 0.47219 0.46941 0.46746 0.46387 0.46192 0.45682 0.45489 0.45297 0.45184 0.45147 0.44953 0.44833 0.44565 0.44445 0.44251 0.44135 0.43712 0.43446 0.43253 0.42911 0.42642 0.4245 0.42187 0.42066 0.41874 0.41681 0.41489 0.41371 0.41179 0.40986 0.40862 0.40669 0.40477 0.40144 0.39885 0.39627 0.39364 0.39173 0.3839 0.38201 0.37952 0.37825 0.37637 0.37513 0.37452 0.37839 0.3752 0.37136 0.36883 0.36568 0.36878 0.36563 0.35456 0.35151 0.34965 0.34723 0.34477 0.34292 0.34336 0.34381 0.34248 0.34177 0.3393 0.33741 0.33553 0.33364 0.33176 0.32987 0.32742 0.32446 0.32203 0.32071 0.31938 0.3175 0.31508 0.31374 0.31133 0.30892
2.5684 2.3756 2.3807 0 0 0 0 0 0 0 0 0 0 0 0 0 0 0 0 0 0 0 0 0 0 0 0 1.7132 1.7097 1.982 1.978 2.0942 1.8077 1.8099 0 0 0 0 0 0 1.7724 1.763 1.765 0 0 0 0 0 0 0 0 0 0 2.105 2.1005 2.1045 1.8873 1.8833 2.1252 2.1832 2.1785 2.1738 2.1691 2.1735 0 0 0 0 0 0 0 0 0 1.7077 1.7097 1.7001 1.903 1.8915 1.8802 1.5579 1.5544 1.7995 1.7571 1.7346 1.7306 1.7145 1.7047 1.7008 1.7209 1.7292 1.7314 1.7274 1.6301 1.61 1.6226 1.3926 1.3773 1.3821 1.391 1.3958 1.4134 1.4058 1.4025 1.4601 1.4521 1.6715 1.6676 1.6576 1.6478 1.6323 1.6283 1.6476 1.5924 1.5996 1.6126 1.6143 0 0 0 0 0 0.85027 0.83398 0.83345 0.83292 0.83238 0.8303 0.8236 0.81846 0.82098 0.81737 0.81682 0.81322 0.81417 0.81511 0.81453 0.81243 0.81342 0.81132 0.80921 0.8086 0.80501 0.80291 0.8008 0.79723 0.7966 0.7945 0.79239 0.79029 0.78819 0.78609 0.78398 0.78044 0.77683 0.77624 0.77121 0.77054 0.76845 0.7621 0.75719 0.75371 0.75164 0.74816 0.7461 0.74403 0.74196 0.73312 0.73107 0.72764 0.7256 0.72622 0.72417 0.72211 0.72006 0.71673 0.71205 0.71001 0.70924 0.70854 0.70775 0.70311 0.69981 0.69519 0.69067 0.68988 0.68661 0.68829 0.6888 0.68422 0.68348 0.68266 0.68312 0.68236 0.68279 0.67824 0.67619 0.67286 0.66835 0.6663 0.66063 0.65622 0.64947 0.64628 0.6431 0.64 0.63909 0.63941 0.63856 0.63655 0.63223 0.62799 0.62599 0.62399 0.62199 0.62219 0.61905 0.61705 0.61399 0.61199 0.60998 0.60798 0.60488 0.60288 0.59978 0.59779 0.59579 0.5938 0.5897 0.58669 0.58471 0.58273 0.58075 0.57876 0.57678 0.5738 0.57281 0.57182 0.56885 0.56588 0.5639 0.55991 0.55599 0.55499 0.55302 0.55105 0.54812 0.54712 0.54515 0.54318 0.54121 0.54113 0.53915 0.53717 0.53427 0.53229 0.53032 0.52835 0.52546 0.52349 0.52152 0.51864 0.51849 0.51651 0.51454 0.51257 0.5106 0.50774 0.50489 0.50292 0.50008 0.49899 0.49615 0.49246 0.49136 0.49027 0.4883 0.48464 0.48268 0.48073 0.47877 0.47681 0.47486 0.47124 0.46929 0.46652 0.46375 0.46181 0.45671 0.45478 0.45285 0.45173 0.45135 0.44941 0.44822 0.44554 0.4436 0.44239 0.44123 0.43701 0.43435 0.43241 0.42972 0.42779 0.42586 0.42246 0.41984 0.41862 0.4167 0.41478 0.41286 0.41094 0.40902 0.40641 0.40517 0.40325 0.40066 0.39874 0.39682 0.39353 0.39096 0.38444 0.3819 0.37941 0.37814 0.37625 0.37566 0.3744 0.37633 0.37315 0.36747 0.36438 0.36187 0.35938 0.35512 0.35326 0.3514 0.34954 0.34652 0.34466 0.34281 0.34325 0.34311 0.34182 0.34107 0.33919 0.3373 0.33542 0.33353 0.33108 0.32976 0.32731 0.32435 0.32192 0.3206 0.31872 0.31684 0.31497 0.31309 0.31122 0.30934
2.1679 2.1637 2.1677 0 0 0 0 0 0 0 0 0 0 0 0 0 0 0 0 0 0 0 1.6834 1.68 1.7127 1.6885 1.6851 1.713 1.7095 1.8741 1.8703 2.0939 1.8075 1.8097 1.8488 1.9437 1.9397 1.7543 1.7507 1.9007 1.7721 1.7685 1.7648 2.2207 0 2.1235 2.1275 2.434 0 0 0 0 0 2.1047 2.1002 2.1042 1.8871 1.883 2.125 2.1829 2.1782 2.1735 2.1688 2.1732 0 0 0 0 0 0 0 1.6696 1.6715 1.7074 1.7095 1.6999 1.7434 1.7395 1.8871 1.5577 1.5542 1.7993 1.7321 1.7343 1.7063 1.7024 1.6985 1.7006 1.7207 1.7046 1.725 1.7272 1.587 1.5885 1.5796 1.3924 1.3811 1.3739 1.3989 1.3998 1.4347 1.4269 1.4023 1.4599 1.4519 1.6419 1.6439 1.6457 1.636 1.6321 1.611 1.553 1.5544 1.5828 1.601 1.6084 0 1.5 1.4963 0 0 0.85014 0.83696 0.83488 0.8328 0.83226 0.83017 0.82194 0.8168 0.81932 0.81877 0.81669 0.81613 0.81405 0.8165 0.8144 0.81231 0.8118 0.81268 0.81058 0.80847 0.80636 0.80278 0.7992 0.7971 0.79647 0.79583 0.79227 0.78871 0.78661 0.78451 0.78241 0.7788 0.77526 0.77317 0.77108 0.76899 0.76832 0.76198 0.75707 0.75358 0.75011 0.74944 0.74597 0.74391 0.74184 0.7343 0.73225 0.7289 0.72815 0.72747 0.72541 0.72335 0.7213 0.71789 0.71456 0.71116 0.70912 0.70968 0.70763 0.70173 0.69585 0.69257 0.68805 0.68976 0.68649 0.68694 0.68867 0.6854 0.68336 0.68254 0.68178 0.68223 0.68139 0.67812 0.67479 0.67154 0.66823 0.66499 0.6605 0.6561 0.65053 0.64616 0.64416 0.64098 0.63897 0.64046 0.63844 0.63527 0.63096 0.62672 0.62473 0.62387 0.62187 0.61987 0.61787 0.61362 0.61162 0.60963 0.60986 0.60786 0.60476 0.60276 0.60076 0.59767 0.59567 0.59368 0.59067 0.58759 0.58561 0.58261 0.58164 0.57864 0.57766 0.57568 0.57369 0.5717 0.56972 0.56576 0.56378 0.55979 0.55684 0.55584 0.5529 0.5519 0.54897 0.54509 0.54408 0.54306 0.54109 0.54101 0.53903 0.53805 0.53508 0.53311 0.53113 0.52915 0.52626 0.52337 0.5214 0.51943 0.51837 0.5164 0.51443 0.51245 0.51048 0.50762 0.50477 0.50192 0.50084 0.49887 0.49342 0.49061 0.48866 0.48843 0.48733 0.48367 0.48256 0.47976 0.47613 0.47418 0.47307 0.47029 0.46918 0.4664 0.46363 0.46093 0.45659 0.45466 0.45274 0.45161 0.45123 0.4493 0.44736 0.44542 0.44422 0.44228 0.44112 0.43689 0.43423 0.4323 0.4296 0.42767 0.42574 0.42235 0.42043 0.4178 0.41589 0.41397 0.41136 0.40871 0.40542 0.40283 0.40161 0.39971 0.3978 0.39724 0.39533 0.39209 0.38952 0.38367 0.38179 0.37991 0.37802 0.37679 0.3749 0.37365 0.37558 0.37177 0.36673 0.36364 0.36114 0.35807 0.35563 0.35315 0.35129 0.34943 0.34701 0.34455 0.3427 0.34373 0.34359 0.34226 0.34038 0.33907 0.33719 0.3353 0.33342 0.33096 0.32965 0.3272 0.32424 0.32181 0.31993 0.31861 0.31619 0.31432 0.31244 0.31007 0.3082
2.1757 2.1635 2.1674 0 0 0 0 0 0 0 0 0 0 0 0 0 0 0 0 0 0 0 1.6832 1.6849 1.6917 1.6986 1.6849 1.7022 1.7093 1.8739 1.8701 2.0937 1.8132 1.8215 1.8486 1.9435 1.9395 1.7541 1.7505 1.8872 1.8703 1.8664 2.2158 2.2204 0 2.1232 2.1272 2.4337 0 0 0 0 0 0 0 0 0 2.1206 2.1247 0 0 0 0 0 0 0 0 0 0 0 0 1.6694 1.6937 1.7188 1.7388 1.729 1.7311 1.7393 1.8868 1.7748 1.7772 1.8461 1.8489 0 1.712 1.7081 1.7102 1.7123 1.7204 1.7044 1.7125 1.7779 1.5868 1.5883 1.5794 1.5352 1.4568 1.4578 1.4544 1.4466 1.4611 1.4621 1.4632 1.6267 1.6229 1.6302 1.632 1.6339 1.6358 1.626 1.5997 1.5686 1.5595 1.5717 1.5787 1.6082 0 1.4998 1.4961 0 0 0.85001 0.84151 0.83476 0.83267 0.83059 0.82543 0.82181 0.81668 0.8192 0.81865 0.81809 0.81601 0.81544 0.81797 0.81587 0.81377 0.81317 0.81256 0.81202 0.80992 0.8078 0.80569 0.80358 0.79992 0.79781 0.79571 0.7936 0.78858 0.78649 0.78439 0.78076 0.77867 0.7737 0.77305 0.76953 0.76744 0.76678 0.76185 0.75836 0.75346 0.74999 0.74932 0.74585 0.74518 0.7431 0.73688 0.73482 0.73146 0.7307 0.73275 0.72931 0.72724 0.72518 0.72175 0.71571 0.71366 0.71161 0.70829 0.70624 0.70027 0.69448 0.6912 0.68918 0.68715 0.68637 0.68682 0.68855 0.68651 0.68446 0.68242 0.68166 0.68211 0.68127 0.67672 0.67347 0.67142 0.66691 0.66361 0.65919 0.65716 0.65159 0.6484 0.64521 0.6432 0.64119 0.6415 0.63948 0.63515 0.63199 0.6266 0.62461 0.62375 0.62175 0.62082 0.61775 0.6135 0.6115 0.61063 0.60975 0.60879 0.60574 0.60264 0.60064 0.59755 0.59556 0.59465 0.59055 0.58856 0.58657 0.5835 0.58259 0.5806 0.57861 0.57662 0.57562 0.57468 0.57164 0.56866 0.56563 0.56266 0.5577 0.55573 0.55375 0.55082 0.54981 0.54497 0.54396 0.54294 0.54097 0.54189 0.53991 0.53887 0.53688 0.5349 0.53199 0.53002 0.52706 0.52508 0.5222 0.52023 0.51825 0.51628 0.51431 0.51233 0.50947 0.5075 0.50465 0.50269 0.49984 0.49788 0.49331 0.49049 0.48854 0.48745 0.48636 0.4827 0.48075 0.47965 0.47601 0.47406 0.47212 0.47101 0.46906 0.46629 0.46352 0.46081 0.45729 0.45612 0.45343 0.45306 0.45187 0.44918 0.44799 0.44605 0.44489 0.44295 0.441 0.43755 0.43484 0.43291 0.43025 0.42832 0.42563 0.42299 0.41961 0.41769 0.41577 0.41385 0.41124 0.4079 0.40462 0.40203 0.4015 0.39959 0.39701 0.39645 0.39388 0.39131 0.38941 0.38487 0.38299 0.38175 0.37985 0.37796 0.37607 0.37418 0.37546 0.37103 0.36662 0.36353 0.36165 0.35915 0.35671 0.35422 0.35179 0.35049 0.34746 0.3456 0.34433 0.34476 0.34403 0.34215 0.34085 0.33896 0.33765 0.33519 0.3333 0.33142 0.32953 0.32709 0.32413 0.3217 0.31982 0.31795 0.31662 0.3142 0.31233 0.31046 0.30809
2.1673 2.1632 2.1672 0 0 0 0 0 0 0 0 0 0 0 0 0 0 0 0 0 0 0 1.6729 1.6796 1.6915 1.6984 1.6899 1.702 1.7413 1.8736 1.8762 0 1.8559 1.8397 1.8484 0 0 0 1.8713 1.8739 1.8701 1.8598 2.2155 2.2201 0 2.0575 2.0612 2.4334 0 0 0 0 0 0 0 0 0 0 0 0 0 0 0 0 0 0 0 0 0 0 0 1.6692 1.6935 1.7128 1.7386 1.7529 1.749 1.733 1.7172 1.7074 1.7273 1.7666 1.769 1.8654 1.7177 1.7138 1.716 1.712 1.7142 1.7163 1.7184 1.7144 1.5917 1.588 1.6003 1.6517 1.4838 1.4666 1.4587 1.4464 1.4563 1.4574 1.463 1.6265 1.617 1.6132 1.6205 1.6222 1.6355 1.6316 1.605 1.5791 1.554 1.5502 1.557 1.3118 1.3124 1.3092 1.3059 0 0 0 0.82289 0.82842 0.82791 0.82583 0.8253 0.81862 0.81502 0.81602 0.817 0.81797 0.81588 0.81683 0.81935 0.81725 0.81364 0.81304 0.81243 0.8119 0.81127 0.80768 0.80705 0.80493 0.80135 0.79924 0.79859 0.79202 0.78846 0.78636 0.78273 0.78064 0.77855 0.77358 0.77292 0.76798 0.76732 0.76665 0.76031 0.75682 0.75334 0.74846 0.7492 0.74573 0.74505 0.74298 0.73952 0.73746 0.73539 0.73195 0.73399 0.73055 0.72848 0.72505 0.72163 0.71559 0.71354 0.71022 0.70817 0.70479 0.69764 0.69436 0.69108 0.68906 0.68828 0.68625 0.68793 0.68843 0.68638 0.68564 0.68229 0.68154 0.6807 0.67865 0.6766 0.67334 0.67003 0.66552 0.66229 0.65907 0.65704 0.65383 0.64945 0.64743 0.64425 0.64223 0.64254 0.64052 0.63619 0.63187 0.62763 0.62563 0.62363 0.6227 0.6207 0.61763 0.6145 0.61251 0.61051 0.61067 0.60867 0.60667 0.60252 0.59942 0.59743 0.59653 0.59453 0.59145 0.58946 0.58645 0.58338 0.5814 0.58048 0.57949 0.5775 0.5755 0.57456 0.57256 0.56854 0.56655 0.56254 0.55959 0.55658 0.5546 0.5507 0.54873 0.54581 0.54479 0.54283 0.5418 0.54177 0.53979 0.53875 0.53677 0.53478 0.53188 0.5299 0.52694 0.52497 0.52299 0.52011 0.51904 0.51616 0.51419 0.51222 0.50846 0.5065 0.50453 0.50169 0.49972 0.49689 0.49232 0.48951 0.48842 0.48734 0.48539 0.48343 0.48063 0.47953 0.47589 0.47395 0.47284 0.47089 0.46894 0.46617 0.4634 0.46069 0.45794 0.45601 0.45407 0.45294 0.45255 0.45061 0.44787 0.44672 0.44556 0.44283 0.44167 0.43744 0.4355 0.43279 0.43014 0.42821 0.42551 0.42288 0.4202 0.41828 0.41636 0.41374 0.41182 0.40779 0.40451 0.4026 0.4007 0.39948 0.3969 0.395 0.3931 0.39053 0.38929 0.38476 0.38353 0.38163 0.38039 0.3785 0.3766 0.37407 0.37408 0.37091 0.36592 0.36341 0.36154 0.35966 0.35717 0.35411 0.35225 0.35038 0.34735 0.34549 0.34478 0.34465 0.34336 0.34203 0.34073 0.33827 0.33696 0.33508 0.33376 0.33131 0.32998 0.32753 0.32401 0.32158 0.31971 0.31784 0.31596 0.31409 0.31276 0.30985 0.30798
2.1752 2.163 2.1669 0 0 0 0 0 0 0 0 0 0 0 0 0 0 0 0 0 0 0 1.6628 1.6643 1.671 1.6777 1.6693 1.7392 1.7411 1.8734 1.876 2.0239 1.8557 1.8709 1.8481 1.943 0 0 1.8711 1.8672 1.8634 1.8595 2.2153 1.918 1.914 2.0107 2.0141 2.0023 2.0444 2.0322 2.0358 0 0 0 0 0 0 0 0 0 0 0 1.8896 1.8855 0 0 0 0 0 0 1.7848 1.6689 1.6708 1.7422 1.7384 1.7527 1.7549 1.7327 1.7229 1.725 1.7454 1.7601 1.7815 1.8169 1.7175 1.7196 1.7157 1.7058 1.7019 1.704 1.7061 1.7142 1.5968 1.5931 1.6162 1.629 1.4836 1.4801 1.4496 1.4462 1.4561 1.4617 1.4627 1.6263 1.6112 1.6074 1.6091 1.6163 1.6237 1.6255 1.6103 1.5898 1.5485 1.5448 1.541 1.3116 1.3122 1.309 1.3057 0 0 0 0.82423 0.8252 0.82469 0.82417 0.82364 0.81849 0.8149 0.8159 0.81688 0.81784 0.81576 0.81519 0.81922 0.81562 0.81352 0.81142 0.81231 0.81177 0.81115 0.80903 0.80692 0.8048 0.79967 0.79756 0.79546 0.79043 0.7868 0.7847 0.78116 0.77907 0.77554 0.77345 0.77137 0.76928 0.76577 0.76511 0.76019 0.75811 0.7518 0.74833 0.74767 0.7456 0.74493 0.74286 0.73801 0.73595 0.73389 0.7332 0.7325 0.72906 0.727 0.72357 0.72151 0.71682 0.71476 0.7101 0.70805 0.70466 0.69626 0.69298 0.69221 0.69018 0.68816 0.68613 0.68781 0.68961 0.68756 0.68551 0.68346 0.68142 0.68058 0.67853 0.67527 0.67195 0.66871 0.66421 0.66098 0.65776 0.65574 0.65371 0.65051 0.64731 0.64529 0.64211 0.64242 0.6404 0.63606 0.6329 0.62751 0.62551 0.62458 0.62258 0.62171 0.61857 0.61438 0.61239 0.61151 0.61167 0.60966 0.60655 0.6035 0.6004 0.59841 0.59641 0.59441 0.59242 0.58934 0.58633 0.58327 0.58128 0.58036 0.57937 0.57638 0.57538 0.5724 0.5714 0.56737 0.56539 0.56243 0.55844 0.55646 0.55352 0.55058 0.54861 0.54569 0.54373 0.54271 0.54168 0.54165 0.53968 0.5377 0.53572 0.53467 0.53176 0.52978 0.52591 0.52485 0.52196 0.51999 0.51892 0.51604 0.51407 0.5121 0.50746 0.50549 0.50353 0.50069 0.49873 0.49503 0.49134 0.48852 0.48745 0.48636 0.48527 0.48246 0.48052 0.47941 0.47578 0.47467 0.47272 0.47077 0.46883 0.46688 0.46329 0.46135 0.45783 0.4567 0.45552 0.45358 0.45244 0.45129 0.44934 0.44739 0.44623 0.4435 0.44155 0.43732 0.43611 0.43267 0.43074 0.42809 0.42616 0.42201 0.42008 0.41816 0.41624 0.41432 0.41171 0.40836 0.40577 0.40249 0.40195 0.39936 0.39679 0.39488 0.39232 0.39042 0.38918 0.38531 0.38407 0.38217 0.38092 0.37967 0.37713 0.37523 0.37396 0.37017 0.36581 0.3633 0.3608 0.35835 0.35587 0.354 0.35213 0.35027 0.34724 0.34597 0.34467 0.34454 0.34325 0.34192 0.34004 0.33874 0.33685 0.33496 0.33308 0.33119 0.32931 0.32686 0.3239 0.32147 0.31909 0.31773 0.31585 0.31398 0.31211 0.30973 0.30733
2.5446 2.5287 2.5349 0 0 0 0 0 0 0 0 0 0 0 0 0 0 0 0 0 0 0 1.6675 1.6593 1.6708 1.6675 1.6691 2.04 2.036 0 2.0203 2.0236 1.9547 1.9577 1.9537 1.9427 0 0 1.8708 1.8865 1.876 1.8657 2.3714 1.9178 1.963 1.9954 2.0063 2.0021 2.0441 2.0477 2.0355 0 0 0 0 0 0 0 0 0 0 0 1.8893 1.8852 0 0 0 0 0 0 1.7846 1.7806 1.7829 1.779 1.7625 1.7464 1.7485 1.7632 1.7592 1.7491 1.7575 1.7725 1.7812 1.81 1.7732 1.7255 1.7216 1.7116 1.7076 1.6977 1.6998 1.7139 1.5966 1.6089 1.6494 1.657 1.6194 1.5886 1.5692 1.5251 1.4927 1.4892 1.481 1.6316 1.611 1.6127 1.6144 1.6218 1.6235 1.6196 1.6101 1.6006 1.5802 1.5764 1.5726 1.3873 1.3881 1.3805 1.3813 0 0 0 0.82411 0.82663 0.82766 0.82713 0.82813 0.82144 0.81784 0.82188 0.8198 0.81924 0.81412 0.81658 0.81759 0.81549 0.81339 0.81129 0.81218 0.81165 0.81102 0.80891 0.80679 0.8032 0.79954 0.79744 0.79387 0.78877 0.78667 0.78458 0.78104 0.7775 0.77542 0.77333 0.77124 0.76916 0.76849 0.7664 0.76148 0.75799 0.75309 0.74961 0.75035 0.74827 0.74481 0.74412 0.73789 0.73583 0.73377 0.7317 0.73101 0.72894 0.72687 0.72345 0.72138 0.71797 0.71591 0.71258 0.70919 0.70714 0.69991 0.69662 0.69583 0.6938 0.69308 0.68972 0.69023 0.69072 0.68867 0.68661 0.68456 0.68129 0.68046 0.67841 0.67387 0.67183 0.66858 0.66289 0.65967 0.65883 0.6568 0.65477 0.65156 0.64837 0.64401 0.64199 0.6423 0.64028 0.63594 0.63393 0.62962 0.62761 0.6256 0.62473 0.62385 0.62297 0.61757 0.61557 0.61356 0.61378 0.61065 0.60643 0.60442 0.60138 0.59938 0.59841 0.59641 0.5944 0.59138 0.5883 0.58523 0.58223 0.58125 0.58031 0.57726 0.57526 0.57327 0.57029 0.56726 0.56429 0.56133 0.55832 0.55634 0.55244 0.55143 0.54946 0.54557 0.54361 0.54164 0.54157 0.54054 0.53956 0.53758 0.5356 0.53362 0.53164 0.52966 0.52768 0.52473 0.52184 0.51987 0.5188 0.51593 0.51395 0.51198 0.50734 0.50449 0.50253 0.50057 0.49774 0.49578 0.49122 0.48927 0.48733 0.48624 0.48515 0.48235 0.4804 0.4793 0.4765 0.47539 0.47428 0.47232 0.47037 0.46841 0.46564 0.46368 0.4601 0.45816 0.45783 0.45588 0.45392 0.45197 0.45082 0.44886 0.4469 0.44495 0.44221 0.43793 0.43677 0.43405 0.43139 0.42869 0.42675 0.42336 0.42143 0.4188 0.41757 0.41639 0.41445 0.4111 0.40844 0.40584 0.40324 0.40132 0.39869 0.39678 0.3942 0.39229 0.38906 0.38651 0.38526 0.38466 0.3834 0.38346 0.38154 0.37835 0.37575 0.37132 0.36569 0.36319 0.36069 0.35824 0.35576 0.35389 0.35202 0.35076 0.34773 0.34642 0.34515 0.34502 0.34314 0.34181 0.34051 0.33862 0.33674 0.33485 0.33297 0.33108 0.3292 0.32675 0.32379 0.32191 0.31897 0.3171 0.31574 0.31441 0.312 0.30962 0.30673
