0 0 0 0 0 0 0 0 0 0 0 0 0 0 0 0 0 0 0 0 0 0 0 0 0 0 0 0 0 0 0 0 0 0 0 0 0 0 0 0 0.074437 0.074778 0.075073 0.075322 0.075662 0.076701 0.077091 0.077388 0.077874 0.07836 0.078657 0.078954 0.079251 0.079595 0.079697 0.079992 0.079798 0.079991 0.080184 0.080869 0.08121 0.083347 0.083746 0.084144 0.084291 0.08464 0.084937 0.085336 0.085684 0.084898 0.085241 0.085584 0 0 0.088508 0.088912 0.08921 0.089614 0.089912 0.090317 0.090775 0.091181 0.091479 0.09183 0 0 0 0 0 0 0.095466 0.095822 0.096178 0.096025 0.096379 0.096733 0.097201 0.097556 0 0 0 0 0 0 0 0 0 0 0 0 0 0 0 0 0 0 0 0 0 0 0 0 0 0 0 0 0 0 0 0 0 0 0 0 0 0 0 0 0 0 0 0 0 0 0 0 0 0 0 0 0 0 0 0 0 0 0 0 0 0 0 0 0 0 0 0 0 0 0 0 0 0 0 0 0 0 0 0 0 0 0 0 0 0 0 0 0 0 0 0 0 0 0 0 0 0 0 0 0 0 0 0 0 0 0 0 0 0 0 0 0 0 0 0 0 0 0 0 0 0 0 0 0 0 0 0 0 0 0 0 1.1387 1.1415 1.1593 1.1621 1.1649 1.1864 1.1893 1.1889 1.195 1.1915 1.1975 1.2004 1.2065 1.2126 1.2155 1.2151 1.2147 1.2176 1.2237 1.2201 1.2229 1.2323 1.2352 1.2414 1.2409 1.2472 1.2533 1.2595 1.2425 1.2454 1.2449 1.2478 1.2409 1.234 1.2305 1.2364 1.2392 1.2388 1.2448 1.2476 1.2568 1.2629 1.2527 1.2555 1.2583 1.2611 1.2639 1.3139 1.3203 1.3232 1.3297 1.329 1.3249 1.3172 1.3166 1.3125 1.3085 1.3079 1.3176 1.3135 1.3096 1.2857 1.2852 1.3422 1.3486 1.3623 1.3616 1.3644 1.3636 1.3702 1.3767 1.3796 1.3825 1.3854 1.3845 1.38 1.3829 1.3894 1.3777 1.3769 1.3798 1.3826 1.3818 1.3739 1.3731 1.3724 1.3612 1.3639 1.3736 1.3799 1.4044 1.4072 1.4248 1.4352 1.4419 1.4487 1.4516 1.4545 1.4573 1.4602 1.4631 1.462 1.461 1.4562 1.4629 1.4696 1.4804 1.4753 1.4665 1.4655 1.4645 1.4636 1.4625 1.4653 1.4643 1.4634 1.4624 1.469 1.468 1.4707 1.4889 1.5316 1.547 1.5457 1.5571 1.5515 1.5461 1.5448 1.5437 1.5343
0 0 0 0 0 0 0 0 0 0 0 0 0 0 0 0 0 0 0 0 0 0 0 0 0 0 0 0 0 0 0 0 0 0 0 0 0 0 0 0 0.074496 0.074837 0.075086 0.075381 0.075721 0 0 0.077589 0.077933 0.07842 0.07867 0.079014 0.079311 0 0.079757 0.080051 0.079906 0.079903 0.080243 0 0 0 0 0 0 0 0.084997 0.085396 0.085744 0.084957 0.085301 0.085644 0 0 0 0 0 0 0 0 0 0 0 0 0 0 0 0 0 0 0 0 0 0 0 0 0 0 0 0 0 0 0 0 0 0 0 0 0 0 0 0 0 0 0 0 0 0 0 0 0 0 0 0 0 0 0 0 0 0 0 0 0 0 0 0 0 0 0 0 0 0 0 0 0 0 0 0 0 0 0 0 0 0 0 0 0 0 0 0 0 0 0 0 0 0 0 0 0 0 0 0 0 0 0 0 0 0 0 0 0 0 0 0 0 0 0 0 0 0 0 0 0 0 0 0 0 0 0 0 0 0 0 0 0 0 0 0 0 0 0 0 0 0 0 0 0 0 0 0 0 0 0 0 0 0 0 0 0 0 1.1392 1.145 1.1478 1.1506 1.1563 1.1806 1.1834 1.1832 1.186 1.1858 1.1886 1.1883 1.1943 1.2034 1.2063 1.206 1.2088 1.2149 1.2145 1.2142 1.2202 1.2263 1.2357 1.232 1.2349 1.2443 1.2472 1.2501 1.2365 1.2393 1.2421 1.2418 1.2349 1.2282 1.2246 1.2305 1.227 1.2267 1.2325 1.2353 1.2412 1.2471 1.2532 1.256 1.2555 1.2583 1.2741 1.2903 1.3104 1.3168 1.3196 1.3225 1.3148 1.3073 1.3068 1.3062 1.2955 1.2983 1.3078 1.3038 1.2999 1.2928 1.2824 1.3427 1.3456 1.352 1.362 1.3577 1.3641 1.367 1.3735 1.3764 1.3793 1.3821 1.3813 1.3805 1.3798 1.3862 1.3746 1.3739 1.3802 1.3795 1.3823 1.3708 1.3701 1.3729 1.3581 1.3609 1.3671 1.3733 1.4011 1.4039 1.4178 1.4244 1.4348 1.4453 1.4405 1.4434 1.45 1.4529 1.4519 1.4548 1.45 1.449 1.4481 1.4585 1.4652 1.4642 1.4594 1.4584 1.4574 1.4564 1.4555 1.462 1.4573 1.4601 1.4553 1.4619 1.4647 1.4712 1.4971 1.5119 1.5309 1.5338 1.5408 1.5479 1.5385 1.5413 1.5359 1.5348
0 0 0 0 0 0 0 0 0 0 0 0 0 0 0 0 0 0 0 0 0 0 0 0 0 0 0 0 0 0 0 0 0 0 0 0 0 0 0 0 0 0 0 0 0 0 0 0 0 0 0 0 0 0 0 0 0 0.079962 0.080351 0 0 0 0 0 0 0 0 0 0 0 0 0 0 0 0 0 0 0 0 0 0 0 0 0 0 0 0 0 0 0 0 0 0 0 0 0 0 0 0 0 0 0 0 0 0 0 0 0 0 0 0 0 0 0 0 0 0 0 0 0 0 0 0 0 0 0 0 0 0 0 0 0 0 0 0 0 0 0 0 0 0 0 0 0 0 0 0 0 0 0 0 0 0 0 0 0 0 0 0 0 0 0 0 0 0 0 0 0 0 0 0 0 0 0 0 0 0 0 0 0 0 0 0 0 0 0 0 0 0 0 0 0 0 0 0 0 0 0 0 0 0 0 0 0 0 0 0 0 0 0 0 0 0 0 0 0 0 0 0 0 0 0 0 0 0 0 0 0 0 0 1.1427 1.1425 1.1483 1.1481 1.148 1.178 1.1777 1.1744 1.1772 1.177 1.1798 1.1795 1.1823 1.1883 1.1942 1.2001 1.2029 1.209 1.2086 1.2083 1.2143 1.2203 1.2264 1.2293 1.2321 1.235 1.2411 1.2439 1.2402 1.2398 1.2426 1.2357 1.229 1.2223 1.2219 1.2216 1.2212 1.2178 1.2237 1.2264 1.2322 1.2413 1.2472 1.2532 1.256 1.2587 1.2746 1.2908 1.3005 1.3068 1.3131 1.309 1.305 1.2976 1.3004 1.2965 1.2893 1.2887 1.2982 1.2943 1.2872 1.2899 1.2927 1.3189 1.3321 1.3454 1.3518 1.3546 1.3575 1.3567 1.3667 1.3696 1.3761 1.3826 1.3782 1.3738 1.3766 1.3831 1.3751 1.3743 1.3807 1.38 1.3791 1.3678 1.3706 1.3698 1.3655 1.3683 1.371 1.3738 1.398 1.4008 1.411 1.4175 1.4315 1.4344 1.4372 1.4401 1.4429 1.4458 1.4448 1.4476 1.4429 1.442 1.4448 1.4514 1.458 1.457 1.4561 1.455 1.4541 1.4494 1.4485 1.4513 1.4541 1.4568 1.4521 1.4548 1.4576 1.4641 1.4899 1.5005 1.5153 1.5262 1.5332 1.5401 1.5307 1.5336 1.5364 1.5272
0 0 0 0 0 0 0 0 0 0 0 0 0 0 0 0 0 0 0 0 0 0 0 0 0 0 0 0 0 0 0 0 0 0 0 0 0 0 0 0 0 0 0 0 0 0 0 0 0 0 0 0 0 0 0 0 0 0.080021 0.08041 0 0 0 0 0 0 0 0 0 0 0 0 0 0 0 0 0 0 0 0 0 0 0 0 0 0 0 0 0 0 0 0 0 0 0 0 0 0 0 0 0 0 0 0 0 0 0 0 0 0 0 0 0 0 0 0 0 0 0 0 0 0 0 0 0 0 0 0 0 0 0 0 0 0 0 0 0 0 0 0 0 0 0 0 0 0 0 0 0 0 0 0 0 0 0 0 0 0 0 0 0 0 0 0 0 0 0 0 0 0 0 0 0 0 0 0 0 0 0 0 0 0 0 0 0 0 0 0 0 0 0 0 0 0 0 0 0 0 0 0 0 0 0 0 0 0 0 0 0 0 0 0 0 0 0 0 0 0 0 0 0 0 0 0 0 0 0 0 0 1.0923 1.095 1.095 1.1004 1.1341 1.134 1.1367 1.1631 1.1629 1.1628 1.1625 1.1653 1.1651 1.1648 1.1646 1.1704 1.1732 1.179 1.1848 1.1907 1.1966 1.1963 1.1991 1.2113 1.2173 1.217 1.2229 1.2258 1.235 1.2411 1.2374 1.2339 1.2367 1.2267 1.22 1.2135 1.2132 1.2097 1.2094 1.2061 1.2088 1.2085 1.2173 1.223 1.2288 1.2442 1.2469 1.2528 1.2685 1.2779 1.2807 1.2835 1.2896 1.2858 1.2592 1.2749 1.2776 1.2772 1.2735 1.2762 1.2855 1.2817 1.2779 1.2872 1.2997 1.3126 1.3188 1.3284 1.3382 1.3374 1.3402 1.3431 1.353 1.3558 1.3586 1.3686 1.3643 1.3564 1.3592 1.362 1.3648 1.3606 1.367 1.3732 1.3725 1.3612 1.364 1.3667 1.3695 1.3654 1.3681 1.3708 1.3878 1.3905 1.4005 1.4069 1.4171 1.4236 1.4264 1.4256 1.4284 1.4312 1.4302 1.433 1.4321 1.4276 1.4267 1.4331 1.4397 1.4425 1.4341 1.4332 1.4359 1.4242 1.4232 1.4224 1.4251 1.4278 1.4269 1.4297 1.4289 1.4351 1.4599 1.4664 1.4806 1.5028 1.5095 1.5163 1.5192 1.518 1.5208 1.5158
0 0 0 0 0 0 0 0 0 0 0 0 0 0 0 0 0 0 0 0 0 0 0 0 0 0 0 0 0 0 0 0 0 0 0 0 0 0 0 0 0 0 0 0 0 0 0 0 0 0 0 0 0 0 0 0 0 0 0 0 0 0 0 0 0 0 0 0 0 0 0 0 0 0 0 0 0 0 0 0 0 0 0 0 0 0 0 0 0 0 0 0 0 0 0 0 0 0 0 0 0 0 0 0 0 0 0 0 0 0 0 0 0 0 0 0 0 0 0 0 0 0 0 0 0 0 0 0 0 0 0 0 0 0 0 0 0 0 0 0 0 0 0 0 0 0 0 0 0 0 0 0 0 0 0 0 0 0 0 0 0 0 0 0 0 0 0 0 0 0 0 0 0 0 0 0 0 0 0 0 0 0 0 0 0 0 0 0 0 0 0 0 0 0 0 0 0 0 0 0 0 0 0 0 0 0 0 0 0 0 0 0 0 0 0 0 0 0 0 0 0 0 0 0 0 0 0 0 1.0928 1.0955 1.0955 1.1064 1.1288 1.1258 1.1314 1.1546 1.1545 1.1542 1.1541 1.1598 1.1626 1.1594 1.1592 1.1649 1.1677 1.1734 1.1792 1.1851 1.194 1.1937 1.1965 1.2055 1.2114 1.2142 1.2203 1.2263 1.2291 1.2416 1.2348 1.2344 1.2339 1.2177 1.2143 1.2109 1.2075 1.2071 1.2038 1.2036 1.2063 1.206 1.2147 1.2205 1.2262 1.2383 1.2411 1.2469 1.2625 1.2718 1.2746 1.2774 1.2802 1.2698 1.263 1.2625 1.2685 1.2679 1.2707 1.2734 1.2794 1.2789 1.2751 1.2843 1.297 1.3097 1.3124 1.3152 1.3387 1.3344 1.3339 1.3401 1.3429 1.3492 1.3556 1.3584 1.3576 1.3465 1.3493 1.3521 1.3583 1.3576 1.3639 1.3702 1.3695 1.3582 1.3644 1.3637 1.3665 1.3658 1.3651 1.3678 1.3811 1.3874 1.3901 1.4038 1.4066 1.4204 1.4195 1.4186 1.4214 1.4242 1.4234 1.4225 1.4252 1.4207 1.4235 1.43 1.4328 1.4355 1.4272 1.4264 1.4255 1.4174 1.4131 1.4122 1.4079 1.4141 1.4168 1.4124 1.4151 1.4214 1.4456 1.4557 1.4659 1.4877 1.4982 1.5089 1.5117 1.5106 1.5094 1.5045
0 0 0 0 0 0 0 0 0 0 0 0 0 0 0 0 0 0 0 0 0 0 0 0 0 0 0 0 0 0 0 0 0 0 0 0 0 0 0 0 0 0 0 0 0 0 0 0 0 0 0 0 0 0 0 0 0 0 0 0 0 0 0 0 0 0 0 0 0 0 0 0 0 0 0 0 0 0 0 0 0 0 0 0 0 0 0 0 0 0 0 0 0 0 0 0 0 0 0 0 0 0 0 0 0 0 0 0 0 0 0 0 0 0 0 0 0 0 0 0 0 0 0 0 0 0 0 0 0 0 0 0 0 0 0 0 0 0 0 0 0 0 0 0 0 0 0 0 0 0 0 0 0 0 0 0 0 0 0 0 0 0 0 0 0 0 0 0 0 0 0 0 0 0 0 0 0 0 0 0 0 0 0 0 0 0 0 0 0 0 0 0 0 0 0 0 0 0 0 0 0 0 0 0 0 0 0 0 0 0 0 0 0 0 0 0 0 0 0 0 0 0 0 0 0 0 1.0745 1.0772 1.0798 1.0906 1.096 1.1068 1.1207 1.1263 1.1261 1.1462 1.1461 1.146 1.1487 1.1515 1.1542 1.154 1.1509 1.1566 1.1593 1.165 1.1707 1.1764 1.1852 1.185 1.1908 1.1998 1.2057 1.2116 1.2144 1.2203 1.2264 1.2389 1.2352 1.2284 1.2312 1.2151 1.2117 1.2083 1.2049 1.2046 1.2043 1.201 1.2067 1.2094 1.2091 1.2148 1.2205 1.2325 1.2352 1.2379 1.2502 1.2561 1.262 1.2713 1.2741 1.2703 1.2602 1.2597 1.2625 1.2652 1.2679 1.2674 1.2734 1.2698 1.2725 1.2783 1.2909 1.3002 1.2963 1.2796 1.2855 1.3145 1.3206 1.32 1.2803 1.2798 1.2825 1.2883 1.2878 1.2905 1.336 1.3421 1.3415 1.3476 1.3573 1.3637 1.3699 1.3518 1.358 1.3642 1.3636 1.3628 1.3621 1.3613 1.3676 1.3703 1.3358 1.3384 1.3715 1.3708 1.3564 1.3558 1.4073 1.4064 1.4128 1.4193 1.4184 1.4175 1.4131 1.4231 1.4295 1.4323 1.4241 1.4269 1.4224 1.4143 1.4065 1.4021 1.3979 1.4075 1.4033 1.4024 1.4051 1.4113 1.4352 1.4488 1.4589 1.4843 1.491 1.4976 1.5043 1.5032 1.506 1.5011
0 0 0 0 0 0 0 0 0 0 0 0 0 0 0 0 0 0 0 0 0 0 0 0 0 0 0 0 0 0 0 0 0 0 0 0 0 0 0 0 0 0 0 0 0 0 0 0 0 0 0 0 0 0 0 0 0 0 0 0 0 0 0 0 0 0 0 0 0 0 0 0 0 0 0 0 0 0 0 0 0 0 0 0 0 0 0 0 0 0 0 0 0 0 0 0 0 0 0 0 0 0 0 0 0 0 0 0 0 0 0 0 0 0 0 0 0 0 0 0 0 0 0 0 0 0 0 0 0 0 0 0 0 0 0 0 0 0 0 0 0 0 0 0 0 0 0 0 0 0 0 0 0 0 0 0 0 0 0 0 0 0 0 0 0 0 0 0 0 0 0 0 0 0 0 0 0 0 0 0 0 0 0 0 0 0 0 0 0 0 0 0 0 0 0 0 0 0 0 0 0 0 0 0 0 0 0 0 0 0 0 0 0 0 0 0 0 0 0 0 0 0 0 0 0 0 1.075 1.0776 1.0803 1.0857 1.091 1.0991 1.1156 1.1155 1.121 1.1322 1.1349 1.1319 1.1347 1.1374 1.1401 1.14 1.137 1.1397 1.1424 1.1451 1.1536 1.1621 1.1708 1.1735 1.1762 1.185 1.1907 1.1996 1.1993 1.2052 1.2079 1.2329 1.2261 1.2131 1.2159 1.2064 1.206 1.2057 1.1994 1.1991 1.2018 1.2015 1.2042 1.2038 1.2036 1.2033 1.2119 1.2177 1.2204 1.2231 1.2257 1.2315 1.2404 1.2557 1.2585 1.2612 1.2575 1.2477 1.2504 1.2531 1.2589 1.2585 1.2612 1.2575 1.2602 1.2629 1.2751 1.2842 1.2774 1.2769 1.2796 1.2823 1.2946 1.2877 1.2808 1.2803 1.2798 1.2856 1.2851 1.2909 1.3065 1.3092 1.3119 1.3277 1.3614 1.3434 1.3495 1.3353 1.3447 1.3509 1.3536 1.3529 1.3522 1.3449 1.3442 1.3435 1.3396 1.3422 1.355 1.3542 1.3536 1.3563 1.376 1.3752 1.3815 1.3876 1.3903 1.3896 1.3888 1.3915 1.4047 1.4146 1.4032 1.4023 1.4016 1.3972 1.393 1.3854 1.3813 1.3873 1.3865 1.3825 1.3851 1.391 1.4075 1.4136 1.4447 1.4734 1.4876 1.4677 1.4704 1.4806 1.491 1.49
0 0 0 0 0 0 0 0 0 0 0 0 0 0 0 0 0 0 0 0 0 0 0 0 0 0 0 0 0 0 0 0 0 0 0 0 0 0 0 0 0 0 0 0 0 0 0 0 0 0 0 0 0 0 0 0 0 0 0 0 0 0 0 0 0 0 0 0 0 0 0 0 0 0 0 0 0 0 0 0 0 0 0 0 0 0 0 0 0 0 0 0 0 0 0 0 0 0 0 0 0 0 0 0 0 0 0 0 0 0 0 0 0 0 0 0 0 0 0 0 0 0 0 0 0 0 0 0 0 0 0 0 0 0 0 0 0 0 0 0 0 0 0 0 0 0 0 0 0 0 0 0 0 0 0 0 0 0 0 0 0 0 0 0 0 0 0 0 0 0 0 0 0 0 0 0 0 0 0 0 0 0 0 0 0 0 0 0 0 0 0 0 0 0 0 0 0 0 0 0 0 0 0 0 0 0 0 0 0 0 0 0 0 0 0 0 0 0 0 0 0 0 0 0 0 0 1.0157 1.0182 1.0755 1.0808 1.086 1.0941 1.1161 1.1188 1.1186 1.1327 1.1325 1.1296 1.1323 1.135 1.1349 1.1348 1.1347 1.1374 1.1401 1.1398 1.1483 1.1568 1.1682 1.174 1.1737 1.1795 1.1852 1.1879 1.1877 1.1934 1.1962 1.2334 1.2203 1.2105 1.2103 1.2007 1.2004 1.2002 1.1969 1.1996 1.1993 1.202 1.2047 1.2043 1.2041 1.2067 1.2094 1.215 1.2148 1.2175 1.2201 1.2258 1.2347 1.2466 1.2493 1.2521 1.2517 1.2419 1.2478 1.2505 1.2531 1.2558 1.2553 1.255 1.2545 1.2572 1.2725 1.2783 1.2747 1.2741 1.2706 1.2764 1.2855 1.2818 1.275 1.2776 1.2803 1.2829 1.2824 1.285 1.294 1.2967 1.2994 1.302 1.3178 1.3237 1.3331 1.3324 1.3351 1.3479 1.3473 1.3467 1.3494 1.3386 1.338 1.3374 1.34 1.3461 1.352 1.3514 1.3474 1.3534 1.3627 1.3654 1.3681 1.3743 1.377 1.3729 1.3721 1.3782 1.3878 1.3974 1.3896 1.3889 1.3916 1.3874 1.3832 1.3824 1.3751 1.3809 1.3803 1.3762 1.3788 1.3848 1.3941 1.4002 1.3961 1.4089 1.4398 1.4498 1.456 1.4661 1.4839 1.4829
0 0 0 0 0 0 0 0 0 0 0 0 0 0 0 0 0 0 0 0 0 0 0 0 0 0 0 0 0 0 0 0 0 0 0 0 0 0 0 0 0 0 0 0 0 0 0 0 0 0 0 0 0 0 0 0 0 0 0 0 0 0 0 0 0 0 0 0 0 0 0 0 0 0 0 0 0 0 0 0 0 0 0 0 0 0 0 0 0 0 0 0 0 0 0 0 0 0 0 0 0 0 0 0 0 0 0 0 0 0 0 0 0 0 0 0 0 0 0 0 0 0 0 0 0 0 0 0 0 0 0 0 0 0 0 0 0 0 0 0 0 0 0 0 0 0 0 0 0 0 0 0 0 0 0 0 0 0 0 0 0 0 0 0 0 0 0 0 0 0 0 0 0 0 0 0 0 0 0 0 0 0 0 0 0 0 0 0 0 0 0 0 0 0 0 0 0 0 0 0 0 0 0 0 0 0 0 0 0 0 0.1152 0.11549 0.11857 0.11887 0.11925 0 0 0 0 0 0 0 0 0 0 0 1.0161 1.0186 1.0759 1.0812 1.0865 1.0946 1.1082 1.1109 1.1136 1.1218 1.119 1.1161 1.116 1.1215 1.1241 1.124 1.1267 1.1294 1.132 1.1347 1.1374 1.1457 1.1513 1.154 1.1595 1.1622 1.1678 1.1648 1.1645 1.1671 1.167 1.1697 1.1752 1.1838 1.1925 1.1863 1.186 1.1886 1.1885 1.194 1.1938 1.1935 1.1932 1.1959 1.1985 1.1983 1.2009 1.2065 1.2063 1.2119 1.2176 1.2233 1.2289 1.2409 1.2436 1.2402 1.2428 1.2424 1.245 1.2509 1.2504 1.2531 1.2528 1.2492 1.2488 1.2483 1.2541 1.263 1.2594 1.2589 1.2585 1.2612 1.2669 1.2665 1.2629 1.2687 1.2682 1.2771 1.2766 1.2823 1.2881 1.2908 1.2934 1.2993 1.3084 1.3144 1.3202 1.3164 1.3224 1.3317 1.3344 1.3371 1.3398 1.3358 1.3318 1.3279 1.3273 1.3465 1.3458 1.3452 1.3379 1.3438 1.3499 1.3525 1.3552 1.3579 1.3638 1.3598 1.3591 1.3617 1.3712 1.3704 1.363 1.3656 1.3682 1.3676 1.3669 1.3662 1.3622 1.3682 1.3708 1.3668 1.3661 1.3687 1.3746 1.3804 1.3798 1.3991 1.4018 1.3908 1.3902 1.3894 1.3954 1.4323
0 0 0 0 0 0 0 0 0 0 0 0 0 0 0 0 0 0 0 0 0 0 0 0 0 0 0 0 0 0 0 0 0 0 0 0 0 0 0 0 0 0 0 0 0 0 0 0 0 0 0 0 0 0 0 0 0 0 0 0 0 0 0 0 0 0 0 0 0 0 0 0 0 0 0 0 0 0 0 0 0 0 0 0 0 0 0 0 0 0 0 0 0 0 0 0 0 0 0 0 0 0 0 0 0 0 0 0 0 0 0 0 0 0 0 0 0 0 0 0 0 0 0 0 0 0 0 0 0 0 0 0 0 0 0 0 0 0 0 0 0 0 0 0 0 0 0 0 0 0 0 0 0 0 0 0 0 0 0 0 0 0 0 0 0 0 0 0 0 0 0 0 0 0 0 0 0 0 0 0 0 0 0 0 0 0 0 0 0 0 0 0 0 0 0 0 0 0 0 0 0 0 0 0 0 0 0 0 0 0 0.11525 0.11555 0.11862 0.11892 0.11931 0 0 0 0 0 0 0 0 0 0 0 0 0 1.0844 1.0871 1.0897 1.0924 1.1032 1.1031 1.103 1.1168 1.1139 1.1138 1.1137 1.1163 1.1218 1.1217 1.1216 1.127 1.1297 1.1323 1.135 1.1434 1.1488 1.1515 1.1542 1.1598 1.1625 1.1622 1.1621 1.1648 1.1646 1.1702 1.1728 1.1814 1.1899 1.1837 1.1836 1.1862 1.186 1.1916 1.1913 1.1881 1.1908 1.1934 1.1961 1.1957 1.1984 1.201 1.2037 1.2094 1.218 1.2237 1.2294 1.2352 1.241 1.2406 1.2433 1.2428 1.2455 1.2482 1.2479 1.2474 1.2501 1.2466 1.2461 1.2457 1.2514 1.2572 1.2537 1.2533 1.2528 1.2555 1.2612 1.2607 1.2604 1.266 1.2686 1.2713 1.2739 1.2765 1.2792 1.2818 1.2844 1.2934 1.3025 1.3083 1.3175 1.3136 1.3163 1.3288 1.3282 1.3309 1.3336 1.3296 1.3291 1.3251 1.3245 1.3403 1.343 1.339 1.3351 1.341 1.347 1.3496 1.3522 1.3549 1.3576 1.3569 1.3529 1.3622 1.3615 1.3641 1.3568 1.3595 1.3621 1.3582 1.3608 1.3569 1.3595 1.3588 1.3614 1.3607 1.36 1.3626 1.3652 1.371 1.3736 1.3861 1.3921 1.3847 1.3873 1.3899 1.4093 1.4187
0 0 0 0 0 0 0 0 0 0 0 0 0 0 0 0 0 0 0 0 0 0 0 0 0 0 0 0 0 0 0 0 0 0 0 0 0 0 0 0 0 0 0 0 0 0 0 0 0 0 0 0 0 0 0 0 0 0 0 0 0 0 0 0 0 0 0 0 0 0 0 0 0 0 0 0 0 0 0 0 0 0 0 0 0 0 0 0 0 0 0 0 0 0 0 0 0 0 0 0 0 0 0 0 0 0 0 0 0 0 0 0 0 0 0 0 0 0 0 0 0 0 0 0 0 0 0 0 0 0 0 0 0 0 0 0 0 0 0 0 0 0 0 0 0 0 0 0 0 0 0 0 0 0 0 0 0 0 0 0 0 0 0 0 0 0 0 0 0 0 0 0 0 0 0 0 0 0 0 0 0 0 0.10151 0.10179 0.10207 0.10235 0 0 0 0.10463 0.10491 0 0 0 0 0 0 0 0 0 0 0 0 0 0 0 0.11388 0.11417 0.11463 0.11484 0.11522 0.11552 0.1181 0.1184 0.1187 0.11941 0.11964 0 0 0 0 0 0 0 0 0 0 0 0 0 1.0464 1.0514 1.0955 1.0954 1.0954 1.1061 1.1088 1.1088 1.1114 1.1141 1.114 1.1166 1.1193 1.1219 1.1246 1.1301 1.1299 1.141 1.1465 1.1492 1.1519 1.1573 1.16 1.1599 1.1597 1.1624 1.165 1.1677 1.1704 1.1788 1.1845 1.1813 1.1811 1.1838 1.1864 1.1891 1.1888 1.1856 1.1882 1.1909 1.1906 1.1933 1.1959 1.1986 1.2012 1.2068 1.2154 1.2212 1.2269 1.2325 1.2384 1.2379 1.2406 1.2403 1.246 1.2456 1.2452 1.2448 1.2474 1.2439 1.2436 1.2462 1.2489 1.2515 1.248 1.2477 1.2503 1.2529 1.2556 1.2521 1.2547 1.2603 1.263 1.2687 1.2682 1.2708 1.2704 1.273 1.2756 1.2845 1.2933 1.3023 1.3082 1.3076 1.3136 1.3227 1.3254 1.3248 1.3242 1.3235 1.323 1.3191 1.3186 1.3341 1.3368 1.3329 1.3323 1.3349 1.3474 1.3468 1.3494 1.3554 1.3547 1.354 1.3534 1.356 1.3586 1.358 1.3541 1.3534 1.356 1.3521 1.3515 1.3508 1.3534 1.3528 1.3554 1.3514 1.3508 1.3534 1.3623 1.3617 1.3708 1.3766 1.3825 1.3818 1.3811 1.3869 1.403 1.4158
0 0 0 0 0 0 0 0 0 0 0 0 0 0 0 0 0 0 0 0 0 0 0 0 0 0 0 0 0 0 0 0 0 0 0 0 0 0 0 0 0 0 0 0 0 0 0 0 0 0 0 0 0 0 0 0 0 0 0 0 0 0 0 0 0 0 0 0 0 0 0 0 0 0 0 0 0 0 0 0 0 0 0 0 0 0 0 0 0 0 0 0 0 0 0 0 0 0 0 0 0 0 0 0 0 0 0 0 0 0 0 0 0 0 0 0 0 0 0 0 0 0 0 0 0 0 0 0 0 0 0 0 0 0 0 0 0 0 0 0 0 0 0 0 0 0 0 0 0 0 0 0 0 0 0 0 0 0 0 0 0 0 0 0 0 0 0 0 0 0 0 0 0 0 0 0 0 0 0 0 0 0 0.10149 0.10184 0.10212 0.1024 0.10337 0.10373 0.10401 0.10429 0.10458 0.10509 0 0 0 0 0 0 0 0 0 0 0 0 0 0.11315 0.11345 0.11414 0.11444 0.11489 0.11511 0.1154 0.11815 0.11845 0.11892 0.11939 0.11969 0 0 0 0 0 0 0 0 0 0 0 0 0 1.037 1.042 1.0671 1.0697 1.0722 1.0852 1.0931 1.0931 1.0957 1.0983 1.1009 1.1009 1.1035 1.1061 1.1088 1.114 1.1166 1.122 1.1247 1.1245 1.1299 1.1408 1.1462 1.1433 1.146 1.143 1.1457 1.151 1.1593 1.1678 1.1733 1.1731 1.1728 1.1754 1.1752 1.1779 1.1805 1.1832 1.1829 1.1826 1.1825 1.1822 1.182 1.1874 1.19 1.1956 1.204 1.2067 1.2152 1.2179 1.2205 1.2263 1.2289 1.2316 1.2372 1.2399 1.2334 1.2331 1.2357 1.2383 1.241 1.2406 1.2432 1.2429 1.2365 1.2391 1.2447 1.2473 1.2499 1.2465 1.2491 1.2548 1.2574 1.26 1.2595 1.2501 1.2527 1.2493 1.2489 1.2426 1.254 1.2686 1.2773 1.2737 1.2494 1.2519 1.2846 1.2965 1.2991 1.3017 1.3011 1.3007 1.3001 1.3089 1.3179 1.3205 1.32 1.3258 1.3348 1.3375 1.3401 1.3427 1.3453 1.3382 1.3375 1.3401 1.3427 1.3453 1.3352 1.3345 1.3339 1.3365 1.3391 1.3416 1.3442 1.3436 1.3461 1.3423 1.3417 1.3442 1.3468 1.3493 1.3518 1.3608 1.3666 1.3692 1.3685 1.3775 1.39 1.4026
0 0 0 0 0 0 0 0 0 0 0 0 0 0 0 0 0 0 0 0 0 0 0 0 0 0 0 0 0 0 0 0 0 0 0 0 0 0 0 0 0 0 0 0 0 0 0 0 0 0 0 0 0 0 0 0 0 0 0 0 0 0 0 0 0 0 0 0 0 0 0 0 0 0 0 0 0 0 0 0 0 0 0 0 0 0 0 0 0 0 0 0 0 0 0 0 0 0 0 0 0 0 0 0 0 0 0 0 0 0 0 0 0 0 0 0 0 0 0 0 0 0 0 0 0 0 0 0 0 0 0 0 0 0 0 0 0 0 0 0 0 0 0 0 0 0 0 0 0 0 0 0 0 0 0 0 0 0 0 0 0 0 0 0 0 0 0 0 0 0 0 0 0 0 0 0 0 0 0 0 0 0 0.10153 0.10181 0.10217 0.10245 0.10342 0.10378 0.10391 0.10419 0.10462 0.10514 0 0 0 0 0 0 0 0 0 0 0 0 0 0.1132 0.1135 0.11411 0.11465 0.11478 0.11508 0.11546 0.1182 0.1185 0.11881 0.11952 0.1199 0 0 0 0 0 0 0 0 0 0 0 0 0 1.0374 1.0474 1.0599 1.0624 1.065 1.0804 1.0857 1.0883 1.0882 1.0908 1.0961 1.096 1.0961 1.0986 1.1038 1.1064 1.1144 1.1144 1.117 1.1168 1.1222 1.1275 1.1356 1.1355 1.1354 1.1353 1.135 1.1459 1.1541 1.1596 1.1651 1.1706 1.1704 1.1702 1.1699 1.1726 1.1752 1.1778 1.1805 1.1803 1.1772 1.177 1.1767 1.1793 1.1848 1.1903 1.1957 1.2013 1.2098 1.2124 1.215 1.2177 1.2203 1.226 1.2286 1.2312 1.2249 1.2276 1.2302 1.2298 1.2355 1.2381 1.2317 1.2344 1.2339 1.2365 1.2391 1.2417 1.2443 1.244 1.2436 1.2552 1.2547 1.2544 1.257 1.2475 1.2442 1.2438 1.2405 1.243 1.2485 1.257 1.2655 1.2621 1.2529 1.2495 1.2638 1.2815 1.2871 1.2928 1.2985 1.2948 1.2944 1.3 1.3089 1.3146 1.3172 1.323 1.3288 1.3346 1.3373 1.3399 1.3393 1.3323 1.3284 1.331 1.3368 1.3362 1.3293 1.3255 1.3218 1.3275 1.3332 1.3357 1.3383 1.3409 1.3434 1.3365 1.339 1.3416 1.3441 1.3466 1.3492 1.358 1.3606 1.3664 1.3689 1.3715 1.3872 1.3964
0 0 0 0 0 0 0 0 0 0 0 0 0 0 0 0 0 0 0 0 0 0 0 0 0 0 0 0 0 0 0 0 0 0 0 0 0 0 0 0 0 0 0 0 0 0 0 0 0 0 0 0 0 0 0 0 0 0 0 0 0 0 0 0 0 0 0 0 0 0 0 0 0 0 0 0 0 0 0 0 0 0 0 0 0 0 0 0 0 0 0 0 0 0 0 0 0 0 0 0 0 0 0 0 0 0 0 0 0 0 0 0 0 0 0 0 0 0 0 0 0 0 0 0 0 0 0 0 0 0 0 0 0 0 0 0 0 0 0 0 0 0 0 0 0 0 0 0 0 0 0 0 0 0 0 0 0 0 0 0 0 0 0 0 0 0 0 0 0 0 0 0 0 0 0 0 0 0 0 0 0.1005 0.10085 0.10113 0.10141 0.10229 0.10257 0.10293 0.10337 0.1038 0.10401 0.1046 0.10488 0.10516 0.10544 0.10573 0.10632 0.10661 0.10689 0.10788 0.10817 0.10869 0.10898 0.10934 0.10963 0.10999 0.11293 0.11323 0.11376 0.1143 0.11475 0.11513 0.11534 0.11588 0.1179 0.1182 0.11974 0.12004 0 0 0 0 0 0 0 0 0 0 0 0 0 1.0379 1.0453 1.0603 1.0604 1.0655 1.0757 1.0783 1.0861 1.0861 1.0887 1.0887 1.0886 1.0939 1.0938 1.0991 1.1016 1.1069 1.1095 1.1094 1.1093 1.1146 1.1199 1.1251 1.1277 1.1249 1.1248 1.1301 1.1354 1.1435 1.1545 1.1571 1.1625 1.168 1.165 1.162 1.1674 1.17 1.1726 1.1752 1.175 1.1719 1.1745 1.1744 1.1741 1.1767 1.1849 1.1933 1.1988 1.2014 1.2041 1.2038 1.2035 1.209 1.2145 1.2171 1.2169 1.2107 1.2133 1.213 1.2156 1.2211 1.2178 1.2204 1.223 1.2255 1.2281 1.2307 1.2363 1.2359 1.2356 1.2381 1.2496 1.2523 1.2518 1.2544 1.245 1.2447 1.2413 1.2351 1.2406 1.246 1.2515 1.2571 1.2508 1.2474 1.2499 1.2554 1.2728 1.2784 1.2871 1.2897 1.2861 1.2856 1.2912 1.3 1.3119 1.3114 1.3202 1.3228 1.3287 1.3313 1.3339 1.3365 1.3232 1.3225 1.3251 1.3246 1.3303 1.3203 1.3167 1.316 1.3155 1.3273 1.3298 1.3356 1.3381 1.3375 1.3369 1.3332 1.3388 1.3413 1.3439 1.3464 1.3553 1.361 1.3603 1.3629 1.3654 1.3842 1.3935
0 0 0 0 0 0 0 0 0 0 0 0 0 0 0 0 0 0 0 0 0 0 0 0 0 0 0 0 0 0 0 0 0 0 0 0 0 0 0 0 0 0 0 0 0 0 0 0 0 0 0 0 0 0 0 0 0 0 0 0 0 0 0 0 0 0 0 0 0 0 0 0 0 0 0 0 0 0 0 0 0 0 0 0 0 0 0 0 0 0 0 0 0 0 0 0 0 0 0 0 0 0 0 0 0 0 0 0 0 0 0 0 0 0 0 0 0 0 0 0 0 0 0 0 0 0 0 0 0 0 0 0 0 0 0 0 0 0 0 0 0 0 0 0 0 0 0 0 0 0 0 0 0 0 0 0 0 0 0 0 0 0 0 0 0 0 0 0 0 0 0 0 0 0 0 0 0 0.099708 0.099986 0.10027 0.10054 0.10082 0.1011 0.10138 0.10234 0.10194 0.10222 0.10334 0.10362 0.1039 0.10426 0.1047 0.1049 0.10526 0.10539 0.10606 0.10642 0.10686 0.10777 0.10822 0.10858 0.10895 0.10939 0.10968 0.10996 0.11025 0.11328 0.11373 0.11419 0.11472 0.11502 0.11547 0.11593 0.11795 0.11825 0.11979 0.12009 0.12073 0 0 0 0 0 0 0 0 0 0 0 0 1.0383 1.0433 1.0583 1.0583 1.0634 1.0711 1.0762 1.0814 1.084 1.0865 1.0865 1.0839 1.0891 1.0917 1.0916 1.0969 1.102 1.1046 1.1019 1.1019 1.107 1.1123 1.1175 1.1147 1.1173 1.1173 1.1198 1.1278 1.1358 1.1437 1.1492 1.1518 1.1572 1.157 1.1513 1.1539 1.1565 1.1619 1.1644 1.167 1.164 1.1666 1.1664 1.169 1.1687 1.1742 1.188 1.1906 1.1904 1.193 1.1898 1.1896 1.1893 1.1919 1.1945 1.1914 1.1855 1.188 1.1906 1.1931 1.1956 1.1982 1.1951 1.2005 1.2087 1.217 1.2195 1.2221 1.2218 1.2214 1.224 1.2382 1.2407 1.2404 1.2459 1.2309 1.2305 1.2302 1.227 1.2324 1.232 1.2403 1.2428 1.2424 1.2421 1.2446 1.2529 1.2613 1.2668 1.2723 1.2749 1.2715 1.271 1.2765 1.2851 1.2998 1.3024 1.305 1.3108 1.3164 1.3222 1.3216 1.3242 1.3111 1.3105 1.3131 1.3156 1.3182 1.3114 1.3109 1.3074 1.3099 1.3185 1.3241 1.3298 1.3323 1.3348 1.3342 1.3336 1.3331 1.3356 1.3412 1.3437 1.3462 1.3488 1.3482 1.3538 1.3595 1.3684 1.3775
0 0 0 0 0 0 0 0 0 0 0 0 0 0 0 0 0 0 0 0 0 0 0 0 0 0 0 0 0 0 0 0 0 0 0 0 0 0 0 0 0 0 0 0 0 0 0 0 0 0 0 0 0 0 0 0 0 0 0 0 0 0 0 0 0 0 0 0 0 0 0 0 0 0 0 0 0 0 0 0 0 0 0 0 0 0 0 0 0 0 0 0 0 0 0 0 0 0 0 0 0 0 0 0 0 0 0 0 0 0 0 0 0 0 0 0 0 0 0 0 0 0 0 0 0 0 0 0 0 0 0 0 0 0 0 0 0 0 0 0 0 0 0 0 0 0 0 0 0 0 0 0 0 0 0 0 0 0 0 0 0 0 0 0 0 0 0 0 0 0 0 0 0 0 0 0 0 0.099756 0.10003 0.10031 0.10059 0.10087 0.10115 0.10143 0.10239 0.10199 0.10226 0.10339 0.10367 0.10395 0.10431 0.10459 0.10487 0.10507 0.10543 0.10611 0.10647 0.10691 0.10782 0.10819 0.10855 0.10892 0.10936 0.10965 0.11001 0.1103 0.11349 0.11378 0.1144 0.11469 0.11507 0.11545 0.11599 0.118 0.1183 0.11993 0.12023 0.1207 0 0 0 0 0 0 0 0 0 0 0 0 0 1.0663 1.0689 1.0638 1.069 1.0715 1.0766 1.0818 1.087 1.087 1.087 1.087 1.0869 1.0895 1.0921 1.0946 1.0999 1.1024 1.105 1.1023 1.1075 1.1128 1.1179 1.1152 1.1178 1.1203 1.1203 1.1255 1.1308 1.1388 1.1468 1.1494 1.152 1.1546 1.1435 1.1488 1.1541 1.1595 1.1621 1.1619 1.1644 1.1643 1.164 1.1639 1.1664 1.1746 1.1857 1.1883 1.1908 1.1877 1.1875 1.1816 1.1869 1.1895 1.1865 1.1807 1.1777 1.1802 1.1854 1.188 1.1905 1.193 1.1928 1.1953 1.2035 1.2117 1.2171 1.2196 1.2193 1.2189 1.2215 1.2299 1.2353 1.235 1.2375 1.2314 1.2253 1.2221 1.2217 1.2242 1.2296 1.235 1.2404 1.24 1.2425 1.2421 1.2533 1.2618 1.2643 1.2668 1.2694 1.2659 1.2626 1.271 1.2825 1.2911 1.2967 1.2993 1.308 1.3138 1.3163 1.3157 1.3183 1.3115 1.3079 1.3104 1.313 1.3155 1.318 1.3206 1.3231 1.3226 1.3251 1.3277 1.3333 1.3358 1.3353 1.3346 1.3341 1.3335 1.336 1.3385 1.3411 1.3467 1.3461 1.3486 1.348 1.3568 1.3657 1.3746
0 0 0 0 0 0 0 0 0 0 0 0 0 0 0 0 0 0 0 0 0 0 0 0 0 0 0 0 0 0 0 0 0 0 0 0 0 0 0 0 0 0 0 0 0 0 0 0 0 0 0 0 0 0 0 0 0 0 0 0 0 0 0 0 0 0 0 0 0 0 0 0 0 0 0 0 0 0 0 0 0 0 0 0 0 0 0 0 0 0 0 0 0 0 0 0 0 0 0 0 0 0 0 0 0 0 0 0 0 0 0 0 0 0 0 0 0 0 0 0 0 0 0 0 0 0 0 0 0 0 0 0 0 0 0 0 0 0 0 0 0 0 0 0 0 0 0 0 0 0 0 0 0 0 0 0 0 0 0 0 0 0 0 0 0 0 0 0 0 0 0 0 0 0 0 0 0 0.099804 0.10008 0.10036 0.10064 0.10092 0.1012 0.10095 0.10122 0.10135 0.10162 0.1019 0.10218 0.10276 0.10343 0.10371 0.10453 0.10504 0.1054 0.10623 0.10652 0.10696 0.10779 0.10824 0.1086 0.10897 0.10941 0.1097 0.10998 0.11035 0.11128 0.11157 0.11331 0.11361 0.11512 0.11558 0.11612 0.11929 0.11959 0.1199 0.12028 0.12083 0.1218 0.12211 0 0 0 0 0 0 0 0 0 0 0 0 0 1.0719 1.0694 1.0745 1.0797 1.0823 1.09 1.0875 1.0849 1.0848 1.0874 1.0899 1.0899 1.0925 1.0977 1.1029 1.1028 1.1028 1.1053 1.1105 1.1158 1.113 1.1156 1.1181 1.1181 1.1206 1.1285 1.1338 1.1418 1.1444 1.147 1.1496 1.1412 1.1465 1.1519 1.1516 1.1542 1.1568 1.1566 1.1619 1.1618 1.1588 1.1641 1.1695 1.1804 1.1858 1.1828 1.1854 1.1823 1.1792 1.1818 1.1844 1.1813 1.1811 1.1754 1.1806 1.1831 1.1857 1.1909 1.1879 1.1905 1.193 1.201 1.2092 1.2147 1.2143 1.2168 1.2137 1.2162 1.2303 1.2299 1.2325 1.235 1.2318 1.2257 1.2225 1.2222 1.2275 1.23 1.2354 1.2408 1.2404 1.2429 1.2455 1.2538 1.2592 1.2588 1.2643 1.2639 1.2605 1.2601 1.2626 1.2739 1.2794 1.285 1.2876 1.2992 1.3049 1.3074 1.31 1.3156 1.3089 1.3083 1.3109 1.3134 1.3129 1.3154 1.321 1.3205 1.3199 1.3224 1.3281 1.3307 1.3332 1.3357 1.332 1.3283 1.3308 1.3334 1.339 1.3384 1.3409 1.3403 1.3428 1.3453 1.3509 1.3629 1.3687
0 0 0 0 0 0 0 0 0 0 0 0 0 0 0 0 0 0 0 0 0 0 0 0 0 0 0 0 0 0 0 0.059146 0.059424 0.059703 0 0 0 0 0 0 0 0 0 0 0 0 0 0 0 0 0 0 0 0 0 0 0 0 0 0 0 0 0 0 0 0 0 0 0 0 0 0 0 0 0 0 0 0 0 0 0 0 0 0 0 0 0 0 0 0 0 0 0 0 0 0 0 0 0 0 0 0 0 0 0 0 0 0 0 0 0 0 0 0 0 0 0 0 0 0 0 0 0 0 0 0 0 0 0 0 0 0 0 0 0 0 0 0 0 0 0 0 0 0 0 0 0 0 0 0 0 0 0 0 0 0 0 0 0 0 0 0 0 0 0 0 0 0 0 0 0 0 0 0 0 0 0 0.099853 0.10013 0.10041 0.10054 0.10089 0.10117 0.10039 0.10066 0.10109 0.1016 0.10195 0.10223 0.10297 0.1034 0.10376 0.1045 0.10486 0.1053 0.10613 0.10649 0.10693 0.10784 0.10821 0.10857 0.10894 0.10938 0.10966 0.10995 0.1104 0.11133 0.11162 0.1132 0.11349 0.11427 0.11546 0.11609 0.11671 0.11701 0.11995 0.12025 0.12089 0.12186 0.12216 0 0 0 0 0 0 0 0 0 0 0 0 0 1.0724 1.0723 1.0724 1.0775 1.0801 1.0905 1.0879 1.0853 1.0852 1.0853 1.0853 1.0852 1.0878 1.0929 1.0981 1.1006 1.1006 1.1032 1.1057 1.1083 1.1108 1.1108 1.1133 1.1132 1.1158 1.121 1.1262 1.1341 1.1367 1.142 1.1418 1.139 1.1388 1.1441 1.144 1.1438 1.1436 1.1462 1.1487 1.1512 1.1511 1.1537 1.1616 1.1724 1.1778 1.172 1.1746 1.1716 1.1714 1.1766 1.1765 1.1762 1.1733 1.1731 1.1756 1.1781 1.1833 1.1859 1.1884 1.1881 1.1906 1.1959 1.204 1.2094 1.212 1.2116 1.2113 1.2138 1.2221 1.2274 1.23 1.2325 1.2265 1.2205 1.2172 1.2197 1.228 1.2305 1.2358 1.2412 1.2438 1.2405 1.243 1.2513 1.2567 1.2592 1.2589 1.2585 1.258 1.2518 1.2543 1.2568 1.2593 1.2676 1.2701 1.2785 1.287 1.2925 1.295 1.3007 1.3062 1.3057 1.3052 1.3077 1.3102 1.3127 1.3153 1.3178 1.3142 1.3198 1.3254 1.3311 1.3304 1.3299 1.3293 1.3288 1.3251 1.3307 1.3363 1.3326 1.3351 1.3345 1.3339 1.3394 1.3451 1.357 1.3627
0 0 0 0 0 0 0 0 0 0 0 0 0 0 0 0 0 0 0 0 0 0 0 0 0 0 0 0 0 0 0 0.059194 0.059428 0.059752 0 0 0 0 0 0 0 0 0 0 0 0 0 0 0 0 0 0 0 0 0 0 0 0 0 0 0 0 0 0 0 0 0 0 0 0 0 0 0 0 0 0 0 0 0 0 0 0 0 0 0 0 0 0 0 0 0 0 0 0 0 0 0 0 0 0 0 0 0 0 0 0 0 0 0 0 0 0 0 0 0 0 0 0 0 0 0 0 0 0 0 0 0 0 0 0 0 0 0 0 0 0 0 0 0 0 0 0 0 0 0 0 0 0 0 0 0 0 0 0 0 0 0 0 0 0 0 0 0 0 0 0 0 0 0 0 0 0 0 0 0 0 0 0 0 0 0.10059 0.10086 0.10114 0.10043 0.10071 0.10121 0.10157 0.10192 0.10228 0.10301 0.1036 0.10388 0.10455 0.10491 0.10534 0.10625 0.10654 0.10698 0.10789 0.10818 0.10854 0.10891 0.10943 0.10971 0.11 0.11045 0.11138 0.11167 0.11325 0.11354 0.11432 0.11584 0.11614 0.11676 0.11706 0.12174 0.12204 0.12235 0.12249 0.1228 0 0 0 0 0 0 0 0 0 0 0 0 0 1.0832 1.0703 1.0703 1.0728 1.0805 1.0858 1.0857 1.0857 1.0857 1.0831 1.0831 1.0805 1.0857 1.0882 1.0933 1.0959 1.0958 1.101 1.1036 1.1087 1.1113 1.1112 1.1111 1.1137 1.1162 1.1214 1.124 1.1345 1.1371 1.1397 1.1422 1.1367 1.1393 1.1418 1.1417 1.1415 1.1414 1.1412 1.1438 1.1463 1.1516 1.1541 1.1593 1.1674 1.1727 1.1669 1.1722 1.1693 1.1718 1.1716 1.1741 1.1739 1.1737 1.1708 1.176 1.1785 1.1838 1.1863 1.1888 1.1913 1.1911 1.1964 1.2045 1.2099 1.2095 1.212 1.2089 1.2143 1.2225 1.2251 1.2304 1.233 1.2297 1.218 1.2205 1.2202 1.2284 1.2338 1.2363 1.2417 1.2413 1.238 1.2405 1.2488 1.2572 1.2568 1.2564 1.256 1.2585 1.2523 1.2547 1.2572 1.2597 1.2651 1.2647 1.273 1.2815 1.287 1.2895 1.295 1.3036 1.3062 1.3087 1.3051 1.3107 1.3132 1.3189 1.3182 1.3147 1.3202 1.3228 1.3284 1.3309 1.3303 1.3267 1.3261 1.3286 1.3311 1.3367 1.333 1.3355 1.3349 1.3344 1.3399 1.3455 1.3606 1.3663
0 0 0 0 0 0 0 0 0 0 0 0 0 0 0 0 0 0 0 0 0 0 0 0 0 0 0 0 0.058144 0.058422 0.058699 0.058977 0.059388 0.059755 0 0 0 0 0 0 0 0 0 0 0 0 0 0 0 0 0 0 0 0 0 0 0 0 0 0 0 0 0 0 0 0 0 0 0 0 0 0 0 0 0 0 0 0 0 0 0 0 0 0 0 0 0 0 0 0 0 0 0 0 0 0 0 0 0 0 0 0 0 0 0 0 0 0 0 0 0 0 0 0 0 0 0 0 0 0 0 0 0 0 0 0 0 0 0 0 0 0 0 0 0 0 0 0 0 0 0 0 0 0 0 0 0 0 0 0 0 0 0 0 0 0 0 0 0 0 0 0 0 0.092885 0.093155 0.093497 0.093767 0.094036 0.094379 0.094576 0.094919 0.09563 0.095902 0 0 0 0 0.097557 0.097754 0.098026 0.098298 0.098646 0.098994 0.099266 0.10045 0.10103 0.10154 0.10189 0.10201 0.10244 0.10357 0.10385 0.10452 0.10496 0.10532 0.10622 0.10658 0.10695 0.1077 0.10823 0.10859 0.10903 0.10948 0.10976 0.11005 0.11058 0.11224 0.11253 0.11322 0.11351 0.11454 0.11483 0.11603 0.11854 0.11893 0.1222 0.12226 0.12257 0.12313 0.12352 0.12399 0.12439 0.12478 0 0 0 0 0 0 0 0 0 0 1.0862 1.0631 1.0657 1.0759 1.0758 1.0784 1.0784 1.0734 1.0734 1.0734 1.076 1.0734 1.071 1.0735 1.076 1.0785 1.0785 1.0835 1.0886 1.0936 1.0987 1.1038 1.1064 1.1115 1.114 1.1192 1.1244 1.1296 1.1295 1.1321 1.1346 1.1345 1.137 1.1369 1.1368 1.1393 1.1419 1.139 1.1416 1.1467 1.1493 1.1518 1.1543 1.1542 1.1567 1.1565 1.159 1.1589 1.1614 1.1639 1.1637 1.1689 1.1687 1.1712 1.1737 1.179 1.1815 1.184 1.1865 1.1918 1.1915 1.1968 1.2049 1.2103 1.2071 1.2069 1.2038 1.2035 1.2116 1.2141 1.2166 1.2191 1.216 1.2101 1.2126 1.2179 1.226 1.2285 1.231 1.2392 1.2389 1.2385 1.241 1.2464 1.2547 1.2543 1.2568 1.2564 1.256 1.2555 1.2552 1.2577 1.2602 1.2598 1.2623 1.2618 1.2643 1.2697 1.2751 1.2805 1.286 1.2945 1.294 1.2935 1.2929 1.3015 1.3161 1.3156 1.3182 1.3207 1.3232 1.3257 1.3313 1.3308 1.3302 1.3265 1.3259 1.3316 1.3341 1.3366 1.3359 1.3384 1.3348 1.3373 1.3428 1.3484 1.3573
0 0 0 0 0 0 0 0 0 0 0 0 0 0 0 0 0 0 0 0 0 0 0 0 0 0 0 0 0.058192 0.058426 0.058703 0.05898 0.059302 0.059804 0 0 0 0 0 0 0 0 0 0 0 0 0 0 0 0 0 0 0 0 0 0 0 0 0 0 0 0 0 0 0 0 0 0 0 0 0 0 0 0 0 0 0 0 0 0 0 0 0 0 0 0 0 0 0 0 0 0 0 0 0 0 0 0 0 0 0 0 0 0 0 0 0 0 0 0 0 0 0 0 0 0 0 0 0 0 0 0 0 0 0 0 0 0 0 0 0 0 0 0 0 0 0 0 0 0 0 0 0 0 0 0 0 0 0 0 0 0 0 0 0 0 0 0 0 0 0 0 0 0.092932 0.09313 0.093544 0.093813 0.094083 0.094353 0.094623 0.094893 0.095677 0.095949 0 0 0 0 0.097604 0.097802 0.098073 0.098421 0.098769 0.099193 0.099313 0.1005 0.10116 0.10136 0.10179 0.10206 0.10249 0.10362 0.1039 0.10449 0.10493 0.10536 0.10627 0.10663 0.107 0.10783 0.10804 0.10864 0.10908 0.10953 0.10981 0.1101 0.11063 0.11229 0.11282 0.11319 0.11356 0.11459 0.11488 0.11608 0.11859 0.11898 0.12234 0.12256 0.12287 0.12318 0.12366 0.12405 0.12444 0.12483 0 0 0 0 0 0 0 0 0 0 0 0 0 0 1.0763 1.0789 1.0713 1.0764 1.0713 1.0739 1.0764 1.0714 1.0689 1.0739 1.0764 1.0739 1.0764 1.0789 1.0865 1.0915 1.094 1.1017 1.1042 1.1094 1.1119 1.1197 1.1222 1.1301 1.13 1.1325 1.1324 1.1322 1.1348 1.1347 1.1399 1.1398 1.1423 1.1395 1.142 1.1472 1.1497 1.1522 1.1494 1.1519 1.1544 1.1543 1.1568 1.1593 1.1591 1.1643 1.1641 1.1666 1.1691 1.1744 1.1769 1.1821 1.1819 1.1844 1.1897 1.195 1.1975 1.2028 1.2053 1.2107 1.2048 1.2045 1.2014 1.2039 1.2092 1.2117 1.2142 1.2167 1.2136 1.2106 1.213 1.2155 1.2264 1.2289 1.2314 1.2397 1.2393 1.2418 1.2472 1.2526 1.2551 1.2576 1.2602 1.2598 1.2564 1.256 1.2528 1.2552 1.2577 1.2602 1.2597 1.2565 1.2618 1.2643 1.2696 1.2751 1.2805 1.2949 1.2944 1.2909 1.2934 1.3019 1.3197 1.3191 1.3186 1.3211 1.3236 1.3262 1.3318 1.3312 1.3307 1.3301 1.3264 1.332 1.3376 1.3401 1.3395 1.342 1.3382 1.3377 1.3402 1.3457 1.3514
0 0 0 0 0 0 0 0 0 0 0 0 0 0 0 0 0 0.056597 0.056882 0.057166 0.057451 0.057735 0 0 0 0 0 0 0.058153 0.058474 0.058707 0.059029 0.059261 0.059807 0 0 0 0 0 0 0 0 0 0 0 0 0 0 0 0 0 0 0 0 0 0 0 0 0 0 0 0 0 0 0 0 0 0 0 0 0 0 0 0 0 0 0 0 0 0 0 0 0 0 0 0 0 0 0 0 0 0 0 0 0 0 0 0 0 0 0 0 0 0 0 0 0 0 0 0 0 0 0 0 0 0 0 0 0 0 0 0 0 0 0 0 0 0 0 0 0 0 0 0 0 0 0 0 0 0 0 0 0 0 0 0 0 0 0 0 0 0 0 0 0 0 0 0 0 0 0 0 0.092422 0.092763 0.093104 0.09359 0.09386 0.094057 0.094327 0.094597 0.094866 0.095283 0.095627 0.095897 0.096242 0.096512 0.09723 0.097577 0.097849 0.098121 0.098468 0.098967 0.099316 0.099665 0.10017 0.10075 0.10102 0.10168 0.10211 0.10254 0.10367 0.10395 0.10454 0.1049 0.10541 0.10609 0.10629 0.10681 0.10756 0.10785 0.10877 0.10913 0.10974 0.11034 0.11063 0.11156 0.11185 0.11287 0.11324 0.11361 0.11439 0.116 0.11638 0.11758 0.11787 0.12214 0.12254 0.12293 0.12323 0.12371 0.1241 0.12449 0.12489 0 0 0 0 0 0 0 0 0 0 0 0 0 0 1.7381 1.7422 1.7464 1.7573 1.7547 1.7656 1.7495 1.7604 1.7919 1.7961 1.0719 1.0744 1.0769 1.0794 1.0844 1.0894 1.0894 1.0944 1.0995 1.1046 1.1097 1.1149 1.1226 1.1252 1.1277 1.133 1.1328 1.1327 1.1352 1.1351 1.1377 1.1428 1.14 1.1399 1.1398 1.1449 1.1501 1.1527 1.1499 1.1524 1.1522 1.1547 1.1545 1.157 1.1568 1.1648 1.1646 1.1671 1.1696 1.1748 1.1801 1.1826 1.1878 1.1931 1.1929 1.1982 1.2007 1.2061 1.2087 1.2112 1.2052 1.2021 1.2018 1.2015 1.2068 1.2093 1.2118 1.2143 1.2112 1.211 1.2162 1.2187 1.224 1.2322 1.2347 1.2401 1.2426 1.2422 1.2505 1.256 1.2614 1.261 1.2635 1.2602 1.2598 1.2535 1.2532 1.2527 1.2552 1.2577 1.2573 1.254 1.2594 1.2561 1.2614 1.2668 1.275 1.2923 1.2918 1.2913 1.2968 1.3054 1.3202 1.3196 1.319 1.3216 1.3241 1.3235 1.3322 1.3317 1.3342 1.3336 1.3299 1.3293 1.338 1.3405 1.3431 1.3456 1.3357 1.3351 1.3376 1.3369 1.3426
0 0 0 0 0 0 0 0 0 0 0 0 0 0 0 0 0 0.056646 0.056889 0.05709 0.057332 0.057616 0.057772 0.058012 0 0.05806 0.05821 0.05849 0.058201 0.058522 0.058799 0.058988 0.058729 0.059004 0.059008 0.059281 0.059554 0.059736 0.060009 0 0 0 0 0.060622 0.060891 0.061161 0 0 0 0 0 0 0 0 0 0 0 0 0 0 0 0 0 0 0 0 0 0 0 0 0 0 0 0 0 0 0 0 0 0 0 0 0 0 0 0 0 0 0 0 0 0 0 0 0 0 0 0 0 0 0 0 0 0 0 0 0 0 0 0 0 0 0 0 0 0 0 0 0 0 0 0 0 0 0 0 0 0 0 0 0 0 0 0 0 0 0 0 0 0 0 0 0 0 0 0 0 0 0 0 0 0 0 0 0 0 0 0 0 0 0 0.091556 0.091823 0.092594 0.093223 0.093493 0.093762 0.094031 0.094301 0.09457 0.09484 0.09533 0.0956 0.09587 0.09614 0.09641 0.097277 0.097624 0.097896 0.098243 0.098515 0.099015 0.099439 0.099788 0.10029 0.10064 0.10107 0.10173 0.10216 0.10267 0.10356 0.10384 0.10443 0.10495 0.10523 0.1059 0.10626 0.10686 0.10761 0.1079 0.10882 0.1091 0.10979 0.11039 0.11068 0.11137 0.11166 0.11284 0.11337 0.11366 0.11445 0.11605 0.11643 0.11763 0.11793 0.12211 0.12242 0.12273 0.12312 0.1236 0.12399 0.12438 0.12494 0 0 0 0 0 0 0 0 0 0 0 0 1.6665 1.6767 1.706 1.7296 1.7338 1.7513 1.742 1.7461 1.7436 1.7477 1.7585 1.7762 1.0723 1.0723 1.0773 1.0773 1.0823 1.0823 1.0873 1.0923 1.0974 1.0999 1.105 1.1153 1.1178 1.1229 1.1229 1.1307 1.1333 1.1331 1.133 1.1329 1.1381 1.1433 1.1432 1.1403 1.1402 1.1427 1.1479 1.1504 1.1476 1.1501 1.15 1.1525 1.155 1.1548 1.16 1.1625 1.165 1.1675 1.17 1.178 1.1832 1.1885 1.191 1.1964 1.2017 1.2015 1.2068 1.2066 1.2091 1.2116 1.2029 1.1998 1.2023 1.202 1.2045 1.2069 1.2094 1.2148 1.2117 1.2114 1.2139 1.2191 1.2273 1.2326 1.2351 1.2434 1.243 1.2456 1.251 1.2593 1.2589 1.2585 1.261 1.2636 1.2602 1.254 1.2536 1.2503 1.2528 1.2524 1.252 1.2459 1.2484 1.2481 1.2533 1.2586 1.2696 1.2928 1.2923 1.2888 1.3003 1.3058 1.3237 1.3232 1.3195 1.3189 1.3215 1.324 1.3296 1.329 1.3346 1.3371 1.3303 1.3297 1.3354 1.341 1.3498 1.3491 1.3361 1.3356 1.3318 1.3343 1.3368
0 0 0 0 0 0 0 0 0 0 0 0 0 0 0 0 0 0.056696 0.05698 0.057097 0.057381 0.057622 0.057821 0.058104 0 0.058109 0.058259 0.058539 0.05838 0.058614 0.058847 0.059036 0.058777 0.059051 0.059055 0.059283 0.059602 0.059783 0.060056 0 0 0 0 0.060669 0.060938 0.061208 0 0 0 0 0 0 0 0 0 0 0 0 0 0 0 0 0 0 0 0 0 0 0 0 0 0 0 0 0 0 0 0 0 0 0 0 0 0 0 0 0 0 0 0 0 0 0 0 0 0 0 0 0 0 0 0 0 0 0 0 0 0 0 0 0 0 0 0 0 0 0 0 0 0 0 0 0 0 0 0 0 0 0 0 0 0 0 0 0 0 0 0 0 0 0 0 0 0 0 0 0 0 0 0 0 0 0 0 0 0 0 0 0 0 0 0.091603 0.09187 0.092641 0.09327 0.093539 0.093809 0.094078 0.094201 0.094544 0.094886 0.095303 0.095573 0.095917 0.096187 0.096457 0.097325 0.097671 0.098018 0.098366 0.098714 0.099138 0.099562 0.099912 0.10034 0.10077 0.10112 0.10178 0.10205 0.10272 0.10361 0.10389 0.10448 0.10484 0.10527 0.10595 0.10631 0.10691 0.10814 0.10842 0.10895 0.10923 0.11008 0.1106 0.11089 0.11142 0.11171 0.11289 0.11367 0.11404 0.11629 0.11667 0.11705 0.11793 0.11822 0.12217 0.12248 0.12278 0.12309 0.12348 0.12412 0.12443 0 0 0 0 0 0 0 0 0 0 0 0 0 1.6672 1.6899 1.7067 1.7173 1.7345 1.7386 1.7427 1.7468 1.7443 1.7418 1.7525 1.7701 1.781 1.7784 1.7825 1.8004 0 1.0827 1.0877 1.0877 1.0978 1.1003 1.1054 1.1131 1.1183 1.1208 1.1259 1.1312 1.1337 1.1362 1.1335 1.1333 1.1358 1.1464 1.1436 1.1408 1.1407 1.1432 1.1483 1.1482 1.1481 1.1506 1.1504 1.1502 1.1554 1.1579 1.1631 1.1656 1.1709 1.1761 1.1813 1.1839 1.1948 1.2031 1.2085 1.2139 1.2223 1.2076 1.213 1.207 1.2123 1.2092 1.2033 1.2002 1.1999 1.1997 1.2105 1.213 1.2127 1.2152 1.2149 1.2146 1.2171 1.2252 1.2334 1.236 1.2385 1.2467 1.2464 1.246 1.2514 1.2568 1.2564 1.256 1.2586 1.264 1.2636 1.2544 1.2541 1.2507 1.2504 1.25 1.2468 1.2492 1.246 1.2457 1.2481 1.259 1.2615 1.3084 1.2957 1.2982 1.3037 1.3216 1.3241 1.333 1.3199 1.3224 0 2.9396 2.9452 2.9661 2.9872 1.3376 1.3401 0 1.3451 1.3477 1.3502 1.3591 1.3584 0 0 0 2.1391
0 0 0 0 0 0 0 0 0 0 0 0 0 0 0 0 0 0 0 0.057146 0.05743 0.057672 0.05787 0.057597 0.057877 0.057855 0.058003 0.058282 0.058385 0.058618 0.058851 0.059084 0.059093 0.059368 0.059058 0.059285 0.059558 0.059693 0.059736 0.060007 0.060093 0.060223 0.060493 0.060715 0.060985 0.061254 0.061143 0.061411 0.061678 0.061705 0.061972 0.06219 0.062407 0.062674 0.062989 0.063256 0.063572 0.063739 0.063855 0.06412 0.064184 0.064297 0.064561 0.06462 0.064884 0 0 0 0 0 0 0 0 0 0 0 0 0 0 0 0 0 0 0 0 0 0 0 0 0 0 0 0 0 0 0 0 0 0 0 0 0 0 0 0 0 0 0 0 0 0 0 0 0 0 0 0 0 0 0 0 0 0 0 0 0 0 0 0 0 0 0 0 0 0 0 0 0 0 0 0 0 0.085022 0.085284 0.085546 0 0 0 0.086801 0.087133 0.087396 0.087659 0.088061 0.088465 0.088728 0.089133 0.08975 0.090015 0.090635 0.090902 0.091168 0.091577 0.091844 0.092543 0.093317 0.093586 0.093492 0.093761 0.094175 0.094517 0.09486 0.09535 0.09562 0.095964 0.096234 0.096504 0.097372 0.097718 0.098065 0.098413 0.098761 0.099185 0.09961 0.09996 0.10046 0.10081 0.10124 0.10213 0.10241 0.10292 0.10358 0.10394 0.10445 0.10481 0.10509 0.10615 0.10644 0.10672 0.10795 0.10823 0.10908 0.10936 0.10989 0.11074 0.11102 0.11204 0.11241 0.11302 0.11364 0.11393 0.11635 0.11672 0.1171 0.12169 0.122 0.12222 0.12253 0.12284 0.12314 0 0 0 0 0 0 0 0 0 0 0 0 0 1.6499 1.6538 1.6763 1.6679 1.6844 1.7011 1.7115 1.7352 1.746 1.7434 1.7409 1.745 1.7425 1.7532 1.764 1.7817 1.7791 1.79 1.8221 1.8553 1.867 0 0 1.0983 1.1008 1.1033 1.1135 1.116 1.1186 1.1264 1.1343 1.1395 1.134 1.1339 1.1311 1.1363 1.1469 1.1441 1.1412 1.1411 1.1436 1.1435 1.1486 1.1458 1.1483 1.1482 1.1506 1.1531 1.1557 1.1609 1.1661 1.1713 1.1793 1.1873 1.1899 1.1981 1.2092 1.2147 1.2409 1.5162 1.5239 1.5502 1.5395 1.5428 1.2096 1.2009 1.1978 1.1949 1.1974 1.2194 1.2163 1.2188 1.2242 1.221 1.2178 1.226 1.2314 1.2396 1.2421 1.2447 1.2443 1.2468 1.2435 1.246 1.2573 1.2569 1.2565 1.259 1.2674 1.267 1.2577 1.2545 1.254 1.2536 1.259 0 2.078 2.0821 2.0861 2.0824 2.0709 2.0672 2.0789 2.083 2.1105 2.1146 2.1429 2.1389 2.1511 2.1553 2.1677 2.1553 2.1676 2.2054 2.2096 2.1717 2.1676 2.1635 2.1758 2.1716 2.1922 2.1474 2.1595 2.1635 0 0 2.1837 2.1796
0 0 0 0 0 0 0 0 0 0 0 0 0 0 0 0 0 0 0 0.057196 0.057479 0.057763 0.057876 0.057645 0.057926 0.057903 0.058095 0.058286 0.058477 0.058622 0.058855 0.059132 0.059096 0.059371 0.059015 0.059287 0.059514 0.059695 0.059829 0.060054 0.060093 0.06027 0.06054 0.060762 0.060984 0.061254 0.061189 0.061457 0.061677 0.061751 0.061969 0.062236 0.062405 0.06272 0.062986 0.063302 0.063618 0.063835 0.063951 0.064167 0.064179 0.064393 0.064607 0.064615 0.064878 0.065141 0.065249 0.065511 0.06567 0.065774 0.066036 0.066456 0.066718 0 0 0 0 0 0 0 0 0 0 0 0 0 0 0 0 0 0 0 0 0 0 0 0 0 0 0 0 0 0 0 0 0 0 0 0 0 0 0 0 0 0 0 0 0 0 0 0 0 0 0 0 0 0 0 0 0 0 0 0 0 0 0 0 0 0 0 0 0 0.085 0.085329 0.085592 0.085922 0.086184 0.086584 0.086847 0.087179 0.087442 0.087774 0.088177 0.08851 0.088774 0.089249 0.089655 0.08999 0.090539 0.090877 0.091286 0.091552 0.09189 0.092373 0.092857 0.093125 0.093539 0.093807 0.094149 0.094417 0.094759 0.095323 0.095667 0.096011 0.096281 0.096551 0.097344 0.097691 0.098113 0.09846 0.098808 0.099232 0.099657 0.10001 0.10043 0.10101 0.10129 0.10218 0.10253 0.10312 0.10348 0.10399 0.10442 0.10478 0.10506 0.1062 0.10648 0.10677 0.10792 0.1082 0.10912 0.10941 0.10994 0.11078 0.11107 0.11209 0.11254 0.11315 0.11353 0.11398 0.11484 0.11514 0.11675 0.12174 0.12205 0.12227 0.12242 0.12289 0.1232 0 0 0 0 0 0 0 0 0 0 0 1.5898 1.5937 1.6206 1.6424 1.6708 1.6748 1.6851 1.6954 1.7058 1.7293 1.74 1.7441 1.7416 1.7392 1.7498 1.7473 1.7647 1.7757 1.773 1.7908 1.83 1.8342 1.8385 1.8427 0 1.0987 1.0987 1.0986 1.1192 1.1113 1.1164 1.1215 1.1294 1.1319 1.1318 1.1317 1.1316 1.1367 1.1446 1.1471 1.1417 1.1415 1.1387 1.1413 1.1384 1.1383 1.1461 1.1486 1.1484 1.1483 1.1588 1.1613 1.1638 1.1772 1.177 1.1934 1.196 1.1986 1.2184 1.2239 1.2414 1.5168 1.529 1.5414 1.5447 1.5433 1.2101 1.1958 1.1983 1.1898 1.195 1.2284 1.2224 1.2249 1.2274 1.2271 1.2239 1.2322 1.2375 1.2488 1.2484 1.2451 1.2447 1.2415 1.244 1.2436 1.2577 1.2631 1.254 1.2594 1.2707 1.2703 1.2524 1.2578 1.2545 1.2569 1.2594 2.0591 2.0787 2.075 2.079 2.0831 2.0716 2.0756 2.0719 2.0993 2.1034 2.1233 2.1355 2.1396 2.1437 2.156 2.1601 2.156 2.1438 2.1724 2.1766 2.1642 2.152 2.1561 2.1602 2.1642 2.1683 2.1642 2.1521 2.1482 2.1443 2.1483 2.1601 2.1722
0 0 0 0 0 0 0 0 0 0 0 0 0 0 0 0 0 0 0 0.057329 0.057613 0.057897 0.057926 0.057694 0.057974 0.057952 0.058187 0.058422 0.058613 0.05867 0.058903 0.059136 0.059144 0.059419 0.059062 0.059289 0.059516 0.059696 0.05983 0.060101 0.06014 0.060317 0.06054 0.060809 0.061031 0.0613 0.061283 0.061504 0.061723 0.061797 0.062016 0.062282 0.062451 0.062717 0.063032 0.063299 0.063615 0.063881 0.064047 0.064263 0.064225 0.064388 0.064653 0.06466 0.064872 0.065187 0.065346 0.065505 0.065715 0.06582 0.066134 0.066448 0.066764 0 0 0 0 0 0 0 0 0 0 0 0 0 0 0 0 0 0 0 0 0 0 0 0 0 0 0 0 0 0 0 0 0 0 0 0 0 0 0 0 0 0 0 0 0 0 0 0 0 0 0 0 0 0 0 0 0 0 0 0 0 0 0 0 0 0 0 0 0 0.085045 0.085375 0.085637 0.085899 0.08623 0.08663 0.086892 0.087224 0.087487 0.08782 0.088223 0.088556 0.08882 0.089295 0.08963 0.090036 0.090586 0.090852 0.091332 0.091598 0.092009 0.092492 0.092832 0.093244 0.093585 0.093854 0.094122 0.094464 0.094806 0.095296 0.09564 0.096058 0.096402 0.096672 0.097391 0.097738 0.098085 0.098507 0.098855 0.099204 0.099781 0.10005 0.10048 0.10121 0.10149 0.10223 0.10266 0.10301 0.10376 0.10404 0.10447 0.10483 0.10511 0.10641 0.10669 0.10761 0.10789 0.10825 0.10917 0.10946 0.11007 0.11091 0.1112 0.11222 0.11251 0.11312 0.11374 0.11403 0.11489 0.11519 0.1168 0.1218 0.1221 0.12216 0.12247 0 0 0 0 0 0 0 0 0 0 0 0 0 1.5905 1.5944 1.6213 1.6371 1.6653 1.6693 1.6858 1.6961 1.7129 1.73 1.7474 1.7449 1.7557 1.7531 1.7572 1.7681 1.7722 1.7832 1.7805 1.7915 1.8236 1.8278 1.8392 1.8507 0 0 0 0 0 1.1143 1.1169 1.122 1.1245 1.127 1.1296 1.1295 1.1373 1.1372 1.1478 1.1612 1.1638 0 1.1498 1.1497 1.1337 1.1362 1.1387 1.149 1.1488 1.1487 0 0 0 1.5232 1.5312 1.5345 1.5285 1.5134 1.5122 1.5245 1.5277 1.5309 1.5434 1.5559 1.5688 1.5816 1.5947 1.6031 1.6014 1.6047 1.623 1.6417 1.2402 1.2428 1.2424 1.2332 1.2329 1.2413 1.2438 1.2551 2.0525 2.0646 2.0529 2.0492 2.0377 2.0575 2.0775 2.0658 2.0159 2.0124 2.024 2.028 2.055 2.0746 2.0631 2.0595 2.0558 2.0598 2.0794 2.0679 2.0719 2.0838 2.08 2.0919 2.0881 2.1 2.1041 2.116 2.1362 2.1403 2.1444 2.1485 2.1608 2.1405 2.1445 2.1568 2.1608 2.1487 2.1528 2.1407 2.1528 2.1488 2.1528 2.1568 2.1528 2.1488 2.1528 2.149 2.153 2.1648
0 0 0 0 0 0 0 0 0 0 0 0 0 0 0 0 0 0 0 0.057673 0.057366 0.057649 0.057847 0.058129 0.058411 0.057957 0.058236 0.058471 0.058661 0.058586 0.058862 0.058738 0.059012 0.059287 0.059245 0.059245 0.059517 0.059743 0.059647 0.059963 0.060094 0.060364 0.060586 0.060809 0.061031 0.061252 0.061282 0.06155 0.06177 0.061844 0.06211 0.062328 0.062497 0.062763 0.063029 0.063295 0.063611 0.063827 0.064043 0.06436 0.064069 0.064129 0.064392 0.064604 0.064918 0.065181 0.06534 0.065603 0.06576 0.065918 0.066179 0.066441 0.066703 0.066964 0 0 0 0 0 0 0 0 0 0 0 0 0 0 0 0 0 0 0 0.071278 0.071537 0.071795 0 0 0 0 0 0 0 0 0 0 0 0 0 0 0 0 0 0 0 0 0 0 0 0 0 0 0 0 0 0 0 0 0 0 0 0 0 0 0 0.082793 0.083053 0.083514 0.083775 0 0.084163 0.084423 0.084752 0.085013 0.085682 0.085945 0.086275 0.086606 0.086938 0.08727 0.087533 0.087865 0.088268 0.088602 0.088866 0.089341 0.089676 0.089941 0.090419 0.090826 0.091307 0.091645 0.091983 0.092466 0.092806 0.093218 0.093559 0.093827 0.094169 0.094437 0.094779 0.095343 0.095686 0.096104 0.096449 0.096644 0.097364 0.097785 0.098207 0.09863 0.098903 0.099251 0.09998 0.10025 0.10129 0.10165 0.10192 0.10235 0.10263 0.10306 0.10373 0.10401 0.10452 0.1048 0.10508 0.10693 0.10721 0.10766 0.10794 0.1083 0.10938 0.10967 0.11044 0.11113 0.11141 0.11195 0.11223 0.11309 0.11387 0.11424 0.11683 0.11713 0.11767 0 0 0.12188 0.12177 0.12216 0 0 0 0 0 0 0 0 0 0 0 0 0 0 1.6339 1.6378 1.666 1.67 1.6802 1.6968 1.7072 1.7307 1.7414 1.7523 1.7497 1.7606 1.7647 1.7688 1.7798 1.7839 1.7881 1.7991 1.8315 1.8357 1.8399 1.8514 0 0 0 0 0 0 0 0 0 0 0 0 0 0 0 0 0 0 0 0 0 0 0 0 0 0 0 0 0 1.5714 1.5506 1.5539 1.5477 1.5369 1.5402 1.5482 1.5514 1.5547 1.558 1.5708 1.5789 1.592 1.6003 1.6135 1.6119 1.6103 1.6288 1.6423 1.6509 1.6491 1.6735 1.677 1.6966 1.7055 1.7313 1.9657 1.9697 2.0495 2.0537 2.0499 2.0462 2.0503 2.0783 2.0665 2.0318 2.0206 2.0247 2.0287 2.0635 2.0676 2.0638 2.0602 2.0565 2.0605 2.0801 2.0686 2.0726 2.069 2.073 2.077 2.081 2.0928 2.0969 2.1088 2.1208 2.1329 2.137 2.1411 2.1452 2.1412 2.1372 2.1413 2.1534 2.1494 2.1374 2.1414 2.1454 2.1415 2.1376 2.1495 2.1535 2.1575 2.1535 2.1496 2.1536 2.1655
0 0 0 0 0 0 0 0 0 0 0 0 0 0 0 0 0 0 0 0.057723 0.057416 0.057698 0.057896 0.058178 0.05846 0.057875 0.058197 0.058431 0.058709 0.058634 0.05891 0.058607 0.058925 0.059154 0.059021 0.059247 0.059519 0.059699 0.059694 0.059964 0.060187 0.060364 0.060586 0.060855 0.06103 0.061204 0.061329 0.061548 0.061816 0.061938 0.062157 0.062375 0.062494 0.06276 0.063026 0.063292 0.063508 0.063673 0.063788 0.064103 0.064064 0.064276 0.064438 0.0647 0.064912 0.065175 0.065334 0.065596 0.065858 0.065963 0.066225 0.066433 0.066695 0.066903 0.067057 0.067318 0.067579 0.06784 0.068101 0.068252 0.068348 0.068663 0.068923 0.069183 0 0.069424 0.069683 0.069942 0.070314 0.070573 0 0 0 0.071323 0.071582 0.07184 0 0 0 0 0 0 0 0 0 0 0 0 0 0 0 0.07579 0.076048 0.076367 0.076687 0.077132 0.077391 0.077712 0.077971 0.078167 0.078489 0.078748 0.079007 0.079457 0.079653 0.079977 0 0 0 0 0 0 0 0 0 0.082838 0.083165 0.083493 0.08382 0.084149 0.084208 0.084536 0.084797 0.085058 0.08566 0.08599 0.086252 0.086583 0.086984 0.087316 0.087648 0.087981 0.088314 0.088648 0.088912 0.089387 0.089651 0.090128 0.090465 0.090801 0.09121 0.091547 0.091885 0.092368 0.092707 0.093192 0.093533 0.093801 0.094142 0.094484 0.094752 0.095094 0.095511 0.09578 0.096421 0.096766 0.097261 0.097907 0.098254 0.098753 0.099026 0.099299 0.10003 0.1003 0.10119 0.10154 0.10205 0.1024 0.10268 0.10319 0.10354 0.10398 0.10449 0.10477 0.10505 0.1069 0.10726 0.1077 0.10799 0.10835 0.10943 0.10972 0.11049 0.11118 0.11146 0.11199 0.11228 0.11314 0.1136 0.11389 0.11655 0.11685 0.11772 0 0 0.12194 0.12133 0.12163 0.12235 0.12266 0 0 0 0 0 0 0 0 0 0 0 0 1.6345 1.6385 1.6667 1.6646 1.6809 1.6912 1.7079 1.7314 1.7355 1.7463 1.7504 1.7545 1.7654 1.7763 1.7805 1.7915 1.7957 1.8138 1.8467 1.8509 1.8552 1.8522 0 0 0 0 0 0 0 0 0 0 0 0 0 0 0 0 0 0 0 0 0 0 0 0 0 0 0 0 0 1.5769 1.5802 1.5836 1.5821 1.5756 1.5839 1.5922 1.5906 1.589 1.5875 1.5908 1.5942 1.6125 1.6159 1.6192 1.6226 1.631 1.6344 1.6429 1.6515 1.6601 1.6688 1.6937 1.7081 1.7007 1.7319 1.9664 2 2.0424 2.0544 2.0585 2.0548 2.0668 2.079 2.0831 2.0556 2.0442 2.0406 2.0446 2.0642 2.0683 2.0645 2.0686 2.0649 2.0612 2.073 2.0693 2.0733 2.0697 2.0737 2.07 2.074 2.078 2.0898 2.0938 2.1136 2.1176 2.1297 2.1337 2.1298 2.1259 2.1299 2.126 2.1143 2.1105 2.1223 2.1263 2.1381 2.1265 2.1226 2.1422 2.1384 2.1502 2.1464 2.1425 2.1543 2.1583
0 0 0 0 0 0 0 0 0 0 0 0 0 0 0 0 0 0 0 0.057814 0.0581 0 0 0 0 0.057967 0.058201 0.05848 0.058758 0.058947 0.059225 0.058654 0.058928 0.059202 0.059068 0.05934 0.05952 0.059746 0.059787 0.060011 0.060234 0.06041 0.06068 0.060902 0.061029 0.061203 0.061423 0.061595 0.061814 0.061985 0.062203 0.062372 0.06254 0.062806 0.063023 0.063288 0.063554 0.063719 0.063884 0.064149 0.064109 0.064322 0.064534 0.064746 0.064906 0.065169 0.065379 0.065642 0.065851 0.066061 0.06627 0.066479 0.066687 0.066948 0.067102 0.067363 0.067624 0.067885 0.068091 0.068297 0.068448 0.068708 0.068968 0.069228 0 0.069469 0.069728 0.070043 0.070302 0.070618 0 0 0 0.071368 0.071626 0.071885 0 0 0 0 0 0 0 0 0 0 0 0 0 0 0 0.075835 0.076092 0.076412 0.076794 0.077114 0.077435 0.077757 0.078016 0.078275 0.078534 0.078793 0.079116 0.079438 0.079762 0.080022 0 0 0 0 0 0 0 0 0 0.08295 0.08321 0.083538 0.083866 0.084127 0.084321 0.084581 0.084842 0.085171 0.085637 0.085967 0.086298 0.086629 0.08696 0.087361 0.087694 0.088026 0.08843 0.088693 0.089028 0.089433 0.089768 0.090174 0.090511 0.090847 0.091256 0.091593 0.091932 0.092414 0.092754 0.093166 0.093579 0.093847 0.094189 0.094457 0.094799 0.095141 0.095483 0.096049 0.096394 0.096738 0.097308 0.09803 0.098302 0.098876 0.0993 0.099802 0.10015 0.10058 0.10116 0.10159 0.1021 0.10245 0.1028 0.10316 0.10359 0.10395 0.10446 0.10482 0.10509 0.10695 0.10723 0.10768 0.10804 0.1084 0.10956 0.10993 0.11062 0.11139 0.11168 0.11245 0.11274 0.11327 0.11364 0.11394 0.1166 0.1169 0 0 0 0 0.12138 0.12177 0.12224 0.12271 0 0 0 0 0 0 0 0 0 0 0 0 0 1.6634 1.6674 1.6714 1.6816 1.6919 1.7022 1.7322 1.7363 1.7404 1.7511 1.7552 1.7594 1.7771 1.7812 1.7923 1.8034 1.8216 1.8621 1.8664 1.8633 1.8676 0 0 0 0 0 0 0 0 0 0 0 0 0 0 0 0 0 0 0 0 0 0 0 0 0 0 0 0 1.5643 1.5726 1.5808 1.5842 1.5876 1.5861 1.5895 1.5928 1.5912 1.5945 1.5929 1.5963 1.6046 1.6131 1.6214 1.6248 1.6282 1.6316 1.6401 1.6486 1.6521 1.6607 1.6747 1.6943 1.7143 1.7234 1.8155 2.0193 2.0158 2.0589 2.071 2.0672 2.0714 2.0755 2.0958 2.0839 2.0641 2.0526 2.0567 2.0453 2.0727 2.0612 2.073 2.0771 2.0656 2.0697 2.0815 2.07 2.074 2.0781 2.0744 2.0784 2.0824 2.0865 2.0827 2.1023 2.1143 2.1183 2.1304 2.1344 2.1305 2.1266 2.1227 2.111 2.0995 2.1035 2.1152 2.1269 2.1309 2.1349 2.1311 2.1429 2.1391 2.1431 2.1313 2.1353 2.1392 2.1511
0 0 0 0 0 0 0 0 0 0 0 0 0 0 0 0 0 0 0 0.057864 0.05815 0 0.057779 0.058061 0.058342 0 0.05825 0.058528 0.058806 0.058996 0.059273 0.058702 0.058976 0.059249 0.059115 0.059387 0.059568 0.059793 0.05988 0.060104 0.060281 0.060457 0.06068 0.060902 0.061028 0.061249 0.06147 0.061641 0.061861 0.06208 0.062249 0.062418 0.062586 0.062803 0.063019 0.063285 0.06355 0.063766 0.06388 0.064094 0.064003 0.064317 0.064529 0.064792 0.064952 0.065214 0.065477 0.065687 0.065949 0.066106 0.066368 0.066577 0.066786 0.066994 0.067201 0.067409 0.067669 0.06793 0.068137 0.068343 0.068493 0.068753 0.069013 0.069218 0.069478 0.069681 0.069885 0.070144 0.070404 0.07055 0.070809 0 0 0.071413 0.071671 0.071929 0.072304 0.072563 0.072822 0.073022 0.07334 0.073658 0.074155 0.074474 0.074674 0.074513 0.074772 0.07503 0.075349 0 0 0.075941 0.076199 0.076457 0.076839 0.077221 0.07748 0.077802 0.078061 0.07832 0.078579 0.078838 0.07916 0.079484 0.079807 0.080131 0.080326 0.080392 0.080651 0.080975 0.081169 0.081625 0 0 0.082536 0.082796 0.083256 0.083583 0.083911 0.084105 0.084366 0.084627 0.084888 0.085217 0.085682 0.086013 0.086275 0.086674 0.087006 0.087407 0.08767 0.088002 0.088475 0.088739 0.089073 0.089479 0.089743 0.090149 0.090557 0.090893 0.091302 0.09164 0.091978 0.092389 0.092728 0.093213 0.093553 0.093894 0.094162 0.094503 0.094845 0.095187 0.09553 0.096022 0.09644 0.09671 0.09728 0.098227 0.098424 0.098923 0.099348 0.099849 0.1002 0.10063 0.10121 0.10156 0.10214 0.10242 0.10277 0.10321 0.10364 0.104 0.10451 0.10486 0.10514 0.10692 0.1072 0.1078 0.10809 0.10845 0.10953 0.1099 0.11051 0.11176 0.11205 0.11274 0.11287 0.11341 0.11378 0.11423 0.1151 0.11547 0.11766 0 0 0 0.12143 0.12182 0.12229 0.12276 0 0 0 0 0 0 0 0 0 0 0 0 0 1.658 1.662 1.666 1.6761 1.6926 1.7029 1.7329 1.737 1.7411 1.7518 1.7559 1.7601 1.771 1.7751 1.793 1.8041 1.8223 1.8409 1.8452 1.8421 1.8683 0 0 0 0 0 0 0 0 0 0 0 0 0 0 0 0 0 0 0 0 0 0 0 0 0 1.5404 1.5437 1.5664 1.5649 1.5732 1.5864 1.5848 1.5882 1.5867 1.595 1.5983 1.5968 1.5951 1.5985 1.6018 1.6052 1.6186 1.622 1.6254 1.6339 1.6373 1.6407 1.6545 1.6579 1.6613 1.6753 1.7003 1.7205 1.724 1.8161 2.02 2.0319 2.0675 2.0717 2.0759 2.0721 2.0843 2.0884 2.0926 2.0728 2.0611 2.0574 2.0615 2.0656 2.0697 2.0659 2.0857 2.0741 2.0781 2.0822 2.0707 2.0747 2.0711 2.0751 2.0869 2.0909 2.0871 2.0912 2.0952 2.115 2.1111 2.1231 2.1272 2.1312 2.1037 2.1077 2.0962 2.0925 2.0888 2.1081 2.1276 2.1316 2.1356 2.1396 2.1436 2.1398 2.1438 2.1399 2.1359 2.1321 2.1439
0 0 0 0 0 0 0 0 0 0 0 0 0 0 0 0 0 0 0 0.057914 0.0582 0 0.057828 0.058066 0.058391 0 0.058298 0.05862 0.058854 0.059044 0.059322 0.058749 0.059068 0.059297 0.059162 0.059389 0.059615 0.05984 0.059927 0.060151 0.060281 0.060504 0.060726 0.060948 0.061075 0.061248 0.061468 0.06164 0.061907 0.062077 0.062247 0.062464 0.062583 0.0628 0.063016 0.063281 0.063496 0.063711 0.063875 0.06414 0.064049 0.064311 0.064523 0.064786 0.064997 0.06526 0.06547 0.065733 0.065942 0.066205 0.066414 0.066623 0.066831 0.067039 0.067247 0.067454 0.067715 0.067921 0.068127 0.068388 0.068538 0.068798 0.069058 0.069263 0.069467 0.069727 0.069986 0.070189 0.070449 0.070651 0.070854 0 0 0.0714 0.071716 0.072032 0.072408 0.072667 0.072926 0.073126 0.073385 0.073703 0.0742 0.07446 0.074719 0.074558 0.074816 0.075075 0.075333 0 0 0.075986 0.076244 0.076502 0.076883 0.077204 0.077525 0.077847 0.078106 0.078365 0.078624 0.078883 0.079205 0.079465 0.079788 0.080112 0.080371 0.080502 0.080696 0.08102 0.081279 0.08167 0 0 0.082581 0.082907 0.083234 0.083628 0.083889 0.08415 0.084411 0.084672 0.084933 0.085262 0.085659 0.085989 0.08632 0.08672 0.086982 0.087453 0.087785 0.088118 0.088521 0.088855 0.089119 0.089454 0.089718 0.090195 0.090532 0.090868 0.091348 0.091686 0.092024 0.092435 0.092774 0.093259 0.0936 0.093867 0.094208 0.09455 0.094818 0.09516 0.095503 0.09592 0.096487 0.096757 0.097327 0.098274 0.098472 0.098971 0.099471 0.099745 0.10032 0.10067 0.10125 0.10161 0.10211 0.10247 0.10275 0.10325 0.10361 0.10404 0.10456 0.10491 0.10519 0.10697 0.10725 0.10769 0.10806 0.1085 0.10958 0.10995 0.11056 0.11181 0.11226 0.11271 0.11308 0.11354 0.11391 0.11428 0.11515 0.11552 0.11771 0 0 0 0.12149 0.12179 0.12251 0.12282 0 0 0 0 0 0 0 0 0 0 0 0 0 1.6587 1.6627 1.6666 1.683 1.6933 1.7101 1.7271 1.7443 1.7418 1.7593 1.7634 1.7676 1.7854 1.7895 1.8006 1.8188 1.8302 1.8416 1.8459 1.8429 0 0 0 0 0 0 0 0 0 0 0 0 0 0 0 0 0 0 0 0 0 0 0 0 0 0 1.541 1.5491 1.5719 1.5752 1.5836 1.587 1.5954 1.5938 1.5972 1.5955 1.609 1.6073 1.6007 1.6041 1.6075 1.6109 1.6243 1.6277 1.6311 1.6345 1.6379 1.6413 1.6498 1.6585 1.6619 1.6759 1.7065 1.7324 1.7302 1.842 2.0441 2.0562 2.0844 2.0805 2.0928 2.0808 2.0931 2.1054 2.1096 2.0895 2.0856 2.0897 2.0859 2.09 2.0861 2.0823 2.0944 2.0905 2.0867 2.0987 2.0792 2.0833 2.0795 2.0758 2.0876 2.0916 2.0878 2.0841 2.0959 2.1078 2.1118 2.1238 2.1199 2.1239 2.1044 2.1007 2.0892 2.1009 2.1049 2.1166 2.1442 2.1482 2.1523 2.1563 2.1603 2.1483 2.1523 2.1484 2.1366 2.1406 2.1367
0 0 0 0 0 0 0 0 0 0 0 0 0 0 0 0 0 0 0 0 0 0 0.057791 0.058115 0.058353 0.058242 0.058434 0.058668 0.058903 0.058826 0.059102 0.058841 0.059116 0.05939 0.059255 0.05939 0.059616 0.059887 0.06002 0.06029 0.060281 0.060504 0.060773 0.060995 0.061122 0.061295 0.061515 0.061734 0.061953 0.062124 0.062293 0.062511 0.06263 0.062846 0.063111 0.063277 0.063542 0.063757 0.063921 0.064135 0.064094 0.064357 0.064569 0.064832 0.065043 0.065305 0.065516 0.065726 0.065988 0.066197 0.066459 0.066721 0.066823 0.067031 0.067238 0.067499 0.06776 0.068021 0.068173 0.068378 0.068584 0.068844 0.069104 0.069308 0.069568 0.069772 0.070031 0.070235 0.070494 0.070696 0.070956 0.071272 0.071532 0.071618 0.071819 0.072135 0.072453 0.072712 0.072971 0.07323 0.073429 0.073748 0.074185 0.074445 0.074705 0.074603 0.074861 0.07512 0.075378 0 0 0.075969 0.076227 0.076484 0.076866 0.077187 0.077508 0.077892 0.078151 0.07841 0.078669 0.078928 0.07925 0.07951 0.079833 0.080157 0.080416 0.080546 0.080806 0.081065 0.081324 0.081649 0.082106 0.082366 0.082692 0.082952 0.08328 0.083607 0.083935 0.084195 0.084456 0.084717 0.084978 0.085239 0.085705 0.086035 0.086365 0.086765 0.087097 0.087568 0.0879 0.088234 0.088637 0.088901 0.089165 0.0895 0.089764 0.09017 0.090506 0.090843 0.091394 0.09166 0.09207 0.092481 0.09282 0.093233 0.093573 0.093914 0.094255 0.094523 0.094865 0.095207 0.095549 0.095892 0.096683 0.096954 0.097599 0.098171 0.098443 0.098791 0.099594 0.099868 0.10052 0.1008 0.1013 0.10165 0.10208 0.10244 0.10279 0.10322 0.10366 0.10409 0.10468 0.10504 0.1054 0.10678 0.10706 0.10766 0.10803 0.10839 0.10939 0.10968 0.11045 0.11178 0.11231 0.11268 0.11313 0.11359 0.11396 0.11425 0.11495 0.11689 0.11719 0.12046 0.12076 0.12107 0.12137 0.12226 0.12273 0.12304 0.12334 0.12365 0 0 0 0 0 0 0 0 0 0 0 0 0 1.6551 1.6774 1.694 1.7172 1.7343 1.745 1.7491 1.76 1.7642 1.7683 1.793 1.8041 1.8154 1.8339 1.8381 1.8644 0 0 0 0 0 0 0 0 0 0 0 0 0 0 0 0 0 0 0 0 0 0 0 0 0 0 0 0 1.5511 1.5545 1.5676 1.5758 1.5792 1.5925 1.5959 1.5994 1.6028 1.6062 1.6096 1.613 1.6063 1.6097 1.6131 1.6164 1.6249 1.6283 1.6317 1.6351 1.6385 1.647 1.6557 1.6591 1.6678 1.6712 1.7127 1.733 1.7422 1.8555 2.0686 2.0648 2.0932 2.0975 2.0935 2.0977 2.0938 2.1144 2.1186 2.1064 2.1106 2.1148 2.1108 2.1069 2.1029 2.091 2.1112 2.0992 2.1033 2.0994 2.0956 2.084 2.0802 2.0765 2.0961 2.1002 2.0808 2.0771 2.0811 2.1006 2.1047 2.1166 2.1206 2.1167 2.105 2.0936 2.0976 2.0938 2.1133 2.1173 2.1449 2.157 2.153 2.165 2.161 2.165 2.153 2.157 2.1452 2.1413 2.1452
0 0 0 0 0 0 0 0 0 0 0 0 0 0 0 0 0 0 0 0 0 0 0.057797 0.058078 0.058358 0.058291 0.058438 0.058673 0.058907 0.058874 0.05915 0.058889 0.059208 0.059437 0.059302 0.059392 0.059709 0.05998 0.060113 0.060338 0.060328 0.060597 0.06082 0.061042 0.061168 0.061389 0.061609 0.061781 0.062 0.06217 0.062388 0.062557 0.062676 0.062892 0.063108 0.063224 0.063488 0.063703 0.063715 0.063978 0.06414 0.064403 0.064615 0.064877 0.065088 0.065351 0.065561 0.065771 0.066033 0.066243 0.066505 0.066713 0.066868 0.067076 0.067283 0.067544 0.067751 0.068012 0.068218 0.068478 0.068629 0.068833 0.069093 0.069297 0.069557 0.069817 0.07002 0.070223 0.070426 0.070457 0.070715 0.071088 0.071346 0.071547 0.071864 0.07218 0.072498 0.072815 0.073074 0.073275 0.073534 0.073792 0.074111 0.07449 0.07475 0.074648 0.074906 0.075165 0.075423 0 0 0.075952 0.076271 0.076529 0.076849 0.077107 0.077302 0.077937 0.078196 0.078455 0.078714 0.078973 0.079232 0.079491 0.07975 0.080073 0.080332 0.080527 0.080786 0.081045 0.081304 0.081628 0.082019 0.082411 0.082671 0.082998 0.083325 0.083585 0.083846 0.084241 0.084434 0.084695 0.085023 0.085284 0.085613 0.085943 0.086205 0.08688 0.087212 0.087613 0.088016 0.088349 0.088683 0.088947 0.089211 0.089546 0.08981 0.090216 0.090552 0.090888 0.091369 0.091706 0.092117 0.092455 0.092794 0.093206 0.093547 0.093887 0.094301 0.094569 0.094911 0.095253 0.09567 0.095939 0.09673 0.097001 0.097721 0.098143 0.09849 0.098838 0.099414 0.099687 0.10057 0.10092 0.10135 0.10178 0.10213 0.10249 0.10276 0.10304 0.10332 0.10359 0.10457 0.10493 0.10537 0.10644 0.10672 0.1074 0.10808 0.10844 0.10896 0.10924 0.11025 0.11183 0.11236 0.11273 0.11318 0.11364 0.11401 0.11438 0.11492 0.11694 0.11724 0.11844 0.11874 0.12112 0.12143 0.12231 0.1227 0.12318 0.12348 0.1237 0 0 0 0 0 0 0 0 0 0 0 0 0 1.6558 1.6844 1.6947 1.7179 1.7416 1.7525 1.7566 1.7675 1.7716 1.7758 1.8077 1.8119 1.8304 1.8418 1.8461 1.8651 0 0 0 0 0 0 0 0 0 0 0 0 0 0 0 0 0 0 0 0 0 0 0 0 0 0 0 0 1.5517 1.555 1.573 1.5764 1.5798 1.5931 1.5965 1.605 1.6034 1.6067 1.6153 1.6136 1.6119 1.6153 1.6187 1.617 1.6204 1.6188 1.6221 1.6255 1.6339 1.6373 1.6407 1.6441 1.6578 1.6718 1.7077 1.7336 1.7428 1.8561 2.0774 2.0816 2.1022 2.0982 2.1024 2.0985 2.1027 2.1151 2.1277 2.1236 2.1362 2.1405 2.1363 2.1239 2.1036 2.1078 2.1201 2.108 2.1121 2.1163 2.0884 2.0847 2.0887 2.0849 2.0968 2.093 2.0815 2.0778 2.0818 2.0935 2.1054 2.1094 2.1134 2.1174 2.0981 2.0943 2.0906 2.1023 2.114 2.1257 2.1456 2.1577 2.1617 2.1657 2.1617 2.1577 2.1617 2.1577 2.1459 2.142 2.1303
0 0 0 0 0 0 0 0 0 0 0 0 0 0 0 0 0 0 0 0 0 0 0.057846 0.058126 0.058407 0 0.058487 0.058765 0.058955 0.059188 0.059466 0.059116 0.059301 0.059575 0.059531 0.059576 0.059802 0.060027 0.060206 0.060431 0.060422 0.060644 0.060866 0.061088 0.061215 0.061435 0.061656 0.061827 0.062046 0.062216 0.062386 0.062603 0.062722 0.062938 0.063154 0.06327 0.063534 0.063748 0.063862 0.064024 0.064287 0.064448 0.064711 0.064974 0.065186 0.065396 0.065659 0.065869 0.066079 0.066341 0.06655 0.066759 0.066914 0.067122 0.067329 0.06759 0.06785 0.068057 0.068263 0.068524 0.068619 0.068878 0.069138 0.069343 0.069602 0.069862 0.070065 0.070268 0.070414 0.070559 0.07076 0.071075 0.071391 0.07165 0.071909 0.072225 0.072484 0.072802 0.073061 0.073319 0.073579 0.073838 0.074156 0.074535 0.074795 0.074753 0.075011 0.075209 0.075529 0 0 0.076058 0.076378 0.076636 0.076894 0.077089 0.077347 0.077981 0.078241 0.0785 0.078759 0.079018 0.079277 0.079536 0.079795 0.080118 0.080377 0.080572 0.080831 0.08109 0.081349 0.081673 0.081998 0.082456 0.082716 0.083043 0.08337 0.08363 0.083958 0.084286 0.084547 0.084808 0.085069 0.085261 0.085659 0.08592 0.08625 0.086994 0.087257 0.087728 0.088061 0.088395 0.088799 0.089063 0.089327 0.089662 0.089927 0.090262 0.090598 0.090935 0.091343 0.091753 0.092091 0.092501 0.092768 0.093253 0.093593 0.093934 0.094348 0.094616 0.094958 0.0953 0.096014 0.096432 0.096777 0.097047 0.097843 0.09819 0.098538 0.098961 0.099462 0.099735 0.10077 0.10105 0.1014 0.10175 0.10218 0.10254 0.10281 0.10309 0.10336 0.10364 0.10454 0.10514 0.10541 0.10648 0.10676 0.10744 0.1082 0.10849 0.10901 0.10929 0.1103 0.11196 0.11249 0.11286 0.11324 0.11369 0.11431 0.1146 0.11505 0.11699 0.11737 0.1185 0.11879 0.12117 0.12148 0.12253 0.12292 0.12331 0.1237 0.12401 0 0 0 0 0 0 0 0 0 0 0 0 0 1.6565 1.6977 1.7145 1.7316 1.7557 1.7667 1.7846 1.8028 1.807 1.8042 1.8517 1.8487 1.8456 1.8499 1.8616 1.9193 0 0 0 0 0 0 0 0 0 0 0 0 0 0 0 0 0 0 0 0 0 0 0 0 0 0 0 0 1.5523 1.5556 1.5736 1.577 1.5804 1.5937 1.5971 1.6107 1.6091 1.6125 1.621 1.6193 1.6176 1.6159 1.6244 1.6176 1.621 1.6143 1.6227 1.6261 1.6295 1.6379 1.6362 1.6396 1.6532 1.6671 1.7083 1.7229 1.7434 1.917 2.0781 2.0743 2.103 2.0989 2.1032 2.1074 2.1199 2.141 2.1538 2.1581 2.1886 2.1929 2.1884 2.1412 2.1206 2.1248 2.129 2.1332 2.1292 2.1333 2.113 2.1011 2.1052 2.1013 2.0975 2.1016 2.1056 2.1018 2.098 2.102 2.1139 2.1101 2.1141 2.1181 2.1142 2.1104 2.1067 2.1029 2.1147 2.1187 2.1463 2.1584 2.1544 2.1664 2.1624 2.1504 2.1465 2.1584 2.1545 2.1585 2.1388
0 0 0 0 0 0 0 0 0 0 0 0 0 0 0 0 0 0 0 0 0 0 0 0 0 0 0 0 0.058915 0.059237 0.059514 0.059074 0.059303 0.059578 0.059715 0.059852 0.060125 0.060075 0.060254 0.060525 0.060422 0.060691 0.060913 0.061135 0.061261 0.061434 0.061702 0.061873 0.062093 0.062311 0.062481 0.062698 0.062817 0.063034 0.06325 0.063315 0.06353 0.063794 0.063907 0.06412 0.064333 0.064494 0.064757 0.06502 0.065231 0.065442 0.065704 0.065915 0.066177 0.066387 0.066596 0.066858 0.066959 0.067167 0.067428 0.067635 0.067896 0.068102 0.068308 0.068514 0.068664 0.068924 0.069183 0.069388 0.069647 0.069907 0.07011 0.070313 0.070515 0.070603 0.070862 0.07112 0.071436 0.071695 0.071953 0.07227 0.072529 0.072729 0.073105 0.073305 0.073564 0.073823 0.074141 0.07446 0.074419 0.074376 0.074693 0.074951 0.075208 0.075465 0 0.076288 0.076546 0.076804 0.077125 0.077508 0.077768 0.078026 0.078349 0.078545 0.078803 0.079062 0.079322 0.07958 0.079839 0.080163 0.080422 0.080616 0.080876 0.081134 0.081393 0.081718 0.082043 0.082501 0.082761 0.083088 0.083415 0.083742 0.08407 0.084399 0.08466 0.084853 0.085046 0.085306 0.085636 0.085965 0.086157 0.08704 0.087303 0.087705 0.088037 0.088441 0.088845 0.089109 0.089373 0.089708 0.089972 0.090308 0.090644 0.090909 0.091389 0.091727 0.092064 0.092475 0.092814 0.093226 0.093639 0.09398 0.094394 0.094662 0.095004 0.095347 0.096061 0.096405 0.096824 0.097019 0.09789 0.098313 0.09866 0.09916 0.099661 0.099935 0.10059 0.10094 0.10145 0.1018 0.10223 0.10258 0.10278 0.10314 0.10341 0.10369 0.10396 0.10471 0.10499 0.1063 0.10665 0.10709 0.10754 0.10782 0.10874 0.10902 0 0.11233 0.11262 0.11291 0.11328 0.1139 0.11591 0.11621 0.1165 0.1168 0.11784 0.11863 0.11893 0.12131 0.12161 0.12267 0.12306 0.12345 0.12376 0.12406 0 0 0 0 0 0 0 0 0 0 0 0 0 1.688 1.7112 1.7282 1.7389 1.7633 1.7812 1.7923 1.8177 1.8149 1.8191 1.8674 1.8568 1.8611 1.858 1.8623 0 0 0 0 0 0 0 0 0 0 0 0 0 0 0 0 0 0 0 0 0 0 0 0 0 0 0 0 0 1.5338 1.5515 1.5694 1.5776 1.5761 1.5943 1.5977 1.6113 1.6147 1.6182 1.6216 1.625 1.6181 1.6216 1.625 1.6182 1.6216 1.62 1.6233 1.6267 1.6301 1.6334 1.6368 1.6453 1.6538 1.6624 1.698 1.7124 1.694 1.7362 2.0549 2.067 2.0873 2.0997 2.1122 2.1248 2.1374 2.1588 2.1718 2.2117 2.3913 2.4067 2.4008 2.1847 2.1378 2.1338 2.138 2.1422 2.1381 2.1423 2.1137 2.1098 2.1139 2.11 2.1141 2.1102 2.1063 2.1025 2.0987 2.1106 2.1146 2.1029 2.1069 2.1109 2.0994 2.1034 2.0997 2.0806 2.0922 2.1038 2.1311 2.1351 2.147 2.1431 2.1471 2.1354 2.1315 2.1433 2.1473 2.1592 2.1473
0 0 0 0 0 0 0 0 0 0 0 0 0 0 0 0 0 0 0 0 0 0 0 0 0 0 0.058671 0.058994 0.058963 0.059285 0.059563 0.058987 0.059306 0.059534 0.059763 0.059899 0.060126 0.060122 0.060347 0.060572 0.060468 0.060691 0.06096 0.061134 0.06126 0.061481 0.061748 0.06192 0.062139 0.062309 0.062527 0.062745 0.062863 0.06308 0.063296 0.063411 0.063626 0.06384 0.063953 0.064217 0.06443 0.064591 0.064803 0.065066 0.065277 0.065488 0.06575 0.06596 0.066223 0.066432 0.066641 0.06685 0.066951 0.067158 0.067419 0.067626 0.067887 0.068093 0.068299 0.068559 0.068709 0.068969 0.069229 0.069433 0.069692 0.069952 0.070155 0.070358 0.07056 0.070648 0.070907 0.071165 0.071481 0.07174 0.072056 0.072315 0.072515 0.072715 0.073033 0.073291 0.07355 0.073749 0.074067 0.074266 0.074524 0.07442 0.074738 0.074995 0.075252 0.07551 0.076197 0.076333 0.076653 0.076911 0.077232 0.077553 0.077812 0.078134 0.078394 0.07859 0.078849 0.079107 0.079367 0.079626 0.079884 0.080208 0.080532 0.080661 0.080921 0.08118 0.081438 0.081829 0.082155 0.082546 0.082807 0.083133 0.08346 0.083788 0.084116 0.084511 0.084773 0.084966 0.085159 0.085352 0.085681 0.085942 0.086203 0.086878 0.08721 0.087472 0.088083 0.088486 0.08889 0.089155 0.089489 0.089754 0.090018 0.090425 0.09069 0.090955 0.091435 0.091773 0.092038 0.092449 0.092788 0.093273 0.093686 0.094026 0.094441 0.094783 0.095051 0.095393 0.096107 0.096452 0.096796 0.097066 0.097938 0.098435 0.098859 0.099208 0.099557 0.10013 0.10056 0.10091 0.10134 0.10169 0.1022 0.10255 0.10291 0.10318 0.10346 0.10374 0.10401 0.10476 0.10504 0.10634 0.1067 0.10722 0.1075 0.10787 0.10879 0.10907 0 0.11238 0.11267 0.11296 0.11334 0.11395 0.11498 0.11527 0.11548 0.11578 0.11789 0.11868 0.11898 0.12136 0.12167 0.12289 0.1232 0.1235 0.12389 0.12412 0 0 0 0 0 0 0 0 0 0 0 0 0 1.6887 1.7184 1.7289 1.753 1.7846 1.7888 1.8 1.833 1.8227 1.8127 1.8681 1.865 1.8768 1.8736 1.863 0 0 0 0 0 0 0 0 0 0 0 0 0 0 0 0 0 0 0 0 0 0 0 0 0 0 0 0 0 1.5344 1.5425 1.5699 1.5733 1.5767 1.5949 1.6034 1.6119 1.6154 1.6188 1.6273 1.6256 1.6239 1.6221 1.6256 1.6188 1.6222 1.6255 1.6188 1.6273 1.6255 1.6289 1.6374 1.6356 1.6492 1.6526 1.6717 1.6804 1.7001 1.7368 1.9793 2.0132 2.0481 2.0761 2.1212 2.1339 2.1553 2.177 2.208 2.2124 2.4028 2.429 2.4017 2.1855 2.1554 2.1767 2.181 2.194 2.1809 2.1766 2.1389 2.1267 2.1226 2.1187 2.1148 2.1189 2.115 2.1111 2.1072 2.1113 2.1075 2.1036 2.0998 2.0962 2.1001 2.0887 2.085 2.0664 2.0703 2.0816 2.1162 2.1202 2.1242 2.1281 2.1243 2.1051 2.0864 2.1519 2.148 1.0951 1.0971
