-1.1306 -1.1243 -1.118 -1.3574 -1.0518 -1.0058 -1.0044 -1.0767 -1.0804 -1.0893 -1.088 -1.0715 -0.88658 -0.8813 -0.9228 -0.97321 -0.97155 -0.96563 -0.95138 -0.95795 -0.96048 -0.96299 -0.95694 -0.95949 -0.95339 -0.97816 -1.0397 -1.0381 -1.0314 -0.98987 -0.98332 -0.98152 -0.97969 -0.97307 -0.93893 -0.81959 -0.81055 -0.80829 -0.80264 -0.86566 -0.81868 -0.80242 -0.78332 -0.7809 -0.79186 -0.78604 -0.78701 -0.78114 -0.7279 -0.71945 -0.74102 -0.72616 -0.71756 -0.73006 -0.72432 -0.71857 -0.71587 -0.7101 -0.72284 -0.72646 -0.74014 -0.74414 -0.73789 -0.75251 -0.75687 -0.74674 -0.73323 -0.72335 -0.71025 -0.70722 -0.69108 -0.67851 -0.67539 -0.64818 -0.64213 -0.60884 -0.60563 -0.65014 -0.64687 -0.64354 -0.64629 -0.63378 -0.63038 -0.62395 -0.61752 -0.60819 -0.59617 -0.58983 -0.59181 -0.5826 -0.5735 -0.56713 -0.56076 -0.55181 -0.54547 -0.54166 -0.53529 -0.52893 -0.5129 -0.50432 -0.4981 -0.49188 -0.48344 -0.47724 -0.46678 -0.46065 -0.45043 -0.44837 -0.44425 -0.44211 -0.43589 -0.43165 -0.4254 -0.42109 -0.41101 -0.39392 -0.38273 -0.3639 -0.35967 -0.35387 -0.34808 -0.34228 -0.33793 -0.33355 -0.32771 -0.32466 -0.32587 -0.33949 -0.33469 -0.32826 -0.32183 -0.31097 -0.30041 -0.2928 -0.28527 -0.27781 -0.27289 -0.26548 -0.25932 -0.25315 -0.24699 -0.24082 -0.23573 -0.23381 -0.22751 -0.2212 -0.2139 -0.20858 -0.20418 -0.1997 -0.19327 -0.18595 -0.17788 -0.16994 -0.16367 -0.15812 -0.15253 -0.1455 -0.13855 -0.13166 -0.12541 -0.11861 -0.11291 -0.10716 -0.10088 -0.094162 -0.087912 -0.081288 -0.073051 -0.065818 -0.059871 -0.054162 -0.046346 -0.040259 -0.034274 -0.028387 -0.022784 -0.017253 -0.011578 -0.0063993 -0.00040054 0.005703 0.011919 0.01825 0.025165 0.032172 0.03888 0.044997 0.050998 0.057153 0.064157 0.068969 0.074928 0.080832 0.085893 0.091227 0.096899 0.10298 0.11366 0.12113 0.10394 0.10958 0.1322 0.13884 0 0 0 0 0 0 0 0 0 0 0 0 0 0 0 0 0 0 0 0 0 0 0 0 0 0 0 0 0 0 0 0 0 0 0.41807 0.42304 0.43954 0.44688 0.45919 0.46406 0 0.4174 0.42181 0.4323 0.47504 0.47467 0.48156 0.43727 0.44343 0.47331 0.48446 0.49339 0.49278 0.49688 0.50576 0.51473 0.51874 0.52272 0.52668 0.52808 0.53445 0.54082 0.54976 0.55616 0.56256 0.57167 0.57265 0.57361 0.58265 0.58899 0.60668 0.61906 0.59957 0.60581 0.59558 0.60437 0.61885 0.62792 0.63706 0.64036 0.64956 0.64393 0.64423 0.65919 0.68406 0.70023 0.69673 0.70307 0.7161 0.71575 0.72208 0.74231 0.77467 0.83495 0.73032 0.73651 0.7427 0.7489 0.82288 0.81741 0.82001 0.83895 0.83735 0.81981 0.82237 0.84485 0.88124 0.88362 0.88596 0.90159 0.91295 0.92914 0.93602 0.9334 0.92168 0.91926 0.92588 0.95585 0.97241 0.9743 0.98112 0.998 0.91205 0.92256 0.8393 0.84497 0.8542 0.8822 0.88805 0.96023 0.86968 0.87901 0.95689 0.97183 0.99625 0.9933 0.91502 0.92074 0.93039 0.94822 0.95818 0.95168 1.0769 0.98422 0.99445 1.0911 1.0975 1.104 1.1376 1.1499 1.1738 1.1806 1.1932 1.2122 1.2068 1.1956
-1.1303 -1.4998 -1.4915 -1.4923 -1.2308 -1.0838 -1.0776 -1.0714 -1.0701 -1.0688 -1.0775 -1.1183 -1.0218 -0.99335 -0.98311 -0.9902 -0.97983 -0.96956 -0.95524 -0.94934 -0.9602 -0.95843 -0.96098 -0.9549 -0.95741 -0.95998 -1.0446 -1.0378 -1.031 -0.99922 -0.9926 -0.98599 -0.9842 -0.97755 -0.96145 -0.92776 -0.92576 -0.89798 -0.88759 -0.88134 -0.82553 -0.81256 -0.80322 -0.7974 -0.79158 -0.78918 -0.78673 -0.80895 -0.78867 -0.77924 -0.7907 -0.78109 -0.80009 -0.74242 -0.72714 -0.7183 -0.7156 -0.71288 -0.73543 -0.73597 -0.74665 -0.74729 -0.74101 -0.75221 -0.75656 -0.74644 -0.7364 -0.72304 -0.71328 -0.70691 -0.69078 -0.68135 -0.68138 -0.6175 -0.61436 -0.65939 -0.65615 -0.65291 -0.64961 -0.64324 -0.64909 -0.63953 -0.63007 -0.62661 -0.61722 -0.61079 -0.60149 -0.59509 -0.59432 -0.58508 -0.5759 -0.5695 -0.5631 -0.55671 -0.54773 -0.54391 -0.54008 -0.53365 -0.51498 -0.50635 -0.5001 -0.49158 -0.48314 -0.47695 -0.46862 -0.46245 -0.45217 -0.45012 -0.44804 -0.44385 -0.4376 -0.43135 -0.42708 -0.42276 -0.41071 -0.39541 -0.38415 -0.36518 -0.35785 -0.35208 -0.3478 -0.34496 -0.34059 -0.33472 -0.32743 -0.32438 -0.3227 -0.34408 -0.33759 -0.32795 -0.32153 -0.30921 -0.30011 -0.29251 -0.28498 -0.28007 -0.27385 -0.2664 -0.25902 -0.25286 -0.24669 -0.24053 -0.23544 -0.23243 -0.22615 -0.2209 -0.2136 -0.20828 -0.20484 -0.19939 -0.19388 -0.18742 -0.17841 -0.17044 -0.16413 -0.15931 -0.15366 -0.14657 -0.13955 -0.13321 -0.12687 -0.11942 -0.11366 -0.10837 -0.102 -0.095634 -0.089266 -0.082898 -0.076173 -0.065251 -0.059852 -0.054118 -0.045686 -0.039822 -0.034148 -0.028356 -0.022801 -0.017128 -0.0116 -0.0062814 -0.00011575 0.0060476 0.012324 0.018631 0.025591 0.032639 0.039574 0.045305 0.051303 0.057457 0.064159 0.069595 0.075933 0.081884 0.086185 0.091517 0.097188 0.1028 0.1129 0 0 0.15141 0.15862 0.16584 0 0 0 0 0 0 0 0 0 0 0 0 0 0 0 0 0 0 0 0 0 0 0 0 0 0 0 0 0 0 0 0 0 0 0.41841 0.42563 0.39882 0.40547 0.44728 0.41672 0.42542 0.408 0.41817 0.42252 0.45202 0.43312 0.43939 0.42781 0.43384 0.48288 0.49191 0.49611 0.49547 0.49958 0.50851 0.52004 0.52408 0.52554 0.52948 0.52838 0.53475 0.54112 0.54749 0.55646 0.56555 0.57198 0.57296 0.57662 0.58569 0.59206 0.61285 0.62845 0.64453 0.66443 0.59587 0.60195 0.61915 0.62821 0.64032 0.6466 0.64986 0.63844 0.63033 0.6506 0.68436 0.70387 0.69703 0.70337 0.71304 0.71605 0.72239 0.73911 0.74908 0.83529 0.73061 0.73681 0.743 0.74919 0.8232 0.81772 0.81634 0.83927 0.83356 0.82407 0.82267 0.84927 0.88157 0.87956 0.88628 0.89744 0.91328 0.91548 0.91314 0.92904 0.92657 0.91957 0.93076 0.95617 0.97767 0.98455 0.99144 1.0034 1.0104 1.0225 0.8919 0.89793 0.97333 0.98455 1.0257 0.96053 0.93221 0.93826 0.95718 0.97213 1.0107 1.0029 0.91145 0.92101 0.93066 0.95674 0.97105 0.96849 0.9786 0.93172 0.8692 0.87438 1.0022 1.0081 1.1492 1.1616 1.18 1.1988 1.2118 1.2312 1.2256 1.2079
-1.13 -1.4994 -1.4911 -1.4919 -1.2305 -1.0835 -1.0773 -1.0712 -1.0698 -1.0735 -1.0772 -1.118 -1.0215 -1.0064 -0.9915 -0.98552 -0.97955 -0.96928 -0.95082 -0.94495 -0.95144 -0.95391 -0.95637 -0.95461 -0.94853 -0.95968 -1.0339 -1.0375 -1.0307 -1.0038 -0.99718 -0.99054 -0.98389 -0.97724 -0.97059 -0.94536 -0.92986 -0.91466 -0.89141 -0.88925 -0.82525 -0.81936 -0.81346 -0.80059 -0.79131 -0.7889 -0.78306 -0.78398 -0.77809 -0.7859 -0.79041 -0.78433 -0.7679 -0.74536 -0.7117 -0.69731 -0.7184 -0.72188 -0.74176 -0.74234 -0.7498 -0.75047 -0.74416 -0.7519 -0.75625 -0.74613 -0.7361 -0.72619 -0.71298 -0.71333 -0.69697 -0.68421 -0.6843 -0.61723 -0.61409 -0.65909 -0.65895 -0.65261 -0.64931 -0.64294 -0.65191 -0.63922 -0.63276 -0.6263 -0.61984 -0.61048 -0.60406 -0.59763 -0.59401 -0.58477 -0.5729 -0.57191 -0.56549 -0.5564 -0.54743 -0.54361 -0.54234 -0.53335 -0.51708 -0.5084 -0.50212 -0.48904 -0.47847 -0.47449 -0.47046 -0.46216 -0.45393 -0.44983 -0.44774 -0.44356 -0.44138 -0.43306 -0.42678 -0.42246 -0.41041 -0.39512 -0.38386 -0.36647 -0.35912 -0.35483 -0.34901 -0.34469 -0.34031 -0.33444 -0.32715 -0.32131 -0.31821 -0.34377 -0.33566 -0.32609 -0.31969 -0.30748 -0.29844 -0.29221 -0.28599 -0.27977 -0.27355 -0.26611 -0.25991 -0.25257 -0.24529 -0.23915 -0.23514 -0.23214 -0.22691 -0.21958 -0.2133 -0.20798 -0.20552 -0.201 -0.19451 -0.18712 -0.17895 -0.16935 -0.16307 -0.15901 -0.15336 -0.14627 -0.1399 -0.13354 -0.12717 -0.1208 -0.11497 -0.10961 -0.10315 -0.096695 -0.09067 -0.083778 -0.076588 -0.065253 -0.059834 -0.054072 -0.044849 -0.039718 -0.034021 -0.028206 -0.022532 -0.017 -0.011327 -0.0059886 0.00017357 0.0063115 0.012505 0.018755 0.025178 0.033936 0.039123 0.044754 0.050644 0.056952 0.064158 0.069568 0.076234 0.082572 0.086874 0.092223 0.097477 0.10309 0.1132 0 0 0.15175 0.15982 0.16618 0.20384 0.21233 0.23716 0.24794 0 0 0 0 0 0 0 0 0 0 0 0 0 0 0 0 0 0 0 0 0 0 0 0 0 0 0 0 0 0.39878 0.40788 0.41491 0.39914 0.40579 0.44762 0.38678 0.3947 0.3834 0.39974 0.41319 0.41185 0.41979 0.43169 0.4339 0.43413 0.47852 0.49223 0.50134 0.49818 0.5023 0.51377 0.52547 0.52694 0.52839 0.52979 0.52869 0.53255 0.53889 0.54523 0.55677 0.56317 0.56956 0.57326 0.57963 0.58876 0.59799 0.61912 0.63814 0.65129 0.66476 0.59615 0.60224 0.61944 0.63433 0.6436 0.6499 0.65621 0.61389 0.61973 0.67201 0.69112 0.70417 0.70061 0.70698 0.71671 0.71971 0.72608 0.73941 0.75299 0.83563 0.73091 0.7371 0.74329 0.74949 0.82763 0.81804 0.82064 0.83959 0.83798 0.82437 0.82298 0.84958 0.88189 0.87123 0.87788 0.89776 0.9136 0.90674 0.90895 0.92936 0.95045 0.8493 0.85541 0.96132 0.983 0.98992 0.99684 1.0089 1.0211 1.0176 0.89219 0.89822 0.97364 0.98486 1.026 0.93483 0.87388 0.88323 0.95747 0.96799 1.0207 1.0126 0.91172 0.91742 0.93094 0.96119 0.97989 0.97725 0.97463 0.93198 0.86945 0.87462 0.97277 0.98265 1.1438 1.1619 1.1863 1.1991 1.2121 1.2315 1.2322 1.2266
-1.135 -1.499 -1.4907 -1.4915 -1.2302 -1.0832 -1.0771 -1.0709 -1.0647 -1.1365 -1.1299 -1.1177 -1.0495 -1.0243 -1.0136 -0.99402 -0.98363 -0.969 -0.95054 -0.94878 -0.95115 -0.95363 -0.95608 -0.95002 -0.95252 -0.98187 -0.99892 -1.0372 -1.0304 -1.0035 -0.99198 -0.99022 -0.98357 -0.97692 -0.97027 -0.96362 -0.95228 -0.94107 -0.92549 -0.91897 -0.89944 -0.8846 -0.86599 -0.84792 -0.9604 -0.94837 -0.78617 -0.77694 -0.77443 -0.76525 -0.79728 -0.78051 -0.76421 -0.75161 -0.70263 -0.69705 -0.75364 -0.74088 -0.74482 -0.74543 -0.75648 -0.75725 -0.75088 -0.75517 -0.75231 -0.74582 -0.73579 -0.72933 -0.72635 -0.73037 -0.71681 -0.7035 -0.70039 -0.69058 -0.68412 -0.67766 -0.66486 -0.65537 -0.65206 -0.64875 -0.65476 -0.64821 -0.6355 -0.63204 -0.62252 -0.61308 -0.60375 -0.60016 -0.59656 -0.58447 -0.57259 -0.57709 -0.56787 -0.55875 -0.54712 -0.5433 -0.53947 -0.53304 -0.51438 -0.50576 -0.50416 -0.48875 -0.47818 -0.47204 -0.47233 -0.46611 -0.4557 -0.45159 -0.44951 -0.44326 -0.44108 -0.43682 -0.43049 -0.42415 -0.41012 -0.39661 -0.38528 -0.37099 -0.3651 -0.3592 -0.35025 -0.34441 -0.34151 -0.33416 -0.32687 -0.32242 -0.31793 -0.3519 -0.33377 -0.32579 -0.31939 -0.30577 -0.29814 -0.29192 -0.28439 -0.2782 -0.27452 -0.26703 -0.25962 -0.25227 -0.24724 -0.24104 -0.23593 -0.23184 -0.22768 -0.22134 -0.215 -0.21063 -0.20718 -0.20263 -0.19513 -0.18681 -0.17864 -0.16905 -0.16277 -0.1587 -0.15234 -0.14597 -0.13895 -0.13386 -0.12746 -0.12165 -0.1186 -0.11309 -0.1064 -0.099232 -0.092583 -0.083872 -0.075926 -0.066433 -0.060624 -0.055011 -0.047759 -0.041002 -0.034328 -0.028053 -0.022356 -0.0168 -0.011596 -0.0056958 0.00046444 0.0065733 0.012797 0.018962 0.025954 0.033261 0.039622 0.045057 0.050708 0.057252 0.064159 0.069868 0.076176 0.082873 0.087568 0.092935 0.098206 0.10385 0.11402 0 0 0.15541 0.16278 0.17016 0.20425 0.21273 0.23759 0.24838 0 0 0 0 0 0 0 0 0 0 0 0 0 0 0 0 0 0 0 0 0 0 0 0 0 0 0 0 0 0.39911 0.40611 0.41742 0.43353 0.45532 0.46024 0.38707 0.3862 0.38368 0.39473 0.41161 0.414 0.42008 0.43198 0.43616 0.4403 0.47884 0.49254 0.50415 0.50092 0.5075 0.52171 0.53631 0.53244 0.53126 0.53265 0.52652 0.53035 0.53919 0.54553 0.55446 0.56083 0.56987 0.57356 0.58266 0.60922 0.62502 0.64453 0.65138 0.66157 0.66509 0.60184 0.60798 0.61412 0.64664 0.65304 0.66258 0.66901 0.61416 0.6227 0.68502 0.70476 0.72526 0.71436 0.72085 0.72734 0.73737 0.74389 0.75771 0.80338 0.83157 0.80896 0.81995 0.82683 0.83372 0.84491 0.84322 0.84576 0.8483 0.84244 0.83268 0.82719 0.84989 0.88221 0.87586 0.87819 0.90256 0.92323 0.92543 0.9229 0.94389 0.97053 0.84959 0.8557 0.97144 0.99349 1.0109 1.018 1.0251 1.0375 1.0447 0.96096 0.96745 1.044 1.0619 1.0859 0.93512 0.87415 0.8835 0.95776 0.9639 1.0308 1.0082 0.91583 0.91386 0.92728 0.96147 0.98017 0.99494 0.99654 0.93613 0.86969 0.87487 0.97305 0.98292 1.1498 1.168 1.1926 1.2056 1.2187 1.2256 1.2325 1.2331
-1.22 -1.387 -1.3872 -1.3259 -1.2427 -1.2356 -1.1913 -1.1904 -1.1835 -1.1306 -1.1295 -1.1511 -1.0396 -1.0287 -1.0088 -0.99817 -0.98335 -0.96871 -0.95026 -0.94439 -0.95087 -0.95334 -0.95579 -0.94974 -0.94795 -0.98618 -0.99861 -1.0317 -1.025 -0.99828 -0.99166 -0.9899 -0.97843 -0.9766 -0.9652 -0.95858 -0.95666 -0.94076 -0.92966 -0.92759 -0.90775 -0.89271 -0.88207 -0.88403 -0.95507 -0.94315 -0.87301 -0.86233 -0.86413 -0.85758 -0.82313 -0.79085 -0.77767 -0.76133 -0.74215 -0.73625 -0.73036 -0.73405 -0.74452 -0.74514 -0.75618 -0.75341 -0.75058 -0.74772 -0.7484 -0.74194 -0.73548 -0.73253 -0.72604 -0.73006 -0.7165 -0.70657 -0.70346 -0.69027 -0.6871 -0.68061 -0.66773 -0.65816 -0.65487 -0.65152 -0.66084 -0.65104 -0.63825 -0.63479 -0.61923 -0.61277 -0.60345 -0.59985 -0.59625 -0.58416 -0.57229 -0.57678 -0.57029 -0.55845 -0.5494 -0.54045 -0.53916 -0.53021 -0.51648 -0.5078 -0.50386 -0.48845 -0.47574 -0.4739 -0.46988 -0.46796 -0.45334 -0.4513 -0.44921 -0.44502 -0.44078 -0.43652 -0.43221 -0.42584 -0.41171 -0.39812 -0.38671 -0.37729 -0.36964 -0.36049 -0.35302 -0.34713 -0.34273 -0.33534 -0.3266 -0.32354 -0.32329 -0.32744 -0.33032 -0.32396 -0.31611 -0.30406 -0.29648 -0.29029 -0.2841 -0.2779 -0.27296 -0.26674 -0.25933 -0.25313 -0.24694 -0.24185 -0.23563 -0.23262 -0.22738 -0.22312 -0.21673 -0.21234 -0.20989 -0.2043 -0.19482 -0.1874 -0.17834 -0.17034 -0.16323 -0.1584 -0.15203 -0.14499 -0.1393 -0.13293 -0.12656 -0.12076 -0.11771 -0.11221 -0.10609 -0.098916 -0.092267 -0.083564 -0.07598 -0.066145 -0.060607 -0.054969 -0.047473 -0.04072 -0.034348 -0.027782 -0.022178 -0.016597 -0.01131 -0.005403 0.00075781 0.0068943 0.01309 0.019432 0.026257 0.033572 0.040125 0.046008 0.051727 0.057823 0.064462 0.069842 0.076475 0.083174 0.087462 0.092806 0.098496 0.098383 0.10457 0 0 0 0 0 0 0 0 0 0 0 0 0 0 0 0 0 0 0 0 0 0 0 0 0 0 0 0 0 0 0 0 0 0 0 0.37269 0.38152 0.38844 0.39536 0.40434 0.42217 0.43158 0.44109 0.44831 0.37543 0.38477 0.38732 0.39678 0.40821 0.41616 0.42037 0.43227 0.43448 0.44059 0.48148 0.49286 0.50698 0.50616 0.51029 0.52462 0.53397 0.53275 0.53157 0.53295 0.52929 0.53316 0.53949 0.54583 0.55217 0.56113 0.57017 0.57657 0.58297 0.61863 0.63477 0.65144 0.65836 0.66528 0.68625 0.60488 0.61104 0.62865 0.67571 0.66595 0.66924 0.67899 0.68883 0.68541 0.6952 0.71193 0.72917 0.7251 0.72815 0.7347 0.74125 0.7442 0.76172 0.80783 0.83191 0.80929 0.81614 0.82716 0.83404 0.84523 0.84782 0.8547 0.85724 0.8554 0.83703 0.83954 0.85856 0.87815 0.87186 0.87851 0.90288 0.91425 0.92107 0.94213 0.94905 0.97086 0.91605 0.92263 0.99195 0.99898 1.0113 1.0237 1.0362 1.0379 1.0505 1.0304 1.0374 1.0663 1.0734 1.1217 1.1806 1.1618 1.1759 0.98026 0.98654 1.1057 1.1127 0.89345 0.9103 0.92755 0.95345 0.96765 0.98208 1.0103 0.94817 0.92286 0.93215 0.97332 0.98319 1.1558 1.1742 1.2113 1.2246 1.2252 1.2386 1.2456 1.2397
-1.0421 -1.0407 -1.0305 -1.3256 -1.2621 -1.2353 -1.1174 -1.111 -1.1832 -1.1303 -1.1292 -1.1009 -1.0393 -1.0191 -1.0039 -0.98906 -0.97015 -0.96422 -0.94998 -0.94822 -0.95059 -0.94883 -0.94285 -0.93275 -0.91875 -0.98588 -1.0031 -1.0212 -1.0046 -0.97883 -0.97703 -0.97995 -0.97337 -0.96678 -0.9602 -0.95362 -0.95165 -0.94503 -0.93386 -0.93639 -0.91182 -0.9053 -0.89446 -0.88373 -0.87727 -0.85853 -0.86435 -0.84978 -0.85143 -0.84098 -0.82283 -0.80515 -0.788 -0.7713 -0.74837 -0.73597 -0.73008 -0.73053 -0.74761 -0.74825 -0.75238 -0.74957 -0.74677 -0.74391 -0.74456 -0.73813 -0.73518 -0.73222 -0.72573 -0.7333 -0.71966 -0.70967 -0.70315 -0.69663 -0.6868 -0.68031 -0.67059 -0.66099 -0.65456 -0.65122 -0.66378 -0.65713 -0.64103 -0.63448 -0.6219 -0.61246 -0.60314 -0.59671 -0.58748 -0.57029 -0.55883 -0.571 -0.56725 -0.5608 -0.54909 -0.54015 -0.5363 -0.52741 -0.51379 -0.50284 -0.50123 -0.46075 -0.46289 -0.45694 -0.44514 -0.46983 -0.4572 -0.451 -0.44892 -0.44679 -0.44048 -0.43827 -0.43601 -0.42754 -0.40765 -0.39603 -0.38817 -0.38209 -0.3777 -0.35554 -0.35121 -0.34989 -0.34547 -0.33506 -0.32773 -0.32468 -0.32588 -0.31983 -0.31805 -0.32063 -0.31432 -0.30377 -0.29484 -0.28868 -0.2838 -0.27761 -0.27266 -0.26644 -0.25903 -0.25284 -0.24665 -0.24156 -0.23642 -0.23232 -0.22708 -0.22388 -0.21849 -0.21512 -0.21268 -0.20499 -0.19641 -0.18709 -0.17974 -0.17083 -0.16447 -0.1581 -0.15245 -0.14536 -0.139 -0.13325 -0.12626 -0.12046 -0.11626 -0.11135 -0.10525 -0.098116 -0.0915 -0.083256 -0.075676 -0.065856 -0.06059 -0.054926 -0.047397 -0.040796 -0.034218 -0.027863 -0.022 -0.016393 -0.011024 -0.0051104 0.0010542 0.0072186 0.013444 0.019727 0.026684 0.03372 0.041032 0.047217 0.052773 0.058396 0.065069 0.07014 0.076419 0.083475 0.087356 0.093097 0.098786 0.098656 0.10485 0 0 0 0 0 0 0 0 0 0 0 0 0 0 0 0 0 0 0 0 0 0 0 0 0 0 0 0 0 0 0 0 0 0.3216 0.32777 0.33393 0.3401 0.39076 0.39569 0.40261 0.41163 0.41859 0.42554 0.437 0.37571 0.38335 0.38761 0.39706 0.4085 0.41645 0.42256 0.43061 0.43477 0.4389 0.48179 0.49075 0.50479 0.50399 0.5106 0.52234 0.52902 0.52788 0.52932 0.53071 0.52959 0.53596 0.53979 0.5487 0.55506 0.56143 0.57047 0.57417 0.58053 0.61286 0.62877 0.64191 0.64548 0.65889 0.67948 0.60517 0.61695 0.62605 0.67603 0.67602 0.67604 0.68259 0.68582 0.68572 0.69886 0.71925 0.73675 0.73617 0.73557 0.73858 0.74517 0.75175 0.76958 0.80816 0.8279 0.80961 0.81232 0.7688 0.80568 0.84126 0.85248 0.86381 0.86633 0.86442 0.84976 0.84805 0.86313 0.88286 0.87218 0.87883 0.89872 0.90547 0.9077 0.9522 0.95425 0.94184 0.92083 0.93202 0.97209 0.99415 1.0116 1.024 1.0366 1.0437 1.0453 1.0361 1.0485 1.0611 1.0851 1.11 1.1294 1.1493 1.138 0.98056 0.98684 1.0072 1.0088 0.89744 0.8993 0.93976 0.94555 0.95957 0.9696 1.0106 0.94844 0.92312 0.93241 0.97359 0.98347 1.1619 1.1864 1.2307 1.2313 1.2319 1.2453 1.2459 1.2401
-1.0418 -1.0404 -1.0302 -1.2491 -1.2685 -1.2681 -1.1171 -1.1106 -1.2667 -1.1412 -1.1125 -1.0901 -1.0584 -1.0188 -0.99919 -0.98439 -0.96563 -0.95974 -0.9497 -0.94795 -0.95031 -0.94436 -0.94257 -0.92035 -0.91847 -1.0192 -1.0225 -1.0209 -0.99456 -0.97384 -0.97203 -0.97964 -0.96835 -0.9618 -0.95525 -0.9533 -0.95134 -0.94472 -0.94273 -0.94071 -0.91151 -0.90065 -0.88988 -0.88342 -0.87696 -0.86227 -0.85186 -0.84549 -0.84308 -0.84067 -0.83425 -0.81619 -0.80605 -0.79236 -0.78975 -0.78712 -0.78082 -0.77092 -0.7682 -0.75836 -0.76271 -0.75991 -0.75351 -0.75068 -0.74779 -0.74489 -0.74197 -0.73545 -0.72893 -0.74392 -0.72637 -0.70936 -0.70284 -0.69969 -0.6898 -0.68328 -0.66712 -0.65755 -0.6481 -0.64173 -0.66346 -0.65681 -0.65016 -0.64351 -0.62762 -0.6151 -0.59997 -0.59357 -0.58718 -0.55457 -0.54846 -0.56798 -0.56427 -0.55784 -0.54879 -0.53985 -0.53348 -0.52711 -0.50877 -0.50025 -0.49862 -0.46048 -0.45463 -0.44878 -0.44294 -0.48531 -0.47882 -0.47461 -0.46809 -0.4638 -0.45947 -0.4551 -0.44848 -0.43972 -0.40367 -0.39753 -0.38963 -0.3818 -0.39339 -0.35527 -0.35093 -0.35272 -0.34981 -0.34376 -0.33472 -0.33018 -0.32272 -0.31812 -0.31491 -0.31737 -0.31257 -0.30347 -0.29862 -0.29237 -0.28745 -0.28248 -0.27748 -0.27114 -0.26234 -0.25606 -0.25094 -0.24579 -0.23945 -0.23421 -0.22891 -0.22572 -0.22243 -0.21797 -0.21237 -0.20568 -0.19705 -0.18951 -0.18293 -0.17634 -0.17227 -0.16317 -0.15508 -0.14785 -0.14272 -0.13818 -0.13025 -0.12189 -0.11595 -0.11103 -0.10493 -0.098284 -0.091635 -0.084569 -0.077574 -0.065863 -0.060852 -0.055916 -0.04841 -0.041995 -0.035318 -0.028819 -0.022792 -0.016839 -0.011032 -0.0048618 0.0013655 0.0077226 0.014126 0.020689 0.027642 0.034699 0.041552 0.047997 0.053593 0.059539 0.065997 0.0711 0.077074 0.083776 0.087649 0.092968 0.099076 0.10471 0.12545 0 0 0 0 0 0 0 0 0 0 0 0 0 0 0 0 0 0 0 0 0 0 0 0 0 0 0 0 0 0 0 0 0 0.3219 0.32806 0.33576 0.34039 0.3891 0.39602 0.40089 0.40777 0.41048 0.42588 0.43733 0.38446 0.38705 0.38961 0.39735 0.41063 0.41674 0.42285 0.4309 0.43703 0.44519 0.47746 0.49107 0.50014 0.5043 0.51092 0.52009 0.52674 0.52564 0.52963 0.52851 0.52742 0.54136 0.54519 0.55422 0.56065 0.56707 0.57623 0.57447 0.58083 0.60427 0.62289 0.64551 0.63312 0.63977 0.67982 0.65307 0.6533 0.66637 0.68308 0.68303 0.68295 0.69639 0.70308 0.7028 0.71644 0.73767 0.74828 0.7513 0.75431 0.75732 0.76407 0.77466 0.78938 0.81268 0.82824 0.8353 0.84679 0.77277 0.79047 0.84158 0.85719 0.8777 0.88476 0.87806 0.8716 0.874 0.8764 0.87879 0.88116 0.88349 0.90353 0.90579 0.91254 0.94762 0.94971 0.96651 0.91667 0.92326 0.93438 1.0049 1.0119 1.019 1.0315 1.0496 1.0624 1.0696 1.0768 1.0783 1.0798 1.0927 1.1176 1.131 1.1383 1.049 1.0203 1.0075 1.0091 0.93647 0.9464 0.99999 1.0393 1.0709 1.0986 1.1162 1.1285 1.1763 1.2147 1.235 1.2422 1.2495 1.2303 1.2374 1.2381 1.2322 1.2328 1.2462 1.2216
-1.0415 -1.0357 -1.0299 -1.2488 -1.1243 -1.0723 -1.0661 -1.06 -1.0538 -1.0621 -1.0911 -1.0744 -1.0581 -1.014 -0.99449 -0.97125 -0.94475 -0.93499 -0.93722 -0.93948 -0.94177 -0.93181 -0.91796 -1.0473 -1.0304 -1.0238 -1.0273 -1.0206 -1.0089 -0.97353 -0.96707 -0.96989 -0.96804 -0.96616 -0.95493 -0.95299 -0.95102 -0.93982 -0.92872 -0.93576 -0.91562 -0.90468 -0.89816 -0.88736 -0.88087 -0.8702 -0.85155 -0.84124 -0.84277 -0.84037 -0.8379 -0.81972 -0.80955 -0.79944 -0.79313 -0.79053 -0.7842 -0.77421 -0.7679 -0.76159 -0.75885 -0.7596 -0.75321 -0.74681 -0.74395 -0.74102 -0.74166 -0.73514 -0.75032 -0.75482 -0.71557 -0.70905 -0.70253 -0.69601 -0.68949 -0.68297 -0.66364 -0.65416 -0.64477 -0.63843 -0.65669 -0.65328 -0.64985 -0.64638 -0.64287 -0.66244 -0.6693 -0.66216 -0.68387 -0.6093 -0.58799 -0.57586 -0.56664 -0.55753 -0.54591 -0.53955 -0.53069 -0.52435 -0.50848 -0.50225 -0.50063 -0.4602 -0.45435 -0.45045 -0.44266 -0.48734 -0.48082 -0.48125 -0.47933 -0.47499 -0.46828 -0.46156 -0.4526 -0.44372 -0.43073 -0.40645 -0.39649 -0.40134 -0.41662 -0.37783 -0.36003 -0.354 -0.35269 -0.34043 -0.33004 -0.32698 -0.32243 -0.31643 -0.3132 -0.31562 -0.31083 -0.30458 -0.29833 -0.29343 -0.28849 -0.28351 -0.27718 -0.26957 -0.26326 -0.25576 -0.25064 -0.24664 -0.24027 -0.23725 -0.2319 -0.2287 -0.2243 -0.21873 -0.21205 -0.20537 -0.19771 -0.19106 -0.18261 -0.17603 -0.17196 -0.16365 -0.15552 -0.14825 -0.14311 -0.13786 -0.12994 -0.12216 -0.1162 -0.11072 -0.10462 -0.097969 -0.090872 -0.08467 -0.078021 -0.068999 -0.061692 -0.056143 -0.049016 -0.042086 -0.035347 -0.028789 -0.022708 -0.016777 -0.010788 -0.0046086 0.0016779 0.0080235 0.014497 0.021094 0.028089 0.035187 0.042077 0.048313 0.053902 0.059845 0.066304 0.071736 0.078104 0.08487 0.081965 0.091604 0.098475 0.10547 0.12578 0 0 0 0 0 0 0 0 0 0 0 0 0 0 0 0 0 0 0 0 0 0 0 0 0 0 0 0 0 0 0 0 0 0.32817 0.3329 0.33759 0.34862 0.37784 0.38647 0.39518 0.40604 0.40671 0.41974 0.4354 0.38131 0.38734 0.38989 0.39763 0.41092 0.41703 0.42505 0.43315 0.43932 0.44752 0.4732 0.48663 0.498 0.49974 0.50875 0.5204 0.52447 0.52341 0.52487 0.52383 0.5327 0.54424 0.5481 0.55716 0.56095 0.57282 0.5821 0.5858 0.58945 0.61048 0.62014 0.62679 0.70247 0.69843 0.70569 0.63771 0.65361 0.66668 0.6834 0.68335 0.68326 0.69671 0.70339 0.70311 0.71323 0.74175 0.7524 0.75162 0.75464 0.76526 0.77207 0.78286 0.78971 0.81723 0.82857 0.82699 0.81711 0.82396 0.80632 0.83767 0.85752 0.87346 0.88049 0.87839 0.88083 0.88323 0.88562 0.89248 0.89028 0.89261 0.91303 0.92454 0.93143 0.93831 0.93567 0.88878 0.87849 0.90592 0.88698 0.97469 1.0018 1.0088 1.0211 1.0281 1.046 1.0587 1.0602 1.0617 1.0744 1.0759 1.0886 1.0359 1.0478 0.99972 1.0157 1.0078 1.0141 0.90546 0.91111 1.0003 1.0347 1.066 1.0989 1.1221 1.1288 1.1827 1.2215 1.2287 1.2359 1.2366 1.2243 1.2249 1.213 1.2015 1.2023 1.2151 1.2038
-1.0734 -1.0581 -1.0341 -1.2484 -1.124 -1.0968 -1.0658 -1.0597 -1.0583 -1.057 -1.0508 -1.0446 -1.0432 -1.0183 -0.99862 -0.97948 -0.91714 -0.91153 -0.93294 -0.92717 -0.92536 -0.9235 -0.91768 -1.047 -1.0251 -1.0235 -1.0423 -1.0356 -1.0186 -0.97323 -0.97142 -0.97428 -0.96773 -0.96585 -0.95462 -0.94807 -0.95071 -0.9172 -0.90644 -0.92186 -0.90218 -0.89149 -0.88085 -0.87446 -0.88481 -0.87829 -0.85526 -0.83311 -0.82683 -0.83215 -0.83364 -0.82721 -0.82468 -0.81435 -0.80792 -0.8053 -0.79884 -0.78864 -0.77849 -0.76847 -0.7657 -0.76293 -0.7529 -0.74651 -0.74011 -0.74072 -0.75592 -0.75298 -0.75373 -0.75449 -0.72574 -0.71218 -0.69885 -0.68905 -0.68587 -0.67938 -0.66023 -0.64775 -0.64446 -0.64112 -0.64693 -0.64979 -0.65275 -0.6525 -0.65224 -0.66211 -0.65512 -0.6549 -0.68351 -0.60898 -0.60226 -0.5868 -0.57457 -0.55458 -0.54051 -0.53672 -0.53038 -0.52159 -0.51289 -0.50428 -0.50033 -0.45992 -0.46409 -0.4561 -0.4443 -0.48939 -0.48518 -0.49053 -0.49615 -0.48674 -0.47502 -0.4682 -0.46138 -0.45229 -0.43251 -0.42182 -0.4133 -0.40878 -0.4163 -0.37754 -0.36962 -0.36177 -0.35723 -0.32849 -0.32549 -0.32525 -0.32215 -0.31199 -0.30877 -0.31245 -0.31053 -0.30569 -0.29803 -0.2945 -0.28955 -0.28321 -0.27818 -0.26927 -0.26296 -0.25786 -0.25271 -0.24868 -0.2434 -0.23923 -0.23497 -0.23178 -0.22734 -0.22059 -0.21278 -0.20505 -0.19739 -0.18981 -0.1823 -0.17487 -0.17249 -0.16334 -0.15596 -0.14938 -0.14349 -0.13823 -0.13026 -0.12364 -0.11702 -0.1115 -0.1043 -0.097174 -0.090557 -0.083941 -0.077705 -0.06902 -0.062862 -0.056645 -0.049644 -0.042777 -0.035704 -0.02889 -0.022725 -0.016713 -0.010589 -0.0043306 0.0019867 0.0083635 0.0148 0.021503 0.028681 0.035681 0.042396 0.04839 0.054212 0.059868 0.066931 0.072378 0.078776 0.08558 0.082589 0.088739 0.095765 0.10529 0.1261 0 0 0 0 0 0 0 0 0 0 0 0 0 0 0 0 0 0 0 0 0 0 0 0 0 0 0 0 0 0 0 0 0 0.32847 0.3363 0.34261 0.34892 0.3569 0.36667 0.38583 0.40431 0.39521 0.40176 0.43128 0.3816 0.38763 0.39018 0.39968 0.41307 0.41921 0.42534 0.43743 0.44365 0.44987 0.47126 0.47769 0.49112 0.49764 0.50416 0.51565 0.5172 0.52121 0.52517 0.52413 0.53555 0.54981 0.55101 0.56015 0.56664 0.58149 0.6088 0.61875 0.60716 0.61381 0.62046 0.62711 0.70282 0.70634 0.70603 0.63802 0.66035 0.6703 0.6906 0.69392 0.69722 0.70748 0.71072 0.7069 0.72063 0.74584 0.75657 0.74818 0.75496 0.76558 0.7724 0.78318 0.79003 0.80915 0.82459 0.81886 0.83002 0.83698 0.81464 0.82544 0.87587 0.87837 0.88082 0.88327 0.89026 0.89725 0.895 0.89733 0.89965 0.9065 0.91798 0.93921 0.9462 0.93391 0.88685 0.88909 0.87472 0.8851 0.88728 0.97502 0.98684 0.99881 1.0006 1.0127 1.0355 1.0371 1.0441 1.0403 1.0526 1.0488 1.0451 1.0362 1.043 1 0.97866 1.0033 0.99568 0.90573 0.91138 1.0006 1.0067 1.0872 1.1268 1.1452 1.158 1.2018 1.2284 1.229 1.2363 1.2435 1.2119 1.2003 1.1831 1.1723 1.1732 1.1856 1.1807
-1.0974 -1.0767 -1.0659 -1.1519 -1.1237 -1.0965 -1.0655 -1.0594 -1.0581 -1.0616 -1.0363 -1.0349 -1.0381 -1.0226 -1.0073 -0.9923 -0.98192 -1.0072 -0.99642 -0.98576 -0.99313 -0.98691 -0.99439 -1.0264 -1.0198 -1.0133 -0.95143 -0.94524 -1.0083 -0.97292 -0.97111 -0.97397 -0.86668 -0.86456 -0.86243 -0.85651 -0.86573 -0.86745 -0.86137 -0.89134 -0.885 -0.87866 -0.86823 -0.86599 -0.88025 -0.87798 -0.85496 -0.83281 -0.81894 -0.82407 -0.83333 -0.83083 -0.82834 -0.82185 -0.81536 -0.80887 -0.80238 -0.79589 -0.7819 -0.77548 -0.7654 -0.76262 -0.7526 -0.7462 -0.73981 -0.74041 -0.76311 -0.76016 -0.75717 -0.74666 -0.73625 -0.71187 -0.69854 -0.69205 -0.68228 -0.67907 -0.65992 -0.65356 -0.65024 -0.64999 -0.64975 -0.64948 -0.65567 -0.65874 -0.65524 -0.65168 -0.64809 -0.64779 -0.66486 -0.63054 -0.60796 -0.59229 -0.57149 -0.55692 -0.54276 -0.5339 -0.53008 -0.52375 -0.51498 -0.50631 -0.50004 -0.48257 -0.47429 -0.46398 -0.45387 -0.49385 -0.48964 -0.49021 -0.49582 -0.49141 -0.47953 -0.47026 -0.46576 -0.45656 -0.43219 -0.42151 -0.413 -0.40847 -0.40784 -0.38432 -0.37273 -0.36648 -0.36023 -0.32962 -0.32521 -0.32641 -0.32473 -0.31171 -0.30849 -0.31216 -0.31023 -0.30539 -0.30051 -0.2942 -0.29061 -0.28291 -0.27657 -0.27024 -0.2639 -0.25756 -0.2548 -0.24955 -0.2431 -0.24008 -0.23581 -0.23261 -0.22702 -0.21918 -0.21141 -0.20372 -0.19611 -0.18949 -0.18111 -0.17371 -0.17132 -0.16383 -0.15565 -0.14979 -0.14459 -0.13859 -0.13058 -0.12333 -0.11786 -0.11118 -0.10348 -0.095923 -0.089805 -0.083627 -0.07701 -0.068713 -0.062554 -0.056065 -0.049814 -0.042676 -0.035571 -0.02886 -0.022639 -0.016493 -0.010339 -0.0040691 0.0022877 0.0087068 0.015177 0.021707 0.028855 0.036 0.042504 0.048468 0.05426 0.060459 0.066917 0.072682 0.078709 0.085076 0.082511 0.088634 0.094809 0.099748 0 0 0 0 0 0 0 0 0 0 0 0 0 0 0 0 0 0 0 0 0 0 0 0 0 0 0 0 0 0 0 0 0 0 0.25716 0.26207 0.26796 0.34283 0.35063 0.3585 0.35976 0.36593 0.359 0.36495 0.37089 0.38533 0.38964 0.3957 0.40357 0.41714 0.42334 0.42953 0.43772 0.44394 0.45016 0.47157 0.47573 0.48907 0.49795 0.50447 0.51099 0.51503 0.51902 0.52299 0.52443 0.5384 0.55012 0.55131 0.56045 0.56968 0.58464 0.62487 0.63847 0.65235 0.6701 0.67736 0.68828 0.71487 0.71054 0.71791 0.68426 0.66393 0.67394 0.69444 0.70485 0.70456 0.71862 0.71459 0.71071 0.72095 0.74616 0.7569 0.7485 0.75153 0.75828 0.76885 0.77563 0.78635 0.80125 0.81227 0.82339 0.83465 0.85044 0.79139 0.79792 0.88085 0.88331 0.89041 0.88818 0.89521 0.90224 0.88628 0.8886 0.89998 0.90223 0.91368 0.9347 0.95144 0.95352 0.96052 0.96751 0.94519 0.94724 0.97838 0.9853 0.98717 0.99406 1.0009 1.013 1.0358 1.0374 1.0391 1.0354 1.0423 1.0491 1.035 1.0366 1.0381 0.93825 0.95267 1.0036 0.98237 0.90223 0.91164 0.99633 1.0025 1.1613 1.1504 1.1573 1.1703 1.2149 1.2353 1.2294 1.2366 1.2438 1.2123 1.1946 1.1776 1.1726 1.1793 1.1918 1.181
-1.1071 -1.1009 -1.016 -1.0103 -1.0263 -1.0249 -1.0235 -0.97919 -0.9776 -1.0146 -1.0176 -1.0161 -1.0284 -1.0223 -1.0116 -0.99202 -0.98164 -0.97131 -0.98714 -0.99905 -0.99283 -0.99576 -1.0082 -1.0114 -0.9954 -0.97976 -0.96886 -0.98087 -0.98853 -0.96342 -0.96159 -0.95969 -0.86267 -0.86807 -0.86215 -0.86378 -0.86162 -0.8407 -0.81352 -0.82531 -0.81591 -0.81006 -0.86391 -0.86975 -0.87994 -0.87345 -0.85065 -0.83639 -0.82623 -0.83154 -0.83698 -0.83052 -0.82407 -0.81761 -0.81505 -0.81246 -0.80594 -0.79177 -0.7816 -0.77149 -0.76509 -0.76231 -0.74877 -0.7424 -0.73603 -0.7366 -0.76279 -0.76363 -0.76066 -0.74634 -0.69456 -0.69146 -0.68509 -0.68192 -0.68525 -0.68204 -0.65962 -0.65325 -0.64994 -0.64661 -0.64322 -0.64603 -0.65535 -0.65511 -0.6516 -0.65135 -0.64776 -0.64413 -0.64716 -0.63348 -0.60764 -0.59197 -0.57395 -0.56466 -0.5528 -0.54376 -0.53478 -0.52838 -0.51711 -0.51077 -0.50443 -0.48447 -0.47614 -0.45959 -0.45359 -0.48407 -0.47989 -0.47337 -0.46238 -0.45812 -0.46965 -0.4629 -0.46074 -0.45392 -0.43399 -0.42324 -0.41468 -0.41014 -0.40164 -0.38949 -0.3759 -0.36788 -0.35994 -0.32934 -0.32352 -0.33653 -0.33187 -0.31007 -0.3082 -0.31329 -0.31137 -0.30652 -0.30021 -0.29529 -0.2903 -0.28261 -0.27627 -0.2712 -0.26483 -0.25726 -0.25571 -0.25045 -0.24396 -0.23977 -0.23549 -0.23345 -0.22783 -0.21886 -0.21006 -0.20241 -0.19579 -0.18735 -0.1808 -0.1734 -0.16851 -0.16192 -0.15534 -0.14803 -0.14357 -0.13828 -0.13027 -0.12301 -0.11755 -0.11142 -0.10316 -0.096545 -0.089929 -0.082908 -0.076324 -0.06776 -0.061948 -0.055489 -0.049267 -0.042572 -0.035438 -0.028564 -0.022343 -0.016197 -0.010087 -0.0037668 0.0026008 0.0090537 0.015482 0.022014 0.028748 0.035962 0.042611 0.048544 0.054568 0.060478 0.067224 0.073334 0.079384 0.085781 0.082784 0.08853 0.094275 0.10002 0 0 0 0 0 0 0 0 0 0 0 0 0 0 0 0 0 0 0 0 0 0 0 0 0.1583 0.16204 0.17144 0.1753 0 0.16261 0.16604 0.18753 0.2767 0.28335 0.25739 0.26231 0.2682 0.34313 0.3575 0.36213 0.36673 0.36622 0.35928 0.36685 0.37615 0.38388 0.3917 0.39598 0.40752 0.42129 0.42557 0.43379 0.44208 0.44836 0.46324 0.4764 0.48289 0.49174 0.50067 0.50723 0.5113 0.51287 0.51442 0.51837 0.51983 0.53111 0.54516 0.5464 0.5528 0.5592 0.5656 0.61566 0.62573 0.63265 0.64953 0.65656 0.68863 0.71522 0.72272 0.71827 0.6708 0.67422 0.66763 0.70911 0.71242 0.7157 0.72262 0.72583 0.72169 0.73215 0.75031 0.75723 0.7526 0.75185 0.7586 0.76917 0.77595 0.78668 0.79754 0.8126 0.82373 0.83931 0.85524 0.7917 0.79822 0.88118 0.88365 0.89075 0.89317 0.90024 0.9073 0.88211 0.88892 0.9003 0.88915 0.90032 0.93026 0.95676 0.95881 0.96085 0.95307 0.94551 0.96196 0.98373 0.99068 0.99764 0.99947 1.0064 1.0291 1.0415 1.0378 1.0394 1.041 1.0533 1.0548 1.0564 0.99726 1.0086 0.93853 0.94873 0.98547 0.9738 0.92556 0.90812 0.91756 0.91937 1.1678 1.1687 1.1697 1.1829 1.2218 1.2424 1.2364 1.2369 1.2509 1.2126 1.1949 1.1779 1.1672 1.1738 1.1921 1.1871
-1.1018 -1.1422 -1.0158 -1.0058 -1.0129 -1.0202 -1.0277 -1.0085 -0.97732 -1.0188 -1.0219 -1.0296 -1.0375 -1.0361 -1.0159 -0.98735 -0.977 -0.97102 -1.0096 -1.0175 -1.0064 -1.0048 -1.0224 -1.0208 -0.99985 -0.97946 -0.97313 -0.98522 -0.98822 -0.97231 -0.96585 -0.96866 -0.86239 -0.86025 -0.88113 -0.87508 -0.86516 -0.81899 -0.81324 -0.8396 -0.82634 -0.80978 -0.89262 -0.86945 -0.86715 -0.86897 -0.85034 -0.84003 -0.84156 -0.84313 -0.83667 -0.83022 -0.81986 -0.81344 -0.81084 -0.81215 -0.80563 -0.79146 -0.78129 -0.76757 -0.76479 -0.75839 -0.74497 -0.73863 -0.73229 -0.7328 -0.75871 -0.76715 -0.76034 -0.76509 -0.69426 -0.68793 -0.67839 -0.67525 -0.67844 -0.67846 -0.65932 -0.65295 -0.64963 -0.64631 -0.64292 -0.6426 -0.65503 -0.65154 -0.65127 -0.64774 -0.64414 -0.64051 -0.64346 -0.63314 -0.60731 -0.59166 -0.58497 -0.58116 -0.57444 -0.56493 -0.55277 -0.53827 -0.52417 -0.5227 -0.51621 -0.52225 -0.52331 -0.49914 -0.49262 -0.48377 -0.47728 -0.47306 -0.4643 -0.45781 -0.467 -0.46029 -0.45357 -0.44908 -0.43581 -0.42499 -0.41437 -0.41182 -0.40721 -0.39481 -0.37738 -0.36758 -0.36131 -0.35503 -0.35202 -0.34731 -0.34419 -0.31115 -0.31205 -0.31589 -0.31108 -0.30622 -0.29991 -0.2936 -0.29 -0.28098 -0.27468 -0.2709 -0.26578 -0.25938 -0.25663 -0.25135 -0.24601 -0.24062 -0.23518 -0.23429 -0.22865 -0.21854 -0.21078 -0.2021 -0.19453 -0.18795 -0.18049 -0.17393 -0.16819 -0.16161 -0.15502 -0.14844 -0.14396 -0.13796 -0.12995 -0.1233 -0.11781 -0.11165 -0.10387 -0.096706 -0.090056 -0.082595 -0.075643 -0.067456 -0.061058 -0.054922 -0.048724 -0.041866 -0.035137 -0.028399 -0.02215 -0.016048 -0.0098782 -0.0034971 0.0029309 0.0094033 0.015862 0.022215 0.029198 0.036277 0.042927 0.048856 0.055141 0.061072 0.067856 0.074704 0.081225 0.088171 0.083057 0.089182 0.094548 0.10072 0 0 0 0 0 0 0 0 0 0 0 0 0 0 0 0 0 0 0 0 0 0 0 0 0.15848 0.16493 0.17162 0.17548 0 0.16278 0.1662 0.18771 0.27696 0.28361 0.31198 0.31793 0.37498 0.37425 0.37539 0.37649 0.38304 0.384 0.366 0.37374 0.39034 0.39296 0.39733 0.40167 0.41343 0.42953 0.43589 0.4402 0.4529 0.45932 0.47248 0.48367 0.49025 0.50172 0.50837 0.50754 0.51161 0.51318 0.51231 0.51625 0.51772 0.53391 0.54547 0.54932 0.5531 0.5595 0.57682 0.61599 0.62606 0.63298 0.64318 0.66034 0.69272 0.71558 0.73116 0.75568 0.67454 0.69188 0.7098 0.72828 0.72772 0.73099 0.73806 0.74513 0.74441 0.7514 0.76233 0.76539 0.76059 0.7636 0.76655 0.77337 0.78019 0.79101 0.8019 0.8171 0.82832 0.83965 0.85111 0.83633 0.84322 0.86328 0.87937 0.88644 0.88426 0.90529 0.92209 0.90058 0.9029 0.90982 0.89389 0.90514 0.93536 0.96212 0.97435 0.97123 0.95339 0.95544 0.96717 0.99949 1.0066 1.0083 1.0154 1.0224 1.0402 1.0585 1.0435 1.056 1.0575 1.0646 1.0886 1.1015 0.99757 1.0089 0.94298 0.94901 0.98577 0.95257 0.90653 0.90839 0.91783 0.91964 1.1805 1.194 1.2077 1.2149 1.2287 1.2495 1.2433 1.2439 1.2445 1.2129 1.1952 1.1782 1.1675 1.1799 1.1925 1.1874
-1.0357 -1.1003 -0.9783 -0.99301 -1.0083 -1.0199 -1.0319 -1.0259 -1.0336 -1.0607 -1.0401 -1.0434 -1.0468 -1.0503 -1.0689 -0.98269 -0.97671 -0.97074 -1.043 -1.0268 -1.0109 -1.0092 -1.032 -1.0304 -1.0043 -0.98376 -0.982 -0.98965 -0.99269 -0.99093 -0.97959 -0.97304 -0.91759 -0.91137 -0.92645 -0.91578 -0.94027 -0.92922 -0.9227 -0.86608 -0.84077 -0.84606 -0.84375 -0.84916 -0.85471 -0.85641 -0.84607 -0.83973 -0.84125 -0.84283 -0.83637 -0.82599 -0.81956 -0.81313 -0.8067 -0.81184 -0.80532 -0.78742 -0.77728 -0.76726 -0.7609 -0.75809 -0.74467 -0.73145 -0.72183 -0.68399 -0.67802 -0.69348 -0.69046 -0.71028 -0.70051 -0.68763 -0.67495 -0.67178 -0.67492 -0.67171 -0.65594 -0.6496 -0.64628 -0.646 -0.63957 -0.6423 -0.65148 -0.65447 -0.64768 -0.64741 -0.64056 -0.64018 -0.6398 -0.62955 -0.60699 -0.59134 -0.58756 -0.5896 -0.58278 -0.57023 -0.55518 -0.54056 -0.52889 -0.52492 -0.52091 -0.52712 -0.53094 -0.50614 -0.4947 -0.48579 -0.47697 -0.47275 -0.46623 -0.46193 -0.45983 -0.45544 -0.44879 -0.43998 -0.43336 -0.42467 -0.41406 -0.4115 -0.41092 -0.39833 -0.37885 -0.369 -0.36269 -0.36316 -0.36189 -0.35197 -0.34718 -0.32361 -0.31601 -0.31271 -0.30792 -0.30309 -0.29684 -0.2933 -0.28699 -0.27938 -0.27438 -0.2706 -0.26548 -0.26155 -0.25756 -0.25225 -0.2481 -0.24031 -0.23719 -0.23397 -0.22833 -0.21822 -0.20943 -0.20178 -0.19422 -0.18763 -0.18105 -0.17362 -0.16788 -0.16052 -0.15547 -0.14885 -0.14364 -0.13901 -0.13028 -0.12299 -0.11808 -0.11133 -0.10458 -0.09639 -0.088867 -0.08149 -0.074609 -0.066525 -0.06047 -0.054357 -0.047959 -0.041367 -0.034836 -0.027973 -0.021853 -0.015748 -0.0095743 -0.0031919 0.0032514 0.0097568 0.016169 0.022627 0.029653 0.036593 0.043243 0.049167 0.055451 0.061674 0.067838 0.075014 0.082729 0.089346 0.096436 0 0.099469 0.10597 0 0 0 0 0 0 0 0 0 0 0 0 0 0 0 0 0 0 0 0 0 0 0 0 0.15866 0.16512 0.1718 0.17566 0 0.16294 0.16637 0.18842 0.31275 0.31894 0.32219 0.32832 0.37916 0.37834 0.37943 0.38424 0.38709 0.4056 0.37297 0.37742 0.39799 0.39872 0.39945 0.40379 0.41372 0.43392 0.43825 0.44256 0.4532 0.45963 0.47508 0.48398 0.49056 0.49957 0.50868 0.50785 0.50702 0.50863 0.51261 0.51897 0.52289 0.53422 0.5484 0.54701 0.55605 0.56515 0.57993 0.61947 0.6296 0.63331 0.64351 0.66067 0.70067 0.71992 0.73152 0.735 0.70335 0.70675 0.71763 0.73248 0.72806 0.73516 0.74227 0.74546 0.74474 0.75563 0.76266 0.76572 0.76481 0.7678 0.77078 0.77369 0.78051 0.78338 0.80634 0.81743 0.82865 0.83998 0.84264 0.83244 0.84355 0.85917 0.87513 0.8776 0.87555 0.89621 0.91756 0.91984 0.9173 0.91956 0.89868 0.91002 0.93569 0.96245 0.9645 0.96151 0.94891 0.95092 0.96261 0.99983 1.0069 1.0087 1.0105 1.0227 1.0406 1.0588 1.0548 1.0619 1.0634 1.0761 1.1005 1.1137 1.121 1.2487 1.0832 1.0901 1.1026 1.1389 1.1461 1.0899 1.0967 1.1433 1.1935 1.2008 1.208 1.2153 1.2358 1.2499 1.2437 1.251 1.2515 1.207 1.1956 1.1844 1.1622 1.1745 1.1869 1.1819
-1.058 -1.0708 -0.97405 -0.97252 -1.0255 -1.0152 -1.0454 -1.0394 -1.0569 -1.0604 -1.0493 -1.0431 -1.0563 -1.0599 -1.0535 -0.97807 -0.9679 -0.97045 -1.0329 -1.0217 -1.0153 -1.0089 -1.0317 -1.0202 -1.0088 -0.99753 -0.98638 -0.99412 -0.99721 -1.0004 -0.98883 -0.97745 -0.9345 -0.9238 -0.92615 -0.92412 -0.93996 -0.92891 -0.90068 -0.86975 -0.85963 -0.84959 -0.84346 -0.83732 -0.84264 -0.83642 -0.83403 -0.83162 -0.837 -0.84252 -0.83606 -0.82568 -0.81925 -0.81282 -0.8064 -0.81546 -0.80501 -0.78711 -0.77697 -0.76696 -0.75704 -0.75423 -0.74087 -0.72778 -0.71493 -0.68676 -0.68378 -0.68693 -0.68702 -0.69029 -0.69041 -0.6841 -0.67153 -0.66223 -0.66209 -0.66197 -0.65564 -0.6493 -0.64598 -0.64263 -0.63927 -0.6389 -0.65439 -0.6509 -0.64415 -0.64381 -0.64024 -0.6366 -0.63618 -0.62601 -0.60667 -0.59102 -0.58724 -0.58928 -0.58543 -0.57276 -0.56038 -0.54288 -0.53113 -0.52715 -0.52313 -0.52942 -0.53062 -0.50832 -0.49439 -0.48315 -0.47666 -0.47017 -0.46592 -0.4594 -0.45951 -0.4507 -0.44628 -0.43753 -0.43094 -0.42643 -0.41575 -0.4132 -0.41469 -0.39996 -0.38033 -0.37218 -0.36581 -0.35608 -0.34495 -0.34508 -0.34034 -0.3278 -0.31716 -0.31099 -0.30763 -0.3042 -0.29518 -0.29577 -0.28536 -0.28303 -0.27408 -0.27157 -0.2677 -0.2625 -0.25849 -0.25194 -0.24658 -0.24 -0.23571 -0.23248 -0.22686 -0.2179 -0.21014 -0.20147 -0.1939 -0.18823 -0.18074 -0.17247 -0.16757 -0.1602 -0.15515 -0.14854 -0.14403 -0.13869 -0.12932 -0.12207 -0.11776 -0.11156 -0.10426 -0.097028 -0.089425 -0.08079 -0.074301 -0.065913 -0.060167 -0.054053 -0.047432 -0.040873 -0.034535 -0.027678 -0.021457 -0.015377 -0.009227 -0.0028729 0.0035415 0.0099696 0.016398 0.022826 0.029677 0.03655 0.043134 0.049003 0.055761 0.062282 0.068803 0.074962 0.083866 0.090548 0.096752 0 0.099755 0.10625 0 0 0 0 0 0 0 0 0 0 0 0 0 0 0 0 0 0 0 0 0 0 0 0 0.15625 0.15992 0.16909 0.17289 0.17668 0.1631 0.16653 0.1886 0.31304 0.31924 0.32395 0.32862 0.36998 0.35207 0.36524 0.37349 0.38366 0.40189 0.37326 0.37943 0.40208 0.39355 0.40158 0.40409 0.41213 0.43628 0.44274 0.44708 0.45566 0.46212 0.4754 0.48665 0.48615 0.49505 0.5065 0.50816 0.50977 0.50893 0.51291 0.51928 0.52565 0.53707 0.55136 0.54993 0.559 0.56546 0.58024 0.61979 0.62672 0.63689 0.64718 0.66447 0.69719 0.71629 0.72782 0.72326 0.71118 0.71083 0.72178 0.73283 0.7284 0.72785 0.73873 0.73053 0.7263 0.74059 0.76699 0.77003 0.76514 0.76813 0.77111 0.76631 0.77306 0.77595 0.79851 0.81359 0.82472 0.83598 0.84297 0.83699 0.83962 0.85511 0.87094 0.87341 0.87142 0.89655 0.92767 0.92995 0.93219 0.91989 0.80973 0.81954 0.82195 0.82434 0.83417 0.84028 0.82404 0.83366 0.94852 0.97969 0.99681 0.99354 0.99035 0.9972 1.0195 1.0371 0.96405 0.97522 0.95416 0.96049 1.0612 1.0737 1.0697 1.0711 0.95206 0.95814 1.0143 1.0159 1.0271 1.0902 1.1193 1.1678 1.1875 1.2011 1.2148 1.2221 1.2429 1.2502 1.244 1.2446 1.2519 1.195 1.178 1.1673 1.1625 1.1691 1.1757 1.1765
-1.0352 -1.08 -0.97379 -0.97226 -1.172 -1.08 -1.0689 -1.0628 -1.0712 -1.0901 -1.0395 -1.0287 -1.0761 -1.0596 -1.0337 -0.9998 -0.96762 -1.0852 -1.0326 -1.0166 -1.0055 -1.0134 -1.0314 -1.015 -0.99893 -0.99722 -0.97679 -0.97042 -1.0067 -0.99514 -0.99339 -0.97241 -0.95201 -0.95468 -0.95739 -0.9508 -0.94882 -0.9286 -0.91326 -0.90251 -0.89608 -0.88543 -0.84317 -0.83703 -0.84235 -0.83612 -0.83373 -0.83132 -0.8367 -0.84626 -0.84383 -0.83329 -0.82284 -0.8203 -0.81381 -0.81911 -0.8086 -0.78681 -0.78038 -0.76666 -0.75674 -0.75392 -0.73714 -0.72749 -0.71464 -0.68647 -0.67745 -0.69606 -0.68673 -0.68056 -0.6806 -0.68063 -0.67124 -0.65891 -0.66179 -0.66167 -0.65841 -0.65512 -0.64872 -0.64539 -0.64508 -0.64478 -0.65733 -0.65382 -0.64383 -0.64026 -0.63667 -0.63627 -0.63585 -0.6225 -0.60635 -0.5907 -0.58692 -0.58895 -0.5851 -0.57244 -0.56006 -0.54257 -0.53339 -0.52684 -0.52536 -0.5291 -0.53029 -0.50801 -0.49648 -0.48284 -0.47635 -0.47442 -0.47014 -0.46355 -0.46146 -0.45258 -0.44816 -0.43935 -0.43487 -0.43247 -0.42365 -0.41904 -0.41644 -0.40561 -0.38923 -0.37901 -0.37073 -0.3525 -0.33997 -0.35647 -0.3449 -0.33367 -0.32424 -0.32093 -0.31756 -0.31261 -0.30911 -0.30853 -0.29894 -0.28406 -0.27766 -0.27517 -0.27129 -0.26473 -0.25944 -0.25409 -0.24747 -0.24085 -0.23539 -0.23101 -0.22541 -0.21758 -0.20879 -0.20115 -0.19454 -0.18792 -0.18042 -0.173 -0.16645 -0.16067 -0.15484 -0.14822 -0.14372 -0.13907 -0.12964 -0.12296 -0.11744 -0.1118 -0.10552 -0.097676 -0.090442 -0.082055 -0.075073 -0.066232 -0.060721 -0.055052 -0.048034 -0.040954 -0.034395 -0.027637 -0.021259 -0.015079 -0.0089667 -0.0025691 0.0038468 0.010275 0.016703 0.023241 0.029842 0.036862 0.043447 0.049789 0.056892 0.062895 0.070819 0.07712 0 0 0 0 0 0 0 0 0 0 0 0 0 0 0 0 0 0 0 0 0 0 0 0 0 0 0 0 0 0 0.15642 0.16319 0.16927 0.17307 0.17837 0.1822 0.18655 0.19147 0.31478 0.32248 0.32873 0.34617 0.36303 0.35569 0.36039 0.37025 0.37846 0.40221 0.40095 0.41365 0.4267 0.43352 0.43812 0.40998 0.4281 0.4517 0.45838 0.45605 0.4626 0.47143 0.48035 0.48937 0.48646 0.49777 0.50931 0.51852 0.52261 0.51906 0.52055 0.5321 0.53862 0.54778 0.55975 0.55819 0.562 0.56849 0.58337 0.62012 0.62704 0.63722 0.66469 0.67544 0.69754 0.71268 0.72818 0.72759 0.71535 0.71117 0.72212 0.73317 0.72493 0.72819 0.73522 0.72714 0.71939 0.73344 0.76733 0.77036 0.76157 0.76846 0.76752 0.76663 0.77724 0.77627 0.80288 0.81809 0.82084 0.83631 0.84768 0.84592 0.85287 0.86428 0.87579 0.87827 0.87174 0.86111 0.94825 0.94531 0.93747 0.92022 0.81002 0.81983 0.82224 0.82463 0.83446 0.84057 0.82432 0.83395 0.94884 0.97012 0.99201 0.99896 0.98565 0.99247 0.99928 1.0375 0.96435 0.97553 0.95446 0.96079 1.0561 1.0631 1.0646 1.0769 0.95234 0.96274 1.0146 1.0163 1.0274 1.16 1.161 1.1933 1.2071 1.2145 1.2218 1.2564 1.278 1.2714 1.2377 1.2383 1.2455 1.1774 1.1725 1.1619 1.1572 1.1637 1.1703 1.1768
-0.99256 -1.1198 -0.97353 -0.972 -1.0959 -1.0416 -1.0495 -1.0482 -1.066 -1.0746 -0.99416 -0.98829 -0.9867 -0.9851 -1.0147 -0.99059 -0.97155 -1.0902 -0.98569 -1.0068 -1.0099 -1.0131 -1.0361 -1.0196 -0.99863 -0.98749 -0.96288 -0.92236 -0.94159 -0.97575 -0.98821 -0.95816 -0.9252 -0.89004 -0.95707 -0.95049 -0.94851 -0.92829 -0.91295 -0.90221 -0.89578 -0.90658 -0.93157 -0.86824 -0.85381 -0.84358 -0.8373 -0.83883 -0.84034 -0.84596 -0.83947 -0.83298 -0.82649 -0.82 -0.81351 -0.8188 -0.80439 -0.7865 -0.77637 -0.76636 -0.75289 -0.7501 -0.73344 -0.72385 -0.71763 -0.68013 -0.66542 -0.78161 -0.67115 -0.67111 -0.66503 -0.66794 -0.6648 -0.65861 -0.66149 -0.66448 -0.66121 -0.65794 -0.65461 -0.65126 -0.64789 -0.65076 -0.66028 -0.6568 -0.64351 -0.63676 -0.63635 -0.63274 -0.63227 -0.62217 -0.60301 -0.58748 -0.5866 -0.58863 -0.58478 -0.57211 -0.56252 -0.54758 -0.53567 -0.52909 -0.52764 -0.52878 -0.52464 -0.5052 -0.49376 -0.48253 -0.47377 -0.47641 -0.46983 -0.4655 -0.46343 -0.45675 -0.44785 -0.4412 -0.4367 -0.4343 -0.42755 -0.4208 -0.41822 -0.40731 -0.39272 -0.38053 -0.37221 -0.35058 -0.33663 -0.35963 -0.34625 -0.33494 -0.32547 -0.32214 -0.32184 -0.31838 -0.3118 -0.30974 -0.30009 -0.28784 -0.28001 -0.27753 -0.27497 -0.267 -0.26039 -0.25502 -0.24837 -0.24172 -0.23624 -0.23184 -0.22622 -0.21619 -0.20848 -0.20183 -0.19518 -0.18853 -0.18099 -0.17269 -0.16776 -0.16114 -0.15452 -0.14791 -0.1434 -0.13874 -0.13061 -0.12325 -0.11712 -0.11205 -0.10519 -0.097844 -0.090121 -0.081741 -0.074399 -0.06593 -0.060129 -0.054477 -0.047956 -0.041039 -0.034253 -0.027466 -0.021059 -0.01492 -0.0087042 -0.0022653 0.0041323 0.01058 0.017008 0.023436 0.030151 0.037175 0.043973 0.050589 0.058059 0.0678 0 0 0 0 0 0 0 0 0 0 0 0 0 0 0 0 0 0 0 0 0 0 0 0 0 0 0 0 0 0 0.15172 0.15546 0.1566 0.16428 0.16993 0.17472 0.17956 0.18393 0.18834 0.19387 0.31799 0.32427 0.32903 0.34484 0.35635 0.35433 0.35901 0.36879 0.37877 0.40253 0.40324 0.41602 0.4292 0.43826 0.44515 0.43224 0.4346 0.45426 0.4587 0.45858 0.46516 0.47405 0.48542 0.49211 0.49633 0.50547 0.51725 0.524 0.52812 0.52698 0.5336 0.54556 0.54953 0.55617 0.56561 0.56947 0.57051 0.57431 0.58653 0.61418 0.63059 0.64085 0.6512 0.67221 0.70172 0.71303 0.7245 0.72397 0.71186 0.71151 0.71865 0.73351 0.72527 0.72476 0.73175 0.72747 0.71971 0.73377 0.75581 0.76277 0.75806 0.76103 0.76785 0.77078 0.78148 0.7883 0.80321 0.81842 0.82965 0.83664 0.84801 0.85063 0.8532 0.8691 0.87161 0.87407 0.86767 0.85294 0.90424 0.91604 0.91356 0.91114 0.90878 0.92973 0.97689 0.97887 0.9914 0.9933 0.79999 0.80576 0.94446 0.97536 1.0027 1.015 1.0383 1.0918 1.0932 1.0655 1.0727 1.0975 1.1048 1.1061 1.0786 1.0744 1.0541 1.0452 0.94834 0.96304 1.0198 1.0262 1.0229 1.1362 1.1614 1.1873 1.1946 1.2082 1.2288 1.2567 1.2713 1.2717 1.2314 1.2321 1.2393 1.1323 1.1556 1.1509 1.1575 1.1584 1.1706 1.1771
-0.9923 -1.1196 -0.97327 -0.97174 -1.0956 -1.0648 -1.0353 -1.0293 -1.0465 -1.0547 -0.99388 -0.99231 -0.98642 -0.98482 -1.0008 -0.97298 -0.97127 -1.0899 -0.9854 -1.0019 -1.0096 -1.0176 -1.0358 -1.0193 -0.97967 -0.95996 -0.94077 -0.93463 -0.94564 -0.93507 -0.9831 -0.9488 -0.90395 -0.88975 -0.95676 -0.95018 -0.94359 -0.92798 -0.91265 -0.9019 -0.90406 -0.91511 -0.92204 -0.86794 -0.86157 -0.8512 -0.84487 -0.84247 -0.84405 -0.85384 -0.84321 -0.83267 -0.82618 -0.82364 -0.81712 -0.81849 -0.80408 -0.78993 -0.77606 -0.76606 -0.75259 -0.74628 -0.72977 -0.72025 -0.71405 -0.67689 -0.66514 -0.67991 -0.65625 -0.65896 -0.65299 -0.65569 -0.65552 -0.65235 -0.6612 -0.66417 -0.66406 -0.66076 -0.65745 -0.65727 -0.65388 -0.65366 -0.65996 -0.65647 -0.64319 -0.63961 -0.63602 -0.63241 -0.63194 -0.61871 -0.59971 -0.58716 -0.58339 -0.58831 -0.58445 -0.57179 -0.5622 -0.54998 -0.54062 -0.53135 -0.53256 -0.52846 -0.51657 -0.50737 -0.49345 -0.47992 -0.47346 -0.4761 -0.4718 -0.46519 -0.46541 -0.45869 -0.45198 -0.44306 -0.43855 -0.43398 -0.42723 -0.42048 -0.4179 -0.40698 -0.3905 -0.38206 -0.3719 -0.34869 -0.33483 -0.35932 -0.34761 -0.33623 -0.3267 -0.32491 -0.32624 -0.31962 -0.31301 -0.31096 -0.30125 -0.29173 -0.2824 -0.27456 -0.28157 -0.26933 -0.26265 -0.25724 -0.25052 -0.24381 -0.23709 -0.23037 -0.2259 -0.21587 -0.20919 -0.20251 -0.19583 -0.18821 -0.18068 -0.17321 -0.16744 -0.16082 -0.15497 -0.14688 -0.14237 -0.13912 -0.13094 -0.12354 -0.11738 -0.11172 -0.10594 -0.098017 -0.090249 -0.081032 -0.07373 -0.065628 -0.060108 -0.054167 -0.047646 -0.040928 -0.034273 -0.027294 -0.020858 -0.014687 -0.0084388 -0.0019803 0.0044572 0.010885 0.017313 0.023741 0.030459 0.037306 0.044287 0.051155 0.059258 0.068491 0 0 0 0 0 0 0 0 0 0 0 0 0 0 0 0 0 0 0 0 0 0 0 0 0 0 0 0 0 0 0.1519 0.15563 0.15677 0.16087 0.17156 0.1759 0.18078 0.18518 0.19015 0.19406 0.28403 0.32457 0.32932 0.3387 0.34663 0.35463 0.361 0.36736 0.37908 0.40285 0.38108 0.38557 0.4252 0.43638 0.43877 0.43681 0.44345 0.45457 0.46129 0.46113 0.46548 0.47206 0.48574 0.49242 0.49911 0.5083 0.52016 0.51915 0.52844 0.53782 0.54729 0.5597 0.56085 0.56481 0.57156 0.57831 0.57644 0.5691 0.55948 0.6053 0.63748 0.63462 0.63828 0.68341 0.69446 0.698 0.71299 0.71259 0.70471 0.70441 0.71899 0.72998 0.72561 0.72509 0.72831 0.72779 0.72362 0.73409 0.75228 0.7592 0.75454 0.75753 0.76817 0.77499 0.78579 0.79264 0.80765 0.82299 0.82571 0.83698 0.85279 0.84658 0.84918 0.86494 0.86745 0.86994 0.8636 0.87042 0.89527 0.88855 0.89541 0.81182 0.81798 0.90224 0.83031 0.8403 0.99174 0.97801 0.80027 0.80604 0.94478 0.97077 1.0082 1.0315 1.0442 1.0685 1.0758 1.0658 1.0788 1.0919 1.0992 1.1125 1.1019 1.0747 1.0492 1.0455 0.95292 0.95468 1.0299 1.0314 1.0232 1.1365 1.1556 1.1813 1.1885 1.2022 1.2225 1.2501 1.2646 1.2581 1.2188 1.226 1.2331 1.1381 1.1392 1.1402 1.1467 1.17 1.1709 1.1832
-0.99611 -1.1568 -1.0406 -1.0392 -1.0953 -1.041 -1.0396 -1.0291 -1.0231 -1.0448 -0.9936 -0.99203 -0.99046 -0.98454 -1.005 -1.0509 -1.075 -1.0842 -0.99862 -1.0062 -1.0141 -1.0173 -1.0405 -1.0239 -0.97938 -0.95092 -0.93624 -0.92178 -0.94534 -0.93478 -0.99245 -0.96215 -0.9421 -0.94463 -0.95182 -0.9592 -0.95726 -0.94126 -0.92561 -0.91463 -0.91251 -0.92844 -0.93562 -0.90156 -0.88202 -0.8755 -0.86481 -0.85832 -0.86009 -0.86611 -0.85525 -0.84863 -0.84201 -0.83134 -0.82878 -0.83442 -0.81555 -0.79342 -0.78317 -0.77671 -0.77395 -0.76379 -0.72948 -0.7266 -0.72035 -0.67661 -0.66776 -0.67361 -0.66465 -0.65007 -0.65852 -0.65837 -0.65523 -0.65503 -0.65483 -0.68983 -0.67335 -0.66683 -0.66998 -0.67326 -0.66986 -0.66978 -0.66634 -0.65949 -0.64607 -0.64251 -0.63894 -0.63529 -0.63162 -0.61525 -0.60237 -0.59563 -0.58888 -0.59098 -0.58709 -0.5802 -0.57331 -0.56643 -0.56241 -0.55833 -0.55138 -0.53617 -0.52399 -0.50706 -0.49795 -0.48895 -0.48004 -0.47579 -0.4692 -0.46262 -0.4674 -0.46295 -0.45617 -0.44939 -0.44484 -0.43802 -0.42904 -0.42226 -0.41548 -0.40465 -0.39019 -0.37991 -0.37159 -0.34999 -0.33605 -0.368 -0.35588 -0.34078 -0.33106 -0.32774 -0.32753 -0.32088 -0.31269 -0.31064 -0.30851 -0.30323 -0.30094 -0.30016 -0.29153 -0.27864 -0.27172 -0.26615 -0.2592 -0.25224 -0.24529 -0.23711 -0.23137 -0.21989 -0.21096 -0.2032 -0.19746 -0.19166 -0.18396 -0.17633 -0.17131 -0.16371 -0.15697 -0.14874 -0.14347 -0.1395 -0.13128 -0.12446 -0.11825 -0.11253 -0.1067 -0.099196 -0.090841 -0.080719 -0.07342 -0.065946 -0.060089 -0.054381 -0.047566 -0.041013 -0.034295 -0.027378 -0.020753 -0.014591 -0.0082504 -0.0016978 0.0048082 0.011298 0.017702 0.024161 0.031065 0.037436 0.044385 0.051218 0.061439 0.068827 0 0 0 0 0 0 0 0 0 0 0 0 0 0 0 0 0 0 0 0 0 0 0 0 0 0 0 0 0 0 0 0 0.165 0.16886 0.17223 0.17608 0.18044 0.18643 0.19034 0.2787 0.2843 0.32487 0.32811 0.33433 0.34212 0.34998 0.363 0.37472 0.38305 0.40317 0.38138 0.38587 0.42553 0.43449 0.43691 0.43498 0.44597 0.45944 0.46391 0.46144 0.46579 0.47237 0.48367 0.49518 0.49942 0.50862 0.52048 0.51947 0.53139 0.5519 0.56459 0.56864 0.56975 0.56513 0.56905 0.57863 0.57114 0.56133 0.55978 0.68025 0.65835 0.6656 0.71912 0.68376 0.69105 0.6909 0.69812 0.70913 0.70134 0.70107 0.71933 0.73032 0.72594 0.72919 0.73242 0.73941 0.74256 0.7534 0.75647 0.76343 0.75871 0.76168 0.7685 0.77926 0.78611 0.79698 0.81633 0.82759 0.82182 0.83731 0.84868 0.84691 0.84951 0.86082 0.87227 0.87473 0.85959 0.8452 0.90491 0.89338 0.89573 0.81211 0.81827 0.90256 0.8306 0.84059 0.99209 0.97324 0.96517 0.95739 0.97409 1.0174 1.0246 1.0373 1.0501 1.0688 1.0762 1.0605 1.0849 1.1102 1.1176 1.1128 1.1202 1.0641 1.071 1.0834 0.95321 0.95929 1.0555 1.0727 1.1125 1.1428 1.1682 1.188 1.1952 1.2025 1.2228 1.2437 1.2579 1.2516 1.2388 1.246 1.2466 1.2471 1.2543 1.1685 1.181 1.2559 1.2629 1.27
-1.1858 -1.1456 -1.1179 -1.1115 -1.1943 -1.1936 -1.1241 -1.1176 -1.1111 -1.1964 -1.1711 -1.1642 -1.1284 -1.1217 -1.1493 -1.1027 -1.0799 -1.0893 -0.99833 -1.0106 -1.0186 -1.0267 -1.0301 -1.0187 -0.97908 -0.95936 -0.94446 -0.95129 -1.0256 -1.0239 -0.99704 -0.96184 -0.95078 -0.94887 -0.95613 -0.96363 -0.95224 -0.94095 -0.9298 -0.92321 -0.91663 -0.92812 -0.9353 -0.90569 -0.89029 -0.88371 -0.87712 -0.86633 -0.86817 -0.8658 -0.85493 -0.84832 -0.8417 -0.82701 -0.82046 -0.8259 -0.80735 -0.78932 -0.78286 -0.78013 -0.78114 -0.77459 -0.70021 -0.71638 -0.72005 -0.68229 -0.67631 -0.67933 -0.66437 -0.65549 -0.70202 -0.67319 -0.67005 -0.66688 -0.68941 -0.7325 -0.6829 -0.673 -0.67297 -0.67966 -0.67288 -0.6661 -0.65932 -0.64608 -0.63621 -0.6358 -0.63219 -0.62856 -0.61862 -0.6088 -0.59318 -0.58943 -0.58564 -0.58766 -0.5838 -0.57695 -0.5701 -0.5661 -0.56208 -0.558 -0.54823 -0.53313 -0.52107 -0.50674 -0.49523 -0.48628 -0.47973 -0.47317 -0.46662 -0.46007 -0.46248 -0.45805 -0.45359 -0.45133 -0.44228 -0.4355 -0.42872 -0.41984 -0.41105 -0.40036 -0.38799 -0.3796 -0.36951 -0.35626 -0.34666 -0.35351 -0.35037 -0.33721 -0.32609 -0.3243 -0.32246 -0.31745 -0.31086 -0.30879 -0.31132 -0.30756 -0.30373 -0.30141 -0.29272 -0.27974 -0.27139 -0.26582 -0.26021 -0.25191 -0.2437 -0.23678 -0.23104 -0.21847 -0.21063 -0.20288 -0.19616 -0.19039 -0.18273 -0.17515 -0.1693 -0.16259 -0.15434 -0.14769 -0.14244 -0.13708 -0.12965 -0.12229 -0.11732 -0.11163 -0.10528 -0.09836 -0.089605 -0.080406 -0.073111 -0.065641 -0.060069 -0.054069 -0.047484 -0.0409 -0.034149 -0.027201 -0.020546 -0.014353 -0.0079392 -0.0013866 0.0050918 0.01155 0.018096 0.024585 0.031075 0.037746 0.044267 0.051034 0 0 0 0 0 0 0 0 0 0 0 0 0 0 0 0 0 0 0 0 0 0 0 0 0 0 0 0 0 0 0 0 0 0 0 0 0 0 0 0 0 0.31852 0.31889 0.32517 0.3284 0.33462 0.344 0.35357 0.40125 0.3805 0.38522 0.4117 0.41228 0.41698 0.43457 0.43703 0.43941 0.4396 0.44628 0.46208 0.46423 0.46176 0.4661 0.47269 0.48638 0.4955 0.50222 0.51402 0.52343 0.52236 0.53706 0.55223 0.56786 0.57488 0.57593 0.56546 0.56937 0.57895 0.57424 0.55899 0.56008 0.57173 0.60367 0.60732 0.61696 0.67324 0.68403 0.60993 0.61921 0.70195 0.69801 0.70141 0.71967 0.72681 0.72628 0.72576 0.73655 0.73974 0.74673 0.75373 0.76072 0.76771 0.76678 0.76976 0.77273 0.77958 0.78644 0.79731 0.81666 0.82365 0.82215 0.83332 0.84463 0.84724 0.84984 0.86115 0.8726 0.88879 0.87752 0.88444 0.94451 0.92674 0.96969 0.8124 0.81857 0.88958 0.80166 0.80761 0.81356 0.99969 0.97554 0.95286 0.96945 1.0071 1.025 1.0321 1.0448 1.0692 1.0707 1.0609 1.0795 1.1045 1.118 1.1132 1.1266 1.0276 1.0605 1.0838 0.97539 0.98162 1.1161 1.0892 1.1243 1.1491 1.1747 1.182 1.1956 1.2028 1.2232 1.244 1.2583 1.2452 1.2457 1.2331 1.2338 1.2152 1.1796 1.3709 1.3401 1.2899 1.2972 1.2974
-1.1797 -1.1674 -1.1553 -1.1112 -1.194 -1.1696 -1.1458 -1.1447 -1.1108 -1.1961 -1.1829 -1.1699 -1.1453 -1.1214 -1.1431 -1.1247 -1.1011 -1.089 -1.0026 -0.99184 -1.0379 -1.0264 -1.0502 -1.0384 -0.97424 -0.96796 -0.95725 -0.951 -1.0252 -1.0236 -1.0017 -0.97557 -0.9643 -0.96241 -0.96048 -0.95857 -0.94725 -0.94063 -0.93402 -0.9274 -0.92078 -0.92322 -0.92567 -0.90538 -0.89432 -0.89208 -0.88543 -0.87878 -0.86785 -0.86548 -0.85462 -0.84389 -0.8373 -0.81876 -0.81227 -0.80967 -0.79547 -0.77788 -0.77151 -0.77242 -0.78845 -0.79744 -0.69993 -0.70963 -0.71645 -0.679 -0.67305 -0.67905 -0.66408 -0.65521 -0.70171 -0.69859 -0.69882 -0.69903 -0.6891 -0.72838 -0.7068 -0.6929 -0.69309 -0.69681 -0.68633 -0.67254 -0.65248 -0.63318 -0.62357 -0.62304 -0.62253 -0.61584 -0.60916 -0.59657 -0.58425 -0.58051 -0.57672 -0.57861 -0.58052 -0.57082 -0.56404 -0.55726 -0.55325 -0.552 -0.54237 -0.52489 -0.51561 -0.5015 -0.49014 -0.4813 -0.4771 -0.47748 -0.46631 -0.45754 -0.45541 -0.45101 -0.45102 -0.44874 -0.44196 -0.43518 -0.42627 -0.42161 -0.4087 -0.39808 -0.38768 -0.37929 -0.37098 -0.36103 -0.3546 -0.34982 -0.34337 -0.33372 -0.32427 -0.32093 -0.31753 -0.31257 -0.30756 -0.30545 -0.311 -0.31043 -0.30821 -0.30591 -0.29706 -0.28085 -0.27245 -0.26549 -0.26122 -0.25553 -0.24589 -0.2389 -0.23191 -0.21925 -0.21031 -0.20357 -0.19584 -0.19007 -0.18151 -0.17397 -0.16732 -0.16067 -0.15327 -0.14594 -0.14072 -0.13541 -0.12743 -0.12078 -0.11469 -0.10963 -0.10389 -0.097533 -0.089283 -0.080094 -0.073154 -0.066601 -0.060635 -0.054553 -0.047635 -0.040785 -0.034003 -0.027154 -0.020436 -0.014112 -0.007628 -0.0010754 0.0053476 0.011801 0.018404 0.025014 0.031535 0.037692 0.044577 0.051345 0 0 0 0 0 0 0 0 0 0 0 0 0 0 0 0 0 0 0 0 0 0 0 0 0 0 0 0 0 0 0 0 0 0 0 0 0 0 0 0 0 0.31883 0.32219 0.32698 0.3287 0.33646 0.34754 0.35387 0.40159 0.38082 0.38553 0.41202 0.41261 0.4258 0.43713 0.44408 0.4442 0.4421 0.44882 0.46476 0.46922 0.46435 0.46641 0.4753 0.48669 0.49582 0.50254 0.51693 0.52908 0.5279 0.53738 0.55256 0.56819 0.57522 0.57626 0.57147 0.57538 0.58216 0.57739 0.5673 0.56833 0.57747 0.59234 0.60469 0.62964 0.64614 0.68437 0.61024 0.61951 0.68061 0.68406 0.69452 0.71248 0.7121 0.71174 0.715 0.72558 0.73626 0.74707 0.75797 0.76901 0.78014 0.77906 0.78609 0.78902 0.78787 0.79075 0.80172 0.82123 0.82399 0.82248 0.83797 0.85379 0.83472 0.83311 0.83989 0.87293 0.90328 0.89619 0.89391 0.9151 0.95219 0.97004 0.81269 0.81886 0.8899 0.80194 0.80789 0.81384 1 1.0127 0.94841 0.96489 1.0074 1.0199 1.038 1.0622 1.0813 1.0827 1.0726 1.0975 1.1049 1.1062 1.1135 1.127 1.0279 1.0397 1.0841 0.97569 0.98191 1.1223 1.1177 1.1484 1.1679 1.1814 1.1823 1.1959 1.1967 1.2169 1.2376 1.245 1.2388 1.2395 1.24 1.2341 1.179 1.1799 1.3713 1.3712 1.3633 1.3633 1.3556
-1.1794 -1.1843 -1.1777 -1.1768 -1.1937 -1.175 -1.1625 -1.1673 -1.1783 -1.202 -1.1949 -1.1817 -1.1507 -1.1266 -1.137 -1.1301 -1.1063 -1.0995 -1.0609 -1.0492 -0.9633 -0.95724 -1.0819 -1.0588 -0.96499 -0.9632 -1.049 -1.0475 -1.0513 -1.0233 -1.0013 -0.98002 -0.96868 -0.96209 -0.9649 -0.95355 -0.94234 -0.93576 -0.9337 -0.92709 -0.92047 -0.91836 -0.91622 -0.90506 -0.894 -0.88739 -0.88077 -0.87415 -0.86754 -0.85674 -0.85016 -0.84769 -0.83294 -0.81846 -0.81197 -0.80548 -0.78764 -0.77395 -0.76046 -0.76127 -0.75848 -0.73481 -0.70276 -0.70934 -0.71615 -0.65846 -0.66984 -0.67574 -0.63572 -0.63268 -0.69156 -0.70164 -0.7053 -0.70908 -0.72382 -0.74343 -0.71368 -0.70317 -0.70343 -0.7074 -0.69668 -0.67908 -0.65867 -0.62981 -0.62026 -0.62273 -0.61915 -0.6125 -0.60884 -0.59626 -0.58113 -0.5802 -0.57641 -0.57829 -0.5802 -0.56767 -0.56092 -0.55417 -0.54742 -0.54611 -0.53393 -0.52457 -0.51785 -0.50118 -0.48984 -0.48099 -0.4791 -0.47952 -0.46826 -0.45944 -0.45509 -0.44851 -0.4507 -0.44399 -0.44164 -0.43928 -0.42807 -0.4192 -0.41451 -0.39972 -0.38925 -0.38081 -0.37246 -0.35901 -0.35096 -0.34621 -0.33822 -0.33185 -0.32549 -0.32215 -0.31572 -0.31077 -0.30725 -0.30073 -0.3091 -0.31009 -0.30787 -0.30557 -0.29671 -0.28198 -0.27212 -0.26654 -0.26089 -0.25653 -0.24813 -0.23857 -0.23157 -0.22004 -0.21104 -0.20325 -0.1965 -0.19166 -0.183 -0.17365 -0.167 -0.16035 -0.15295 -0.14633 -0.14041 -0.13442 -0.12711 -0.11929 -0.11437 -0.10823 -0.10357 -0.096716 -0.088961 -0.08017 -0.073196 -0.066612 -0.060618 -0.054776 -0.04732 -0.04067 -0.033854 -0.026975 -0.020129 -0.013736 -0.0073168 -0.00076783 0.0056514 0.012106 0.018623 0.025323 0.031845 0.037639 0.04342 0 0 0 0 0 0 0 0 0 0 0 0 0 0 0 0 0 0 0 0 0 0 0 0 0 0 0 0 0 0.2223 0.22833 0.2354 0.24038 0.24863 0.2944 0.30142 0.3308 0.31064 0.31756 0.33127 0.31838 0.32503 0.32065 0.324 0.32882 0.32899 0.33832 0.35112 0.36093 0.40192 0.37208 0.38031 0.38311 0.42354 0.4305 0.43522 0.44441 0.44678 0.44462 0.45137 0.46508 0.46954 0.46467 0.46447 0.47331 0.48461 0.49614 0.50536 0.51989 0.52941 0.5256 0.53771 0.55007 0.56852 0.57555 0.57659 0.57179 0.5757 0.57959 0.58056 0.57586 0.56864 0.57778 0.58698 0.59917 0.63636 0.64978 0.66349 0.64708 0.65383 0.67402 0.6809 0.68779 0.69823 0.69802 0.69778 0.70812 0.71857 0.73659 0.7474 0.75831 0.77338 0.78048 0.78347 0.78642 0.79761 0.79635 0.7992 0.81033 0.82587 0.83293 0.82703 0.84265 0.86316 0.82665 0.81707 0.82779 0.83037 0.90842 0.89185 0.88059 0.8966 0.83093 0.8334 0.84373 0.85013 0.98188 0.92411 0.93096 0.93781 1.0394 1.0469 0.94402 0.96522 1.0185 1.0256 1.0383 1.0742 1.0936 1.1072 1.0964 1.1099 1.1361 1.2188 1.1983 1.2062 1.1409 1.1237 1.131 1.1382 1.1455 1.1405 1.1356 1.161 1.1872 1.1818 1.189 1.1963 1.2035 1.2173 1.2379 1.2453 1.2391 1.2331 1.2404 1.2476 1.2548 1.4929 1.4124 1.3956 1.3793 1.3792 1.379
-1.1907 -1.1958 -1.2009 -1.1882 -1.1874 -1.1865 -1.1738 -1.167 -1.184 -1.1892 -1.1946 -1.1938 -1.1164 -1.1152 -1.1195 -1.0398 -1.0286 -1.062 -0.97512 -0.97345 -0.94607 -0.94012 -0.9509 -1.048 -0.9647 -0.9629 -1.0487 -1.0471 -1.0298 -1.0128 -0.99609 -0.9797 -0.95904 -0.95252 -0.9552 -0.94861 -0.93747 -0.93092 -0.92886 -0.91781 -0.90687 -0.90471 -0.89816 -0.8916 -0.88505 -0.8785 -0.87195 -0.86539 -0.85884 -0.85229 -0.84574 -0.84326 -0.83263 -0.8221 -0.80777 -0.80131 -0.78365 -0.77001 -0.76017 -0.76097 -0.74761 -0.73791 -0.6784 -0.6726 -0.66966 -0.65819 -0.66956 -0.67847 -0.63545 -0.6324 -0.6945 -0.70813 -0.71192 -0.71582 -0.73852 -0.74309 -0.72826 -0.71373 -0.71787 -0.71832 -0.70739 -0.69293 -0.67877 -0.62647 -0.62903 -0.62548 -0.61883 -0.61218 -0.60553 -0.59305 -0.58082 -0.57988 -0.5733 -0.57229 -0.5741 -0.55625 -0.54696 -0.54038 -0.5364 -0.53239 -0.52316 -0.52166 -0.51753 -0.50087 -0.49429 -0.4877 -0.47192 -0.48879 -0.47724 -0.46361 -0.45925 -0.45484 -0.45038 -0.44367 -0.44132 -0.43238 -0.42352 -0.41681 -0.41213 -0.40338 -0.38334 -0.37327 -0.36859 -0.3587 -0.34738 -0.34268 -0.34113 -0.3363 -0.32984 -0.32493 -0.31844 -0.31195 -0.30694 -0.30042 -0.29532 -0.31138 -0.30916 -0.30359 -0.2948 -0.28019 -0.2732 -0.26759 -0.26192 -0.25755 -0.24909 -0.24072 -0.23244 -0.21971 -0.21286 -0.20497 -0.19815 -0.19231 -0.18452 -0.17506 -0.16751 -0.16163 -0.15415 -0.14747 -0.14148 -0.13611 -0.12805 -0.12074 -0.11462 -0.10953 -0.10376 -0.097874 -0.089539 -0.081047 -0.0736 -0.067282 -0.06151 -0.055283 -0.047707 -0.040755 -0.03404 -0.026793 -0.020014 -0.013558 -0.0070056 -0.00045299 0.0058995 0.012412 0.01902 0.02551 0.032467 0.037412 0.04372 0 0 0 0 0 0 0 0 0 0 0 0 0 0 0 0 0 0 0 0 0 0 0 0 0 0 0 0 0 0.22259 0.23067 0.23676 0.24284 0.24892 0.2645 0.27081 0.2921 0.29875 0.30844 0.3183 0.32028 0.32375 0.32718 0.3243 0.32913 0.31902 0.33706 0.35142 0.34478 0.35095 0.36543 0.37174 0.38341 0.42387 0.43306 0.43779 0.44474 0.44711 0.44494 0.45394 0.46541 0.47226 0.46046 0.46254 0.47133 0.48493 0.49646 0.50568 0.52022 0.52974 0.52855 0.53803 0.55321 0.56886 0.57589 0.57692 0.57503 0.57893 0.58281 0.58376 0.5818 0.57713 0.58083 0.59011 0.59948 0.61791 0.6339 0.64709 0.6474 0.65741 0.66419 0.66434 0.67105 0.68799 0.68789 0.6981 0.70489 0.7189 0.73316 0.74773 0.75472 0.76567 0.7727 0.77973 0.78269 0.79794 0.80081 0.79953 0.81066 0.8262 0.82893 0.81895 0.84299 0.86807 0.75164 0.7578 0.81999 0.83069 0.90876 0.86963 0.87648 0.89235 0.83124 0.8497 0.85209 0.85043 0.9717 0.94842 0.93129 0.93814 0.94499 0.94702 0.93042 0.96065 1.0134 1.0152 1.0332 1.0865 1.1062 1.1076 1.1028 1.1103 1.1429 1.1703 1.1917 1.1927 1.1604 1.1301 1.1253 1.1205 1.1218 1.123 1.136 1.1613 1.1748 1.1821 1.1894 1.1966 1.2039 1.2242 1.2383 1.2456 1.2395 1.2335 1.2474 1.2547 1.2551 1.4934 1.4128 1.3337 1.3487 1.3717 1.3952
-1.239 -1.2321 -1.2189 -1.206 -1.1991 -1.1983 -1.1854 -1.1845 -1.1837 -1.1828 -1.188 -1.2389 -1.116 -1.1039 -1.1081 -1.0644 -1.0332 -1.0617 -0.97483 -0.96878 -0.95421 -0.94401 -0.95061 -1.0477 -0.99176 -0.98536 -1.0537 -1.0686 -1.056 -1.0124 -1.0057 -0.96992 -0.95412 -0.96147 -0.95954 -0.95292 -0.93716 -0.93061 -0.92406 -0.92196 -0.91095 -0.9044 -0.89785 -0.89129 -0.88904 -0.87819 -0.87164 -0.86091 -0.85439 -0.84787 -0.83731 -0.83887 -0.84044 -0.82179 -0.80365 -0.79343 -0.78334 -0.76615 -0.75987 -0.76067 -0.75079 -0.74448 -0.67812 -0.67233 -0.66653 -0.66356 -0.66636 -0.69371 -0.63518 -0.63213 -0.71784 -0.72181 -0.72585 -0.72637 -0.7499 -0.7547 -0.75554 -0.74416 -0.74087 -0.73753 -0.73016 -0.70362 -0.68553 -0.66119 -0.64771 -0.63768 -0.62777 -0.61794 -0.61123 -0.59563 -0.58332 -0.5824 -0.57578 -0.5748 -0.57378 -0.55593 -0.54665 -0.54007 -0.5309 -0.52947 -0.52031 -0.52134 -0.51721 -0.50798 -0.50629 -0.50457 -0.50282 -0.50624 -0.49155 -0.47973 -0.47288 -0.46603 -0.45685 -0.44555 -0.43881 -0.42992 -0.42111 -0.41239 -0.40775 -0.40306 -0.38303 -0.37297 -0.36828 -0.3584 -0.34871 -0.3456 -0.35082 -0.34934 -0.33925 -0.3326 -0.32595 -0.3193 -0.31733 -0.3169 -0.32318 -0.31939 -0.31213 -0.30488 -0.29762 -0.28278 -0.27572 -0.27149 -0.26716 -0.26275 -0.25273 -0.24421 -0.23455 -0.22163 -0.21471 -0.20885 -0.20294 -0.19595 -0.18798 -0.17918 -0.17143 -0.16626 -0.15934 -0.15241 -0.14549 -0.13857 -0.13098 -0.12409 -0.11903 -0.11203 -0.10504 -0.098049 -0.091056 -0.08363 -0.076282 -0.069717 -0.064079 -0.056976 -0.048847 -0.041464 -0.034579 -0.027006 -0.019993 -0.013311 -0.0067269 -0.00014329 0.0062005 0.012479 0.019611 0.026195 0 0 0 0 0 0 0 0 0 0 0 0 0 0 0 0 0 0 0 0 0 0 0 0 0 0 0 0 0 0 0 0 0.22795 0.23306 0.23919 0.24533 0.25261 0.26115 0.27758 0.28957 0.29907 0.30875 0.31704 0.31902 0.32407 0.33561 0.35103 0.36159 0.31931 0.32534 0.35508 0.34508 0.35124 0.36403 0.37204 0.38371 0.4242 0.43792 0.44267 0.4497 0.45203 0.45203 0.45656 0.46809 0.47019 0.46301 0.46509 0.47625 0.4925 0.50427 0.51369 0.52586 0.53551 0.54247 0.55227 0.56511 0.57822 0.58228 0.58325 0.58421 0.59116 0.58905 0.58698 0.58788 0.59456 0.59828 0.59904 0.59979 0.62437 0.63739 0.64742 0.65095 0.65447 0.65794 0.65812 0.66477 0.68486 0.69164 0.70195 0.70876 0.71923 0.73725 0.75194 0.75897 0.77001 0.77708 0.78006 0.78709 0.80246 0.80115 0.804 0.8152 0.83087 0.82926 0.81927 0.83897 0.86841 0.75193 0.75809 0.88995 0.91161 0.9239 0.93123 1.04 0.91133 0.86001 0.8709 0.87755 0.88419 0.98257 0.92476 0.93161 0.95784 0.94532 0.94734 0.94466 0.93739 1.0138 1.0155 1.0173 1.1052 1.1191 1.1267 1.1217 1.123 1.1498 1.1774 1.1991 1.193 1.1607 1.1304 1.1256 1.1092 1.1162 1.1233 1.1363 1.1555 1.1815 1.1825 1.1833 1.2034 1.2042 1.2313 1.2386 1.2597 1.2603 1.2405 1.2544 1.2617 1.269 1.4938 1.5215 1.3415 1.3567 1.3799 1.4117
-1.2451 -1.2381 -1.2125 -1.1995 -1.1927 -1.2041 -1.1972 -1.1903 -1.1833 -1.1764 -1.1755 -1.1869 -1.0994 -1.0982 -1.1024 -1.0641 -0.9567 -0.95498 -0.98782 -0.97726 -0.96244 -0.94372 -0.93361 -1.0474 -1.0459 -1.1871 -1.1099 -1.0909 -1.0895 -1.0823 -1.0751 -1.0852 -0.98209 -0.97061 -0.96872 -0.96204 -0.97458 -1.0469 -1.0339 -0.97879 -0.91953 -0.90848 -0.89321 -0.89098 -0.88873 -0.88214 -0.87132 -0.8606 -0.84998 -0.83548 -0.82512 -0.83051 -0.84427 -0.82546 -0.79953 -0.78572 -0.77213 -0.75881 -0.75259 -0.75329 -0.75403 -0.74418 -0.67785 -0.67205 -0.66626 -0.66046 -0.73317 -0.73728 -0.72019 -0.7137 -0.71406 -0.72149 -0.72919 -0.72973 -0.74561 -0.75436 -0.75519 -0.74786 -0.74456 -0.73718 -0.72981 -0.69957 -0.68879 -0.67813 -0.65733 -0.64383 -0.63376 -0.6207 -0.61701 -0.60121 -0.58584 -0.58208 -0.57547 -0.57448 -0.57346 -0.55836 -0.549 -0.53714 -0.53317 -0.52658 -0.52 -0.51846 -0.51435 -0.51018 -0.5085 -0.50424 -0.50249 -0.5059 -0.49122 -0.48184 -0.47738 -0.47046 -0.45885 -0.44745 -0.43416 -0.42329 -0.41465 -0.40609 -0.40344 -0.39489 -0.38089 -0.37266 -0.36797 -0.35981 -0.35005 -0.3486 -0.35398 -0.35428 -0.34061 -0.33393 -0.32725 -0.32057 -0.3202 -0.31983 -0.32283 -0.31904 -0.31179 -0.30617 -0.29728 -0.28543 -0.27829 -0.27403 -0.27264 -0.26526 -0.25511 -0.24517 -0.23421 -0.22243 -0.21659 -0.2096 -0.20366 -0.19766 -0.1896 -0.18069 -0.17374 -0.16678 -0.16065 -0.15366 -0.14666 -0.13895 -0.13132 -0.1244 -0.11869 -0.1117 -0.10417 -0.097716 -0.090724 -0.0833 -0.075954 -0.069746 -0.063409 -0.056343 -0.048023 -0.040723 -0.034252 -0.02682 -0.019873 -0.013062 -0.0064455 0.00017095 0.0065016 0.012779 0.020836 0.027721 0 0 0 0 0 0 0 0 0 0 0 0 0 0 0 0 0 0 0 0 0 0 0 0 0 0 0 0 0 0 0 0.22008 0.22618 0.23441 0.24057 0.24674 0.25406 0.26265 0.27789 0.28989 0.29938 0.31061 0.31736 0.31776 0.32759 0.341 0.35681 0.36569 0.35608 0.36279 0.3888 0.39586 0.40293 0.39755 0.4044 0.42192 0.43806 0.43826 0.44766 0.45003 0.4547 0.45697 0.46153 0.47323 0.47051 0.46561 0.46995 0.47891 0.49778 0.50974 0.51926 0.53162 0.54424 0.55131 0.56727 0.58061 0.58162 0.5888 0.58664 0.59061 0.59764 0.5954 0.59321 0.58819 0.59195 0.60156 0.59935 0.60301 0.63093 0.64092 0.65104 0.65456 0.64833 0.64859 0.64887 0.65861 0.68519 0.69546 0.70585 0.71631 0.7232 0.74525 0.75622 0.76729 0.77439 0.78149 0.78448 0.7957 0.8028 0.80568 0.80434 0.81981 0.82687 0.8296 0.81547 0.83498 0.86417 0.80739 0.81802 0.89029 0.91692 0.93438 0.94697 0.95442 0.92618 0.93831 1.0338 1.0993 0.96513 0.9776 1.0235 1.0369 1.0387 0.99604 0.96715 0.95934 0.97109 1.0249 1.0106 1.0071 1.1055 1.1259 1.14 1.1413 1.1297 1.1567 1.1916 1.2065 1.2003 1.1741 1.1369 1.1381 0.99519 1.0015 1.0079 1.064 1.0707 1.1692 1.1828 1.1837 1.1973 1.211 1.2249 1.2458 1.2741 1.2817 1.2611 1.2616 1.2689 1.2763 1.4848 1.5027 1.3806 1.3726 1.3962 1.4204
-1.2447 -1.2378 -1.2122 -1.1932 -1.1924 -1.1976 -1.203 -1.1899 -1.183 -1.1701 -1.1692 -1.1927 -1.0991 -1.1033 -1.0966 -1.0389 -0.95642 -0.9547 -0.98753 -0.98139 -0.97086 -0.94764 -0.93333 -1.0471 -1.0455 -1.1734 -1.1155 -1.1142 -1.1069 -1.0877 -1.0805 -1.079 -0.98177 -0.9848 -0.97805 -0.98107 -0.98418 -1.0028 -1.0116 -0.98869 -0.92831 -0.9126 -0.90158 -0.895 -0.89715 -0.88613 -0.87101 -0.85616 -0.83761 -0.82344 -0.81327 -0.80696 -0.85234 -0.82915 -0.78804 -0.77452 -0.76827 -0.75505 -0.7523 -0.7565 -0.75727 -0.74388 -0.67757 -0.67178 -0.66598 -0.66019 -0.73996 -0.73697 -0.71305 -0.71339 -0.70019 -0.72117 -0.73629 -0.73313 -0.72994 -0.73049 -0.73494 -0.7395 -0.74018 -0.74088 -0.73346 -0.68832 -0.68129 -0.67779 -0.66037 -0.65008 -0.63666 -0.62662 -0.62296 -0.60388 -0.58553 -0.58177 -0.57515 -0.57701 -0.576 -0.55804 -0.54869 -0.53683 -0.52772 -0.52373 -0.52222 -0.51815 -0.51658 -0.5124 -0.51074 -0.50392 -0.50217 -0.50821 -0.49341 -0.47908 -0.47462 -0.47013 -0.45853 -0.44491 -0.43384 -0.41889 -0.4045 -0.39807 -0.3973 -0.39078 -0.38059 -0.37236 -0.36767 -0.36121 -0.34975 -0.34997 -0.35718 -0.35576 -0.34198 -0.33197 -0.32532 -0.31867 -0.31512 -0.31787 -0.32421 -0.3187 -0.31144 -0.30419 -0.29852 -0.28813 -0.28091 -0.27664 -0.27378 -0.26783 -0.25615 -0.24483 -0.23387 -0.22325 -0.21626 -0.21035 -0.20439 -0.19732 -0.19126 -0.18224 -0.17521 -0.16818 -0.16115 -0.15412 -0.14709 -0.13934 -0.13235 -0.12471 -0.11836 -0.1108 -0.10384 -0.096883 -0.090392 -0.083399 -0.076407 -0.069774 -0.063074 -0.055428 -0.047216 -0.039997 -0.033583 -0.026499 -0.01946 -0.012625 -0.0060137 0.00047588 0.0065274 0.012609 0.021163 0.028049 0 0 0 0 0 0 0 0 0 0 0 0 0 0 0 0 0 0 0 0 0 0 0 0 0 0 0 0 0 0 0 0.22037 0.22648 0.23364 0.24086 0.24816 0.25552 0.2654 0.27819 0.28879 0.29823 0.30786 0.31611 0.31808 0.32791 0.3448 0.35899 0.36602 0.35996 0.37234 0.38711 0.3962 0.40116 0.40399 0.40886 0.42225 0.43379 0.44323 0.448 0.4551 0.4574 0.45965 0.4666 0.47356 0.47563 0.47056 0.47491 0.48399 0.50318 0.5153 0.52496 0.53751 0.55033 0.56043 0.57677 0.58724 0.58821 0.59227 0.59318 0.59404 0.60111 0.60188 0.59353 0.58851 0.59226 0.60486 0.60556 0.60921 0.63443 0.64125 0.63528 0.63259 0.63301 0.63954 0.64295 0.64633 0.64359 0.70287 0.70975 0.724 0.72723 0.74949 0.76052 0.77169 0.77883 0.78183 0.78482 0.79188 0.80739 0.80601 0.80467 0.81587 0.81865 0.8172 0.7996 0.79447 0.77827 0.7847 0.81432 0.89536 0.92226 0.9451 0.95259 0.95478 0.92652 0.93865 1.0341 0.97387 0.96548 0.97795 0.96959 0.98725 0.9945 0.98071 0.98266 0.97444 0.99679 1.0252 1.0162 1.0233 1.0639 1.089 1.1404 1.1548 1.1364 1.144 1.1581 1.1725 1.2077 1.1486 1.1373 1.1384 0.99549 1.0018 1.0082 1.0643 1.071 1.1696 1.1706 1.1778 1.1912 1.1858 1.193 1.2194 1.2467 1.2473 1.2546 1.2688 1.1396 1.1518 1.3197 1.4571 1.4304 1.3968 1.4128 1.4291
-1.2444 -1.2374 -1.218 -1.1989 -1.1981 -1.1973 -1.2089 -1.2019 -1.1887 -1.1818 -1.1748 -1.2051 -1.1669 -1.1365 -1.1412 -1.0635 -0.99054 -0.98446 -0.99627 -1.0038 -0.99296 -0.98218 -0.98046 -1.2087 -1.1941 -1.1797 -1.1212 -1.1261 -1.1248 -1.0874 -1.0859 -1.0787 -1.0488 -1.0254 -1.0184 -1.0328 -1.0422 -1.0349 -1.0113 -0.99879 -0.94667 -0.93049 -0.92374 -0.91246 -0.91479 -0.89902 -0.87493 -0.85585 -0.8413 -0.81928 -0.81297 -0.80666 -0.85626 -0.83288 -0.78774 -0.77781 -0.77153 -0.76882 -0.7697 -0.77425 -0.77149 -0.75774 -0.74774 -0.82307 -0.82028 -0.79632 -0.76944 -0.74025 -0.71613 -0.76835 -0.70321 -0.69346 -0.74352 -0.7328 -0.72588 -0.73016 -0.73073 -0.7352 -0.73583 -0.7325 -0.72911 -0.68444 -0.68096 -0.67746 -0.65667 -0.64644 -0.64283 -0.63267 -0.62579 -0.60656 -0.59097 -0.58146 -0.57767 -0.57956 -0.58152 -0.56327 -0.54837 -0.53913 -0.52997 -0.52596 -0.52969 -0.53627 -0.53482 -0.51986 -0.51301 -0.50872 -0.50699 -0.51324 -0.49563 -0.47875 -0.4719 -0.4698 -0.4582 -0.44239 -0.43568 -0.41857 -0.40419 -0.39776 -0.39699 -0.39427 -0.38769 -0.3811 -0.37452 -0.36615 -0.35444 -0.35476 -0.36045 -0.35906 -0.34336 -0.33165 -0.32661 -0.31993 -0.31637 -0.31754 -0.32561 -0.31835 -0.30943 -0.30384 -0.29818 -0.28778 -0.28057 -0.27482 -0.27194 -0.26602 -0.25441 -0.24319 -0.23232 -0.22408 -0.21705 -0.21112 -0.20512 -0.19907 -0.19193 -0.18479 -0.17765 -0.17141 -0.16423 -0.15705 -0.1483 -0.14046 -0.13202 -0.12502 -0.11864 -0.11104 -0.10404 -0.097052 -0.091001 -0.084376 -0.076469 -0.069804 -0.062411 -0.055096 -0.046892 -0.039874 -0.033259 -0.026049 -0.01905 -0.012254 -0.0056245 0.00077295 0.0068163 0.012898 0 0 0 0 0 0 0 0 0 0 0 0 0 0 0 0 0 0 0 0 0 0 0 0 0 0 0 0 0 0 0 0 0 0 0.22779 0.23499 0.24337 0.25191 0.26184 0.27467 0.28957 0.29337 0.29854 0.30971 0.318 0.32155 0.32986 0.34513 0.36121 0.36635 0.37146 0.38041 0.39151 0.40072 0.41003 0.4172 0.42215 0.42929 0.43643 0.44592 0.45071 0.45544 0.46013 0.46236 0.46935 0.47882 0.48585 0.47798 0.47523 0.47954 0.48619 0.52647 0.53078 0.54353 0.55067 0.56375 0.57712 0.58441 0.58855 0.599 0.59666 0.60384 0.61757 0.60851 0.59991 0.59766 0.60444 0.61743 0.62112 0.62794 0.64122 0.64484 0.62937 0.62379 0.63333 0.63985 0.64637 0.64053 0.64389 0.71042 0.71737 0.7474 0.75458 0.7658 0.77302 0.78024 0.78745 0.78631 0.78927 0.79637 0.80773 0.80215 0.80085 0.81199 0.81477 0.81337 0.78817 0.78331 0.78227 0.79252 0.81463 0.90535 0.93277 0.96142 0.9857 1.035 1.0621 1.0769 1.1123 0.97423 0.971 0.96786 0.95974 0.96684 0.98951 0.96583 0.98815 1.0005 1.0077 1.0148 1.0166 1.0237 1.0529 1.0775 1.1152 1.1618 1.1367 1.138 1.1392 1.1596 1.2296 1.2525 1.2239 1.1834 1.1649 1.1788 1.1798 1.1139 1.1209 1.1825 1.1771 1.1844 1.2044 1.1799 1.187 1.2198 1.2336 1.2343 1.2349 1.2692 1.1399 1.1521 1.3201 1.4575 1.4748 1.4741 1.4469 1.4464
-1.2441 -1.2435 -1.2176 -1.2047 -1.1917 -1.2031 -1.2086 -1.1954 -1.1884 -1.1754 -1.1685 -1.2047 -1.1788 -1.1596 -1.1586 -1.1637 -0.98579 -0.98417 -0.99144 -0.99892 -0.98359 -0.96854 -1.1822 -1.2083 -1.1937 -1.1727 -1.1148 -1.1196 -1.1244 -1.0929 -1.0798 -1.0783 -1.054 -1.0413 -1.0287 -1.0491 -1.0532 -1.0402 -1.0163 -0.99845 -0.95116 -0.93481 -0.92803 -0.92125 -0.91447 -0.89871 -0.87889 -0.85967 -0.841 -0.81898 -0.81651 -0.80636 -0.85594 -0.82853 -0.79115 -0.78113 -0.78213 -0.77577 -0.78416 -0.78142 -0.77865 -0.76469 -0.76555 -0.82708 -0.81994 -0.79599 -0.77695 -0.74726 -0.73332 -0.74866 -0.76898 -0.76191 -0.74704 -0.73248 -0.72928 -0.72983 -0.73039 -0.74277 -0.73548 -0.72818 -0.72481 -0.68765 -0.68062 -0.67712 -0.65634 -0.64942 -0.6425 -0.63234 -0.6223 -0.60624 -0.59066 -0.58114 -0.57452 -0.58213 -0.58414 -0.56295 -0.54806 -0.53621 -0.52966 -0.53875 -0.53735 -0.54145 -0.54004 -0.52484 -0.51792 -0.51362 -0.51193 -0.51291 -0.4953 -0.47843 -0.47158 -0.46473 -0.45556 -0.43989 -0.43321 -0.42234 -0.40973 -0.40127 -0.40054 -0.3998 -0.39901 -0.39223 -0.38545 -0.37492 -0.36458 -0.35971 -0.36196 -0.36244 -0.34475 -0.33629 -0.33119 -0.32441 -0.31762 -0.31883 -0.32352 -0.31631 -0.30746 -0.30028 -0.2931 -0.28292 -0.27437 -0.27157 -0.26439 -0.26136 -0.25136 -0.23905 -0.23077 -0.22374 -0.21671 -0.21078 -0.20479 -0.19873 -0.1926 -0.18445 -0.17825 -0.17107 -0.16303 -0.15671 -0.14796 -0.14086 -0.13237 -0.12534 -0.1177 -0.1107 -0.10371 -0.097222 -0.091141 -0.084038 -0.076534 -0.069468 -0.062402 -0.054764 -0.046568 -0.039552 -0.032935 -0.025604 -0.018465 -0.011774 -0.005222 0.0010519 0.0071051 0.013127 0 0 0 0 0 0 0 0 0 0 0 0 0 0 0 0 0 0 0 0 0 0 0 0 0 0 0 0 0 0 0 0 0 0 0.22706 0.23636 0.24479 0.25458 0.26214 0.27631 0.28988 0.29513 0.30182 0.31157 0.31991 0.32507 0.33347 0.34722 0.36344 0.37054 0.37372 0.38274 0.39392 0.40106 0.41477 0.41976 0.42472 0.4319 0.43908 0.44626 0.45105 0.45577 0.46046 0.46269 0.47212 0.47668 0.48618 0.4759 0.47321 0.4775 0.47944 0.52405 0.52835 0.53538 0.54811 0.55815 0.56829 0.57243 0.57957 0.59296 0.59385 0.60418 0.61792 0.61204 0.60954 0.61023 0.614 0.62727 0.62778 0.63146 0.64483 0.65175 0.63592 0.62711 0.6367 0.65274 0.66265 0.68975 0.71483 0.72568 0.72516 0.75172 0.75492 0.77028 0.7817 0.79329 0.79204 0.79082 0.78961 0.79671 0.81235 0.80248 0.7971 0.80814 0.81094 0.80959 0.78086 0.78362 0.78258 0.78904 0.81495 0.9057 0.93831 0.95638 0.98607 1.0292 1.0497 0.9758 0.98329 0.94874 0.96099 0.96309 0.95506 0.95218 0.98463 0.97626 0.97316 0.98523 0.99226 0.99929 0.99597 1.0081 1.0589 1.0605 1.0398 1.1107 1.1245 1.1257 1.1332 1.1535 1.2227 1.2454 1.246 1.2846 1.2473 1.2479 1.3013 1.3175 1.3176 1.1458 1.1651 1.1847 1.2048 1.1865 1.1937 1.2201 1.2407 1.2346 1.1271 1.1336 1.1402 1.1524 1.3204 1.4669 1.4752 1.4927 1.4388 1.4382
-1.2502 -1.2432 -1.2235 -1.2043 -1.1854 -1.1967 -1.2082 -1.1889 -1.182 -1.0811 -1.0747 -1.1733 -1.1603 -1.0409 -1.0395 -1.0189 -0.9855 -0.9751 -0.98665 -0.99403 -0.97882 -0.96825 -1.0175 -1.1943 -1.1934 -1.1789 -1.0684 -1.0953 -1.1118 -1.0925 -1.0795 -1.078 -1.065 -1.0577 -1.0448 -1.0545 -1.0704 -1.0342 -1.0214 -1.0034 -0.95565 -0.9392 -0.93239 -0.92093 -0.91875 -0.90736 -0.87857 -0.86353 -0.84469 -0.82254 -0.8162 -0.80987 -0.87302 -0.79345 -0.79457 -0.7882 -0.78927 -0.79034 -0.79145 -0.78871 -0.78213 -0.76807 -0.76524 -0.8181 -0.8196 -0.79978 -0.7806 -0.75439 -0.74764 -0.74834 -0.75291 -0.75761 -0.7467 -0.7359 -0.73272 -0.73331 -0.73006 -0.74243 -0.72729 -0.72008 -0.7167 -0.68732 -0.68385 -0.68034 -0.65601 -0.64579 -0.6389 -0.63202 -0.62198 -0.60894 -0.59034 -0.58083 -0.57421 -0.58181 -0.5868 -0.56263 -0.54774 -0.5359 -0.52679 -0.53577 -0.53977 -0.54674 -0.54538 -0.52993 -0.52294 -0.51863 -0.51427 -0.51257 -0.49242 -0.4781 -0.47125 -0.4644 -0.45295 -0.43526 -0.43289 -0.42621 -0.41541 -0.40096 -0.39637 -0.42022 -0.41106 -0.40198 -0.39301 -0.38412 -0.37534 -0.36662 -0.3672 -0.36211 -0.34969 -0.33935 -0.33592 -0.32738 -0.32053 -0.32015 -0.32318 -0.31429 -0.30389 -0.29524 -0.28968 -0.2782 -0.2712 -0.26558 -0.25991 -0.25687 -0.24707 -0.23624 -0.23044 -0.22226 -0.21638 -0.21045 -0.20445 -0.19839 -0.19125 -0.18508 -0.17885 -0.17073 -0.16269 -0.15555 -0.14841 -0.14052 -0.13203 -0.125 -0.11737 -0.1098 -0.10285 -0.096888 -0.089859 -0.08156 -0.07351 -0.066694 -0.060182 -0.052795 -0.045332 -0.038842 -0.032287 -0.023651 -0.017563 -0.011151 -0.0048562 0.0013242 0.007394 0.013414 0.020098 0.02647 0.033849 0 0 0 0 0 0 0 0 0 0 0 0 0 0 0 0 0 0 0 0 0 0 0 0 0 0 0 0 0 0 0 0.22735 0.23451 0.25089 0.25728 0.27541 0.27797 0.29165 0.29692 0.30514 0.31345 0.31864 0.32539 0.33548 0.34755 0.3657 0.37284 0.37798 0.38712 0.39846 0.40567 0.41511 0.42463 0.42732 0.43224 0.44414 0.44897 0.44667 0.45611 0.4608 0.46543 0.47246 0.47948 0.484 0.47386 0.46892 0.4732 0.47744 0.52439 0.52596 0.53021 0.53442 0.54134 0.55972 0.56383 0.56499 0.5933 0.59419 0.60133 0.62157 0.61237 0.61624 0.62331 0.62709 0.63412 0.63455 0.63499 0.65183 0.65543 0.66238 0.62441 0.63701 0.66613 0.6763 0.69361 0.71892 0.72602 0.73312 0.75611 0.76337 0.77475 0.79058 0.79363 0.79663 0.79536 0.79412 0.80127 0.81269 0.80282 0.79336 0.80435 0.80714 0.80177 0.78497 0.78393 0.77918 0.78561 0.81526 0.90121 0.92837 0.94617 0.95898 1.0057 1.0376 0.97615 0.98365 0.91978 0.94127 0.94833 0.95042 0.95251 0.95456 0.95174 0.95379 0.96551 0.9724 0.9843 0.9812 0.98304 1.065 1.0496 1.0402 1.1111 1.1186 1.1261 1.1273 1.1348 1.2231 1.2384 1.2614 1.2772 1.2625 1.2781 1.3017 1.3099 1.318 1.1462 1.1593 1.1788 1.2183 1.1868 1.2003 1.2205 1.2277 1.2416 1.1274 1.1339 1.1405 1.1527 1.278 1.4673 1.4847 1.5024 1.2035 1.2162
-1.2563 -1.2493 -1.217 -1.204 -1.1792 -1.1667 -1.2079 -1.1826 -1.1817 -1.0808 -1.0898 -1.1492 -1.1481 -1.0406 -1.0392 -1.0233 -0.99413 -0.97916 -0.98636 -1.0076 -0.99667 -0.99039 -1.0172 -1.2007 -1.1862 -1.1921 -1.068 -1.0892 -1.1115 -1.0922 -1.0791 -1.0776 -1.0703 -1.0805 -1.0731 -1.0716 -1.07 -1.0338 -1.0156 -1.0031 -0.96022 -0.94366 -0.93681 -0.92524 -0.91843 -0.91161 -0.89135 -0.87594 -0.86083 -0.85011 -0.84356 -0.85354 -0.88623 -0.79315 -0.79055 -0.7879 -0.82013 -0.80945 -0.79886 -0.79224 -0.7895 -0.78285 -0.78391 -0.81351 -0.81495 -0.80785 -0.79242 -0.77731 -0.77036 -0.7634 -0.7643 -0.76523 -0.75813 -0.74711 -0.74392 -0.73682 -0.72972 -0.74208 -0.72695 -0.71974 -0.71636 -0.69788 -0.69074 -0.68722 -0.66939 -0.65887 -0.65184 -0.63818 -0.628 -0.62108 -0.59885 -0.58626 -0.57673 -0.58149 -0.58647 -0.56793 -0.55285 -0.53559 -0.52395 -0.52248 -0.55344 -0.54927 -0.54793 -0.53514 -0.52807 -0.52374 -0.51937 -0.51768 -0.49981 -0.48513 -0.48065 -0.47366 -0.46189 -0.44584 -0.44128 -0.43889 -0.43421 -0.42948 -0.4314 -0.42654 -0.41286 -0.40373 -0.39674 -0.39382 -0.38878 -0.38168 -0.37458 -0.36942 -0.36037 -0.35514 -0.348 -0.34086 -0.33549 -0.32831 -0.32458 -0.31562 -0.30677 -0.2996 -0.29397 -0.28524 -0.27514 -0.26804 -0.26093 -0.25653 -0.24673 -0.23963 -0.23252 -0.22542 -0.21947 -0.21346 -0.20628 -0.20124 -0.19398 -0.18573 -0.17851 -0.17222 -0.16408 -0.15686 -0.14807 -0.14093 -0.13308 -0.12467 -0.11703 -0.10948 -0.102 -0.096555 -0.088605 -0.079602 -0.071743 -0.065061 -0.058669 -0.051953 -0.044357 -0.037957 -0.031651 -0.023354 -0.017104 -0.010706 -0.0045209 0.0016304 0.0077875 0.014016 0.020395 0.026645 0.034157 0 0 0 0 0 0 0 0 0 0 0 0 0 0 0 0 0 0 0 0 0 0 0 0 0 0 0 0 0 0 0 0.26192 0.27036 0.28184 0.28598 0.28414 0.28664 0.29342 0.29872 0.30546 0.31377 0.31738 0.3241 0.34271 0.3533 0.36798 0.37715 0.38644 0.3958 0.40973 0.42177 0.43407 0.4392 0.4418 0.44926 0.46439 0.47197 0.44935 0.45645 0.46601 0.47065 0.47526 0.47982 0.48685 0.47418 0.47384 0.47351 0.47775 0.54169 0.53179 0.53054 0.52666 0.53348 0.56005 0.56712 0.57119 0.60004 0.60086 0.60807 0.62192 0.61922 0.6264 0.63023 0.63402 0.63445 0.63817 0.63857 0.65897 0.67665 0.69486 0.62472 0.63425 0.67322 0.70505 0.71215 0.74669 0.74998 0.75731 0.7816 0.78473 0.78786 0.79527 0.79831 0.79273 0.7915 0.79028 0.8016 0.81303 0.80315 0.79369 0.80467 0.81576 0.81852 0.82124 0.83236 0.86587 0.87301 0.88481 0.89673 0.92366 0.94128 0.95402 0.9889 1.0319 1.065 1.1136 0.92011 0.92706 0.94373 0.95076 0.9431 0.94518 0.94727 0.95412 0.96584 0.96782 0.98462 0.97655 0.98838 1.089 1.0844 1.1289 1.1766 1.1777 1.1855 1.2752 1.2678 1.2762 1.2536 1.2617 1.3092 1.2936 1.3018 1.318 1.3345 1.3428 1.23 1.2307 1.2593 1.3039 1.2966 1.2679 1.2475 1.2281 1.4911 1.2426 1.23 1.2116 1.2249 1.2784 1.4768 1.5326 1.5714 1.2038 1.2165
-1.2626 -1.249 -1.2229 -1.2037 -1.1789 -1.1381 -1.2396 -1.1822 -1.1577 -1.0805 -1.0843 -1.143 -1.1362 -1.0403 -1.0389 -1.0374 -1.0029 -0.97887 -0.99056 -1.0168 -1.0152 -1.0333 -1.1368 -1.0455 -1.0439 -1.0859 -1.0514 -1.0889 -1.1051 -1.086 -1.0673 -1.0601 -1.053 -1.0513 -1.0554 -1.0653 -1.0637 -1.028 -1.0207 -1.008 -0.97994 -0.96781 -0.95582 -0.93434 -0.92746 -0.92057 -0.90447 -0.88872 -0.87327 -0.86232 -0.85148 -0.86172 -0.88133 -0.84823 -0.80919 -0.81442 -0.87144 -0.82533 -0.81855 -0.80773 -0.80099 -0.79424 -0.79541 -0.81317 -0.81893 -0.80751 -0.79209 -0.78506 -0.77401 -0.76702 -0.76397 -0.76894 -0.75779 -0.75466 -0.74752 -0.74038 -0.72938 -0.74577 -0.73052 -0.72327 -0.72377 -0.69754 -0.68676 -0.68326 -0.66905 -0.65854 -0.65151 -0.64115 -0.63089 -0.62075 -0.60152 -0.59178 -0.58503 -0.59005 -0.5922 -0.57046 -0.55527 -0.53527 -0.52365 -0.52987 -0.57397 -0.56063 -0.55938 -0.54045 -0.53614 -0.53177 -0.52455 -0.52012 -0.50475 -0.49499 -0.48789 -0.47827 -0.46633 -0.45005 -0.4432 -0.4408 -0.43611 -0.43137 -0.43564 -0.4262 -0.41686 -0.40549 -0.40055 -0.39764 -0.39466 -0.38336 -0.37822 -0.37104 -0.36386 -0.35668 -0.3495 -0.34232 -0.33693 -0.32971 -0.32423 -0.31698 -0.30806 -0.30246 -0.29679 -0.28641 -0.2792 -0.27054 -0.26476 -0.25755 -0.24901 -0.23929 -0.23219 -0.22747 -0.22029 -0.21425 -0.20703 -0.20089 -0.19364 -0.18538 -0.17913 -0.17095 -0.16373 -0.15569 -0.14695 -0.13985 -0.13205 -0.12369 -0.1161 -0.10859 -0.10064 -0.094745 -0.087824 -0.078886 -0.071074 -0.064425 -0.058062 -0.050876 -0.043832 -0.037279 -0.031026 -0.022742 -0.016578 -0.010319 -0.0040812 0 0.0080435 0.01431 0.020597 0.026942 0 0 0 0 0 0 0 0 0 0 0 0 0 0 0 0 0 0 0 0 0.26044 0.27073 0 0 0 0 0 0 0 0 0 0.25523 0.25823 0.26928 0.28069 0.28483 0.28592 0.28554 0.29084 0.29609 0.30277 0.31099 0.31613 0.32282 0.33955 0.35181 0.36832 0.3755 0.38268 0.40047 0.41234 0.42213 0.43935 0.4445 0.4471 0.46235 0.50431 0.51253 0.47725 0.46164 0.46635 0.47348 0.47068 0.47767 0.48718 0.48415 0.50124 0.52182 0.52904 0.55707 0.53775 0.54202 0.54341 0.55044 0.56631 0.57345 0.58059 0.60039 0.6012 0.6052 0.62227 0.62285 0.62674 0.63057 0.63436 0.63811 0.6385 0.64217 0.66628 0.68058 0.68416 0.63724 0.64386 0.77113 0.81192 0.78229 0.76796 0.77554 0.78312 0.79966 0.79385 0.79695 0.80893 0.79866 0.79733 0.78766 0.79062 0.79772 0.80908 0.79116 0.78601 0.8009 0.81609 0.81885 0.74567 0.75192 0.75817 0.76442 0.89945 0.9019 0.92401 0.94164 0.95437 0.98927 1.0262 1.059 1.1139 0.92044 0.9322 0.93919 0.95109 0.95317 0.95522 0.95727 0.95444 0.96617 0.98305 1.0215 1.0743 1.0641 1.0833 1.0848 1.1166 1.1566 1.1712 1.179 1.0635 1.0651 1.0776 1.1897 1.2325 1.2936 1.2861 1.3022 1.3184 1.3267 1.335 1.2806 1.2519 1.2741 1.3196 1.297 1.2683 1.2479 1.235 1.4009 1.2429 1.2369 1.2119 1.2252 1.2787 1.4772 1.533 1.5718 1.1155 1.1269
-1.2756 -1.2552 -1.2163 -1.2033 -1.1443 -1.1378 -1.2458 -1.17 -1.1573 -1.0802 -1.0944 -1.1314 -1.1417 -1.0449 -1.0634 -1.0671 -0.98027 -0.98301 -0.9948 -1.0262 -1.0246 -1.033 -1.1365 -1.0452 -1.0436 -1.0913 -1.0674 -1.0771 -1.0929 -1.0629 -1.0503 -1.0378 -1.0307 -1.0291 -1.0438 -1.065 -1.0634 -1.0276 -1.0259 -1.0131 -1.0113 -0.99862 -0.98605 -0.96344 -0.95134 -0.94923 -0.93721 -0.91578 -0.90883 -0.90187 -0.89491 -0.89255 -0.88556 -0.86958 -0.84116 -0.83857 -0.84882 -0.85949 -0.85242 -0.83661 -0.82114 -0.80598 -0.80729 -0.82138 -0.81859 -0.80717 -0.7959 -0.79297 -0.78177 -0.7747 -0.77166 -0.77268 -0.7655 -0.76235 -0.7592 -0.74004 -0.72904 -0.72576 -0.71862 -0.72293 -0.71951 -0.69353 -0.68285 -0.67578 -0.6618 -0.66165 -0.65802 -0.64752 -0.63711 -0.62683 -0.6135 -0.60349 -0.59966 -0.60197 -0.60119 -0.5789 -0.56332 -0.54553 -0.52083 -0.52955 -0.57674 -0.56633 -0.56208 -0.55474 -0.54741 -0.54599 -0.54154 -0.53117 -0.51527 -0.50256 -0.49534 -0.48813 -0.47585 -0.46139 -0.45202 -0.44733 -0.44031 -0.43783 -0.43997 -0.4304 -0.41873 -0.40942 -0.40659 -0.40153 -0.39856 -0.39127 -0.38398 -0.37668 -0.36742 -0.36016 -0.35291 -0.34751 -0.34021 -0.33473 -0.32739 -0.32006 -0.30938 -0.30374 -0.29806 -0.29073 -0.28186 -0.27606 -0.26727 -0.25998 -0.24999 -0.24149 -0.23431 -0.22957 -0.22112 -0.21391 -0.2078 -0.20055 -0.19329 -0.18504 -0.17782 -0.16971 -0.16253 -0.15372 -0.14585 -0.13806 -0.13035 -0.1221 -0.11459 -0.10716 -0.10031 -0.092989 -0.086611 -0.078565 -0.070759 -0.063795 -0.056626 -0.049355 -0.042491 -0.035924 -0.029696 -0.022552 -0.015993 -0.0097643 -0.0038 0 0.008335 0.014604 0.020989 0.027238 0 0 0 0 0 0 0 0 0 0 0 0 0 0 0 0 0 0 0 0 0.26093 0.27121 0 0 0 0 0 0 0 0 0 0.25556 0.26259 0.26823 0.27809 0.28221 0.28771 0.28444 0.29116 0.29495 0.30159 0.30824 0.31645 0.32154 0.3331 0.35768 0.36672 0.37584 0.38505 0.40302 0.4173 0.43205 0.44476 0.44994 0.45504 0.46536 0.48128 0.49199 0.48849 0.46693 0.46423 0.46887 0.46148 0.47312 0.485 0.49454 0.50157 0.51395 0.538 0.55434 0.54967 0.56305 0.57355 0.58096 0.58838 0.59906 0.6099 0.61397 0.61133 0.60876 0.6193 0.62991 0.6338 0.63426 0.63469 0.6418 0.63555 0.63922 0.67734 0.68092 0.68451 0.63756 0.64417 0.78984 0.79787 0.79644 0.79969 0.81231 0.81547 0.82336 0.79864 0.80622 0.81839 0.8078 0.80201 0.79638 0.78683 0.7939 0.80096 0.79149 0.79034 0.80533 0.8249 0.83193 0.74596 0.75221 0.75846 0.76472 0.9146 0.91202 0.92943 0.94724 0.96005 1.001 1.0206 1.0406 1.1144 0.92554 0.91829 0.93468 0.95641 0.95845 0.95555 0.96749 0.96947 0.97642 0.98847 1.044 1.0687 1.0645 1.0603 1.0619 1.0985 1.1246 1.145 1.1794 1.0639 1.0654 1.0779 1.1969 1.2116 1.294 1.2943 1.3026 1.3108 1.319 1.3354 1.3274 1.3118 1.3198 1.3519 1.261 1.2616 1.2551 1.2353 1.4013 1.2432 1.2438 1.2313 1.2255 1.2791 1.4868 1.4859 1.5722 1.1158 1.1272
-1.2752 -1.2548 -1.2099 -1.1969 -1.2599 -1.2527 -1.3157 -1.2124 -1.2054 -1.1167 -1.1101 -1.1367 -1.153 -1.1011 -1.089 -1.0878 -0.98881 -0.98716 -0.9945 -1.0162 -1.0146 -1.0082 -1.0361 -1.0606 -1.0485 -1.091 -1.0726 -1.0711 -1.0867 -1.0515 -1.0391 -1.0321 -1.0251 -1.0287 -1.0434 -1.0646 -1.063 -1.0328 -1.0255 -1.0238 -1.0164 -1.0146 -0.99634 -0.9785 -0.97128 -0.96926 -0.95179 -0.93963 -0.92758 -0.93026 -0.92308 -0.91107 -0.89448 -0.88742 -0.85794 -0.84677 -0.85726 -0.86366 -0.85656 -0.84502 -0.82081 -0.79756 -0.79881 -0.82104 -0.81825 -0.80684 -0.79973 -0.7885 -0.78553 -0.77436 -0.77132 -0.77644 -0.76922 -0.76611 -0.75479 -0.7397 -0.71741 -0.71041 -0.71077 -0.71491 -0.71532 -0.68244 -0.67895 -0.67193 -0.65806 -0.65787 -0.65768 -0.65058 -0.64011 -0.62975 -0.61317 -0.60316 -0.59933 -0.60479 -0.59772 -0.58154 -0.56587 -0.55339 -0.54937 -0.56534 -0.56417 -0.56297 -0.55869 -0.55139 -0.55004 -0.54864 -0.5442 -0.53373 -0.51492 -0.50222 -0.495 -0.48778 -0.48057 -0.4659 -0.45641 -0.4517 -0.44227 -0.43981 -0.43963 -0.43237 -0.4206 -0.41125 -0.40625 -0.40551 -0.39822 -0.39092 -0.38572 -0.37433 -0.36707 -0.36175 -0.35832 -0.34716 -0.33986 -0.33438 -0.32704 -0.31971 -0.31069 -0.30504 -0.29933 -0.29038 -0.28304 -0.27571 -0.26984 -0.26104 -0.24964 -0.23988 -0.23521 -0.228 -0.22197 -0.21356 -0.20635 -0.2002 -0.19191 -0.1847 -0.17654 -0.17026 -0.16133 -0.15419 -0.14476 -0.13702 -0.13002 -0.1224 -0.11427 -0.10684 -0.099988 -0.093136 -0.086285 -0.078245 -0.070443 -0.06348 -0.056043 -0.048584 -0.041793 -0.035289 -0.02898 -0.021957 -0.015567 -0.0093994 -0.0034287 0 0.0086265 0.014898 0.021285 0.027663 0 0 0 0 0 0 0 0 0 0 0 0 0 0 0.15311 0.16194 0.16889 0 0.21043 0.22089 0.2537 0.26368 0.28199 0.29228 0 0 0 0 0 0.25936 0.26838 0.25723 0.26292 0.26856 0.27698 0.28254 0.28658 0.28761 0.29148 0.29672 0.3034 0.31008 0.31677 0.31872 0.32063 0.35992 0.369 0.37818 0.38955 0.40559 0.42474 0.43737 0.44513 0.4503 0.45285 0.46572 0.47888 0.49237 0.49734 0.45508 0.46214 0.46435 0.45947 0.46866 0.48283 0.49488 0.49932 0.51428 0.53543 0.55166 0.55301 0.5696 0.5835 0.59433 0.60191 0.6164 0.62763 0.62818 0.62178 0.61238 0.61964 0.63026 0.64102 0.63797 0.63503 0.63878 0.63588 0.6363 0.66344 0.77653 0.78475 0.73078 0.73836 0.7997 0.79353 0.79218 0.80475 0.81747 0.82063 0.82374 0.79457 0.80211 0.81876 0.81266 0.80673 0.79673 0.79129 0.79423 0.79712 0.79588 0.79874 0.80979 0.82956 0.83662 0.74626 0.75251 0.75876 0.76501 0.90996 0.90743 0.92471 0.94234 0.96041 1.0072 1.021 0.9885 0.99608 0.89355 0.9048 0.93985 0.95674 0.95384 0.94616 0.96284 0.97482 0.98181 0.99914 1.0501 1.075 1.059 1.0493 1.0509 1.0869 1.1249 1.1325 1.1401 1.0642 1.0713 1.0783 1.2111 1.219 1.3023 1.3027 1.303 1.3032 1.3194 1.3523 1.3607 1.3523 1.3441 1.3605 1.2544 1.269 1.2695 1.2841 1.4017 1.2436 1.2508 1.2448 1.08 1.0912 1.1393 1.1404 1.3013 1.1161 1.1223
-1.255 -1.248 -1.05 -1.0441 -1.0381 -1.0368 -1.3153 -1.2121 -1.205 -1.1164 -1.1152 -1.1196 -1.1829 -1.1062 -1.0941 -1.0221 -0.98852 -0.98686 -1.0127 -1.0207 -1.0192 -1.0224 -1.0409 -1.0445 -1.0482 -1.0682 -1.0667 -1.0708 -1.075 -1.0403 -1.0334 -1.0317 -1.0195 -1.023 -1.0487 -1.0643 -1.0454 -1.0325 -1.0197 -1.0179 -1.0161 -1.0198 -1.0014 -0.98342 -0.97617 -0.97411 -0.96681 -0.94929 -0.94715 -0.93989 -0.93764 -0.91556 -0.90359 -0.89645 -0.86643 -0.85508 -0.86588 -0.86789 -0.86075 -0.84469 -0.82469 -0.80125 -0.80253 -0.81642 -0.80936 -0.79811 -0.787 -0.78405 -0.78519 -0.77809 -0.77507 -0.78028 -0.77302 -0.76987 -0.76258 -0.73936 -0.71707 -0.70642 -0.69947 -0.69971 -0.69631 -0.6786 -0.67164 -0.66812 -0.66113 -0.66796 -0.66432 -0.65368 -0.64314 -0.63271 -0.61918 -0.60592 -0.60207 -0.60445 -0.59739 -0.57239 -0.55707 -0.54222 -0.53557 -0.55624 -0.5521 -0.55665 -0.55834 -0.55105 -0.54969 -0.54829 -0.54687 -0.53634 -0.52019 -0.50458 -0.49732 -0.49269 -0.48281 -0.46803 -0.46089 -0.45136 -0.44194 -0.43487 -0.43233 -0.42744 -0.41805 -0.40874 -0.40377 -0.39873 -0.39155 -0.38641 -0.38537 -0.37599 -0.36869 -0.36337 -0.35603 -0.34681 -0.33952 -0.33403 -0.32493 -0.31764 -0.31034 -0.3047 -0.29736 -0.29003 -0.28269 -0.27387 -0.26658 -0.26069 -0.25065 -0.24081 -0.23487 -0.22888 -0.22162 -0.21437 -0.206 -0.19986 -0.19056 -0.18241 -0.17527 -0.16725 -0.16015 -0.15224 -0.14368 -0.13598 -0.12902 -0.12083 -0.11394 -0.10651 -0.099157 -0.091878 -0.084673 -0.076399 -0.068445 -0.061955 -0.054939 -0.047829 -0.040916 -0.034507 -0.028286 -0.021377 -0.015081 -0.0089631 -0.0031149 0.0026267 0.0089178 0.015192 0.021682 0.027961 0 0 0 0 0 0 0 0 0 0 0 0 0 0 0.15348 0.15418 0.15993 0.16739 0.17484 0.22281 0.24 0.26811 0.28035 0.29277 0.31013 0 0 0 0 0.25971 0.2643 0.26167 0.26326 0.27313 0.27877 0.27715 0.27975 0.28793 0.29325 0.29851 0.29928 0.30888 0.31866 0.31904 0.3194 0.35649 0.36934 0.37852 0.38989 0.39719 0.43246 0.44801 0.45065 0.45586 0.461 0.46876 0.48203 0.49563 0.50063 0.45541 0.4649 0.4671 0.46214 0.47136 0.48566 0.49521 0.50224 0.51735 0.53578 0.549 0.55336 0.56375 0.57425 0.58812 0.60227 0.62384 0.63523 0.64303 0.61203 0.62274 0.63357 0.64809 0.6484 0.63159 0.65248 0.64587 0.62974 0.63662 0.66378 0.74088 0.74015 0.73942 0.75136 0.7953 0.7939 0.79255 0.80513 0.81307 0.79762 0.79178 0.79052 0.80246 0.81452 0.80851 0.80708 0.79707 0.79163 0.80296 0.81439 0.80449 0.79907 0.81432 0.82557 0.83696 0.74656 0.75281 0.75906 0.76531 0.89568 0.89336 0.91019 0.92738 0.93472 1.0135 1.0334 0.98886 0.99644 0.89387 0.90968 0.93057 0.97232 0.93487 0.95133 0.96816 0.99051 0.99761 1.01 1.0447 1.0636 1.0537 1.0441 1.0513 1.0529 1.1317 1.1204 1.1155 1.0988 1.066 1.0786 1.2186 1.2409 1.3027 1.3111 1.2877 1.2729 1.2809 1.3042 1.2384 1.246 1.361 1.3693 1.2617 1.2693 1.2841 1.2845 1.4021 1.2439 1.2579 1.2517 1.0803 1.1016 1.1183 1.1299 1.2675 1.1012 1.1124
-1.2482 -1.2412 -1.0497 -1.0438 -1.0378 -1.0365 0 -1.2715 -1.2436 -1.2364 -1.2095 -1.2024 -1.208 -1.1169 -1.1157 -1.0218 -1.0156 -1.0845 -1.0268 -1.0156 -1.0487 -1.037 -1.0355 -1.0339 -1.0375 -1.057 -1.0501 -1.0539 -1.0578 -1.0294 -1.0226 -1.0209 -1.0244 -1.0389 -1.054 -1.0639 -1.0451 -1.0211 -1.0139 -1.0121 -1.0102 -1.0251 -1.0065 -0.98835 -0.98639 -0.98439 -0.98238 -0.96964 -0.96227 -0.95489 -0.94752 -0.93 -0.91778 -0.91541 -0.88897 -0.87261 -0.87933 -0.87678 -0.86497 -0.84878 -0.83292 -0.81323 -0.80631 -0.82037 -0.81327 -0.78957 -0.78262 -0.78372 -0.78901 -0.78187 -0.77883 -0.78411 -0.7853 -0.77792 -0.77478 -0.75091 -0.72423 -0.70975 -0.7064 -0.69937 -0.69962 -0.68532 -0.68184 -0.67831 -0.67476 -0.69322 -0.67837 -0.66029 -0.6462 -0.63906 -0.62859 -0.61503 -0.608 -0.60097 -0.59705 -0.56632 -0.554 -0.5419 -0.53263 -0.55591 -0.55177 -0.55926 -0.558 -0.5507 -0.55539 -0.55405 -0.55266 -0.54198 -0.52849 -0.51528 -0.5051 -0.49772 -0.48769 -0.47267 -0.46299 -0.45341 -0.4416 -0.43227 -0.43199 -0.42485 -0.41771 -0.40841 -0.40343 -0.39839 -0.39121 -0.38607 -0.38502 -0.37564 -0.36638 -0.365 -0.35568 -0.34647 -0.34102 -0.33188 -0.32458 -0.31729 -0.30834 -0.30435 -0.29541 -0.28968 -0.28235 -0.27353 -0.26623 -0.26034 -0.25164 -0.24305 -0.23705 -0.22976 -0.22128 -0.21288 -0.20566 -0.19951 -0.19022 -0.18207 -0.17493 -0.16779 -0.15897 -0.15191 -0.14334 -0.13565 -0.12869 -0.1205 -0.11304 -0.10619 -0.098834 -0.092017 -0.084352 -0.075716 -0.068466 -0.061352 -0.054119 -0.047086 -0.040433 -0.0339 -0.027735 -0.020812 -0.014864 -0.0085059 -0.0028443 0.0029018 0.0092512 0.015557 0.02198 0.028259 0 0 0 0 0 0 0 0 0 0 0 0 0 0 0.15386 0.152 0.16029 0.16774 0.1752 0.22784 0.24385 0.26659 0.28083 0.29326 0.31063 0 0 0 0 0.26152 0.26761 0.25656 0.26777 0.27783 0.28057 0.27748 0.27869 0.28825 0.29503 0.29883 0.2996 0.30919 0.32056 0.32569 0.33077 0.3587 0.37365 0.38503 0.39024 0.39754 0.45931 0.47047 0.47297 0.47541 0.48064 0.49166 0.4968 0.50189 0.50394 0.49169 0.48298 0.47234 0.46958 0.47653 0.48852 0.50075 0.50786 0.51768 0.53904 0.55236 0.55071 0.56104 0.57461 0.58522 0.60603 0.63143 0.64679 0.65472 0.63653 0.65522 0.67065 0.68647 0.69036 0.69825 0.68227 0.68989 0.71772 0.75171 0.75984 0.75437 0.74478 0.73563 0.74325 0.7817 0.78504 0.78831 0.80551 0.80871 0.78899 0.78338 0.7865 0.80282 0.81036 0.80886 0.79871 0.78902 0.78784 0.82059 0.84152 0.79654 0.8035 0.81888 0.83459 0.84169 0.83132 0.84699 0.86756 0.87934 0.88652 0.88898 0.90566 0.92271 0.93001 1.0443 1.0399 1.0417 1.1226 0.91239 0.91 0.93567 1.1352 0.96448 0.97664 0.98374 1.0121 1.0194 1.0321 1.0565 1.0698 1.054 1.0444 1.0572 1.0588 1.2365 1.127 1.1538 1.1681 1.1496 1.2782 1.2865 1.2948 1.3194 1.3278 1.2881 1.2732 1.2965 1.3046 1.2388 1.2751 1.3698 1.3866 1.345 1.3138 1.3141 1.2849 1.4464 1.2856 1.286 1.2724 1.0806 1.0918 1.1239 1.1302 1.2679 1.1015 1.1077
