-0.104 -0.10376 -0.10335 -0.10303 -0.1027 -0.10246 -0.10229 -0.10204 -0.10171 -0.10146 -0.10114 -0.10096 -0.10064 -0.10046 -0.10021 0 0 0 -0.12071 -0.11993 -0.11954 -0.11906 -0.11866 -0.11819 -0.11786 -0.11746 -0.11714 -0.11682 -0.11649 -0.11616 -0.11569 -0.11529 -0.11482 -0.11435 -0.11388 -0.11355 -0.11308 -0.11268 -0.11214 -0.11174 -0.11127 -0.11087 -0.11048 -0.11015 -0.10968 -0.10935 -0.10888 -0.10855 -0.10816 -0.10783 -0.10756 -0.10716 -0.10683 -0.10657 -0.10617 -0.10583 -0.10543 -0.1051 -0.10483 -0.10449 -0.10409 -0.10376 -0.10336 -0.10289 -0.10262 -0.10228 -0.10194 -0.1016 -0.1012 -0.10086 -0.10052 -0.10012 -0.099839 -0.099498 -0.099156 -0.098814 -0.098471 -0.098371 -0.098087 -0.097862 -0.097515 -0.097168 -0.09688 -0.096531 -0.096182 -0.096009 -0.095717 -0.095424 -0.095421 -0.095067 -0.094712 -0.094299 -0.093944 -0.093588 -0.093288 -0.092931 -0.092517 -0.092215 -0.092079 -0.091774 -0.091468 -0.091271 -0.090908 -0.090653 -0.090451 -0.090193 -0.090094 -0.089779 -0.089463 -0.089198 -0.08888 -0.088508 -0.088188 -0.087815 -0.087441 -0.087889 -0.087459 -0.087487 -0.087207 -0.086976 -0.086592 -0.086158 -0.086121 -0.086179 -0.085789 -0.085741 -0.085398 -0.085005 -0.085141 -0.084696 -0.084775 -0.084423 -0.084022 -0.084136 -0.083732 -0.084531 -0.084811 -0.084578 -0.08416 -0.083787 -0.083413 0 0 -0.10232 -0.10179 -0.10117 -0.10054 -0.10022 -0.099728 -0.099275 -0.09865 -0.098111 -0.097571 -0.096905 -0.096364 -0.09698 -0.096268 -0.095067 -0.094522 -0.094421 -0.093873 -0.093324 -0.092775 -0.092226 -0.090269 -0.089572 -0.088993 -0.08826 -0.087605 -0.087102 -0.087951 -0.087363 -0.085552 -0.085009 -0.084429 -0.084429 -0.083953 -0.083726 -0.083174 -0.082622 -0.082034 -0.081481 -0.080962 -0.080339 -0.07975 -0.079128 -0.078473 -0.077153 -0.076604 -0.075923 -0.075048 -0.074501 -0.074114 -0.073501 -0.072857 -0.072245 -0.071696 -0.071485 -0.070902 -0.070681 -0.070245 -0.069717 -0.069129 -0.06854 -0.067952 -0.067422 -0.066861 -0.066612 -0.066048 -0.064956 -0.064368 -0.064162 -0.06349 -0.062792 -0.062097 -0.061482 -0.060868 -0.06028 -0.059743 -0.059155 -0.058491 -0.057879 -0.057536 -0.057043 -0.056524 -0.05598 -0.055388 -0.054703 -0.05395 -0.053361 -0.052817 -0.052049 -0.051461 -0.050851 -0.050263 -0.049548 -0.049004 -0.048376 -0.047872 -0.047244 -0.046677 -0.04609 -0.045504 -0.044916 -0.044367 -0.043836 -0.043248 -0.042459 -0.041874 -0.041236 -0.040668 -0.040118 -0.04016 -0.039582 -0.038987 -0.038376 -0.037765 -0.037155 -0.036483 -0.035845 -0.035238 -0.034631 -0.034025 -0.033235 -0.032661 -0.032196 -0.031565 -0.030988 -0.030308 -0.029656 -0.029069 -0.028458 -0.027871 -0.027297 -0.026687 -0.026056 -0.025471 -0.024896 -0.024311 -0.023817 -0.02322 -0.022681 -0.022101 -0.021503 -0.02095 -0.020421 -0.019838 -0.019263 -0.01867 0 0 0 0 -0.015689 -0.01504 -0.014457 -0.013874 -0.013301 -0.012716 -0.012125 -0.011539 -0.010948 -0.010362 -0.009779 -0.0091912 -0.0086065 -0.0080175 -0.0074122 -0.0068205 -0.0062287 -0.0056275 -0.0050368 -0.0044536 -0.0038619 -0.0032716 -0.0026853 -0.0020939 -0.0015001 -0.00090565 -0.00031242 0.00028042 0.00087215 0.0014641 0.0020561 0.002648 0.0032427 0.0038336 0.0044239 0.005018 0.0056102 0.006213 0.0068091 0.0073994 0.0079926 0.0085749 0.0091558 0.009735 0.01033 0.010917 0.011523 0.012119 0.012706 0.013298 0.013872 0.014469 0.015066 0.015671 0.01627 0.016862 0.01744 0.018031 0.018623 0.019223 0.019832 0.020424 0.021026 0.021609 0.022211 0.022833 0.023436
-0.10392 -0.10368 -0.10335 -0.10303 -0.1027 -0.10238 -0.10229 -0.10196 -0.10171 -0.10139 -0.10114 -0.10089 -0.10071 -0.10039 -0.10021 0 0 0 -0.12101 -0.11993 -0.11961 -0.11914 -0.11866 -0.11826 -0.11786 -0.11754 -0.11714 -0.11682 -0.11649 -0.11609 -0.11569 -0.11522 -0.11482 -0.11435 -0.11388 -0.11348 -0.11308 -0.11268 -0.11221 -0.11174 -0.11134 -0.11094 -0.11055 -0.11015 -0.10975 -0.10935 -0.10895 -0.10855 -0.10816 -0.10783 -0.10756 -0.10716 -0.10676 -0.10657 -0.10623 -0.10583 -0.10543 -0.1051 -0.10483 -0.10449 -0.10409 -0.10369 -0.10329 -0.10289 -0.10262 -0.10228 -0.10194 -0.1016 -0.1012 -0.10092 -0.10052 -0.10018 -0.099839 -0.099498 -0.099156 -0.098814 -0.098471 -0.098371 -0.098086 -0.097801 -0.097515 -0.097108 -0.09688 -0.096591 -0.096241 -0.096009 -0.095717 -0.095424 -0.095363 -0.095009 -0.094654 -0.094299 -0.093887 -0.093588 -0.093231 -0.092874 -0.092573 -0.092215 -0.091856 -0.091829 -0.091523 -0.09138 -0.091071 -0.090762 -0.090613 -0.090246 -0.090094 -0.089779 -0.08941 -0.089145 -0.088827 -0.088456 -0.088188 -0.087815 -0.087441 -0.087889 -0.087459 -0.087487 -0.087207 -0.086976 -0.086592 -0.086258 -0.086121 -0.086179 -0.085789 -0.08579 -0.085495 -0.085198 -0.085718 -0.08527 -0.084965 -0.084565 -0.084163 -0.084417 -0.084011 -0.085273 -0.084949 -0.08467 -0.084251 -0.083878 -0.083503 0 0 -0.10237 -0.10157 -0.1009 -0.10032 -0.10014 -0.099814 -0.099146 -0.098565 -0.097984 -0.097444 -0.096821 -0.096323 -0.09698 -0.096103 -0.095067 -0.094522 -0.094421 -0.093833 -0.093324 -0.092696 -0.092225 -0.090269 -0.089533 -0.088915 -0.08826 -0.087567 -0.087102 -0.087951 -0.087363 -0.085552 -0.084972 -0.084428 -0.084465 -0.083845 -0.083583 -0.083068 -0.082516 -0.081964 -0.081411 -0.080858 -0.08027 -0.079648 -0.079026 -0.078372 -0.077153 -0.07657 -0.075923 -0.075146 -0.074469 -0.073954 -0.073405 -0.072794 -0.072214 -0.071696 -0.071485 -0.070901 -0.070681 -0.070275 -0.069657 -0.06907 -0.068511 -0.067923 -0.067393 -0.066804 -0.066555 -0.066047 -0.064956 -0.064368 -0.064162 -0.063355 -0.062712 -0.062017 -0.061429 -0.060816 -0.060203 -0.059692 -0.059079 -0.058491 -0.057879 -0.057536 -0.056946 -0.056524 -0.055932 -0.055482 -0.05454 -0.053858 -0.05327 -0.052727 -0.052093 -0.051417 -0.050808 -0.050156 -0.049485 -0.048857 -0.048314 -0.047769 -0.047143 -0.046597 -0.046051 -0.045445 -0.044878 -0.044311 -0.04378 -0.043193 -0.042459 -0.041838 -0.041235 -0.040651 -0.0401 -0.04016 -0.039582 -0.038987 -0.038376 -0.037765 -0.037155 -0.036437 -0.03586 -0.035208 -0.034616 -0.034025 -0.033234 -0.032688 -0.032141 -0.031538 -0.030922 -0.030295 -0.029631 -0.029032 -0.028433 -0.027848 -0.027262 -0.026653 -0.026034 -0.025438 -0.024854 -0.024311 -0.023817 -0.02322 -0.022642 -0.022063 -0.021476 -0.02095 -0.020421 -0.019838 -0.019263 -0.01867 0 0 0 0 -0.015689 -0.01504 -0.014451 -0.013868 -0.013284 -0.01271 -0.01212 -0.011534 -0.010948 -0.010353 -0.0097748 -0.009195 -0.0086028 -0.0080106 -0.007409 -0.0068175 -0.006226 -0.0056274 -0.0050303 -0.004446 -0.0038585 -0.0032687 -0.0026795 -0.0020911 -0.0014988 -0.0009048 -0.00031194 0.00028028 0.00087114 0.0014623 0.0020527 0.0026436 0.0032387 0.0038304 0.0044221 0.005016 0.0056079 0.0062052 0.0068005 0.0073932 0.0079825 0.0085714 0.0091442 0.0097269 0.010322 0.010917 0.011518 0.012109 0.012695 0.013286 0.013866 0.014463 0.01506 0.015658 0.016249 0.016834 0.017418 0.018009 0.018607 0.019223 0.019823 0.020416 0.021008 0.0216 0.022192 0.022804 0.023406
-0.10384 -0.1036 -0.10327 -0.10295 -0.10262 -0.10238 -0.10221 -0.10196 -0.10163 -0.10139 -0.10106 -0.10081 0 0 0 -0.12222 -0.12174 -0.12134 -0.12086 -0.12031 -0.11976 -0.11921 -0.11866 -0.11826 -0.11786 -0.11754 -0.11707 -0.11674 -0.11649 -0.11609 -0.11562 -0.11522 -0.11475 -0.11428 -0.11388 -0.11348 -0.11308 -0.11268 -0.11221 -0.11174 -0.11134 -0.11094 -0.11062 -0.11015 -0.10975 -0.10935 -0.10895 -0.10862 -0.10822 -0.10789 -0.10756 -0.10716 -0.10676 -0.10663 -0.10623 -0.1059 -0.1055 -0.1051 -0.10483 -0.10449 -0.10409 -0.10369 -0.10329 -0.10289 -0.10262 -0.10228 -0.10194 -0.1016 -0.1012 -0.10092 -0.10052 -0.10018 -0.099839 -0.099498 -0.099156 -0.098813 -0.098532 -0.09831 -0.098026 -0.097741 -0.097455 -0.097108 -0.09688 -0.096591 -0.096241 -0.096009 -0.095776 -0.095424 -0.095305 -0.094951 -0.094654 -0.094299 -0.093887 -0.093531 -0.093231 -0.092874 -0.092517 -0.092215 -0.091911 -0.09194 -0.091578 -0.09138 -0.091071 -0.090761 -0.090613 -0.090246 -0.090094 -0.089725 -0.089356 -0.089145 -0.088775 -0.088456 -0.088188 -0.087815 -0.087544 -0.087992 -0.087561 -0.087538 -0.087207 -0.086976 -0.086592 -0.086258 -0.085873 -0.085981 -0.085544 -0.086083 -0.085592 -0.085198 -0.085718 -0.085318 -0.084965 -0.084612 -0.084257 -0.084464 -0.084011 -0.085458 -0.085041 -0.084715 -0.084342 -0.083923 -0.083684 0 0 -0.10179 -0.1013 -0.10073 -0.10015 -0.099659 -0.099383 -0.098932 -0.098395 -0.097814 -0.097234 -0.096654 -0.095824 -0.095286 -0.094707 -0.094128 -0.094522 -0.09305 -0.09247 -0.09201 -0.091232 -0.090653 -0.090035 -0.089495 -0.088838 -0.088183 -0.087491 -0.086875 -0.086599 -0.08602 -0.085515 -0.084972 -0.084501 -0.084284 -0.083773 -0.083404 -0.082961 -0.08248 -0.081859 -0.081341 -0.080823 -0.080201 -0.079512 -0.078891 -0.078238 -0.077153 -0.07657 -0.075857 -0.075081 -0.074437 -0.073857 -0.073278 -0.072699 -0.072151 -0.07151 -0.070992 -0.070383 -0.069803 -0.069224 -0.068675 -0.068095 -0.067428 -0.066878 -0.066443 -0.065806 -0.065227 -0.064731 -0.06379 -0.06324 -0.063726 -0.063246 -0.062605 -0.061964 -0.061351 -0.060738 -0.060151 -0.059641 -0.059003 -0.057991 -0.057384 -0.057022 -0.056413 -0.056044 -0.055457 -0.055012 -0.054331 -0.053789 -0.053202 -0.052614 -0.052004 -0.051373 -0.050742 -0.050049 -0.0494 -0.048773 -0.04821 -0.047626 -0.047062 -0.046497 -0.045952 -0.045387 -0.044801 -0.044254 -0.043705 -0.043119 -0.042441 -0.04182 -0.041218 -0.040651 -0.040066 -0.039532 -0.038897 -0.038312 -0.037695 -0.037095 -0.036479 -0.035896 -0.035495 -0.034894 -0.034307 -0.03375 -0.033178 -0.032646 -0.032086 -0.031484 -0.030869 -0.030243 -0.029567 -0.028969 -0.028372 -0.0278 -0.027203 -0.026596 -0.025989 -0.025394 -0.024811 -0.024196 -0.023664 -0.02309 -0.022603 -0.022007 -0.02143 -0.020834 -0.020282 -0.019695 -0.019156 -0.018559 -0.018009 -0.017241 -0.016622 -0.016039 -0.015489 -0.014906 -0.014315 -0.013749 -0.013159 -0.012575 -0.011991 -0.011407 -0.010846 -0.010261 -0.0097 -0.0091248 -0.0085334 -0.0079664 -0.0073302 -0.006745 -0.0061784 -0.0055914 -0.0050216 -0.0044383 -0.0038535 -0.0032645 -0.002676 -0.0020884 -0.0014974 -0.00090356 -0.00031145 0.00027989 0.00086936 0.0014593 0.0020484 0.0026381 0.0032347 0.0038256 0.0044185 0.0050118 0.0056032 0.0062 0.0067948 0.0073902 0.0079759 0.0085642 0.0091287 0.0097145 0.0103 0.010908 0.011508 0.012099 0.012685 0.013281 0.01386 0.014451 0.015041 0.015638 0.016229 0.016812 0.017388 0.017993 0.018592 0.019215 0.019815 0.020398 0.020981 0.021582 0.022164 0.022785 0.023397
-0.10368 -0.10352 -0.10319 -0.10287 -0.10254 -0.1023 -0.10213 -0.10188 -0.10148 -0.10123 -0.10098 -0.10065 0 0 0 -0.12214 -0.12174 -0.12126 -0.12086 -0.12031 -0.11983 -0.11929 -0.11866 -0.11826 -0.11786 -0.11754 -0.11707 -0.11674 -0.11649 -0.11609 -0.11562 -0.11514 -0.11475 -0.11428 -0.11388 -0.11348 -0.11308 -0.11268 -0.11221 -0.11181 -0.11134 -0.11094 -0.11062 -0.11022 -0.10982 -0.10935 -0.10902 -0.10862 -0.10822 -0.10783 -0.10749 -0.1071 -0.1067 -0.10657 -0.10623 -0.1059 -0.1055 -0.1051 -0.10483 -0.10449 -0.10409 -0.10369 -0.10329 -0.10289 -0.10262 -0.10228 -0.10194 -0.1016 -0.1012 -0.10092 -0.10052 -0.10018 -0.099839 -0.099498 -0.099218 -0.098875 -0.098532 -0.098371 -0.098026 -0.097741 -0.097455 -0.097108 -0.09682 -0.096531 -0.096182 -0.096009 -0.095659 -0.095424 -0.09513 -0.094835 -0.094481 -0.094127 -0.093715 -0.093474 -0.093175 -0.092874 -0.092573 -0.092215 -0.091911 -0.09194 -0.091633 -0.091435 -0.091126 -0.090816 -0.090667 -0.0903 -0.090094 -0.089725 -0.089356 -0.089145 -0.088775 -0.088456 -0.088188 -0.087867 -0.087544 -0.087992 -0.087612 -0.087538 -0.087207 -0.086976 -0.086592 -0.086208 -0.085873 -0.085981 -0.085544 -0.085937 -0.085592 -0.085198 -0.085622 -0.085222 -0.084965 -0.084612 -0.084257 -0.08437 -0.083964 -0.085412 -0.085041 -0.084715 -0.084342 -0.083968 -0.083684 0 0 -0.10166 -0.10104 -0.10038 -0.099757 -0.099443 -0.098866 -0.098076 -0.097543 -0.096925 -0.096308 -0.095733 -0.095034 -0.09446 -0.093885 -0.093271 -0.092697 -0.092123 -0.091549 -0.09193 -0.090915 -0.090338 -0.089761 -0.089145 -0.08853 -0.087915 -0.087224 -0.086649 -0.086111 -0.085423 -0.084959 -0.084309 -0.083734 -0.083739 -0.08316 -0.082759 -0.082499 -0.081739 -0.081158 -0.079358 -0.078785 -0.079413 -0.07781 -0.077269 -0.076863 -0.076287 -0.07591 -0.075431 -0.074853 -0.074275 -0.073633 -0.073024 -0.072447 -0.07187 -0.071323 -0.070777 -0.070199 -0.069591 -0.069014 -0.068436 -0.06783 -0.067223 -0.066675 -0.066156 -0.06555 -0.064944 -0.064423 -0.063817 -0.06324 -0.06269 -0.062139 -0.061561 -0.060957 -0.060379 -0.059854 -0.05925 -0.058748 -0.057993 -0.057416 -0.056814 -0.056311 -0.05571 -0.055108 -0.054508 -0.053931 -0.053401 -0.052801 -0.052383 -0.051805 -0.051226 -0.050647 -0.050199 -0.04964 -0.049039 -0.048438 -0.047837 -0.047134 -0.046556 -0.046038 -0.045518 -0.044939 -0.044628 -0.044083 -0.043536 -0.042971 -0.042277 -0.041694 -0.041076 -0.040493 -0.039928 -0.039363 -0.038562 -0.037983 -0.037403 -0.036839 -0.036228 -0.035649 -0.035343 -0.034759 -0.03416 -0.033519 -0.03305 -0.032549 -0.03199 -0.031403 -0.030803 -0.030165 -0.029465 -0.02887 -0.028287 -0.027716 -0.027133 -0.02639 -0.025855 -0.025285 -0.024704 -0.024092 -0.023471 -0.022892 -0.022342 -0.021931 -0.021365 -0.020816 -0.02023 -0.019644 -0.019017 -0.018433 -0.017856 -0.017137 -0.016535 -0.015956 -0.015416 -0.014854 -0.014285 -0.013714 -0.013137 -0.012548 -0.011965 -0.011387 -0.010804 -0.010164 -0.0095878 -0.0089609 -0.0083837 -0.00781 -0.0072641 -0.0066755 -0.0060963 -0.0055076 -0.0049295 -0.0043683 -0.0037895 -0.0032116 -0.0026328 -0.0020511 -0.0014694 -0.00088854 -0.00030635 0.00027652 0.00085983 0.0014439 0.0020275 0.0026101 0.0031949 0.0037899 0.0043791 0.0049651 0.0055343 0.0061159 0.0067027 0.0072838 0.007871 0.0084407 0.0090239 0.0096112 0.01019 0.010778 0.011386 0.011955 0.012539 0.0131 0.013677 0.014272 0.014849 0.015432 0.016008 0.016619 0.017203 0.017787 0.01856 0.019215 0.019798 0.020225 0.020821 0.021298 0.021891 0.022698 0.023327
-0.10352 -0.10344 -0.10311 -0.10279 -0.10246 -0.10222 -0.10213 -0.1018 -0.10148 -0.10115 -0.1009 -0.10065 0 0 0 -0.12214 -0.12166 -0.12126 -0.12079 -0.12031 -0.11983 -0.11929 -0.11874 -0.11826 -0.11794 -0.11754 -0.11707 -0.11674 -0.11642 -0.11609 -0.11562 -0.11522 -0.11475 -0.11427 -0.11388 -0.11348 -0.11308 -0.11268 -0.11221 -0.11181 -0.11141 -0.11101 -0.11062 -0.11029 -0.10982 -0.10942 -0.10902 -0.10862 -0.10822 -0.10783 -0.10749 -0.1071 -0.1067 -0.10663 -0.10623 -0.10597 -0.10557 -0.10516 -0.1049 -0.10456 -0.10416 -0.10382 -0.10336 -0.10295 -0.10268 -0.10234 -0.102 -0.1016 -0.1012 -0.10092 -0.10058 -0.10024 -0.10003 -0.099683 -0.099464 -0.099059 -0.098715 -0.098492 -0.098208 -0.097801 -0.097455 -0.097108 -0.09682 -0.096531 -0.096182 -0.09595 -0.095659 -0.095366 -0.095072 -0.094777 -0.094481 -0.09407 -0.093715 -0.093474 -0.093174 -0.092874 -0.092517 -0.092215 -0.091967 -0.091995 -0.091688 -0.09149 -0.091126 -0.090816 -0.090613 -0.0903 -0.090094 -0.089779 -0.089409 -0.089145 -0.088827 -0.08856 -0.088188 -0.087866 -0.087596 -0.087992 -0.087561 -0.087487 -0.087156 -0.086976 -0.086592 -0.086208 -0.085922 -0.085981 -0.085544 -0.085937 -0.085495 -0.085295 -0.085621 -0.085126 -0.084965 -0.084612 -0.084304 -0.08437 -0.083964 -0.085412 -0.085041 -0.084807 -0.084388 -0.084014 -0.083684 0 0 -0.10166 -0.10108 -0.10029 -0.09967 -0.099226 -0.098694 -0.098118 -0.097458 -0.096883 -0.096266 -0.095691 -0.095034 -0.09446 -0.093844 -0.09323 -0.092656 -0.092042 -0.091549 -0.091333 -0.090757 -0.090142 -0.089605 -0.088951 -0.088337 -0.087723 -0.087072 -0.086497 -0.085885 -0.085423 -0.084959 -0.084309 -0.083734 -0.083739 -0.08316 -0.082759 -0.082499 -0.081739 -0.081157 -0.079358 -0.078785 -0.079412 -0.07781 -0.077269 -0.076863 -0.076287 -0.07591 -0.075464 -0.074788 -0.074178 -0.073537 -0.07296 -0.072384 -0.071776 -0.071261 -0.070746 -0.070108 -0.06947 -0.068894 -0.068347 -0.06777 -0.067135 -0.06653 -0.066012 -0.065435 -0.064859 -0.064283 -0.063734 -0.063212 -0.062662 -0.062085 -0.061534 -0.06093 -0.060353 -0.059776 -0.05925 -0.058748 -0.057993 -0.057416 -0.056814 -0.056311 -0.05571 -0.055108 -0.054508 -0.053931 -0.053401 -0.052801 -0.052383 -0.051804 -0.051226 -0.050647 -0.050112 -0.049576 -0.049038 -0.048437 -0.047837 -0.047134 -0.046556 -0.046038 -0.045518 -0.044938 -0.04457 -0.044064 -0.043499 -0.042952 -0.042222 -0.041604 -0.041005 -0.040424 -0.039842 -0.039278 -0.038562 -0.037966 -0.037387 -0.036791 -0.036212 -0.035648 -0.035297 -0.034714 -0.034101 -0.033519 -0.03305 -0.032451 -0.031962 -0.03139 -0.030803 -0.030165 -0.029402 -0.028833 -0.028262 -0.027692 -0.027133 -0.026401 -0.02581 -0.025241 -0.024661 -0.02406 -0.023461 -0.022882 -0.022342 -0.021941 -0.021347 -0.020798 -0.020213 -0.019602 -0.019017 -0.018433 -0.017856 -0.017137 -0.016528 -0.015963 -0.015396 -0.014828 -0.014266 -0.013708 -0.013125 -0.012543 -0.01196 -0.011372 -0.010795 -0.010164 -0.0095878 -0.0089608 -0.00838 -0.0078133 -0.0072482 -0.0066783 -0.0060962 -0.0055075 -0.0049294 -0.0043682 -0.0037895 -0.0032116 -0.0026315 -0.002051 -0.0014693 -0.00088845 -0.00030628 0.00027661 0.00085992 0.001444 0.0020276 0.0026102 0.0031963 0.0037835 0.0043736 0.0049588 0.0055368 0.0061134 0.006697 0.0072807 0.007861 0.0084371 0.0090239 0.0096071 0.01019 0.010774 0.011381 0.011955 0.012523 0.013095 0.013683 0.014266 0.014843 0.015419 0.016015 0.016619 0.017203 0.017787 0.018616 0.019215 0.019807 0.020225 0.020821 0.021298 0.021891 0.022679 0.023347
-0.10352 -0.10336 -0.10303 -0.10271 -0.10246 -0.10206 -0.10205 -0.10172 -0.1014 -0.10107 -0.10083 -0.1005 0 0 0 -0.12191 -0.12159 -0.12119 -0.12079 -0.12031 -0.11983 -0.11929 -0.11874 -0.11834 -0.11794 -0.11754 -0.11707 -0.11674 -0.11642 -0.11609 -0.11569 -0.11522 -0.11482 -0.11427 -0.11388 -0.11348 -0.11308 -0.11268 -0.11221 -0.11181 -0.11141 -0.11101 -0.11069 -0.11029 -0.10989 -0.10949 -0.10909 -0.10869 -0.10829 -0.10789 -0.10749 -0.1071 -0.1067 -0.10663 -0.1063 -0.10597 -0.10557 -0.10523 -0.10496 -0.10456 -0.10422 -0.10382 -0.10342 -0.10302 -0.10268 -0.10234 -0.102 -0.1016 -0.10126 -0.10092 -0.10058 -0.10018 -0.10003 -0.099683 -0.099464 -0.099059 -0.098776 -0.098492 -0.098208 -0.097801 -0.097455 -0.097108 -0.09682 -0.096531 -0.096182 -0.09595 -0.0956 -0.095307 -0.095014 -0.094719 -0.094481 -0.09407 -0.093715 -0.093474 -0.093174 -0.092874 -0.092517 -0.092159 -0.091689 -0.092106 -0.091743 -0.09149 -0.091126 -0.090761 -0.090613 -0.090246 -0.090147 -0.089778 -0.089409 -0.089198 -0.08888 -0.08856 -0.08824 -0.087866 -0.087596 -0.08794 -0.087561 -0.087487 -0.087106 -0.086875 -0.086592 -0.086208 -0.085922 -0.086179 -0.085789 -0.085741 -0.0853 -0.08573 -0.085477 -0.085126 -0.084965 -0.084612 -0.084257 -0.084464 -0.084011 -0.085273 -0.084995 -0.084807 -0.084433 -0.084014 -0.083774 -0.083307 -0.082885 0 0 -0.099499 -0.098929 -0.099096 -0.098608 -0.09799 -0.097415 -0.096798 -0.09614 -0.095566 -0.09495 -0.094377 -0.093803 -0.093066 -0.092453 -0.091921 -0.091188 -0.091094 -0.09052 -0.089906 -0.08937 -0.088718 -0.088105 -0.087531 -0.086882 -0.086308 -0.085697 -0.084863 -0.084292 -0.083683 -0.083112 -0.082577 -0.08197 -0.081399 -0.080792 -0.080186 -0.079616 -0.079115 -0.078543 -0.077972 -0.077435 -0.07683 -0.076427 -0.075821 -0.075348 -0.075398 -0.074788 -0.074146 -0.073441 -0.072865 -0.072352 -0.071713 -0.071044 -0.070223 -0.069619 -0.069319 -0.068744 -0.067811 -0.067269 -0.066784 -0.066385 -0.065897 -0.065293 -0.064774 -0.064171 -0.063623 -0.06313 -0.062581 -0.062004 -0.061454 -0.060851 -0.060222 -0.059619 -0.05876 -0.058213 -0.057589 -0.056916 -0.056344 -0.055797 -0.055225 -0.054652 -0.05427 -0.053696 -0.053006 -0.05241 -0.05186 -0.051332 -0.050781 -0.050537 -0.050003 -0.049425 -0.048763 -0.047871 -0.047298 -0.046786 -0.046192 -0.045778 -0.044907 -0.044335 -0.043763 -0.043248 -0.042675 -0.042601 -0.041986 -0.041514 -0.040898 -0.040336 -0.039756 -0.039159 -0.038428 -0.037884 -0.037338 -0.036728 -0.036102 -0.035448 -0.034856 -0.034295 -0.033719 -0.033143 -0.032524 -0.031921 -0.031346 -0.030839 -0.030249 -0.029738 -0.029212 -0.028621 -0.028092 -0.027465 -0.026887 -0.026309 -0.025776 -0.025208 -0.024618 -0.024008 -0.02341 -0.022822 -0.022196 -0.02163 -0.021053 -0.020798 -0.019857 -0.01929 -0.018707 -0.018171 -0.017587 -0.017018 -0.016492 -0.015935 -0.015369 -0.014796 -0.014192 -0.01359 -0.013001 -0.012424 -0.011867 -0.011289 -0.010729 -0.010093 -0.0095171 -0.0089334 -0.008369 -0.0078098 -0.0072419 -0.0066695 -0.0060909 -0.0055003 -0.0049122 -0.0043681 -0.0037894 -0.0032115 -0.0026326 -0.002027 -0.0014521 -0.00087534 -0.00030182 0.00027263 0.00084925 0.001426 0.0020111 0.0025889 0.0031909 0.0037771 0.0043624 0.0049503 0.0055274 0.0061029 0.0066827 0.0072651 0.0078475 0.0084263 0.0090124 0.0096031 0.01019 0.010774 0.011371 0.011945 0.012507 0.013089 0.013666 0.014248 0.014824 0.015392 0.015932 0.016498 0.017077 0.017726 0.018323 0.018905 0.019496 0.020044 0.020634 0.02117 0.02176 0.022369 0.022852
-0.10336 -0.10328 -0.10295 -0.10271 -0.10238 -0.10214 -0.10197 -0.10165 -0.10132 -0.10107 -0.10075 -0.1005 0 0 0 -0.12184 -0.12144 -0.12104 -0.12064 -0.12023 -0.11976 -0.11929 -0.11881 -0.11834 -0.11794 -0.11754 -0.11714 -0.11674 -0.11642 -0.11609 -0.11569 -0.11529 -0.11482 -0.11435 -0.11395 -0.11348 -0.11315 -0.11275 -0.11228 -0.11188 -0.11148 -0.11108 -0.11069 -0.11029 -0.10989 -0.10949 -0.10909 -0.10869 -0.10829 -0.10789 -0.10749 -0.10716 -0.10676 -0.10663 -0.1063 -0.10597 -0.10563 -0.1053 -0.10503 -0.10462 -0.10422 -0.10389 -0.10348 -0.10308 -0.10275 -0.10241 -0.102 -0.1016 -0.10126 -0.10092 -0.10058 -0.10024 -0.10003 -0.099683 -0.099464 -0.099059 -0.098776 -0.098553 -0.098208 -0.097801 -0.097515 -0.097107 -0.096879 -0.096531 -0.096182 -0.09595 -0.0956 -0.095249 -0.094955 -0.094661 -0.094423 -0.09407 -0.093715 -0.093417 -0.093118 -0.092705 -0.092348 -0.092047 -0.091689 -0.091995 -0.091688 -0.09149 -0.091126 -0.090761 -0.090505 -0.090192 -0.09004 -0.089778 -0.089409 -0.089198 -0.08888 -0.088612 -0.08824 -0.087918 -0.087596 -0.08794 -0.087561 -0.087436 -0.087055 -0.086824 -0.086542 -0.086158 -0.085823 -0.08608 -0.085642 -0.085595 -0.0853 -0.08573 -0.085333 -0.084887 -0.084918 -0.084564 -0.084257 -0.084463 -0.084011 -0.085273 -0.084949 -0.084761 -0.084342 -0.083968 -0.083683 -0.083217 -0.082751 0 0 -0.099499 -0.099016 -0.098836 -0.098306 -0.097733 -0.097074 -0.096502 -0.095971 -0.095398 -0.094784 -0.094211 -0.093639 -0.092862 -0.09221 -0.091639 -0.091068 -0.090736 -0.090124 -0.089512 -0.088941 -0.088407 -0.087797 -0.087148 -0.086539 -0.08593 -0.084871 -0.084303 -0.084106 -0.083536 -0.082418 -0.081815 -0.081285 -0.080719 -0.080615 -0.080045 -0.07951 -0.078906 -0.077853 -0.077286 -0.076618 -0.076053 -0.075521 -0.074955 -0.074423 -0.074644 -0.074072 -0.0735 -0.072928 -0.072293 -0.071753 -0.071087 -0.070548 -0.070069 -0.069558 -0.069046 -0.068473 -0.067871 -0.067269 -0.066696 -0.066211 -0.065695 -0.06515 -0.064604 -0.064002 -0.063456 -0.062937 -0.062363 -0.061761 -0.061186 -0.060612 -0.059959 -0.059307 -0.058709 -0.058111 -0.057513 -0.056866 -0.056294 -0.055723 -0.055176 -0.054628 -0.05408 -0.053532 -0.052959 -0.052364 -0.051814 -0.051287 -0.050781 -0.050361 -0.049786 -0.049167 -0.048465 -0.047808 -0.047277 -0.046725 -0.046172 -0.045598 -0.044926 -0.044296 -0.043705 -0.043115 -0.042451 -0.041918 -0.041457 -0.040904 -0.040332 -0.039672 -0.039102 -0.038752 -0.038311 -0.037769 -0.037192 -0.036616 -0.035977 -0.035077 -0.034507 -0.034011 -0.03341 -0.032825 -0.032198 -0.031628 -0.031058 -0.030489 -0.029906 -0.029363 -0.028767 -0.028185 -0.027665 -0.027107 -0.026817 -0.026241 -0.025664 -0.025132 -0.024543 -0.023946 -0.023349 -0.022743 -0.022167 -0.021592 -0.020971 -0.020405 -0.019796 -0.019257 -0.018682 -0.018132 -0.017564 -0.016989 -0.016435 -0.015873 -0.015309 -0.014732 -0.014155 -0.013578 -0.012989 -0.012413 -0.011846 -0.011279 -0.010701 -0.010084 -0.0095087 -0.0089295 -0.008358 -0.0077928 -0.0072261 -0.006652 -0.0060723 -0.0054882 -0.0049056 -0.0043284 -0.00375 -0.0031753 -0.0025995 -0.0020234 -0.0014502 -0.00087525 -0.00030161 0.0002726 0.00084823 0.001428 0.0020077 0.0025845 0.00318 0.0037609 0.0043456 0.0049355 0.0055084 0.0060767 0.006654 0.007237 0.0078206 0.008401 0.0088531 0.0094294 0.010002 0.010574 0.011151 0.011868 0.01234 0.012914 0.013583 0.014193 0.014773 0.015226 0.015801 0.016398 0.016974 0.017611 0.018213 0.018718 0.019286 0.019914 0.020483 0.020987 0.021562 0.022302 0.022753
-0.10336 -0.1032 -0.10295 -0.10271 -0.10238 -0.10214 -0.10197 -0.10165 -0.1014 -0.10107 -0.10075 -0.1005 0 0 0 -0.12184 -0.12144 -0.12104 -0.12064 -0.12023 -0.11983 -0.11936 -0.11881 -0.11834 -0.11801 -0.11761 -0.11714 -0.11674 -0.11649 -0.11609 -0.11569 -0.11529 -0.11489 -0.11435 -0.11395 -0.11355 -0.11315 -0.11275 -0.11228 -0.11188 -0.11148 -0.11108 -0.11076 -0.11035 -0.10996 -0.10956 -0.10916 -0.10876 -0.10836 -0.10796 -0.10763 -0.10723 -0.1069 -0.10663 -0.1063 -0.10603 -0.10563 -0.1053 -0.10503 -0.10462 -0.10429 -0.10389 -0.10355 -0.10321 -0.10281 -0.10241 -0.10207 -0.10167 -0.10133 -0.10105 -0.10071 -0.10031 -0.10015 -0.099807 -0.099587 -0.099243 -0.098837 -0.098553 -0.098208 -0.097861 -0.097575 -0.097227 -0.096999 -0.09665 -0.0963 -0.096009 -0.0956 -0.095249 -0.09513 -0.094777 -0.094423 -0.094069 -0.093715 -0.093417 -0.093061 -0.092705 -0.092348 -0.092606 -0.092301 -0.091995 -0.091633 -0.09149 -0.091126 -0.090707 -0.09045 -0.090192 -0.089986 -0.089725 -0.089356 -0.089039 -0.089037 -0.088665 -0.088396 -0.088022 -0.087699 -0.088094 -0.087663 -0.087436 -0.087055 -0.086875 -0.086542 -0.086158 -0.085823 -0.08608 -0.085642 -0.085594 -0.086175 -0.08573 -0.085284 -0.084887 -0.084965 -0.084754 -0.084304 -0.084463 -0.084011 -0.085319 -0.08481 -0.084669 -0.084342 -0.083923 -0.083548 -0.083172 -0.082751 0 0 -0.099499 -0.098929 -0.098792 -0.09822 -0.097561 -0.096947 -0.096375 -0.095887 -0.095357 -0.094742 -0.09417 -0.093598 -0.09274 -0.092128 -0.091598 -0.090988 -0.090656 -0.090005 -0.089395 -0.088862 -0.088291 -0.087758 -0.086995 -0.086387 -0.08593 -0.084871 -0.084341 -0.083995 -0.083426 -0.082564 -0.081851 -0.081249 -0.080934 -0.080543 -0.079939 -0.07937 -0.078801 -0.077956 -0.077286 -0.076652 -0.076053 -0.075521 -0.074922 -0.074423 -0.074644 -0.074072 -0.0735 -0.072928 -0.072356 -0.071721 -0.071119 -0.07061 -0.070069 -0.069527 -0.068955 -0.068383 -0.067811 -0.067268 -0.066667 -0.066066 -0.065666 -0.065093 -0.064576 -0.063974 -0.063401 -0.062827 -0.062253 -0.061653 -0.061079 -0.060506 -0.059801 -0.059229 -0.058631 -0.058059 -0.057462 -0.056816 -0.056245 -0.055674 -0.055103 -0.05458 -0.054033 -0.053485 -0.052913 -0.052318 -0.051792 -0.051242 -0.050692 -0.050273 -0.049677 -0.04906 -0.048465 -0.04785 -0.047235 -0.046663 -0.046111 -0.045538 -0.044926 -0.044257 -0.043647 -0.043039 -0.042469 -0.041936 -0.041421 -0.040885 -0.040331 -0.039672 -0.039102 -0.038769 -0.038178 -0.037719 -0.03716 -0.036568 -0.035976 -0.035076 -0.034552 -0.034011 -0.033396 -0.032796 -0.032212 -0.031628 -0.031045 -0.030489 -0.029919 -0.02935 -0.02878 -0.028223 -0.027665 -0.027107 -0.026759 -0.026195 -0.025631 -0.02511 -0.024522 -0.023904 -0.023318 -0.022723 -0.022148 -0.021573 -0.02097 -0.020405 -0.019796 -0.019223 -0.018666 -0.018124 -0.017549 -0.016974 -0.016428 -0.015852 -0.015289 -0.014706 -0.014136 -0.01356 -0.012978 -0.012402 -0.011831 -0.011264 -0.010687 -0.01008 -0.0095045 -0.0089294 -0.0083542 -0.0077859 -0.0072197 -0.0066433 -0.0060643 -0.0054833 -0.0049034 -0.0043264 -0.0037499 -0.0031752 -0.0025995 -0.0020233 -0.0014501 -0.0008744 -0.00030126 0.00027257 0.00084941 0.0014274 0.0020061 0.0025868 0.0031732 0.0037561 0.00434 0.0049314 0.0054942 0.0060662 0.0066483 0.0072246 0.0078037 0.0083938 0.0088532 0.0094295 0.010002 0.010574 0.011151 0.011868 0.01234 0.012915 0.013584 0.014162 0.014747 0.015233 0.015808 0.016391 0.016974 0.017611 0.018213 0.018734 0.019286 0.019888 0.020447 0.020996 0.021562 0.022302 0.022763
-0.10336 -0.1032 -0.10295 -0.10271 -0.10246 -0.10222 -0.10197 -0.10172 -0.1014 -0.10107 -0.10083 -0.10058 0 0 0 -0.12176 -0.12136 -0.12096 -0.12064 -0.12023 -0.11983 -0.11936 -0.11889 -0.11841 -0.11801 -0.11761 -0.11714 -0.11674 -0.11642 -0.11601 -0.11562 -0.11514 -0.11474 -0.11427 -0.11388 -0.11348 -0.11308 -0.11275 -0.11228 -0.11188 -0.11148 -0.11108 -0.11076 -0.11035 -0.11003 -0.10956 -0.10916 -0.10876 -0.10836 -0.10796 -0.10763 -0.10723 -0.10683 -0.1067 -0.1063 -0.10603 -0.10563 -0.1053 -0.10503 -0.10462 -0.10429 -0.10389 -0.10355 -0.10321 -0.10281 -0.10241 -0.10207 -0.10173 -0.10139 -0.10118 -0.10083 -0.10049 -0.10021 -0.099869 -0.099649 -0.099243 -0.098898 -0.098614 -0.098268 -0.097861 -0.097575 -0.097227 -0.096999 -0.09665 -0.0963 -0.096009 -0.095658 -0.095249 -0.09513 -0.094777 -0.094481 -0.094069 -0.093715 -0.093417 -0.093061 -0.092705 -0.092348 -0.092382 -0.092245 -0.091939 -0.091633 -0.09149 -0.091126 -0.090761 -0.09045 -0.090192 -0.089986 -0.089725 -0.089356 -0.088986 -0.088985 -0.088612 -0.088396 -0.088022 -0.08775 -0.088094 -0.087663 -0.087436 -0.087055 -0.086875 -0.086542 -0.086158 -0.085773 -0.085635 -0.0852 -0.085448 -0.085883 -0.085488 -0.085862 -0.085461 -0.085155 -0.085085 -0.084634 -0.084417 -0.083964 -0.083604 -0.084442 -0.084027 -0.084296 -0.083877 -0.083503 -0.083127 -0.082662 0 0 -0.098754 -0.098188 -0.098099 -0.09753 -0.097347 -0.096947 -0.096375 -0.095803 -0.095231 -0.094659 -0.094129 -0.093474 -0.09229 -0.091925 -0.091316 -0.090387 -0.090457 -0.089886 -0.088608 -0.088042 -0.087515 -0.086948 -0.086344 -0.08574 -0.085174 -0.084758 -0.084303 -0.08381 -0.083242 -0.082491 -0.081779 -0.081249 -0.080826 -0.080401 -0.079833 -0.07923 -0.078627 -0.077887 -0.077218 -0.076618 -0.076053 -0.075487 -0.074922 -0.074324 -0.073759 -0.073226 -0.072951 -0.072704 -0.072261 -0.07169 -0.071087 -0.070579 -0.070038 -0.069497 -0.068925 -0.068383 -0.067811 -0.067209 -0.066667 -0.066066 -0.065609 -0.065093 -0.064491 -0.063862 -0.063289 -0.062744 -0.062117 -0.061545 -0.060945 -0.060347 -0.05946 -0.059073 -0.058503 -0.057932 -0.057387 -0.056766 -0.056195 -0.055625 -0.055055 -0.054508 -0.053985 -0.053414 -0.052866 -0.052249 -0.051723 -0.051174 -0.050492 -0.050185 -0.049612 -0.048974 -0.04838 -0.047766 -0.047152 -0.046622 -0.04605 -0.045478 -0.044867 -0.044218 -0.043609 -0.04302 -0.042432 -0.041918 -0.041384 -0.040849 -0.040261 -0.039672 -0.039033 -0.038463 -0.03791 -0.037719 -0.037143 -0.03652 -0.035882 -0.035015 -0.034476 -0.033951 -0.033381 -0.032796 -0.032212 -0.0316 -0.031017 -0.030462 -0.029879 -0.029337 -0.028767 -0.028223 -0.027677 -0.027143 -0.026712 -0.026138 -0.025496 -0.025066 -0.024479 -0.023685 -0.023124 -0.022504 -0.021935 -0.021337 -0.020732 -0.020155 -0.019588 -0.019021 -0.018494 -0.01787 -0.017311 -0.016833 -0.016256 -0.015693 -0.015236 -0.014687 -0.014112 -0.013536 -0.012955 -0.012391 -0.01182 -0.011254 -0.010673 -0.010066 -0.0094961 -0.0089176 -0.0083468 -0.0077824 -0.0072133 -0.0066374 -0.0060589 -0.0054761 -0.0048926 -0.0043187 -0.0037432 -0.0031682 -0.0025937 -0.0020188 -0.0014417 -0.00086856 -0.0002992 0.00027086 0.00084581 0.0014256 0.0020053 0.0025858 0.0031733 0.0037546 0.0042782 0.0048527 0.0054253 0.0059637 0.006536 0.0070931 0.0076549 0.008223 0.0087911 0.0093551 0.0099098 0.010468 0.011029 0.011632 0.0122 0.012768 0.013548 0.01415 0.014722 0.015233 0.015801 0.016369 0.016856 0.017427 0.018118 0.018718 0.019278 0.019853 0.020411 0.020959 0.021496 0.022109 0.022683
-0.10336 -0.1032 -0.10287 -0.10271 -0.10246 -0.10222 -0.10205 -0.10172 -0.10148 -0.10115 -0.10083 -0.10058 0 0 0 -0.12184 -0.12128 -0.12088 -0.12056 -0.12023 -0.11983 -0.11936 -0.11889 -0.11849 -0.11809 -0.11761 -0.11721 -0.11674 -0.11642 -0.11594 -0.11547 -0.11507 -0.11467 -0.1142 -0.1138 -0.11348 -0.11308 -0.11268 -0.11228 -0.11188 -0.11148 -0.11115 -0.11082 -0.11042 -0.11002 -0.10963 -0.10923 -0.10883 -0.10843 -0.1081 -0.1077 -0.1073 -0.10697 -0.10677 -0.10643 -0.10603 -0.1057 -0.1053 -0.10503 -0.10469 -0.10435 -0.10395 -0.10355 -0.10321 -0.10287 -0.10247 -0.10213 -0.10179 -0.10145 -0.1013 -0.10096 -0.10068 -0.10034 -0.099993 -0.09971 -0.099366 -0.09896 -0.098614 -0.098268 -0.097922 -0.097635 -0.097287 -0.097058 -0.096709 -0.096359 -0.096009 -0.095658 -0.095366 -0.09513 -0.094777 -0.094481 -0.094069 -0.093715 -0.093417 -0.093061 -0.092705 -0.09246 -0.092214 -0.092189 -0.091884 -0.091578 -0.09149 -0.091071 -0.090707 -0.090504 -0.090192 -0.09004 -0.089672 -0.089303 -0.089145 -0.088827 -0.08856 -0.088344 -0.088022 -0.087802 -0.088094 -0.087663 -0.087385 -0.087055 -0.086875 -0.086542 -0.086158 -0.085922 -0.085586 -0.085199 -0.085448 -0.085883 -0.085488 -0.085862 -0.085461 -0.085155 -0.085085 -0.084681 -0.08437 -0.083964 -0.083604 -0.084442 -0.084027 -0.084296 -0.083877 -0.083413 -0.083172 -0.082662 0 0 -0.098754 -0.098188 -0.098099 -0.09753 -0.096962 -0.096904 -0.096332 -0.095761 -0.095105 -0.094534 -0.094129 -0.09331 -0.09229 -0.091722 -0.090953 -0.090386 -0.090178 -0.089807 -0.088608 -0.087925 -0.08736 -0.086794 -0.086229 -0.085625 -0.085098 -0.084608 -0.084005 -0.083439 -0.082874 -0.082271 -0.081706 -0.081141 -0.080647 -0.080081 -0.079515 -0.078949 -0.078349 -0.077714 -0.077149 -0.076516 -0.075917 -0.07532 -0.074756 -0.074224 -0.073627 -0.073226 -0.072983 -0.07248 -0.071975 -0.071595 -0.070994 -0.070485 -0.069976 -0.069405 -0.068834 -0.068263 -0.067722 -0.067121 -0.066579 -0.066007 -0.065522 -0.064979 -0.064463 -0.06375 -0.063151 -0.062607 -0.061953 -0.061383 -0.060812 -0.060108 -0.05946 -0.058891 -0.058322 -0.057728 -0.057286 -0.056666 -0.055948 -0.055405 -0.054836 -0.054412 -0.053938 -0.053344 -0.052796 -0.05218 -0.05161 -0.051084 -0.050492 -0.050097 -0.049481 -0.048845 -0.048274 -0.04764 -0.04707 -0.04654 -0.04601 -0.045458 -0.044788 -0.044081 -0.043493 -0.042925 -0.042357 -0.041807 -0.041275 -0.040706 -0.040101 -0.039532 -0.038947 -0.038378 -0.03791 -0.037702 -0.037111 -0.036456 -0.035882 -0.035015 -0.03443 -0.033847 -0.033293 -0.032738 -0.032169 -0.031544 -0.030962 -0.030395 -0.029827 -0.029272 -0.028704 -0.028185 -0.027628 -0.027143 -0.026641 -0.026069 -0.025496 -0.025033 -0.024404 -0.023685 -0.023053 -0.022474 -0.021886 -0.021309 -0.020704 -0.020129 -0.019571 -0.019004 -0.018461 -0.01787 -0.017311 -0.016833 -0.016255 -0.015693 -0.015236 -0.014649 -0.014081 -0.013507 -0.012927 -0.012364 -0.011815 -0.011239 -0.010659 -0.010049 -0.0094794 -0.0089136 -0.0083358 -0.0077653 -0.0072069 -0.0066287 -0.0060535 -0.0054544 -0.0048797 -0.0043073 -0.0037333 -0.0031612 -0.0025868 -0.0020134 -0.0014372 -0.00086734 -0.00029872 0.00027095 0.00084588 0.0014189 0.0020054 0.0025814 0.003172 0.0037514 0.0042783 0.0048528 0.0054254 0.0059638 0.0065188 0.0070806 0.0076448 0.0082085 0.0087756 0.0093427 0.0099055 0.010463 0.011039 0.011616 0.012184 0.012768 0.013548 0.014131 0.014703 0.015227 0.015802 0.016341 0.016856 0.017427 0.018118 0.018677 0.019252 0.01981 0.020376 0.020923 0.021497 0.022109 0.022673
-0.10336 -0.1032 -0.10287 -0.10271 -0.10246 -0.10222 -0.10205 -0.10172 -0.10148 -0.10115 -0.1009 -0.10065 0 0 0 -0.12176 -0.12128 -0.12088 -0.12056 -0.12016 -0.11983 -0.11936 -0.11889 -0.11849 -0.11809 -0.11761 -0.11721 -0.11681 -0.11642 -0.11594 -0.11547 -0.11507 -0.11467 -0.11427 -0.1138 -0.11348 -0.11308 -0.11268 -0.11228 -0.11195 -0.11155 -0.11115 -0.11082 -0.11042 -0.11009 -0.10963 -0.1093 -0.1089 -0.1085 -0.1081 -0.10776 -0.10737 -0.10703 -0.10677 -0.10643 -0.1061 -0.1057 -0.1053 -0.10503 -0.10469 -0.10435 -0.10395 -0.10355 -0.10321 -0.10281 -0.10241 -0.10213 -0.10179 -0.10151 -0.1013 -0.10102 -0.10068 -0.1004 -0.10006 -0.099772 -0.099366 -0.099021 -0.098675 -0.098268 -0.097921 -0.097635 -0.097287 -0.097058 -0.096709 -0.096359 -0.096068 -0.095717 -0.095365 -0.09513 -0.094777 -0.094481 -0.094127 -0.093715 -0.093417 -0.093061 -0.092705 -0.092516 -0.092214 -0.092134 -0.091828 -0.091522 -0.091435 -0.091071 -0.090707 -0.09045 -0.090192 -0.090093 -0.089725 -0.089356 -0.089092 -0.088827 -0.088508 -0.088344 -0.08797 -0.087544 -0.088094 -0.087714 -0.087334 -0.087055 -0.086875 -0.086542 -0.086158 -0.085922 -0.085635 -0.085249 -0.085741 -0.0853 -0.08544 -0.085284 -0.084839 -0.085013 -0.085038 -0.084728 -0.084323 -0.083964 -0.083604 -0.084211 -0.083798 -0.084251 -0.083787 0 -0.099269 -0.098712 -0.097891 -0.09738 -0.097132 -0.096706 -0.096149 -0.095592 -0.094949 -0.094392 -0.093835 -0.093278 -0.092763 -0.092414 -0.091814 -0.091503 -0.091392 -0.090789 -0.090389 -0.089585 -0.088984 -0.08862 -0.088058 -0.087847 -0.087282 -0.086678 -0.086075 -0.085473 -0.084985 -0.084495 -0.08393 -0.083328 -0.0828 -0.082162 -0.081561 -0.081032 -0.080575 -0.08001 -0.079445 -0.078879 -0.078314 -0.077645 -0.077046 -0.076482 -0.075816 -0.075219 -0.074689 -0.074092 -0.073529 -0.072933 -0.072951 -0.072415 -0.071879 -0.071564 -0.070962 -0.070454 -0.069915 -0.069344 -0.068774 -0.068233 -0.067662 -0.067091 -0.06652 -0.065949 -0.065494 -0.06495 -0.063332 -0.06277 -0.062151 -0.061589 -0.060972 -0.060329 -0.059768 -0.05934 -0.058777 -0.058293 -0.057833 -0.057269 -0.056755 -0.056216 -0.055799 -0.055257 -0.054739 -0.054172 -0.053439 -0.052897 -0.052634 -0.05172 -0.051155 -0.050545 -0.04998 -0.049438 -0.049199 -0.048394 -0.047849 -0.047157 -0.046593 -0.04613 -0.045706 -0.045139 -0.044532 -0.044003 -0.043436 -0.042868 -0.042301 -0.04177 -0.04122 -0.040616 -0.04003 -0.039445 -0.038878 -0.038294 -0.03771 -0.037192 -0.036754 -0.036121 -0.035568 -0.034953 -0.0344 -0.033831 -0.033248 -0.032709 -0.032141 -0.031516 -0.030949 -0.030367 -0.0298 -0.029246 -0.028666 -0.028098 -0.027543 -0.02682 -0.026244 -0.02568 -0.025127 -0.024607 -0.024116 -0.023539 -0.022992 -0.022425 -0.021857 -0.021281 -0.020704 -0.020111 -0.019544 -0.018987 -0.018437 -0.017854 -0.017211 -0.01664 -0.016012 -0.015451 -0.014889 -0.014353 -0.013791 -0.013211 -0.012644 -0.012083 -0.011593 -0.011029 -0.010464 -0.0099517 -0.0093839 -0.0088355 -0.0082628 -0.0076973 -0.0071125 -0.0065388 -0.0059715 -0.0053993 -0.0048347 -0.0042675 -0.0037005 -0.0031347 -0.0025662 -0.0019991 -0.001434 -0.00086573 -0.00029823 0.00026971 0.00083856 0.0014059 0.0019732 0.0025399 0.0031075 0.0036588 0.004222 0.0047869 0.005366 0.0059297 0.0065016 0.007065 0.0076314 0.0081977 0.0087641 0.0093304 0.0099011 0.010459 0.011029 0.011606 0.012167 0.012729 0.013295 0.013861 0.014447 0.015147 0.015726 0.016177 0.016723 0.01729 0.017841 0.0184 0.018975 0.019689 0.020189 0.020767 0.021337 0.021906 0.022634
-0.10328 -0.10312 -0.10287 -0.10271 -0.10246 -0.10222 -0.10213 -0.1018 -0.10148 -0.10115 -0.1009 -0.10065 0 -0.12248 -0.12216 -0.12168 -0.12121 -0.12081 -0.12048 -0.12008 -0.11976 -0.11929 -0.11881 -0.11849 -0.11809 -0.11769 -0.11729 -0.11681 -0.11642 -0.11594 -0.11547 -0.11514 -0.11467 -0.11427 -0.1138 -0.11348 -0.11308 -0.11268 -0.11228 -0.11188 -0.11148 -0.11108 -0.11075 -0.11035 -0.11002 -0.10963 -0.1093 -0.1089 -0.1085 -0.10816 -0.10776 -0.10743 -0.10703 -0.10677 -0.10643 -0.1061 -0.1057 -0.1053 -0.10503 -0.10469 -0.10435 -0.10395 -0.10355 -0.10321 -0.10287 -0.10247 -0.10213 -0.10179 -0.10151 -0.10136 -0.10102 -0.10068 -0.1004 -0.10006 -0.099772 -0.099366 -0.09902 -0.098675 -0.098268 -0.097921 -0.097574 -0.097227 -0.096998 -0.096709 -0.096359 -0.096068 -0.095658 -0.095365 -0.095072 -0.094777 -0.094481 -0.094127 -0.093772 -0.093417 -0.093118 -0.092761 -0.09246 -0.092382 -0.092189 -0.091884 -0.091577 -0.09138 -0.091016 -0.090652 -0.090342 -0.090408 -0.090093 -0.089725 -0.089409 -0.089145 -0.088827 -0.08856 -0.088396 -0.088022 -0.087544 -0.088094 -0.087663 -0.087385 -0.087055 -0.086824 -0.086491 -0.086058 -0.085823 -0.085684 -0.085249 -0.085741 -0.0853 -0.085488 -0.08514 -0.084743 -0.084727 -0.084327 -0.08388 -0.083901 -0.083498 -0.083604 -0.084211 -0.083798 -0.084068 -0.083651 0 -0.098596 -0.098267 -0.097802 -0.097248 -0.096606 -0.095791 -0.095196 -0.095075 -0.094606 -0.094179 -0.093623 -0.093068 -0.092554 -0.09204 -0.091525 -0.090969 -0.090535 -0.089978 -0.089461 -0.088864 -0.088347 -0.087908 -0.08735 -0.086909 -0.086428 -0.085869 -0.085501 -0.084978 -0.08438 -0.083894 -0.083109 -0.08255 -0.082027 -0.081467 -0.081198 -0.080708 -0.080396 -0.079868 -0.079303 -0.078739 -0.078175 -0.077507 -0.076909 -0.076277 -0.075613 -0.075018 -0.074423 -0.073894 -0.073299 -0.072738 -0.072176 -0.071551 -0.070926 -0.070397 -0.070336 -0.069741 -0.069453 -0.069008 -0.068622 -0.068053 -0.067483 -0.066884 -0.066345 -0.065746 -0.065292 -0.063467 -0.062909 -0.062405 -0.061874 -0.061396 -0.060863 -0.060302 -0.059768 -0.059234 -0.058699 -0.058215 -0.057704 -0.057192 -0.056629 -0.056116 -0.055601 -0.055061 -0.054497 -0.054004 -0.053463 -0.052921 -0.052401 -0.051697 -0.051109 -0.0505 -0.049602 -0.04902 -0.048568 -0.047986 -0.047446 -0.046926 -0.046365 -0.045823 -0.045261 -0.044719 -0.044196 -0.04377 -0.043224 -0.04266 -0.042057 -0.041456 -0.040892 -0.04031 -0.039817 -0.039166 -0.038602 -0.038005 -0.037392 -0.03683 -0.036268 -0.03569 -0.035128 -0.034582 -0.034035 -0.033488 -0.032896 -0.032333 -0.031757 -0.031209 -0.030716 -0.030246 -0.029668 -0.029116 -0.028577 -0.028061 -0.027531 -0.02688 -0.026256 -0.02568 -0.02497 -0.02441 -0.023902 -0.02334 -0.022768 -0.022236 -0.021683 -0.021186 -0.020612 -0.020039 -0.019484 -0.018936 -0.018388 -0.017735 -0.017157 -0.016588 -0.016019 -0.015437 -0.014876 -0.014321 -0.013754 -0.013193 -0.012621 -0.012061 -0.011562 -0.011004 -0.01044 -0.0098724 -0.0093091 -0.0088042 -0.0082372 -0.0076633 -0.0070904 -0.0065156 -0.0059503 -0.0053849 -0.0048217 -0.0042599 -0.0036938 -0.0031277 -0.0025616 -0.0019964 -0.0014313 -0.00086449 -0.00029762 0.00026968 0.00083754 0.0014041 0.0019698 0.0025377 0.0030965 0.0036573 0.0042221 0.0047912 0.0053613 0.0059272 0.006493 0.0070557 0.0076213 0.0081869 0.0087525 0.0093139 0.0098837 0.010449 0.01101 0.011575 0.012141 0.012706 0.013277 0.013843 0.014421 0.014994 0.015567 0.016134 0.016693 0.017259 0.017818 0.018384 0.018958 0.019559 0.020109 0.020694 0.021261 0.021819 0.022614
-0.1032 -0.10312 -0.10279 -0.10271 -0.10246 -0.10222 -0.10213 -0.1018 -0.10156 -0.10131 0 0 0 -0.12248 -0.12216 -0.12176 -0.12113 -0.12073 -0.12041 -0.12008 -0.11976 -0.11929 -0.11881 -0.11856 -0.11816 -0.11776 -0.11729 -0.11689 -0.11642 -0.11594 -0.11547 -0.11514 -0.11474 -0.11427 -0.11388 -0.11348 -0.11308 -0.11268 -0.11228 -0.11188 -0.11148 -0.11108 -0.11069 -0.11035 -0.11009 -0.10963 -0.1093 -0.1089 -0.10856 -0.10816 -0.10783 -0.1075 -0.10717 -0.10683 -0.10643 -0.1061 -0.1057 -0.1053 -0.10503 -0.10469 -0.10435 -0.10395 -0.10361 -0.10321 -0.10287 -0.10247 -0.10219 -0.10186 -0.10158 -0.10136 -0.10102 -0.10074 -0.10046 -0.10006 -0.099772 -0.099366 -0.09902 -0.098614 -0.098268 -0.097921 -0.097574 -0.097227 -0.097058 -0.096768 -0.096359 -0.096068 -0.095717 -0.095365 -0.095071 -0.094777 -0.094596 -0.094241 -0.093886 -0.09353 -0.093174 -0.092817 -0.092572 -0.092717 -0.0923 -0.091939 -0.091577 -0.091325 -0.091016 -0.090652 -0.090342 -0.090461 -0.090147 -0.089831 -0.089515 -0.089303 -0.088984 -0.088612 -0.088448 -0.088125 -0.087957 -0.088094 -0.087714 -0.087436 -0.087055 -0.086824 -0.086491 -0.086058 -0.086319 -0.085981 -0.08569 -0.085741 -0.0853 -0.085488 -0.08514 -0.084743 -0.084679 -0.084327 -0.08388 -0.083901 -0.083498 -0.084067 -0.084211 -0.083798 -0.084068 -0.08365 0 -0.098641 -0.098044 -0.097935 -0.097203 -0.096431 -0.095835 -0.095455 -0.094988 -0.094477 -0.093966 -0.093412 -0.092899 -0.092345 -0.091832 -0.091277 -0.090969 -0.090535 -0.089978 -0.089461 -0.088824 -0.088307 -0.087789 -0.087311 -0.086831 -0.086273 -0.085907 -0.085386 -0.084864 -0.084342 -0.083781 -0.083109 -0.082513 -0.08199 -0.081394 -0.081125 -0.080888 -0.080289 -0.079868 -0.079303 -0.078739 -0.07814 -0.077472 -0.076909 -0.076243 -0.075546 -0.074984 -0.074423 -0.073894 -0.073299 -0.07264 -0.072047 -0.071455 -0.070831 -0.070365 -0.070336 -0.069741 -0.069453 -0.068856 -0.068592 -0.068053 -0.067453 -0.066884 -0.066315 -0.065746 -0.065292 -0.063467 -0.062908 -0.062349 -0.061901 -0.061341 -0.060836 -0.060275 -0.059661 -0.059154 -0.058646 -0.058137 -0.057627 -0.057116 -0.056578 -0.056065 -0.055552 -0.054963 -0.054448 -0.053956 -0.053439 -0.052873 -0.052401 -0.051697 -0.051109 -0.050522 -0.049602 -0.04902 -0.048568 -0.047986 -0.047446 -0.046926 -0.046365 -0.045782 -0.045221 -0.044639 -0.044137 -0.043614 -0.043128 -0.042564 -0.041964 -0.041382 -0.040819 -0.04031 -0.039729 -0.039148 -0.038551 -0.037971 -0.037359 -0.036797 -0.036219 -0.035642 -0.035081 -0.03452 -0.033974 -0.033487 -0.032895 -0.032333 -0.031757 -0.031209 -0.030716 -0.030246 -0.029642 -0.029064 -0.028615 -0.028061 -0.027531 -0.026808 -0.026256 -0.02568 -0.02497 -0.02441 -0.023902 -0.023309 -0.022768 -0.022206 -0.021664 -0.021139 -0.020567 -0.020003 -0.01944 -0.018911 -0.018388 -0.017735 -0.017127 -0.016558 -0.01599 -0.015416 -0.014856 -0.014302 -0.013748 -0.013175 -0.012615 -0.012082 -0.011537 -0.010984 -0.010431 -0.0098636 -0.009309 -0.0088042 -0.0082298 -0.007653 -0.0070809 -0.0065039 -0.0059422 -0.0053777 -0.0048152 -0.004256 -0.0036905 -0.0031263 -0.0025593 -0.0019954 -0.00143 -0.00086403 -0.00029755 0.00026952 0.00083762 0.001403 0.0019707 0.0025356 0.0031021 0.0036573 0.0042147 0.0047892 0.0053566 0.005922 0.0064873 0.0070526 0.007618 0.0081833 0.0087448 0.009314 0.0098794 0.01044 0.011005 0.01157 0.012119 0.012689 0.01326 0.013831 0.014428 0.014994 0.015567 0.016141 0.016686 0.017252 0.017818 0.018384 0.018958 0.019559 0.020109 0.020685 0.021252 0.021819 0.022624
-0.1032 -0.10304 -0.10279 -0.10263 -0.10238 -0.10206 -0.10205 -0.1018 -0.10156 -0.10131 -0.10098 -0.10065 0 0 0 -0.12168 -0.12113 -0.12073 -0.12033 -0.12001 -0.11976 -0.11936 -0.11896 -0.11864 -0.11816 -0.11776 -0.11729 -0.11689 -0.11642 -0.11594 -0.11554 -0.11522 -0.11474 -0.11427 -0.11388 -0.11348 -0.11308 -0.11268 -0.11228 -0.11188 -0.11148 -0.11108 -0.11069 -0.11035 -0.11002 -0.10963 -0.10923 -0.1089 -0.10856 -0.10816 -0.10783 -0.1075 -0.10717 -0.10677 -0.10643 -0.10603 -0.10563 -0.1053 -0.10503 -0.10469 -0.10435 -0.10395 -0.10355 -0.10321 -0.10287 -0.10247 -0.10219 -0.10186 -0.10158 -0.10143 -0.10108 -0.10074 -0.10046 -0.10005 -0.099772 -0.099366 -0.098959 -0.098614 -0.098268 -0.097861 -0.097635 -0.097287 -0.097058 -0.096768 -0.096418 -0.096127 -0.095775 -0.095424 -0.09513 -0.094835 -0.094596 -0.094241 -0.093886 -0.09353 -0.093174 -0.092874 -0.092516 -0.092438 -0.092245 -0.091884 -0.091522 -0.091325 -0.091016 -0.090706 -0.090558 -0.090354 -0.090147 -0.089778 -0.089462 -0.089303 -0.088984 -0.088664 -0.0885 -0.088125 -0.087957 -0.088196 -0.087765 -0.087436 -0.087105 -0.086874 -0.086491 -0.086108 -0.08622 -0.085832 -0.085297 -0.08618 -0.085737 -0.085488 -0.08514 -0.084791 -0.084679 -0.084327 -0.084162 -0.083854 -0.083405 -0.084067 -0.084257 -0.083844 0 0 -0.098472 -0.097923 -0.097776 -0.097181 -0.09663 -0.096255 -0.095747 -0.095239 -0.094859 -0.094349 -0.093796 -0.0932 -0.092689 -0.092177 -0.091624 -0.091112 -0.090476 -0.0898 -0.089248 -0.089138 -0.088663 -0.088227 -0.08771 -0.087153 -0.086714 -0.086195 -0.085714 -0.085233 -0.084712 -0.084228 -0.083669 -0.083034 -0.082438 -0.08188 -0.081284 -0.080617 -0.080131 -0.078893 -0.078375 -0.077962 -0.077407 -0.076853 -0.076298 -0.07588 -0.075324 -0.074735 -0.07428 -0.07389 -0.073299 -0.072906 -0.072477 -0.071918 -0.071294 -0.070672 -0.07005 -0.06968 -0.068531 -0.067976 -0.06736 -0.066715 -0.066131 -0.065608 -0.065025 -0.064237 -0.063657 -0.063106 -0.062555 -0.062004 -0.061985 -0.061457 -0.060901 -0.0604 -0.059978 -0.059554 -0.059048 -0.058515 -0.058085 -0.057575 -0.057039 -0.056528 -0.05599 -0.055477 -0.054939 -0.054375 -0.053884 -0.053391 -0.05285 -0.052331 -0.051099 -0.050563 -0.050432 -0.049046 -0.048492 -0.04809 -0.047534 -0.047085 -0.046528 -0.04595 -0.045721 -0.04514 -0.044579 -0.044058 -0.043536 -0.043032 -0.04247 -0.041851 -0.041271 -0.04071 -0.040077 -0.03964 -0.039061 -0.038482 -0.037903 -0.037325 -0.036731 -0.036171 -0.035562 -0.035002 -0.034473 -0.033928 -0.033338 -0.032587 -0.031958 -0.031402 -0.03086 -0.030318 -0.02983 -0.029285 -0.028987 -0.027942 -0.027389 -0.026836 -0.026617 -0.025765 -0.025211 -0.024657 -0.024114 -0.023763 -0.023257 -0.022758 -0.022186 -0.021625 -0.021101 -0.02053 -0.019959 -0.019406 -0.018827 -0.018265 -0.017616 -0.017088 -0.016528 -0.015969 -0.015395 -0.014836 -0.014289 -0.013729 -0.013164 -0.01261 -0.012072 -0.011526 -0.01097 -0.010412 -0.0098547 -0.0092882 -0.0087846 -0.0082188 -0.0076461 -0.0070682 -0.0064952 -0.0059316 -0.0053704 -0.0048087 -0.0042522 -0.0036887 -0.0031234 -0.0025581 -0.0019936 -0.0014299 -0.00086357 -0.00029734 0.00026923 0.0008288 0.00139 0.0019525 0.0025131 0.0030733 0.0036412 0.0042073 0.0047807 0.005352 0.0059194 0.0064845 0.0070465 0.0076079 0.0081761 0.008741 0.00931 0.0098794 0.010431 0.010991 0.01155 0.012098 0.012661 0.013236 0.013806 0.014377 0.014808 0.015367 0.015926 0.016553 0.017114 0.017644 0.018164 0.018732 0.019291 0.01986 0.020511 0.02112 0.021684 0.022228
-0.1032 -0.10304 -0.10271 -0.10263 -0.10238 -0.10214 -0.10197 -0.10172 -0.1014 -0.10123 -0.1009 -0.10058 0 0 0 -0.12168 -0.12113 -0.12065 -0.12026 -0.11986 -0.11961 -0.11914 -0.11874 -0.11834 -0.11801 -0.11754 -0.11714 -0.11674 -0.11634 -0.11594 -0.11554 -0.11514 -0.11474 -0.11427 -0.11388 -0.11348 -0.11315 -0.11275 -0.11228 -0.11188 -0.11148 -0.11108 -0.11068 -0.11035 -0.11002 -0.10956 -0.10923 -0.1089 -0.1085 -0.10816 -0.10783 -0.1075 -0.10717 -0.10677 -0.10637 -0.10597 -0.10556 -0.10516 -0.10489 -0.10456 -0.10422 -0.10382 -0.10348 -0.10315 -0.10281 -0.10247 -0.10219 -0.10186 -0.10158 -0.10143 -0.10108 -0.10074 -0.1004 -0.10005 -0.09971 -0.099304 -0.098959 -0.098614 -0.098268 -0.097861 -0.097634 -0.097287 -0.097058 -0.096768 -0.096418 -0.096185 -0.095834 -0.095482 -0.095188 -0.094892 -0.094596 -0.094299 -0.093943 -0.093587 -0.093174 -0.092817 -0.092572 -0.09227 -0.092189 -0.091828 -0.091467 -0.09127 -0.090907 -0.090652 -0.09045 -0.090138 -0.089879 -0.089511 -0.089037 -0.089303 -0.088984 -0.088664 -0.0885 -0.088333 -0.087957 -0.088196 -0.087765 -0.087486 -0.087105 -0.086874 -0.086491 -0.086108 -0.086071 -0.085734 -0.085297 -0.085496 -0.085737 -0.085488 -0.08514 -0.084743 -0.084584 -0.084564 -0.084256 -0.083854 -0.083405 -0.083789 -0.083612 -0.083156 0 0 -0.098472 -0.098058 -0.097731 -0.097137 -0.09663 -0.09608 -0.095616 -0.095065 -0.094644 -0.094092 -0.093497 -0.092861 -0.09231 -0.091843 -0.09125 -0.09074 -0.090188 -0.089637 -0.089045 -0.088937 -0.088022 -0.087471 -0.086879 -0.086328 -0.085776 -0.084992 -0.08448 -0.083892 -0.083113 -0.082565 -0.082016 -0.081356 -0.080808 -0.080224 -0.079676 -0.079129 -0.07977 -0.078893 -0.078375 -0.077821 -0.077197 -0.076574 -0.075883 -0.07564 -0.075086 -0.074532 -0.074045 -0.073524 -0.072903 -0.072873 -0.072217 -0.071692 -0.071134 -0.069782 -0.06923 -0.068741 -0.068065 -0.067668 -0.067207 -0.066594 -0.066011 -0.065459 -0.064788 -0.064208 -0.063512 -0.062991 -0.062441 -0.061863 -0.061313 -0.060819 -0.060268 -0.059745 -0.059681 -0.059126 -0.05865 -0.058095 -0.057617 -0.057163 -0.056606 -0.056099 -0.055565 -0.055007 -0.054645 -0.054181 -0.053644 -0.053082 -0.051887 -0.051332 -0.0508 -0.050154 -0.049623 -0.048957 -0.048492 -0.047938 -0.047427 -0.046978 -0.046423 -0.045825 -0.04527 -0.044755 -0.0442 -0.043723 -0.043088 -0.042513 -0.042014 -0.041439 -0.041049 -0.040491 -0.039933 -0.039304 -0.038746 -0.038172 -0.037598 -0.036974 -0.036435 -0.035798 -0.035227 -0.034688 -0.034118 -0.033563 -0.033069 -0.03244 -0.031929 -0.031388 -0.030832 -0.030346 -0.029829 -0.028995 -0.028456 -0.027917 -0.027364 -0.026799 -0.026271 -0.025718 -0.025199 -0.024646 -0.024081 -0.023539 -0.022985 -0.022432 -0.021888 -0.021306 -0.020752 -0.02019 -0.019637 -0.019093 -0.018523 -0.017971 -0.017482 -0.016927 -0.016387 -0.015825 -0.01525 -0.014702 -0.014155 -0.013606 -0.013051 -0.012525 -0.011963 -0.011454 -0.010915 -0.010366 -0.0098106 -0.0092424 -0.008687 -0.0081311 -0.0075747 -0.0070146 -0.0064633 -0.0059024 -0.0053464 -0.0047872 -0.0042219 -0.0036559 -0.0030928 -0.0025341 -0.0019767 -0.0014165 -0.00085506 -0.00029424 0.00026658 0.00082703 0.0013882 0.0019499 0.002511 0.0030721 0.0036331 0.0041979 0.004768 0.005333 0.0058985 0.0064615 0.0070215 0.0075843 0.0081471 0.0087022 0.0092438 0.0098137 0.010343 0.010903 0.011447 0.012001 0.012599 0.013159 0.013695 0.014255 0.014808 0.015367 0.015927 0.016493 0.017068 0.017628 0.018041 0.018606 0.019066 0.019628 0.020511 0.021073 0.021645 0.022198
-0.1032 -0.10296 -0.10271 -0.10263 -0.10246 -0.10214 -0.10197 -0.10172 -0.1014 -0.10115 -0.1009 -0.10058 0 0 0 -0.12176 -0.12113 -0.12073 -0.12026 -0.11986 -0.11953 -0.11906 -0.11866 -0.11826 -0.11786 -0.11754 -0.11707 -0.11667 -0.11634 -0.11587 -0.11547 -0.11514 -0.11474 -0.11427 -0.11388 -0.11348 -0.11315 -0.11275 -0.11228 -0.11188 -0.11155 -0.11115 -0.11075 -0.11042 -0.11002 -0.10963 -0.10923 -0.1089 -0.1085 -0.1081 -0.10783 -0.1075 -0.1071 -0.10677 -0.10637 -0.10597 -0.1055 -0.1051 -0.10483 -0.10449 -0.10416 -0.10382 -0.10342 -0.10315 -0.10281 -0.10241 -0.10219 -0.10186 -0.10158 -0.10143 -0.10108 -0.10074 -0.10046 -0.10005 -0.09971 -0.099304 -0.098959 -0.098614 -0.098268 -0.097861 -0.097634 -0.097287 -0.097058 -0.096709 -0.096359 -0.096244 -0.095893 -0.095599 -0.095304 -0.09495 -0.094711 -0.094298 -0.093943 -0.093644 -0.09323 -0.092873 -0.092572 -0.09227 -0.092133 -0.091828 -0.091467 -0.091215 -0.090907 -0.090652 -0.090396 -0.090138 -0.089825 -0.089458 -0.089037 -0.089303 -0.089037 -0.088717 -0.0885 -0.088592 -0.088163 -0.088196 -0.087765 -0.087537 -0.087206 -0.086975 -0.086591 -0.086257 -0.086021 -0.085684 -0.085347 -0.085496 -0.085834 -0.085391 -0.085236 -0.084791 -0.084917 -0.084611 -0.084445 -0.084088 -0.083684 -0.083789 -0.083473 -0.083156 0 0 -0.098562 -0.098058 -0.097642 -0.097092 -0.096542 -0.09608 -0.095573 -0.095065 -0.094557 -0.094049 -0.09337 -0.092776 -0.092226 -0.091759 -0.091208 -0.090616 -0.090024 -0.089555 -0.089045 -0.088937 -0.088022 -0.087431 -0.08684 -0.086288 -0.085659 -0.085069 -0.084403 -0.083853 -0.083189 -0.082527 -0.081979 -0.081393 -0.080771 -0.080224 -0.079639 -0.079128 -0.07977 -0.078893 -0.078339 -0.077821 -0.077232 -0.076435 -0.075883 -0.075571 -0.074984 -0.07443 -0.073944 -0.073424 -0.072903 -0.072578 -0.072087 -0.071659 -0.071102 -0.069782 -0.06923 -0.068741 -0.068065 -0.067545 -0.067085 -0.066503 -0.065921 -0.06534 -0.0647 -0.064149 -0.063454 -0.062933 -0.062412 -0.061863 -0.061313 -0.060791 -0.060241 -0.059745 -0.059681 -0.059126 -0.058597 -0.058068 -0.057617 -0.057086 -0.056606 -0.056098 -0.055565 -0.055007 -0.054645 -0.05406 -0.05362 -0.052987 -0.051887 -0.051332 -0.0508 -0.050154 -0.049622 -0.048957 -0.048404 -0.047894 -0.047491 -0.046915 -0.046402 -0.045784 -0.04525 -0.044715 -0.044179 -0.043663 -0.043088 -0.042513 -0.041976 -0.041439 -0.040957 -0.0404 -0.039825 -0.039268 -0.038711 -0.038137 -0.037581 -0.036991 -0.036369 -0.035798 -0.035227 -0.034672 -0.034102 -0.033563 -0.033039 -0.032454 -0.031871 -0.031359 -0.030805 -0.030277 -0.029843 -0.028995 -0.028443 -0.027891 -0.027364 -0.026799 -0.026271 -0.025718 -0.025199 -0.024646 -0.024071 -0.023539 -0.022975 -0.022432 -0.021878 -0.021305 -0.020752 -0.02019 -0.019637 -0.019085 -0.018532 -0.018003 -0.017474 -0.016927 -0.01638 -0.015818 -0.015257 -0.014696 -0.014148 -0.013594 -0.013045 -0.012502 -0.011969 -0.011454 -0.010901 -0.010347 -0.0098017 -0.0092424 -0.008687 -0.008131 -0.0075746 -0.0070146 -0.0064545 -0.0058918 -0.0053415 -0.0047807 -0.0042218 -0.0036558 -0.0030927 -0.002534 -0.0019766 -0.0014164 -0.00085498 -0.00029415 0.00026666 0.00082748 0.0013877 0.0019482 0.0025099 0.0030694 0.0036332 0.0041943 0.0047617 0.0053283 0.0058906 0.006453 0.007009 0.0075708 0.0081363 0.0086867 0.0092439 0.0098138 0.010343 0.010903 0.011447 0.012001 0.012571 0.013136 0.013696 0.014255 0.014808 0.015354 0.015912 0.016479 0.017053 0.017621 0.018042 0.018555 0.019075 0.019619 0.020511 0.021073 0.021626 0.022198
-0.1032 -0.10296 -0.10271 -0.10263 -0.10246 -0.10214 -0.10197 -0.10165 -0.1014 -0.10115 0 0 0 -0.12271 -0.12239 -0.12176 -0.12121 -0.12073 -0.12026 -0.11986 -0.11953 -0.11906 -0.11866 -0.11826 -0.11786 -0.11746 -0.11707 -0.11667 -0.11627 -0.11587 -0.11547 -0.11507 -0.11474 -0.11427 -0.11388 -0.11355 -0.11315 -0.11275 -0.11228 -0.11195 -0.11155 -0.11108 -0.11068 -0.11035 -0.10996 -0.10956 -0.10916 -0.10883 -0.10843 -0.10803 -0.10776 -0.10743 -0.1071 -0.1067 -0.1063 -0.1059 -0.1055 -0.1051 -0.10483 -0.10449 -0.10416 -0.10376 -0.10342 -0.10302 -0.10274 -0.10241 -0.10213 -0.10186 -0.10158 -0.10143 -0.10108 -0.1008 -0.10046 -0.10005 -0.09971 -0.099304 -0.098959 -0.098614 -0.098207 -0.097861 -0.097574 -0.097227 -0.096998 -0.096649 -0.096359 -0.096244 -0.095951 -0.095599 -0.095304 -0.095008 -0.094711 -0.094298 -0.093943 -0.093644 -0.09323 -0.092873 -0.092516 -0.09227 -0.092078 -0.091828 -0.091467 -0.09127 -0.090961 -0.090706 -0.090342 -0.090084 -0.089825 -0.089404 -0.089037 -0.089409 -0.089037 -0.088717 -0.0885 -0.08854 -0.088111 -0.088145 -0.087765 -0.087537 -0.087206 -0.087025 -0.086591 -0.086257 -0.086021 -0.085684 -0.085199 -0.085203 -0.085834 -0.085439 -0.085813 -0.085365 -0.084965 -0.084611 -0.084445 -0.084041 -0.083637 -0.083789 -0.083427 -0.083156 0 0 -0.098291 -0.097923 -0.097508 -0.097003 -0.096498 -0.095948 -0.094483 -0.093939 -0.094428 -0.093878 -0.093327 -0.092649 -0.091426 -0.090839 -0.090335 -0.089789 -0.089942 -0.089432 -0.088842 -0.088292 -0.087822 -0.087351 -0.08676 -0.086209 -0.08562 -0.08503 -0.084364 -0.083777 -0.083113 -0.082489 -0.081941 -0.081318 -0.080697 -0.080113 -0.079566 -0.078947 -0.07804 -0.077496 -0.076953 -0.076938 -0.076426 -0.075843 -0.075987 -0.075503 -0.074882 -0.074329 -0.07381 -0.073324 -0.072671 -0.072447 -0.071957 -0.071337 -0.070205 -0.069654 -0.06923 -0.068178 -0.067631 -0.067452 -0.066963 -0.066412 -0.065801 -0.06525 -0.06467 -0.064091 -0.063454 -0.062904 -0.062355 -0.061834 -0.061285 -0.060735 -0.060213 -0.059772 -0.059438 -0.059019 -0.058465 -0.057963 -0.057487 -0.057008 -0.055968 -0.055417 -0.054865 -0.053918 -0.053395 -0.052945 -0.052228 -0.051682 -0.051182 -0.050635 -0.050087 -0.04954 -0.049105 -0.048512 -0.04792 -0.047373 -0.047148 -0.046617 -0.046129 -0.045722 -0.045168 -0.044654 -0.044099 -0.043604 -0.04301 -0.042417 -0.0419 -0.041364 -0.040865 -0.040309 -0.039735 -0.039162 -0.038607 -0.038051 -0.037496 -0.036941 -0.036352 -0.035765 -0.035195 -0.034641 -0.034087 -0.033548 -0.032994 -0.032425 -0.031856 -0.031317 -0.030763 -0.030099 -0.029547 -0.028863 -0.028365 -0.027815 -0.027152 -0.026604 -0.026044 -0.025496 -0.024959 -0.024556 -0.02406 -0.023507 -0.022954 -0.022401 -0.021868 -0.021296 -0.020743 -0.02019 -0.019637 -0.019076 -0.018523 -0.017995 -0.017458 -0.016912 -0.016365 -0.015811 -0.015243 -0.014689 -0.014141 -0.013588 -0.013033 -0.012485 -0.01192 -0.011356 -0.010802 -0.010263 -0.009652 -0.0090804 -0.0085309 -0.0079595 -0.0074115 -0.0068604 -0.0063531 -0.0058018 -0.0052434 -0.0046929 -0.0041423 -0.0036115 -0.0030538 -0.002501 -0.0019517 -0.0013973 -0.00084417 -0.00028999 0.00026304 0.00081645 0.0013697 0.0019317 0.0025033 0.0030667 0.0036284 0.0041925 0.0047554 0.0053189 0.0058802 0.0064444 0.0069997 0.0075642 0.0081218 0.008679 0.0090661 0.0096207 0.010171 0.010727 0.011303 0.011952 0.012548 0.013124 0.01369 0.014249 0.014802 0.01534 0.015898 0.016456 0.016992 0.017478 0.017927 0.018513 0.019049 0.019584 0.020163 0.020697 0.021172 0.021732
-0.10312 -0.10296 -0.10271 -0.10255 -0.1023 -0.10206 -0.10189 -0.10157 -0.10132 -0.10107 0 0 0 -0.12271 -0.12231 -0.12183 -0.12121 -0.12073 -0.12026 -0.11986 -0.11946 -0.11906 -0.11859 -0.11819 -0.11779 -0.11739 -0.11707 -0.11667 -0.11627 -0.11587 -0.11547 -0.11507 -0.11467 -0.11427 -0.11388 -0.11348 -0.11315 -0.11275 -0.11228 -0.11188 -0.11148 -0.11108 -0.11068 -0.11028 -0.10996 -0.10956 -0.10909 -0.10876 -0.10836 -0.10796 -0.1077 -0.10737 -0.10703 -0.10663 -0.1063 -0.10583 -0.10543 -0.10503 -0.1047 -0.10443 -0.10409 -0.10376 -0.10342 -0.10302 -0.10274 -0.10234 -0.10213 -0.10186 -0.10151 -0.10136 -0.10096 -0.10062 -0.1004 -0.099992 -0.099648 -0.099304 -0.098898 -0.098553 -0.098146 -0.0978 -0.097454 -0.097107 -0.096938 -0.09659 -0.0963 -0.09595 -0.095834 -0.09554 -0.095187 -0.094892 -0.094711 -0.094298 -0.093943 -0.093644 -0.09323 -0.092873 -0.092516 -0.092326 -0.091855 -0.091883 -0.091467 -0.09116 -0.091125 -0.090706 -0.090287 -0.090246 -0.089825 -0.089404 -0.089037 -0.089409 -0.089037 -0.088717 -0.088499 -0.088436 -0.088008 -0.088042 -0.087663 -0.087537 -0.087206 -0.087025 -0.086641 -0.086307 -0.086021 -0.085635 -0.085199 -0.085203 -0.085834 -0.085439 -0.085813 -0.085365 -0.085012 -0.084611 -0.084398 -0.083994 -0.083497 -0.08365 -0.083611 -0.083156 0 -0.098567 -0.098291 -0.097564 -0.09675 -0.096072 -0.095484 -0.094984 -0.094352 -0.093765 -0.093179 -0.092721 -0.09222 -0.091845 -0.0913 -0.090755 -0.09021 -0.089541 -0.088997 -0.088698 -0.08799 -0.087445 -0.08666 -0.086077 -0.085771 -0.085541 -0.084995 -0.084409 -0.083747 -0.08324 -0.08258 -0.082186 -0.081641 -0.081094 -0.080437 -0.079855 -0.07931 -0.078656 -0.077968 -0.077389 -0.076775 -0.07655 -0.07618 -0.07546 -0.074743 -0.074062 -0.07352 -0.073113 -0.072536 -0.072159 -0.071614 -0.071103 -0.070102 -0.069497 -0.068988 -0.068574 -0.067937 -0.067396 -0.067631 -0.067268 -0.066688 -0.066139 -0.065591 -0.065042 -0.064552 -0.063974 -0.063396 -0.062818 -0.062241 -0.061721 -0.061172 -0.060624 -0.060103 -0.059554 -0.058843 -0.058296 -0.057749 -0.057228 -0.05668 -0.056133 -0.055432 -0.054886 -0.05434 -0.05377 -0.053322 -0.052824 -0.052252 -0.051658 -0.051088 -0.050588 -0.050064 -0.04954 -0.048993 -0.048446 -0.047898 -0.047373 -0.046868 -0.046341 -0.045898 -0.045224 -0.044676 -0.044391 -0.04394 -0.043446 -0.042854 -0.042263 -0.041711 -0.041177 -0.040661 -0.040108 -0.03925 -0.038701 -0.038292 -0.037862 -0.037275 -0.036556 -0.036023 -0.035749 -0.035099 -0.034547 -0.033994 -0.033457 -0.032844 -0.032204 -0.031726 -0.031203 -0.030665 -0.029894 -0.029345 -0.028757 -0.028249 -0.0277 -0.027127 -0.02658 -0.02602 -0.025472 -0.024993 -0.024467 -0.023994 -0.023464 -0.022902 -0.02235 -0.021819 -0.021267 -0.020715 -0.020153 -0.019602 -0.019041 -0.018489 -0.017946 -0.017402 -0.016858 -0.016328 -0.015768 -0.015208 -0.014656 -0.014103 -0.01355 -0.012998 -0.012445 -0.011882 -0.01133 -0.010778 -0.010226 -0.0096519 -0.0090803 -0.0085152 -0.0079594 -0.0073979 -0.0068383 -0.0063096 -0.0057542 -0.0052433 -0.0046714 -0.0041139 -0.0035917 -0.0030468 -0.0024964 -0.0019455 -0.0013934 -0.00084102 -0.00028923 0.00026253 0.0008143 0.001353 0.0019004 0.002446 0.0029884 0.0035358 0.0041851 0.0046065 0.00515 0.005704 0.0062485 0.0067961 0.0073612 0.0079074 0.0085159 0.0090455 0.0096076 0.010153 0.010702 0.011262 0.011801 0.012351 0.012912 0.013462 0.014025 0.014642 0.015174 0.015727 0.016264 0.016824 0.017478 0.017928 0.018471 0.019014 0.019566 0.020117 0.02065 0.021182 0.021732
-0.10312 -0.10288 -0.10263 -0.10255 -0.1023 -0.10198 -0.10181 -0.10157 -0.10124 -0.10107 0 0 0 -0.12271 -0.12223 -0.12183 -0.12128 -0.12081 -0.12033 -0.11986 -0.11946 -0.11906 -0.11859 -0.11819 -0.11779 -0.11739 -0.11699 -0.11659 -0.11627 -0.11587 -0.11547 -0.11507 -0.11467 -0.11427 -0.11388 -0.11348 -0.11315 -0.11275 -0.11228 -0.11188 -0.11148 -0.11108 -0.11068 -0.11028 -0.10989 -0.10949 -0.10909 -0.10876 -0.10836 -0.10803 -0.1077 -0.10737 -0.10703 -0.1067 -0.10623 -0.10583 -0.10543 -0.10503 -0.10476 -0.10443 -0.10409 -0.10376 -0.10342 -0.10308 -0.10281 -0.10241 -0.10213 -0.10179 -0.10145 -0.1013 -0.10096 -0.10055 -0.10034 -0.09993 -0.099648 -0.099242 -0.098837 -0.098492 -0.098146 -0.09774 -0.097394 -0.097107 -0.096879 -0.09659 -0.09624 -0.096008 -0.095716 -0.095423 -0.095071 -0.095008 -0.094711 -0.094356 -0.094 -0.093701 -0.093344 -0.09293 -0.092572 -0.092717 -0.092356 -0.09205 -0.091687 -0.09127 -0.091289 -0.090869 -0.09072 -0.090299 -0.089932 -0.089991 -0.089621 -0.089409 -0.089037 -0.088717 -0.088499 -0.088229 -0.088008 -0.088042 -0.08756 -0.087639 -0.087257 -0.087025 -0.086641 -0.086307 -0.08617 -0.085881 -0.085592 -0.086278 -0.085883 -0.085487 -0.085813 -0.085365 -0.085012 -0.084658 -0.08435 -0.083947 -0.083497 -0.083789 -0.083934 -0.083477 0 -0.098567 -0.09802 -0.097385 -0.096706 -0.096072 -0.095484 -0.094984 -0.094352 -0.093765 -0.093222 -0.092721 -0.09222 -0.091845 -0.0913 -0.090755 -0.090169 -0.089541 -0.089079 -0.088616 -0.08803 -0.087364 -0.08674 -0.086116 -0.085771 -0.085305 -0.084995 -0.084409 -0.083786 -0.083164 -0.082618 -0.081997 -0.081453 -0.080945 -0.080326 -0.079745 -0.079128 -0.078511 -0.077896 -0.077317 -0.076881 -0.076479 -0.076005 -0.07546 -0.074812 -0.074097 -0.07352 -0.073011 -0.072636 -0.072125 -0.071614 -0.071102 -0.070102 -0.069529 -0.068988 -0.06851 -0.067969 -0.067396 -0.067817 -0.067298 -0.066535 -0.065988 -0.065471 -0.065042 -0.064493 -0.063974 -0.063395 -0.062789 -0.062212 -0.061664 -0.061116 -0.060568 -0.06002 -0.059527 -0.058897 -0.058296 -0.057749 -0.057202 -0.05668 -0.056133 -0.055432 -0.054886 -0.05434 -0.05377 -0.053224 -0.052824 -0.052228 -0.051634 -0.051064 -0.050495 -0.050041 -0.049472 -0.048925 -0.048379 -0.047832 -0.047373 -0.046825 -0.046405 -0.045898 -0.045224 -0.044676 -0.044391 -0.04386 -0.043407 -0.042757 -0.042186 -0.041654 -0.041121 -0.040569 -0.040035 -0.03925 -0.038701 -0.03831 -0.037741 -0.037275 -0.036556 -0.036023 -0.035571 -0.035035 -0.034499 -0.033948 -0.033396 -0.032799 -0.032219 -0.031654 -0.031175 -0.030623 -0.029976 -0.029332 -0.028784 -0.02821 -0.027662 -0.027115 -0.026567 -0.026008 -0.025472 -0.024982 -0.024478 -0.023928 -0.023443 -0.022881 -0.02233 -0.021799 -0.021247 -0.020705 -0.020126 -0.019566 -0.019015 -0.018464 -0.017905 -0.017371 -0.01682 -0.016313 -0.015746 -0.015187 -0.014642 -0.014084 -0.013538 -0.01298 -0.012428 -0.011871 -0.011304 -0.010758 -0.010216 -0.0096474 -0.009072 -0.0085113 -0.0079521 -0.0073876 -0.0068445 -0.0063038 -0.0057594 -0.0052073 -0.0046606 -0.0041138 -0.0035916 -0.0030411 -0.0024918 -0.0019419 -0.0013896 -0.00083904 -0.00028865 0.00026211 0.00081289 0.0013531 0.0019005 0.0024461 0.0029885 0.0035359 0.0041851 0.0046066 0.0051501 0.0057041 0.0062486 0.0067962 0.0073477 0.0079075 0.0085159 0.0090497 0.0095946 0.010139 0.010688 0.011262 0.011801 0.012351 0.012912 0.013462 0.014025 0.014642 0.015174 0.015727 0.016264 0.016824 0.017423 0.01792 0.01848 0.018988 0.019539 0.020099 0.020612 0.021163 0.021703
-0.1032 -0.10296 -0.10263 -0.10247 -0.10222 -0.10198 -0.10173 -0.10149 -0.10124 -0.10092 0 0 0 -0.12271 -0.12223 -0.12183 -0.12128 -0.12081 -0.12033 -0.11986 -0.11946 -0.11898 -0.11859 -0.11819 -0.11779 -0.11739 -0.11699 -0.11659 -0.11627 -0.11587 -0.11547 -0.11507 -0.11467 -0.11427 -0.11388 -0.11355 -0.11315 -0.11275 -0.11228 -0.11188 -0.11148 -0.11108 -0.11068 -0.11028 -0.10989 -0.10949 -0.10909 -0.10869 -0.10836 -0.10796 -0.1077 -0.10736 -0.10703 -0.10663 -0.10623 -0.10583 -0.10543 -0.10503 -0.1047 -0.10443 -0.10409 -0.10376 -0.10335 -0.10315 -0.10274 -0.10241 -0.10213 -0.10186 -0.10145 -0.10124 -0.1009 -0.10055 -0.10027 -0.09993 -0.099587 -0.099181 -0.098836 -0.098492 -0.098086 -0.09774 -0.097394 -0.097047 -0.096879 -0.09653 -0.096181 -0.095949 -0.095658 -0.09519 -0.095594 -0.095355 -0.094826 -0.094413 -0.094114 -0.093757 -0.093344 -0.092986 -0.092684 -0.092717 -0.092411 -0.09205 -0.091632 -0.091324 -0.091453 -0.090978 -0.090774 -0.090407 -0.090147 -0.090045 -0.089621 -0.089409 -0.089037 -0.088716 -0.088552 -0.088229 -0.088008 -0.088093 -0.087663 -0.08769 -0.087307 -0.087076 -0.086691 -0.086357 -0.086219 -0.085881 -0.085543 -0.086229 -0.085883 -0.085632 -0.08538 -0.084982 -0.08506 -0.084658 -0.08435 -0.083947 -0.083544 -0.083789 0 -0.094616 -0.094143 -0.098385 -0.097975 -0.09734 -0.096661 -0.095983 -0.095352 -0.094764 -0.094221 -0.093635 -0.093049 -0.09255 -0.09205 -0.091634 -0.091132 -0.090588 -0.090044 -0.089458 -0.088956 -0.088534 -0.087908 -0.087283 -0.08666 -0.086077 -0.085692 -0.085266 -0.084799 -0.084254 -0.08367 -0.083125 -0.082542 -0.081922 -0.081378 -0.080833 -0.080215 -0.079598 -0.079054 -0.078402 -0.077824 -0.077246 -0.076775 -0.076338 -0.075865 -0.075286 -0.074674 -0.074062 -0.073452 -0.072977 -0.072502 -0.071992 -0.071119 -0.070578 -0.069972 -0.069497 -0.068956 -0.068447 -0.067937 -0.067334 -0.066762 -0.066221 -0.065681 -0.065171 -0.06463 -0.064297 -0.063755 -0.063886 -0.063279 -0.062703 -0.062155 -0.061608 -0.06106 -0.060513 -0.059965 -0.059445 -0.058843 -0.058243 -0.057669 -0.057149 -0.056472 -0.055643 -0.055024 -0.054457 -0.053915 -0.053349 -0.052783 -0.052727 -0.05218 -0.051515 -0.050712 -0.050146 -0.049949 -0.049426 -0.048858 -0.048334 -0.047766 -0.047329 -0.046804 -0.046341 -0.045814 -0.045183 -0.044574 -0.043986 -0.04342 -0.042874 -0.042406 -0.04184 -0.041293 -0.040728 -0.040144 -0.039598 -0.039106 -0.038559 -0.0381 -0.037552 -0.036987 -0.036272 -0.035743 -0.03523 -0.034971 -0.034468 -0.033917 -0.033335 -0.032754 -0.032175 -0.031625 -0.031118 -0.030567 -0.029934 -0.029345 -0.028757 -0.028184 -0.027637 -0.02709 -0.026531 -0.025984 -0.025437 -0.024845 -0.024355 -0.023797 -0.023389 -0.022818 -0.022197 -0.02167 -0.021199 -0.020582 -0.019979 -0.019441 -0.018963 -0.018414 -0.017799 -0.017252 -0.016666 -0.01612 -0.015546 -0.015 -0.014462 -0.014071 -0.01339 -0.012844 -0.012275 -0.01173 -0.011185 -0.010645 -0.010096 -0.0095593 -0.0090138 -0.0084956 -0.007941 -0.0073773 -0.0068349 -0.0062979 -0.0057514 -0.0052025 -0.0046562 -0.0041062 -0.0035621 -0.0030161 -0.0024871 -0.0019373 -0.0013876 -0.00083706 -0.00028789 0.00026172 0.00081186 0.0013556 0.0019032 0.0024293 0.002972 0.0035229 0.0040388 0.004579 0.0051192 0.005691 0.0062429 0.0067932 0.0073444 0.0078858 0.0084733 0.0090373 0.0095815 0.010125 0.010678 0.011211 0.011721 0.012249 0.012794 0.013345 0.013891 0.014416 0.014926 0.015469 0.016005 0.016548 0.017083 0.01765 0.018177 0.01872 0.019343 0.019888 0.020406 0.02094 0.021485
-0.1032 -0.10296 -0.10271 -0.10247 -0.10215 -0.1019 -0.10166 -0.10141 -0.10108 -0.10092 0 0 0 -0.12271 -0.12231 -0.12176 -0.12121 -0.12073 -0.12026 -0.11978 -0.11938 -0.11898 -0.11859 -0.11826 -0.11786 -0.11746 -0.11707 -0.11667 -0.11627 -0.11587 -0.11554 -0.11514 -0.11474 -0.11435 -0.11395 -0.11355 -0.11322 -0.11282 -0.11228 -0.11188 -0.11141 -0.11101 -0.11068 -0.11028 -0.10989 -0.10949 -0.10909 -0.10869 -0.10829 -0.10789 -0.10763 -0.10736 -0.10697 -0.10656 -0.10616 -0.10583 -0.10543 -0.10503 -0.1047 -0.10436 -0.10403 -0.10376 -0.10335 -0.10315 -0.10274 -0.10247 -0.10219 -0.10179 -0.10151 -0.10117 -0.1009 -0.10049 -0.10021 -0.099868 -0.099525 -0.099181 -0.098775 -0.098491 -0.098085 -0.097679 -0.097333 -0.097047 -0.096759 -0.096411 -0.096122 -0.095949 -0.095658 -0.09519 -0.095536 -0.095181 -0.094941 -0.094528 -0.094171 -0.093814 -0.0934 -0.093042 -0.092796 -0.092437 -0.092411 -0.092049 -0.091687 -0.091324 -0.091507 -0.091087 -0.090828 -0.090515 -0.090254 -0.089991 -0.089621 -0.089409 -0.089037 -0.088664 -0.088499 -0.088177 -0.088008 -0.088093 -0.087663 -0.087791 -0.087408 -0.087176 -0.086791 -0.086456 -0.086269 -0.085931 -0.085543 -0.086229 -0.085834 -0.085632 -0.08538 -0.084982 -0.085059 -0.084753 -0.084492 -0.084088 -0.083497 -0.083789 0 -0.094616 -0.094143 -0.098385 -0.097885 -0.097295 -0.096572 -0.095939 -0.095175 -0.094633 -0.094047 -0.093288 -0.092705 -0.092164 -0.091837 -0.091379 -0.090963 -0.090337 -0.089794 -0.089252 -0.088709 -0.088167 -0.087624 -0.087001 -0.086459 -0.085917 -0.085454 -0.084912 -0.084408 -0.083866 -0.083284 -0.082819 -0.082276 -0.081657 -0.081115 -0.080572 -0.079918 -0.07934 -0.078798 -0.078184 -0.077607 -0.077102 -0.076561 -0.07602 -0.075514 -0.075147 -0.074501 -0.073925 -0.073384 -0.07291 -0.072368 -0.071892 -0.071119 -0.070512 -0.06994 -0.069367 -0.06886 -0.06832 -0.067811 -0.067271 -0.0667 -0.06616 -0.06565 -0.06511 -0.0646 -0.064149 -0.063755 -0.063798 -0.063134 -0.062588 -0.062041 -0.061325 -0.060836 -0.060291 -0.059718 -0.059172 -0.058627 -0.058055 -0.05751 -0.056965 -0.056498 -0.055643 -0.054973 -0.054406 -0.053865 -0.053275 -0.052783 -0.052751 -0.05206 -0.051515 -0.050712 -0.050146 -0.049949 -0.049313 -0.0487 -0.048201 -0.0477 -0.047199 -0.046675 -0.046214 -0.045667 -0.045058 -0.044471 -0.043885 -0.04332 -0.042874 -0.042406 -0.04184 -0.041217 -0.040653 -0.04007 -0.039525 -0.038998 -0.038524 -0.038012 -0.037483 -0.037004 -0.036272 -0.035743 -0.03523 -0.034987 -0.034421 -0.03387 -0.033289 -0.032724 -0.032101 -0.031538 -0.031032 -0.03047 -0.029907 -0.029358 -0.028705 -0.028145 -0.027599 -0.027065 -0.026518 -0.025924 -0.025344 -0.024822 -0.024288 -0.023764 -0.023272 -0.022714 -0.022177 -0.02163 -0.021092 -0.020545 -0.019979 -0.019432 -0.018876 -0.018338 -0.017783 -0.017236 -0.016666 -0.01609 -0.015524 -0.01498 -0.014462 -0.014071 -0.01339 -0.01282 -0.012264 -0.011714 -0.011175 -0.010636 -0.010095 -0.0095548 -0.0090096 -0.0084604 -0.0079154 -0.007367 -0.0068254 -0.0062804 -0.0057354 -0.0051904 -0.0046454 -0.0041023 -0.003562 -0.003016 -0.0024757 -0.0019293 -0.0013818 -0.0008343 -0.00028679 0.00026085 0.00080861 0.0013545 0.0019032 0.0024294 0.0029735 0.003523 0.0040388 0.0045769 0.0051193 0.0056937 0.0062228 0.0067713 0.0073208 0.0078858 0.0084733 0.0090084 0.0095596 0.010107 0.010654 0.011196 0.011726 0.012249 0.012795 0.013333 0.013872 0.014403 0.014906 0.015455 0.016005 0.01654 0.017091 0.017642 0.018177 0.018711 0.019281 0.019834 0.020368 0.02094 0.021485
-0.1032 -0.10296 -0.10271 -0.10239 -0.10215 -0.10182 -0.10166 -0.10133 -0.10101 -0.10068 -0.10051 -0.10011 -0.099942 0 0 0 -0.12121 -0.12073 -0.12018 -0.11978 -0.11931 -0.11898 -0.11859 -0.11826 -0.11786 -0.11746 -0.11707 -0.11674 -0.11634 -0.11587 -0.11554 -0.11514 -0.11474 -0.11435 -0.11395 -0.11355 -0.11322 -0.11282 -0.11228 -0.11188 -0.11148 -0.11101 -0.11068 -0.11028 -0.10989 -0.10942 -0.10902 -0.10862 -0.10829 -0.10789 -0.10763 -0.1073 -0.10697 -0.10656 -0.10616 -0.10576 -0.10537 -0.10503 -0.1047 -0.1043 -0.10396 -0.10369 -0.10342 -0.10302 -0.10274 -0.10241 -0.10219 -0.10179 -0.10145 -0.10124 -0.10083 -0.10049 -0.10021 -0.099806 -0.099525 -0.099119 -0.098775 -0.098491 -0.098085 -0.09774 -0.097333 -0.097047 -0.096759 -0.096411 -0.096122 -0.095949 -0.095658 -0.095423 -0.095478 -0.095123 -0.094941 -0.094528 -0.094114 -0.093814 -0.093457 -0.093099 -0.09274 -0.092493 -0.092355 -0.092049 -0.091632 -0.091269 -0.091507 -0.091087 -0.090828 -0.090515 -0.090254 -0.089991 -0.089621 -0.089356 -0.089037 -0.088664 -0.088499 -0.088125 -0.087801 -0.088299 -0.087867 -0.087791 -0.087459 -0.087176 -0.086842 -0.086506 -0.086318 -0.08598 -0.085641 -0.08618 -0.085785 -0.085439 -0.085476 -0.08503 -0.085726 -0.084989 -0.084539 -0.084182 -0.083777 -0.083881 0 -0.094891 -0.094417 -0.09843 -0.09793 -0.097295 -0.096572 -0.095895 -0.09447 -0.093932 -0.093829 -0.093202 -0.092532 -0.091993 -0.09124 -0.090702 -0.090753 -0.090295 -0.089711 -0.089169 -0.088627 -0.088044 -0.087462 -0.08684 -0.086339 -0.085758 -0.085256 -0.084755 -0.084213 -0.083672 -0.083169 -0.082665 -0.082161 -0.081619 -0.081002 -0.080423 -0.079733 -0.079193 -0.078652 -0.078075 -0.077535 -0.076995 -0.076455 -0.07595 -0.075304 -0.074695 -0.073879 -0.073342 -0.072805 -0.072335 -0.071798 -0.07116 -0.07059 -0.070414 -0.069842 -0.069303 -0.068763 -0.068224 -0.067716 -0.067177 -0.066606 -0.066067 -0.065559 -0.065049 -0.06457 -0.064059 -0.063489 -0.063008 -0.062496 -0.061955 -0.061671 -0.061212 -0.060696 -0.060152 -0.059608 -0.059063 -0.058492 -0.057975 -0.057431 -0.056886 -0.056342 -0.05554 -0.054948 -0.054381 -0.053815 -0.053225 -0.052685 -0.052072 -0.051484 -0.050945 -0.050571 -0.050007 -0.049535 -0.048994 -0.048633 -0.048134 -0.047634 -0.047177 -0.046653 -0.04615 -0.045625 -0.045058 -0.04441 -0.043804 -0.04322 -0.042618 -0.041978 -0.041436 -0.04116 -0.040578 -0.039996 -0.039434 -0.038944 -0.038453 -0.037925 -0.037414 -0.036902 -0.035955 -0.035414 -0.034922 -0.034365 -0.033824 -0.033762 -0.032757 -0.032216 -0.031704 -0.031162 -0.030635 -0.029926 -0.0294 -0.028901 -0.028361 -0.027821 -0.027358 -0.026804 -0.02625 -0.025829 -0.025309 -0.024799 -0.024265 -0.023731 -0.023229 -0.022682 -0.022146 -0.02159 -0.021063 -0.020526 -0.01997 -0.019405 -0.018859 -0.018312 -0.017766 -0.01722 -0.016651 -0.016061 -0.015495 -0.014959 -0.014409 -0.013885 -0.013335 -0.012797 -0.012247 -0.011703 -0.01116 -0.010621 -0.010091 -0.0095503 -0.0090012 -0.0084565 -0.0079044 -0.0073602 -0.0068222 -0.0062775 -0.0057327 -0.0051856 -0.0046411 -0.0041023 -0.0035603 -0.0030159 -0.0024722 -0.0019275 -0.0013805 -0.00083345 -0.00028643 0.0002607 0.00080796 0.0013546 0.001899 0.0024328 0.0029708 0.0035117 0.0040389 0.0045749 0.0051122 0.0056649 0.0062085 0.006762 0.0073107 0.0078568 0.0084346 0.0089878 0.0095465 0.010093 0.010644 0.011185 0.011721 0.012238 0.012783 0.013327 0.013859 0.01439 0.014885 0.015448 0.015991 0.016548 0.017083 0.017634 0.018177 0.018712 0.019254 0.019797 0.02033 0.020767 0.021306
-0.1032 -0.10296 -0.10263 -0.10239 -0.10214 -0.10182 -0.10158 -0.10125 -0.10093 -0.10068 -0.10044 -0.10011 -0.099942 0 0 -0.12176 -0.12121 -0.12073 -0.12026 -0.11978 -0.11938 -0.11898 -0.11866 -0.11826 -0.11794 -0.11746 -0.11707 -0.11667 -0.11627 -0.11587 -0.1154 -0.115 -0.1146 -0.1142 -0.11388 -0.11355 -0.11322 -0.11282 -0.11235 -0.11188 -0.11148 -0.11108 -0.11068 -0.11028 -0.10989 -0.10949 -0.10909 -0.10869 -0.10836 -0.10803 -0.1077 -0.10736 -0.10703 -0.10663 -0.10623 -0.10583 -0.10537 -0.10503 -0.10463 -0.1043 -0.10396 -0.10369 -0.10329 -0.10295 -0.10268 -0.10234 -0.10207 -0.10173 -0.10139 -0.10117 -0.10083 -0.10049 -0.10021 -0.099868 -0.099525 -0.099181 -0.098775 -0.098491 -0.098146 -0.09774 -0.097393 -0.097047 -0.096759 -0.096411 -0.096122 -0.096008 -0.095716 -0.095423 -0.095478 -0.095123 -0.094884 -0.094528 -0.094114 -0.093814 -0.093457 -0.093042 -0.092796 -0.092493 -0.092355 -0.091994 -0.091632 -0.091215 -0.091507 -0.091087 -0.090774 -0.090461 -0.090254 -0.089991 -0.089621 -0.089356 -0.089036 -0.088664 -0.088447 -0.088125 -0.087801 -0.087785 -0.087305 -0.087842 -0.087459 -0.087075 -0.086892 -0.086406 -0.086368 -0.086029 -0.085641 -0.085887 -0.085591 -0.085342 -0.085476 -0.08503 -0.085631 -0.085131 -0.08468 -0.084275 -0.083777 -0.083881 -0.085455 -0.084989 -0.084797 -0.08433 -0.084133 -0.083575 -0.083107 -0.09585 -0.093896 -0.093405 -0.093175 -0.092552 -0.092101 -0.091564 -0.090942 -0.090363 -0.090458 -0.08996 -0.089337 -0.088467 -0.08797 -0.087228 -0.086651 -0.086114 -0.085578 -0.085041 -0.084624 -0.084008 -0.08351 -0.083051 -0.082513 -0.082397 -0.081933 -0.080674 -0.080175 -0.079602 -0.079103 -0.079045 -0.078506 -0.077821 -0.077211 -0.076601 -0.076064 -0.075561 -0.074989 -0.074416 -0.073845 -0.073239 -0.072703 -0.072166 -0.071596 -0.070994 -0.070425 -0.070217 -0.069614 -0.069044 -0.068507 -0.06797 -0.067433 -0.066864 -0.066327 -0.065759 -0.065284 -0.064747 -0.064179 -0.063494 -0.062781 -0.062217 -0.061799 -0.061264 -0.060729 -0.061071 -0.0605 -0.059957 -0.059415 -0.058872 -0.05833 -0.057761 -0.057272 -0.056703 -0.056134 -0.055566 -0.054795 -0.054255 -0.053365 -0.05268 -0.052146 -0.051805 -0.051268 -0.050708 -0.04996 -0.049403 -0.048938 -0.04838 -0.047823 -0.048023 -0.04748 -0.04696 -0.046481 -0.046001 -0.045478 -0.044892 -0.044287 -0.043562 -0.042981 -0.04244 -0.04188 -0.041301 -0.040762 -0.040484 -0.039849 -0.039197 -0.038765 -0.038329 -0.037873 -0.036898 -0.036359 -0.035871 -0.035348 -0.034841 -0.034301 -0.033714 -0.033175 -0.032559 -0.032022 -0.031498 -0.030816 -0.030266 -0.029688 -0.029154 -0.028633 -0.028361 -0.027821 -0.027294 -0.026754 -0.026214 -0.025673 -0.025122 -0.024616 -0.024142 -0.023436 -0.022908 -0.022317 -0.02177 -0.02153 -0.021005 -0.020507 -0.01996 -0.019137 -0.018607 -0.018102 -0.01757 -0.017125 -0.016467 -0.015927 -0.015474 -0.01491 -0.014375 -0.01384 -0.013291 -0.012743 -0.012196 -0.011617 -0.011077 -0.010537 -0.0099929 -0.0095195 -0.0089804 -0.008433 -0.0078861 -0.0073397 -0.0068001 -0.0062571 -0.0057168 -0.0051759 -0.004626 -0.0040285 -0.003493 -0.002959 -0.0024233 -0.0018929 -0.0013557 -0.00083068 -0.00028543 0.0002597 0.00080617 0.0013515 0.0018955 0.0024284 0.0029641 0.0035004 0.0040371 0.0045664 0.0051052 0.0056465 0.0061912 0.006737 0.0072803 0.0078133 0.0083608 0.0089052 0.0095246 0.01007 0.01062 0.01116 0.011699 0.012221 0.012753 0.01329 0.013821 0.01435 0.014823 0.015362 0.015887 0.016418 0.016973 0.017487 0.018026 0.018556 0.019094 0.019632 0.020236 0.020747 0.021286
-0.1032 -0.10296 -0.10263 -0.10239 -0.10207 -0.10182 -0.10158 -0.10125 -0.10101 -0.1006 -0.10044 -0.10011 0 0 0 -0.12176 -0.12128 -0.12073 -0.12026 -0.11986 -0.11946 -0.11906 -0.11873 -0.11834 -0.11794 -0.11746 -0.11714 -0.11667 -0.11627 -0.11587 -0.11547 -0.115 -0.1146 -0.1142 -0.11388 -0.11348 -0.11322 -0.11282 -0.11235 -0.11195 -0.11155 -0.11115 -0.11075 -0.11042 -0.11002 -0.10963 -0.1093 -0.10896 -0.10856 -0.10823 -0.1079 -0.10757 -0.10717 -0.10676 -0.10637 -0.1059 -0.1055 -0.10503 -0.1047 -0.1043 -0.10396 -0.10369 -0.10329 -0.10295 -0.10268 -0.10228 -0.10207 -0.10173 -0.10145 -0.10117 -0.10083 -0.10049 -0.10021 -0.099868 -0.099586 -0.099181 -0.098836 -0.098613 -0.098207 -0.0978 -0.097514 -0.097106 -0.096819 -0.096471 -0.096122 -0.096008 -0.095716 -0.095423 -0.09542 -0.095123 -0.094884 -0.094528 -0.094171 -0.093814 -0.093457 -0.093099 -0.092909 -0.092605 -0.092411 -0.092049 -0.091632 -0.091214 -0.091562 -0.091087 -0.090828 -0.090461 -0.090307 -0.090044 -0.089674 -0.089461 -0.089089 -0.088716 -0.088447 -0.088125 -0.087956 -0.087682 -0.087304 -0.087893 -0.087509 -0.087176 -0.087192 -0.086855 -0.086566 -0.086177 -0.085837 -0.085887 -0.085639 -0.085294 -0.086053 -0.085604 -0.085392 -0.085084 -0.084868 -0.084462 -0.08401 0 -0.085455 -0.085081 -0.084706 -0.08433 -0.084133 -0.08362 -0.083107 0 -0.093896 -0.093405 -0.093175 -0.092552 -0.091972 -0.091436 -0.090815 -0.090363 -0.0905 -0.089918 -0.089254 -0.088467 -0.08797 -0.087228 -0.086651 -0.086114 -0.085578 -0.085041 -0.084623 -0.084007 -0.08351 -0.08305 -0.082513 -0.082167 -0.082009 -0.080674 -0.080175 -0.079602 -0.079103 -0.079045 -0.078433 -0.07793 -0.077102 -0.076458 -0.075957 -0.07542 -0.074848 -0.074312 -0.073741 -0.073205 -0.072635 -0.072132 -0.071496 -0.070893 -0.070458 -0.07025 -0.069516 -0.068915 -0.068411 -0.067875 -0.067338 -0.06677 -0.066203 -0.065698 -0.065192 -0.064656 -0.064089 -0.063493 -0.062751 -0.062217 -0.061741 -0.061236 -0.060729 -0.061071 -0.060528 -0.05993 -0.059387 -0.058845 -0.058276 -0.057734 -0.057245 -0.056702 -0.056134 -0.055566 -0.054769 -0.054255 -0.053365 -0.05268 -0.05217 -0.051708 -0.051172 -0.050589 -0.050007 -0.049403 -0.048915 -0.048357 -0.047846 -0.048023 -0.047458 -0.046938 -0.046503 -0.04598 -0.045373 -0.044809 -0.044287 -0.043541 -0.04296 -0.042361 -0.041841 -0.041244 -0.040762 -0.040484 -0.039738 -0.039197 -0.038765 -0.03824 -0.037873 -0.036898 -0.036342 -0.035837 -0.035332 -0.034808 -0.034253 -0.033714 -0.033175 -0.032559 -0.032022 -0.031498 -0.030815 -0.030223 -0.02966 -0.029126 -0.028632 -0.028361 -0.027821 -0.027269 -0.026729 -0.026189 -0.025638 -0.025121 -0.024604 -0.024086 -0.023436 -0.022865 -0.022296 -0.02178 -0.02154 -0.020986 -0.020497 -0.01996 -0.019137 -0.018607 -0.018102 -0.01757 -0.017125 -0.016466 -0.015927 -0.015438 -0.014903 -0.014362 -0.013833 -0.013285 -0.012743 -0.012185 -0.011611 -0.011067 -0.010532 -0.0099928 -0.0095238 -0.0089762 -0.0084329 -0.0078824 -0.0073396 -0.0067937 -0.006257 -0.0057114 -0.0051759 -0.0046195 -0.0040284 -0.003488 -0.0029561 -0.0024255 -0.0018901 -0.0013556 -0.00083022 -0.00028522 0.00025977 0.00080588 0.0013504 0.0018904 0.0024285 0.0029614 0.0034972 0.0040334 0.0045622 0.0051005 0.0056413 0.0061827 0.0067277 0.0072669 0.0078207 0.0083648 0.0089052 0.0095247 0.010074 0.010615 0.01116 0.011688 0.012205 0.012748 0.013284 0.013821 0.014337 0.014823 0.015334 0.015865 0.016411 0.016941 0.017479 0.018009 0.018547 0.019085 0.019641 0.020199 0.020738 0.021306
-0.10312 -0.10296 -0.10263 -0.10231 -0.10207 -0.10182 -0.10158 -0.10125 -0.10101 -0.10068 0 0 0 -0.12364 -0.12323 -0.12176 -0.12121 -0.12073 -0.12026 -0.11986 -0.11946 -0.11906 -0.11873 -0.11834 -0.11794 -0.11754 -0.11714 -0.11674 -0.11634 -0.11587 -0.11547 -0.115 -0.1146 -0.1142 -0.11388 -0.11348 -0.11315 -0.11282 -0.11235 -0.11195 -0.11162 -0.11122 -0.11082 -0.11042 -0.11009 -0.10969 -0.1093 -0.10896 -0.10863 -0.1083 -0.10797 -0.10757 -0.10717 -0.10676 -0.10637 -0.10603 -0.10563 -0.1051 -0.10476 -0.10436 -0.10403 -0.10369 -0.10335 -0.10295 -0.10268 -0.10234 -0.10207 -0.10173 -0.10145 -0.10124 -0.10083 -0.10049 -0.10021 -0.099868 -0.099586 -0.099242 -0.098836 -0.098552 -0.098146 -0.09774 -0.097453 -0.097047 -0.096759 -0.096352 -0.096063 -0.095949 -0.095657 -0.095365 -0.09542 -0.095123 -0.094884 -0.094528 -0.094171 -0.093814 -0.0934 -0.093042 -0.093021 -0.092661 -0.092467 -0.09216 -0.091797 -0.091818 -0.091507 -0.091087 -0.090828 -0.090514 -0.090307 -0.089991 -0.089674 -0.089461 -0.089089 -0.088716 -0.088447 -0.088124 -0.088008 -0.087682 -0.087356 -0.087944 -0.08756 -0.087277 -0.087292 -0.086855 -0.086616 -0.086276 -0.085935 -0.086082 -0.085688 -0.085439 -0.085764 -0.085317 -0.08544 -0.085084 -0.084915 -0.084462 -0.084056 -0.085735 -0.08527 -0.085081 -0.084706 -0.084375 -0.084043 -0.083575 -0.083107 0 -0.092486 -0.091959 -0.091737 -0.092118 -0.091757 -0.091264 -0.090687 -0.090067 -0.089911 -0.089249 -0.088672 -0.086896 -0.086409 -0.086901 -0.085515 -0.084985 -0.084456 -0.083926 -0.083397 -0.083025 -0.082494 -0.082507 -0.082012 -0.081478 -0.080335 -0.079804 -0.079349 -0.078931 -0.078251 -0.07772 -0.077702 -0.077204 -0.07685 -0.076315 -0.07585 -0.075349 -0.074778 -0.074242 -0.073637 -0.073102 -0.072566 -0.072031 -0.071395 -0.07076 -0.070226 -0.069692 -0.069256 -0.068818 -0.068283 -0.067779 -0.067212 -0.066645 -0.06611 -0.065636 -0.065131 -0.064565 -0.064029 -0.063464 -0.062692 -0.062129 -0.061683 -0.061149 -0.060615 -0.059855 -0.059295 -0.058736 -0.058067 -0.057537 -0.057007 -0.056289 -0.055761 -0.055232 -0.054678 -0.054253 -0.053902 -0.053346 -0.052915 -0.052656 -0.052146 -0.051611 -0.051076 -0.050542 -0.04996 -0.049403 -0.048869 -0.048335 -0.047576 -0.047044 -0.046557 -0.046025 -0.045407 -0.044876 -0.045289 -0.044726 -0.043795 -0.043258 -0.042801 -0.042302 -0.041763 -0.041186 -0.04061 -0.040053 -0.039534 -0.039033 -0.038477 -0.037886 -0.037366 -0.03676 -0.036325 -0.035821 -0.035315 -0.034776 -0.034237 -0.033431 -0.032912 -0.032331 -0.031722 -0.031189 -0.030642 -0.030152 -0.029605 -0.029071 -0.028511 -0.028058 -0.027536 -0.027231 -0.026691 -0.026165 -0.025625 -0.025098 -0.02457 -0.024019 -0.023348 -0.022812 -0.022265 -0.021688 -0.021193 -0.020569 -0.020035 -0.019566 -0.01903 -0.018494 -0.017984 -0.017447 -0.017125 -0.016344 -0.015808 -0.015409 -0.014765 -0.014229 -0.013692 -0.013156 -0.012619 -0.012134 -0.011595 -0.011056 -0.010522 -0.0099881 -0.0094577 -0.008918 -0.0083782 -0.0078203 -0.0072614 -0.0067276 -0.0061991 -0.0056585 -0.0051208 -0.0045724 -0.0040094 -0.0034831 -0.0029533 -0.002422 -0.0018865 -0.0013492 -0.00081447 -0.00028186 0.00025685 0.00079706 0.0013455 0.0018887 0.0024286 0.0029573 0.003494 0.0040279 0.0045602 0.0050982 0.0056361 0.006177 0.0067246 0.0072602 0.0078207 0.0083726 0.0088805 0.0094238 0.0099492 0.010453 0.01099 0.011527 0.012058 0.0126 0.013131 0.013667 0.014217 0.014754 0.015305 0.015843 0.01638 0.016925 0.017447 0.017984 0.018521 0.019067 0.019596 0.020171 0.020709 0.021287
-0.10304 -0.10288 -0.10247 -0.10215 -0.10191 -0.10166 -0.10158 -0.10125 -0.10085 -0.10053 0 0 0 -0.12317 -0.12277 -0.12176 -0.12113 -0.12073 -0.12026 -0.11986 -0.11946 -0.11913 -0.11873 -0.11841 -0.11794 -0.11754 -0.11721 -0.11681 -0.11641 -0.11587 -0.11547 -0.115 -0.1146 -0.11413 -0.1138 -0.11348 -0.11315 -0.11275 -0.11235 -0.11195 -0.11162 -0.11122 -0.11082 -0.11042 -0.11009 -0.10969 -0.1093 -0.10903 -0.10863 -0.1083 -0.10797 -0.10757 -0.10717 -0.10683 -0.10643 -0.10603 -0.1057 -0.10516 -0.10476 -0.10443 -0.10403 -0.10376 -0.10335 -0.10295 -0.10268 -0.10234 -0.10207 -0.10179 -0.10145 -0.10124 -0.10089 -0.10055 -0.10021 -0.09993 -0.099586 -0.099242 -0.098897 -0.098552 -0.098146 -0.097739 -0.097393 -0.097046 -0.096699 -0.096292 -0.095944 -0.09589 -0.095599 -0.095248 -0.095303 -0.095007 -0.094883 -0.094528 -0.094171 -0.093814 -0.0934 -0.093042 -0.092965 -0.09266 -0.092411 -0.092105 -0.091687 -0.091653 -0.091343 -0.091032 -0.090774 -0.090407 -0.0902 -0.089884 -0.089621 -0.089514 -0.089141 -0.088716 -0.088395 -0.088332 -0.087904 -0.087785 -0.087356 -0.087842 -0.087459 -0.087176 -0.087092 -0.086755 -0.086665 -0.086276 -0.085935 -0.086082 -0.085736 -0.085439 -0.085764 -0.085317 -0.085345 -0.085084 -0.084868 -0.084462 -0.084056 -0.085735 -0.08527 -0.085126 -0.084751 -0.084375 -0.083998 -0.083485 -0.082928 0 -0.092133 -0.091608 -0.091432 -0.091078 -0.090593 -0.090065 -0.089452 -0.088967 -0.088228 -0.087702 -0.087175 -0.086814 -0.086286 -0.085758 -0.085352 -0.084904 -0.084376 -0.083847 -0.083397 -0.082907 -0.082377 -0.082197 -0.081665 -0.081056 -0.080334 -0.079804 -0.079312 -0.078818 -0.078214 -0.07761 -0.076897 -0.076369 -0.075841 -0.075312 -0.074819 -0.074291 -0.073762 -0.073233 -0.072705 -0.072142 -0.071579 -0.071085 -0.070556 -0.070061 -0.069698 -0.069168 -0.068605 -0.068076 -0.067706 -0.06743 -0.06696 -0.066395 -0.065831 -0.065421 -0.064917 -0.063747 -0.063219 -0.062571 -0.061984 -0.061427 -0.0609 -0.060401 -0.059959 -0.05929 -0.058763 -0.05832 -0.057957 -0.057455 -0.056898 -0.056102 -0.055628 -0.055101 -0.0546 -0.05415 -0.053647 -0.053068 -0.052565 -0.052185 -0.05168 -0.05132 -0.050884 -0.050399 -0.049866 -0.049286 -0.048731 -0.048175 -0.047553 -0.046933 -0.046447 -0.045873 -0.045343 -0.044749 -0.04424 -0.04369 -0.043181 -0.042793 -0.042341 -0.041809 -0.041335 -0.040821 -0.040515 -0.039979 -0.039461 -0.038978 -0.038441 -0.037585 -0.037069 -0.036639 -0.036105 -0.035653 -0.035183 -0.034695 -0.034109 -0.033133 -0.032618 -0.032073 -0.031468 -0.03094 -0.030555 -0.030052 -0.029507 -0.028976 -0.028444 -0.027926 -0.027368 -0.026862 -0.026082 -0.025567 -0.025363 -0.024829 -0.024295 -0.023728 -0.023195 -0.022705 -0.022161 -0.021627 -0.021103 -0.02055 -0.019998 -0.019511 -0.018985 -0.01846 -0.017925 -0.017333 -0.0168 -0.016267 -0.015734 -0.015237 -0.014696 -0.014135 -0.013602 -0.013069 -0.012536 -0.012054 -0.011492 -0.010953 -0.010483 -0.0099275 -0.0093872 -0.0088307 -0.0082729 -0.00774 -0.00719 -0.0066583 -0.0061296 -0.0055976 -0.0050705 -0.0045295 -0.003998 -0.0034666 -0.0029379 -0.0023992 -0.0018687 -0.001339 -0.00080788 -0.00027718 0.00025274 0.00078267 0.0013113 0.0018408 0.0024084 0.002945 0.003486 0.0040223 0.0045177 0.0050506 0.0055731 0.0061021 0.0066338 0.0071621 0.0076863 0.0082211 0.0087316 0.0092484 0.0097775 0.010316 0.010846 0.011381 0.011917 0.012459 0.012983 0.013514 0.014044 0.014588 0.015119 0.015672 0.016196 0.016736 0.017259 0.017791 0.018357 0.018943 0.019504 0.020011 0.020574 0.021108
-0.10304 -0.1028 -0.10247 -0.10207 -0.10191 -0.10166 -0.1015 -0.10117 -0.10085 -0.10053 0 0 0 -0.12317 -0.12277 -0.12176 -0.12113 -0.12073 -0.12026 -0.11986 -0.11953 -0.11913 -0.11881 -0.11848 -0.11801 -0.11769 -0.11736 -0.11696 -0.11649 -0.11594 -0.11547 -0.115 -0.1146 -0.11413 -0.1138 -0.1134 -0.11308 -0.11275 -0.11235 -0.11202 -0.11162 -0.11122 -0.11089 -0.11049 -0.11016 -0.10976 -0.10936 -0.10903 -0.10863 -0.1083 -0.10797 -0.10763 -0.10723 -0.10683 -0.10643 -0.1061 -0.1057 -0.10523 -0.10483 -0.10443 -0.10403 -0.10376 -0.10335 -0.10295 -0.10274 -0.10234 -0.10226 -0.10192 -0.10164 -0.10136 -0.10102 -0.10068 -0.10027 -0.099992 -0.099648 -0.099303 -0.098897 -0.098552 -0.098146 -0.097739 -0.097393 -0.097046 -0.096699 -0.096233 -0.095944 -0.09589 -0.09554 -0.095248 -0.095245 -0.095239 -0.094883 -0.094527 -0.094114 -0.093814 -0.093456 -0.093098 -0.092908 -0.092604 -0.092411 -0.092104 -0.091742 -0.091598 -0.091288 -0.090978 -0.090774 -0.090407 -0.0902 -0.089831 -0.089461 -0.089514 -0.089141 -0.088821 -0.088447 -0.088487 -0.088059 -0.088196 -0.087764 -0.08774 -0.087408 -0.087176 -0.087092 -0.086655 -0.086715 -0.086375 -0.086033 -0.086277 -0.085882 -0.085584 -0.085764 -0.085317 -0.085345 -0.084989 -0.084868 -0.084462 -0.084056 -0.086013 -0.085593 -0.085401 -0.084797 -0.08433 -0.083953 -0.08344 -0.082973 0 -0.092133 -0.091608 -0.091432 -0.091078 -0.090593 -0.090065 -0.089452 -0.088966 -0.088228 -0.08766 -0.087175 -0.08669 -0.086204 -0.085717 -0.085271 -0.084783 -0.084335 -0.083767 -0.083318 -0.082907 -0.082377 -0.08208 -0.081587 -0.081056 -0.080372 -0.079804 -0.079274 -0.078781 -0.07814 -0.077573 -0.076897 -0.076369 -0.075841 -0.075312 -0.074819 -0.074291 -0.073762 -0.073198 -0.072705 -0.072107 -0.071579 -0.071085 -0.070556 -0.070061 -0.069599 -0.069135 -0.068573 -0.068076 -0.067706 -0.067429 -0.066865 -0.066364 -0.065799 -0.065267 -0.064917 -0.063747 -0.063218 -0.062571 -0.061954 -0.061427 -0.0609 -0.060401 -0.059902 -0.05929 -0.058763 -0.058319 -0.057847 -0.057373 -0.056817 -0.056102 -0.055575 -0.055075 -0.054548 -0.054072 -0.05357 -0.053068 -0.052565 -0.052086 -0.05168 -0.05132 -0.050788 -0.050352 -0.049795 -0.049216 -0.048684 -0.048107 -0.047441 -0.046889 -0.046359 -0.045829 -0.045278 -0.044727 -0.044198 -0.043648 -0.043181 -0.042793 -0.042281 -0.041848 -0.041335 -0.040859 -0.040439 -0.039922 -0.039424 -0.038942 -0.038387 -0.037585 -0.037087 -0.03657 -0.036104 -0.035653 -0.035117 -0.034711 -0.034029 -0.033133 -0.032587 -0.032058 -0.031483 -0.03094 -0.030555 -0.03001 -0.029479 -0.028934 -0.028417 -0.027873 -0.027368 -0.026862 -0.026082 -0.025567 -0.025363 -0.024829 -0.024295 -0.023728 -0.023195 -0.022662 -0.022129 -0.021596 -0.021063 -0.020531 -0.019988 -0.019483 -0.018958 -0.018433 -0.017899 -0.017333 -0.0168 -0.016267 -0.015734 -0.015237 -0.014696 -0.014135 -0.013602 -0.013069 -0.012536 -0.012054 -0.011492 -0.010953 -0.010483 -0.0099275 -0.0093871 -0.0088307 -0.0082728 -0.0077326 -0.0071934 -0.0066551 -0.0061266 -0.0055975 -0.0050656 -0.0045294 -0.0039961 -0.0034665 -0.0029351 -0.0024014 -0.0018687 -0.0013382 -0.00080705 -0.00027698 0.00025268 0.00078236 0.0013114 0.0018408 0.0024085 0.0029451 0.0034828 0.0040205 0.0045178 0.005046 0.0055731 0.0061022 0.0066308 0.0071622 0.00769 0.0082134 0.0087358 0.0092572 0.0097776 0.010312 0.010846 0.011376 0.011917 0.012453 0.012983 0.013507 0.014038 0.014575 0.015127 0.015665 0.016197 0.016728 0.017259 0.017791 0.018348 0.018943 0.019477 0.020011 0.020574 0.021108
