1.1681 1.169 1.17 1.1688 1.1676 1.1685 1.1695 1.1704 1.1843 1.1876 1.1886 1.1963 1.1973 1.196 1.197 1.1958 1.1924 1.189 1.1856 1.1844 1.1853 1.1841 1.1807 1.1839 1.1872 1.1882 1.1891 1.197 1.1981 1.1968 1.1979 1.1989 1.1977 1.1965 1.1975 1.2054 1.2066 1.2076 1.2134 1.2169 1.2181 1.2264 1.2251 1.2262 1.2274 1.2261 1.2346 1.2333 1.2296 1.2332 1.2368 1.2431 1.2443 1.248 1.2544 1.2634 1.2595 1.2582 1.2594 1.2632 1.2671 1.2658 1.2644 1.2631 1.2565 1.2551 1.2565 1.2604 1.2617 1.2576 1.2563 1.2655 1.2694 1.2735 1.2775 1.2789 1.2857 1.2871 1.2857 1.304 1.2997 1.2955 1.2913 1.3012 1.3289 1.3305 1.335 1.3336 1.3381 1.3397 1.3413 1.3368 1.3353 1.3308 1.3293 1.34 1.3447 1.3432 1.3479 1.3496 1.3449 1.3403 1.3388 1.3404 1.3358 1.3343 1.3421 1.3469 1.3422 1.3376 1.3392 1.3439 1.4014 1.3931 1.3915 1.3933 1.3917 1.3969 1.3987 1.3971 1.3956 1.3975 1.3993 1.4047 1.4064 1.4084 1.4032 1.3913 1.3932 1.402 1.4143 1.4163 1.4219 1.4422 1.4405 1.4425 1.4674 1.4773 1.4413 1.4358 1.4453 1.4588 0 0 0 0 0 0 0 0 0 0 0 0 0 0 0 0 0 0 0 0 0 0 0 0 0 0 0 0 0 0 0 0 0 0 0 0 0 0 0 0 0 0 0 0 0 0 0 0 0 2.248 2.2846 2.2917 2.299 2.3586 2.3346 2.3421 2.2875 2.2257 2.2326 2.2106 2.4034 2.4004 2.2704 2.2477 2.2546 2.242 2.1912 2.1791 2.1857 2.1735 2.1615 2.1228 2.1113 2.1174 2.1236 2.1032 2.0831 2.0719 2.0692 2.0498 2.0306 2.028 2.2033 2.2102 2.0533 1.8666 1.8642 0 0 0 0 0 0 0 0 0 0 0 0 0 0 0 0 0 0 0 0 0 0 0 0 0 0 0 0 0 0 0 0 0 0 0 0 0 0 0 0 1.6421 1.6456 1.7534 1.751 1.5889 1.5867 1.7768 1.8891 1.8865 0 0 0 0 0 0 0 0 0 0 0 0 1.6287 1.6264 1.6299 1.6218 1.8346 1.7611 1.6264 1.6417 1.6394 1.6195 1.9275 1.9247 0 0 0 0 0 0 0 1.4509 1.4583 1.5262 1.7592 1.4761 1.4888 1.4866 1.4746 0 0 0 0 0 0 0 0 0 1.4151 1.413 1.4108 1.4087 1.489 1.5075 1.5052 0 0 0 0 0 0 0 0 0.72413 0.72426 0.72315 0.7245 0.72094 0.71984 0.71873 0.71641 0.71409 0.71299 0.70825 0.70481 0.7013 0.69909 0.69913 0.69924 0.70287 0.70178 0.69948
1.1706 1.1716 1.1725 1.1692 1.168 1.1668 1.1678 1.1708 1.1826 1.1835 1.1823 1.19 1.191 1.1943 1.1953 1.1963 1.1928 1.1894 1.186 1.187 1.188 1.1867 1.1855 1.1865 1.192 1.1908 1.194 1.202 1.2008 1.1996 1.2006 1.1994 1.2027 1.2015 1.2025 1.2036 1.207 1.208 1.2163 1.2174 1.2233 1.2268 1.2255 1.2291 1.2279 1.2289 1.235 1.2337 1.2324 1.2311 1.2348 1.241 1.2423 1.2459 1.2549 1.2613 1.26 1.2612 1.2625 1.2637 1.2676 1.2663 1.2649 1.2636 1.257 1.2556 1.257 1.2582 1.2622 1.2608 1.2541 1.266 1.2699 1.274 1.278 1.2794 1.2834 1.2848 1.2862 1.3046 1.3031 1.296 1.2918 1.2989 1.3265 1.322 1.3148 1.3162 1.3207 1.3252 1.3267 1.3193 1.3178 1.3134 1.3179 1.3344 1.339 1.3468 1.3453 1.3469 1.3454 1.3408 1.3424 1.3409 1.3394 1.3379 1.3427 1.3474 1.3459 1.3382 1.3398 1.3445 1.402 1.3937 1.3954 1.3938 1.3922 1.3941 1.3925 1.3977 1.3961 1.398 1.3998 1.4017 1.407 1.4125 1.4038 1.3988 1.3937 1.406 1.4149 1.4169 1.4225 1.4428 1.4448 1.4469 1.4641 1.4779 1.4684 1.4439 1.4498 1.4518 0 0 0 0 0 0 0 0 0 0 0 0 0 0 0 0 0 0 0 0 0 0 0 0 0 0 0 0 0 0 0 0 0 0 0 0 0 0 0 0 0 0 0 0 0 0 2.3589 2.3666 2.3425 2.249 2.2756 2.2728 2.2799 2.3074 2.2943 2.2813 2.2686 2.246 2.2049 2.1562 2.1357 2.1242 2.0537 2.0512 2.2557 2.2235 2.1735 2.1525 2.1589 2.1653 2.1625 2.1327 2.1035 2.1183 2.1156 2.1042 2.0928 2.0814 2.0787 2.0507 2.0234 2.0208 2.2044 2.2015 2.0542 1.8675 1.8651 0 0 0 0 0 0 0 0 0 0 0 0 0 0 0 0 0 0 0 0 0 0 0 0 0 0 0 0 0 0 0 0 0 0 0 0 0 0 0 0 1.6429 1.6463 1.7543 1.7519 1.558 1.5559 1.5589 1.8901 1.8874 0 0 0 0 0 0 0 0 0 0 0 0 1.6295 1.6272 1.6249 1.6226 1.718 1.762 1.6273 1.6308 1.6285 1.6261 1.9285 1.9257 0 0 0 0 0 0 0 1.4517 1.4495 1.527 1.7602 1.4769 1.4747 1.4726 1.4753 0 0 0 0 0 0 1.548 1.5457 1.5272 1.4158 1.4183 1.4116 1.4095 1.4746 1.4624 1.3896 1.3875 0 0 0 0 0 0 0 0.72453 0.71974 0.72109 0.72122 0.71889 0.71657 0.71547 0.71193 0.70962 0.70617 0.70274 0.70044 0.69702 0.69714 0.69839 0.69843 0.70086 0.69977 0.69867
1.1731 1.1741 1.1729 1.1717 1.1684 1.1694 1.1682 1.1712 1.1808 1.1796 1.1828 1.186 1.187 1.1925 1.1935 1.1945 1.1978 1.1943 1.193 1.1964 1.1973 1.1961 1.1972 1.196 1.2039 1.2026 1.2037 1.2071 1.2035 1.2046 1.2034 1.2044 1.2055 1.2065 1.2075 1.211 1.2122 1.2156 1.2191 1.225 1.2262 1.2273 1.2284 1.2296 1.2283 1.2294 1.2331 1.2342 1.2354 1.2341 1.2378 1.2414 1.2427 1.2464 1.2579 1.2592 1.2605 1.2617 1.2655 1.2669 1.2681 1.2695 1.2681 1.2641 1.2574 1.2588 1.26 1.264 1.2627 1.2613 1.2599 1.2665 1.2704 1.2773 1.2785 1.2799 1.2813 1.2826 1.2839 1.3022 1.3008 1.2937 1.2923 1.3022 1.3152 1.3138 1.3065 1.3051 1.3095 1.311 1.3183 1.3139 1.3095 1.308 1.3125 1.335 1.3396 1.3505 1.349 1.3475 1.3491 1.3508 1.3493 1.3478 1.3462 1.3416 1.3495 1.3543 1.3528 1.3449 1.3465 1.3482 1.4025 1.3975 1.396 1.3944 1.3928 1.3946 1.393 1.3983 1.3967 1.3951 1.4004 1.4023 1.4042 1.4166 1.408 1.4064 1.4047 1.4137 1.4227 1.4247 1.4267 1.4359 1.4492 1.4549 1.4725 1.4865 1.4967 1.4909 1.4579 1.4525 0 0 0 0 0 0 0 0 0 0 0 0 0 0 0 0 0 0 0 0 0 0 0 0 0 0 0 0 0 0 0 0 0 0 0 0 0 0 0 0 0 0 0 0 0 0 2.3599 2.3676 2.3435 2.3199 2.2966 2.2639 2.271 2.2781 2.2653 2.2625 2.2597 2.2471 2.169 2.1482 2.1456 2.0907 2.0629 2.0521 2.2869 2.2638 2.1294 2.1356 2.1508 2.1663 2.1635 2.1247 2.1132 2.1105 2.1166 2.1139 2.1024 2.0911 2.0797 2.06 2.0324 2.0381 2.2054 2.2025 0 0 0 0 0 0 0 0 0 0 0 0 0 0 0 0 0 0 0 0 0 0 0 0 0 0 0 0 0 0 0 0 0 0 0 0 0 0 0 0 0 0 0 1.6494 1.6472 1.7552 1.7528 1.5588 1.5566 1.5545 1.891 1.8884 0 0 0 0 0 0 0 0 0 0 0 0 1.6303 1.6339 1.6257 1.6588 1.7188 1.7697 1.6399 1.6316 1.6352 1.627 1.9294 1.9267 0 0 0 0 0 0 0 1.7014 1.7055 1.703 0 0 0 0 0 0 0 0 0 0 0 1.5488 1.5465 1.528 1.4842 1.487 1.4848 1.4726 1.4604 1.4436 1.3994 1.3883 0 0 0 0 0 0 0 0 0.72013 0.72149 0.72039 0.71806 0.71696 0.71342 0.70996 0.70644 0.703 0.69957 0.69849 0.69507 0.69632 0.69645 0.69769 0.70013 0.69784 0.69795
1.1757 1.1745 1.1733 1.1722 1.1667 1.1677 1.1686 1.1696 1.1791 1.1801 1.1789 1.1842 1.1852 1.1907 1.1939 1.1949 1.1959 1.1947 1.1958 1.199 1.1978 1.1989 1.1976 1.1986 1.2043 1.2031 1.2042 1.2075 1.2086 1.205 1.2084 1.2095 1.2129 1.2092 1.2104 1.2114 1.2126 1.216 1.2172 1.2207 1.2242 1.2277 1.2288 1.2301 1.2288 1.2299 1.2311 1.2323 1.2334 1.237 1.2382 1.2445 1.2482 1.2494 1.2636 1.2674 1.2714 1.2674 1.2687 1.2727 1.274 1.2726 1.2739 1.2699 1.2579 1.2593 1.2632 1.2645 1.2684 1.267 1.2604 1.2723 1.2709 1.2804 1.2818 1.2832 1.2818 1.2804 1.2844 1.2971 1.2956 1.2942 1.29 1.297 1.3099 1.3056 1.2985 1.2999 1.3013 1.3027 1.31 1.3056 1.3072 1.3057 1.313 1.3385 1.3433 1.3478 1.3527 1.348 1.3528 1.3513 1.3498 1.3514 1.3437 1.3453 1.3531 1.358 1.3533 1.3455 1.3471 1.3551 1.4031 1.3948 1.3932 1.3949 1.3901 1.3885 1.3902 1.3988 1.3939 1.3923 1.3941 1.3994 1.4013 1.4137 1.4085 1.4033 1.4088 1.4107 1.427 1.4253 1.4272 1.4402 1.446 1.4556 1.4769 1.491 1.5176 1.5159 1.4858 1.4802 0 0 0 0 0 0 0 0 0 0 0 0 0 0 0 0 0 0 0 0 0 0 0 0 0 0 0 0 0 0 0 0 0 0 0 0 0 0 0 0 0 0 0 0 0 0 2.361 2.3687 2.3658 2.3209 2.2976 2.2748 2.2621 2.2593 2.237 2.2342 2.2412 2.2384 2.0659 2.1227 2.1028 2.0748 2.0638 2.053 2.2778 2.2649 2.0955 2.1189 2.1428 2.149 2.1463 2.1257 2.0967 2.1115 2.1001 2.1061 2.0947 2.092 2.0721 2.061 2.0668 2.0899 2.1498 2.1562 0 0 0 0 0 0 0 0 0 0 0 0 0 0 0 0 0 0 0 0 0 0 0 0 0 0 0 0 0 0 0 0 0 0 0 0 0 0 0 0 0 0 0 1.6388 1.6366 1.693 1.6907 1.5341 1.5472 1.5349 1.8544 1.8519 0 0 0 0 0 0 0 0 0 0 0 0 1.6311 1.6347 1.6265 1.6596 1.7197 1.6196 1.3451 1.3471 1.3452 1.3433 0 0 0 0 0 0 0 0 0 1.7023 1.6998 1.7039 0 0 0 0 0 0 0 0 0 1.4373 1.4398 1.433 1.4355 1.5025 1.5003 1.4929 1.4907 1.4734 1.4563 1.4396 1.4139 1.4258 0 0 0 0.71989 0.7188 0.71771 0.71786 0 0.72298 0.72188 0.72201 0.71723 0.71613 0.71381 0.70791 0.70447 0.70103 0.69761 0.69653 0.69545 0.69558 0.69683 0.69688 0.69932 0.69943 0.69834
1.1804 1.177 1.1759 1.1747 1.1672 1.1681 1.169 1.17 1.1752 1.1741 1.175 1.1803 1.1812 1.1867 1.1899 1.1931 1.1987 1.1997 1.1985 1.204 1.2027 1.2015 1.2026 1.2037 1.2071 1.2058 1.2069 1.2103 1.2113 1.2101 1.2135 1.2193 1.2181 1.2144 1.2156 1.219 1.2177 1.2118 1.2105 1.214 1.2127 1.2234 1.2245 1.228 1.2267 1.2279 1.2315 1.2328 1.2338 1.24 1.2387 1.245 1.2486 1.2524 1.2719 1.2758 1.2799 1.2811 1.2825 1.2811 1.2852 1.2838 1.2797 1.2757 1.2637 1.265 1.2689 1.2702 1.2715 1.2702 1.2688 1.2755 1.2768 1.2837 1.2851 1.2837 1.2823 1.2809 1.2768 1.2919 1.2961 1.2975 1.2933 1.2975 1.3018 1.2975 1.2933 1.2947 1.2961 1.2976 1.3106 1.3033 1.3047 1.3033 1.3135 1.3453 1.353 1.3547 1.3532 1.3517 1.3502 1.3487 1.3503 1.3488 1.3442 1.3458 1.3537 1.3618 1.3539 1.3491 1.3539 1.3784 1.3935 1.3953 1.3903 1.3922 1.3806 1.379 1.3807 1.3926 1.3876 1.3793 1.3778 1.3796 1.3847 1.4038 1.4055 1.4005 1.4094 1.4112 1.4276 1.4259 1.4315 1.4521 1.4578 1.4676 1.4854 1.4997 1.5225 1.5248 1.4944 1.4847 0 0 0 0 0 0 0 0 0 0 0 0 0 0 0 0 0 0 0 0 0 0 0 0 0 0 0 0 0 0 0 0 0 0 0 0 0 0 0 0 0 0 0 0 0 0 2.3727 2.3697 2.3884 2.3117 2.2886 2.2562 2.2436 2.2217 2.1818 2.161 2.1947 2.2013 2.0669 2.0726 2.07 2.0925 2.1244 2.0539 2.2687 2.2659 2.0964 2.1023 2.1084 2.097 2.0773 2.0662 2.0553 2.061 2.0418 2.0725 2.0957 2.0843 2.0646 2.0536 2.0509 2.1535 2.1507 2.1572 0 0 0 0 0 0 0 0 0 0 0 0 0 0 0 0 0 0 0 0 0 0 0 0 0 0 0 0 0 0 0 0 0 0 0 0 0 0 0 0 0 0 0 1.6396 1.6374 1.6938 1.6915 1.5348 1.5228 1.5306 1.8554 1.8528 0 0 0 0 0 0 0 0 0 0 0 0 1.632 1.6836 1.675 1.6309 1.7206 1.6204 1.3458 1.3478 1.3459 1.3439 0 0 0 0 0 0 0 0 0 1.7097 1.6752 1.7048 0 0 0 0 0 0 0 0 0 1.438 1.4406 1.4338 1.4363 1.5033 1.5168 1.5198 1.5122 1.5048 1.4719 1.4356 1.4287 1.4265 0 0 0 0.72028 0.71679 0.7181 0.71825 0 0.72461 0.72596 0.72608 0.7213 0.71774 0.7142 0.7083 0.70486 0.70029 0.69686 0.69465 0.69471 0.69476 0.69601 0.69614 0.69851 0.69862 0.69873
1.1808 1.1796 1.1784 1.1751 1.1697 1.1706 1.1695 1.1704 1.1778 1.1745 1.1733 1.1785 1.1796 1.1871 1.1903 1.1913 1.1991 1.2001 1.2011 1.2067 1.2078 1.2043 1.203 1.2064 1.2098 1.2109 1.2097 1.213 1.2118 1.2106 1.2163 1.2198 1.2208 1.2173 1.2183 1.2195 1.2206 1.2122 1.2086 1.2097 1.2107 1.2214 1.225 1.2285 1.2297 1.2284 1.232 1.2332 1.2343 1.2405 1.2417 1.2454 1.2466 1.2529 1.2698 1.2763 1.2804 1.2816 1.283 1.2843 1.2884 1.287 1.2856 1.2815 1.2721 1.2708 1.2748 1.2734 1.2747 1.2733 1.2693 1.276 1.2773 1.2842 1.2856 1.2842 1.28 1.2786 1.28 1.2924 1.2967 1.3009 1.2994 1.3009 1.3023 1.3009 1.2966 1.2952 1.2966 1.2952 1.3198 1.3125 1.3052 1.3068 1.317 1.3489 1.3504 1.3584 1.3506 1.3522 1.3476 1.3461 1.3477 1.3462 1.3447 1.3432 1.3511 1.3591 1.3544 1.3497 1.3545 1.379 1.3907 1.3925 1.3909 1.3927 1.3777 1.3729 1.378 1.3864 1.3882 1.3733 1.3683 1.3668 1.3752 1.3973 1.4027 1.4011 1.4029 1.4118 1.4281 1.4265 1.4357 1.4527 1.4623 1.4721 1.4861 1.4962 1.5107 1.513 1.4951 1.4933 0 0 0 0 0 0 0 0 0 0 0 0 0 0 0 0 0 0 0 0 0 0 0 0 0 0 0 0 0 0 0 0 0 0 0 0 0 0 0 0 0 0 0 0 0 0 2.3845 2.3924 2.3894 2.3025 2.2797 2.2474 2.2446 2.2133 2.1557 2.1352 2.1774 2.1837 2.0761 2.0652 2.0626 2.128 2.1701 2.1951 2.2799 2.2669 2.0974 2.1033 2.0836 2.0641 2.0449 2.0423 2.0235 2.029 2.0264 2.0158 1.907 1.9046 2.0655 2.0461 1.9487 1.9387 1.9437 1.9411 0 0 0 0 0 0 0 0 0 0 0 0 0 0 0 0 0 0 0 0 0 0 0 0 0 0 0 0 0 0 0 0 0 0 0 0 0 0 0 0 0 0 0 0 0 0 0 1.511 1.5137 1.5116 0 0 0 0 0 0 0 0 0 0 0 1.6397 1.6374 1.6409 1.7312 1.7223 1.7199 1.7239 1.775 1.6626 1.3464 1.3485 1.3465 1.3446 0 0 0 0 0 0 0 0 0 1.6416 1.6513 1.6428 1.7163 1.7072 0 0 0 0 0 0 0 1.4774 1.4803 1.5459 1.549 1.5146 1.5175 1.5313 1.5183 1.5213 1.5407 1.5115 1.5093 1.507 1.5048 1.4973 0 0.71347 0.71479 0.71973 0.72474 0.72981 0.72747 0.72882 0.72771 0.72292 0.72059 0.71581 0.70991 0.70525 0.70181 0.69838 0.69503 0.69396 0.69514 0.69527 0.69652 0.69889 0.69901 0.70024
1.1833 1.1821 1.181 1.1777 1.1722 1.1732 1.1741 1.175 1.1804 1.177 1.1758 1.1812 1.1821 1.1875 1.1908 1.1918 1.195 1.1983 1.1993 1.2072 1.2083 1.207 1.2058 1.2069 1.2126 1.2114 1.2124 1.2158 1.2169 1.2156 1.2215 1.2226 1.2237 1.2177 1.2188 1.2223 1.221 1.2127 1.2114 1.2102 1.2089 1.2171 1.2206 1.2289 1.2302 1.2312 1.2325 1.2337 1.2348 1.2385 1.2396 1.2433 1.2446 1.2483 1.265 1.2715 1.2754 1.2821 1.2835 1.2875 1.2888 1.2875 1.2861 1.282 1.2753 1.2739 1.2752 1.2766 1.2752 1.2738 1.2725 1.2765 1.2806 1.2875 1.2887 1.2873 1.2833 1.2819 1.2805 1.2929 1.2943 1.2985 1.2971 1.2985 1.3057 1.3043 1.3057 1.3014 1.3029 1.3014 1.3264 1.3189 1.3174 1.316 1.3235 1.3494 1.351 1.3558 1.3543 1.3528 1.3481 1.3466 1.3451 1.3468 1.3421 1.3438 1.3485 1.3533 1.3517 1.3471 1.3519 1.3696 1.378 1.3829 1.3881 1.3933 1.3428 1.3508 1.3686 1.387 1.3854 1.3705 1.3689 1.3642 1.3692 1.391 1.3998 1.4017 1.407 1.4124 1.4323 1.4344 1.4437 1.4607 1.4705 1.4766 1.4907 1.4968 1.4992 1.4974 1.4957 1.4939 0 0 0 0 0 0 0 0 0 0 0 0 0 0 0 0 0 0 0 0 0 0 0 0 0 0 0 0 0 0 0 0 0 0 0 0 0 0 0 0 0 0 0 0 0 0 2.3855 2.4044 2.3905 2.1974 2.2131 2.2197 2.217 2.2142 2.0791 2.1017 2.1335 2.1136 2.077 2.0744 2.0554 2.0528 2.1988 2.1961 2.2809 2.2679 2.048 2.0536 2.0428 2.0322 2.0215 2.0189 2.0164 2.0138 1.9646 1.9697 1.9446 1.9055 2.0665 2.0471 1.988 1.9622 1.9446 1.942 0 0 0 0 0 0 0 0 0 0 0 0 0 0 0 0 0 0 0 0 0 0 0 0 0 0 0 0 0 0 0 0 0 0 0 0 0 0 0 0 0 0 0 0 0 0 0 1.5165 1.5096 1.5124 0 0 0 0 0 0 0 0 0 0 0 1.6405 1.6097 1.613 1.6336 1.6029 1.6006 1.5983 1.6016 1.6635 1.3511 1.3452 1.3472 1.3453 0 0 0 0 0 0 0 0 0 1.6424 1.6401 1.662 1.6784 1.7081 1.661 1.6524 0 0 0 0 0 1.4586 1.4613 1.5467 1.5282 1.5102 1.5184 1.5321 1.5191 1.5169 1.536 1.5176 1.5101 1.5078 1.5056 1.4981 0 0.71385 0.71881 0.72251 0.7276 0.7302 0.73033 0.73053 0.72942 0.72577 0.72343 0.71988 0.71266 0.70799 0.70455 0.69876 0.69655 0.69547 0.69553 0.69679 0.69691 0.70049 0.7006 0.70183
1.1816 1.1826 1.1836 1.1802 1.1769 1.1778 1.181 1.1842 1.1873 1.1861 1.1828 1.1859 1.1869 1.1902 1.1912 1.1944 1.1954 1.1988 1.202 1.2076 1.2087 1.2121 1.2109 1.2143 1.2177 1.2188 1.2198 1.2281 1.2268 1.228 1.2291 1.2303 1.229 1.2229 1.224 1.2252 1.2239 1.2178 1.2166 1.2153 1.214 1.2224 1.2259 1.2319 1.233 1.2317 1.2329 1.2365 1.2352 1.2414 1.2401 1.2438 1.2451 1.2463 1.2603 1.2668 1.2733 1.2826 1.2839 1.2853 1.2893 1.288 1.2866 1.2825 1.2785 1.2771 1.2784 1.277 1.2757 1.2743 1.2756 1.277 1.2838 1.2906 1.2948 1.2878 1.2864 1.2824 1.281 1.2878 1.292 1.2962 1.2948 1.2962 1.3091 1.3135 1.3149 1.3135 1.315 1.3194 1.3328 1.3344 1.333 1.3344 1.336 1.353 1.3546 1.3563 1.3517 1.3501 1.3486 1.344 1.3457 1.3473 1.3458 1.3474 1.3522 1.357 1.3555 1.3508 1.3525 1.3702 1.3752 1.3803 1.3819 1.3838 1.3434 1.3418 1.3892 1.3876 1.3826 1.3744 1.3695 1.3647 1.3697 1.3951 1.4004 1.4056 1.4182 1.4272 1.4476 1.4534 1.463 1.4845 1.4867 1.489 1.5033 1.5015 1.4998 1.498 1.4963 1.4905 0 0 0 0 0 0 0 0 0 0 0 0 0 0 0 0 0 0 0 0 0 0 0 0 0 0 0 0 0 0 0 0 0 0 0 0 0 0 0 0 0 0 0 0 0 0 2.4084 2.4165 2.4025 2.2075 2.2141 2.2113 2.2275 2.2152 2.0883 2.1198 2.1522 2.1318 2.1033 2.0671 2.0481 2.0537 0 0 0 0 2.0489 2.0301 2.0276 2.025 2.0145 2.0119 1.9936 1.9911 1.9504 1.963 1.9681 1.9809 2.0845 2.0397 1.9889 1.9942 1.938 1.9429 0 0 0 0 0 0 0 0 0 0 0 0 0 0 0 0 0 0 0 0 0 0 0 0 0 0 0 0 0 0 0 0 0 0 0 0 0 0 0 0 0 0 0 0 0 0 0 0 0 0 0 0 0 0 0 0 0 0 0 0 0 0 1.6105 1.6138 1.6344 1.6037 1.6014 1.5992 1.6024 0 1.4934 1.4912 0 0 0 0 0 0 0 0 0 0 0 1.6433 1.6469 1.7074 1.7115 1.709 1.6618 1.6532 0 0 0 0 0 1.4594 1.4621 1.5475 1.529 1.511 1.5298 1.5275 1.5094 1.5072 1.5369 1.5132 1.485 1.5086 1.5064 1.4989 0 0.72882 0.7302 0.7291 0.73171 0.73316 0.73328 0.73471 0.73359 0.73116 0.72759 0.72517 0.71795 0.71318 0.70851 0.70271 0.70042 0.69934 0.69825 0.69838 0.69963 0.70562 0.70573 0.70703
1.182 1.183 1.1818 1.1829 1.1773 1.1805 1.1837 1.1868 1.1922 1.1888 1.1876 1.1886 1.1896 1.1928 1.1916 1.1949 1.2004 1.1992 1.2024 1.2081 1.2091 1.2126 1.2113 1.2147 1.2205 1.2215 1.225 1.2334 1.2321 1.2357 1.2344 1.2331 1.2294 1.2258 1.2269 1.2305 1.2292 1.2255 1.2218 1.223 1.2217 1.2276 1.2287 1.2324 1.236 1.2298 1.2309 1.2321 1.2357 1.2394 1.2406 1.2418 1.2429 1.2442 1.2582 1.262 1.2659 1.2805 1.2817 1.2831 1.2844 1.2857 1.2871 1.2857 1.2816 1.2803 1.2816 1.2775 1.2789 1.2775 1.2789 1.2802 1.2843 1.2911 1.2925 1.2883 1.2843 1.2829 1.2815 1.2828 1.2898 1.2939 1.2925 1.2967 1.3125 1.3169 1.3184 1.317 1.3184 1.3318 1.3364 1.3349 1.3364 1.335 1.3365 1.3535 1.3583 1.3537 1.3522 1.3507 1.3492 1.3445 1.3462 1.351 1.3463 1.348 1.3558 1.3607 1.3592 1.3513 1.3561 1.3707 1.3791 1.3742 1.3726 1.3679 1.3314 1.3299 1.3897 1.3847 1.3799 1.3716 1.3734 1.3685 1.3736 1.399 1.4009 1.4098 1.4223 1.4351 1.4557 1.4578 1.4713 1.489 1.4913 1.4936 1.5039 1.5022 1.5044 1.5027 1.4969 1.4911 1.4894 1.4876 0 0 0 0 0 0 0 0 0 0 0 0 0 0 0 0 0 0 0 0 0 0 0 0 0 0 0 0 0 0 0 0 0 0 0 0 0 0 0 0 0 0 0 0 0 0 0 2.1993 2.2151 2.2217 2.2284 2.2448 2.1408 2.1294 2.1711 2.1684 2.1389 2.1451 0 0 0 0 0 0 2.0097 2.023 2.0126 2.01 2.0075 1.9971 1.9791 1.9689 1.929 1.9488 1.9614 1.9665 0 0 0 0 0 0 0 0 0 0 0 0 0 0 0 0 0 0 0 0 0 0 0 0 0 0 0 0 0 0 0 0 0 0 0 0 0 0 0 0 0 0 0 0 0 0 0 0 0 0 0 0 0 0 0 0 0 0 0 0 0 0 0 0 0 0 0 0 0 0 0 0 0 0 0 0 0 0 0 0 0 0 0 0 0 0 0 1.7585 1.756 1.7604 1.7578 1.7349 1.719 1.7033 0 0 0 0 0 0 0 1.4602 1.4628 1.5537 1.5406 1.517 1.5306 1.5283 1.4896 1.4925 1.5215 1.4339 1.4607 1.5094 0 0 0 0.73668 0.73433 0.73198 0.7359 0.73603 0.73623 0.73511 0.73522 0.73156 0.72921 0.7281 0.71956 0.71479 0.71012 0.70424 0.70202 0.70207 0.7022 0.70111 0.70115 0.70722 0.70853 0.70862
1.1803 1.1813 1.1822 1.181 1.1799 1.183 1.1862 1.1893 1.1926 1.1892 1.188 1.1868 1.1878 1.1933 1.1921 1.1931 1.2009 1.2019 1.2028 1.2085 1.2096 1.213 1.2118 1.2175 1.2232 1.2244 1.2255 1.2338 1.235 1.2337 1.2325 1.2336 1.2299 1.2286 1.2274 1.2309 1.2296 1.2284 1.2247 1.2258 1.2269 1.2305 1.2292 1.2255 1.2266 1.2253 1.2289 1.2301 1.2313 1.2373 1.2385 1.2447 1.246 1.2472 1.2534 1.2547 1.2586 1.2755 1.2769 1.2783 1.2769 1.2781 1.2822 1.2808 1.2794 1.2781 1.2767 1.2753 1.2767 1.278 1.2794 1.278 1.2793 1.2862 1.2848 1.2862 1.2848 1.2806 1.2792 1.2833 1.2874 1.2973 1.2958 1.2972 1.3159 1.3203 1.3189 1.3175 1.3218 1.3263 1.3279 1.3294 1.337 1.3355 1.3401 1.351 1.3557 1.3542 1.3496 1.3512 1.3497 1.3482 1.3499 1.3515 1.3469 1.3485 1.3628 1.3645 1.363 1.3582 1.3599 1.3746 1.3796 1.3747 1.3666 1.3587 1.3381 1.3304 1.367 1.3687 1.3639 1.3527 1.3543 1.3593 1.3675 1.3996 1.405 1.4104 1.4301 1.4394 1.4638 1.4659 1.4757 1.4897 1.496 1.4942 1.5045 1.5068 1.505 1.5033 1.4935 1.4917 1.49 1.4883 1.5359 0 0 0 0 0 0 0 0 0 0 0 0 0 0 0 0 0 0 0 0 0 0 0 0 0 0 0 0 0 0 0 0 0 0 0 0 0 0 0 0 0 0 0 0 0 0 2.2003 2.1976 2.204 2.2199 2.2458 2.0253 2.0228 2.1812 2.1876 2.1488 2.1461 0 0 0 0 0 0 2.0107 2.0081 1.9824 1.9571 1.9547 1.9748 1.9497 1.9251 1.9227 1.9348 1.9547 1.9598 2.0117 2.0012 1.9986 0 0 0 0 0 0 0 0 0 0 0 0 0 0 0 0 0 0 0 0 0 0 0 0 0 0 0 0 0 0 0 0 0 0 0 0 0 0 0 0 0 0 0 0 0 0 0 0 0 0 0 0 0 0 0 0 0 0 0 0 0 0 0 0 0 0 0 0 0 0 0 0 0 0 0 0 0 0 0 0 0 0 0 0 1.7594 1.7569 1.7142 1.7249 1.7092 1.7002 1.7042 0 0 0 0 0 0 0 1.4609 1.4636 1.5546 1.5414 1.5337 1.5368 1.5509 1.4411 1.4437 1.5223 1.4394 1.4517 1.5103 0 0 0 0.73708 0.73596 0.73485 0.73754 0.73774 0.73786 0.73674 0.73562 0.73327 0.73084 0.72972 0.7224 0.71763 0.71287 0.70698 0.70589 0.7048 0.70493 0.70384 0.70395 0.70882 0.71013 0.71143
1.1808 1.1817 1.1849 1.1837 1.1825 1.1834 1.1889 1.1898 1.193 1.1896 1.1884 1.1872 1.1882 1.1915 1.1925 1.1935 1.2035 1.2045 1.2056 1.2066 1.2124 1.2111 1.2122 1.2156 1.2213 1.2248 1.2259 1.2343 1.2354 1.2317 1.2329 1.2316 1.2304 1.2315 1.2302 1.2338 1.2325 1.2336 1.2324 1.2335 1.2298 1.2285 1.2296 1.226 1.2223 1.2234 1.2294 1.2305 1.2317 1.2403 1.2415 1.2478 1.2515 1.2528 1.2539 1.2552 1.2591 1.2734 1.2747 1.276 1.2747 1.276 1.28 1.2786 1.2772 1.2759 1.2745 1.2758 1.2771 1.2785 1.2799 1.2785 1.2798 1.2839 1.2853 1.2867 1.2825 1.2811 1.2825 1.2837 1.2935 1.3034 1.3049 1.3092 1.3193 1.3237 1.3223 1.3208 1.3253 1.3268 1.3285 1.3329 1.3375 1.3421 1.3407 1.3515 1.3531 1.3548 1.3471 1.3518 1.3471 1.3488 1.3473 1.3552 1.3505 1.3522 1.3731 1.3747 1.3764 1.3717 1.3767 1.3883 1.3935 1.3786 1.3705 1.3624 1.3481 1.3498 1.3578 1.3628 1.3579 1.3532 1.3549 1.3598 1.368 1.4072 1.4126 1.418 1.4344 1.4436 1.4721 1.482 1.4842 1.4903 1.4926 1.4949 1.5091 1.5074 1.5056 1.5039 1.4901 1.4923 1.4906 1.501 1.5365 0 0 0 0 0 0 0 0 0 0 0 0 0 0 0 0 0 0 0 0 0 0 0 0 0 0 0 0 0 0 0 0 0 0 0 0 0 0 0 0 0 0 0 0 0 0 2.2012 2.1985 2.1958 2.1931 2.2566 2.0262 2.0237 2.1913 0 0 0 0 0 0 0 0 0 2.0116 2.0012 1.9756 1.9431 1.9406 1.9606 1.9506 1.9187 1.9235 1.9431 1.9556 1.9683 2.0126 2.0101 1.9995 0 0 0 0 0 0 0 0 0 0 0 0 0 0 0 0 0 0 0 0 0 0 0 0 0 0 0 0 0 0 0 0 0 0 0 0 0 0 0 0 0 0 0 0 0 0 0 0 0 0 0 0 0 0 0 0 0 0 0 0 0 0 0 0 0 0 0 0 0 0 0 0 0 0 0 0 0 0 0 0 0 0 0 0 0 0 1.715 1.7126 1.7101 0 0 0 0 0 0 0 0 0 1.4617 1.4644 1.5554 1.5531 1.5563 1.554 1.5517 1.4419 1.4445 1.5558 1.5156 1.4977 1.5111 0 0 0 0 0 0.74162 0.74182 0.74194 0.74081 0.74101 0.73988 0.73621 0.73509 0.73266 0.729 0.72544 0.72059 0.71582 0.71472 0.71483 0.71373 0.70899 0.70789 0.70921 0.71542 0.71672
1.1812 1.18 1.1831 1.1819 1.1786 1.1818 1.187 1.1881 1.1935 1.19 1.1888 1.1876 1.1887 1.1919 1.1929 1.1962 1.2017 1.2027 1.2037 1.207 1.2081 1.2092 1.208 1.2068 1.2148 1.2205 1.224 1.2347 1.2335 1.2322 1.2285 1.2297 1.2308 1.232 1.2307 1.2343 1.233 1.2341 1.2328 1.2315 1.2327 1.2314 1.2301 1.224 1.2228 1.2239 1.2323 1.2335 1.2371 1.2408 1.242 1.2508 1.2519 1.2532 1.2544 1.2557 1.257 1.2739 1.2752 1.2792 1.2752 1.2765 1.2804 1.2818 1.2777 1.2764 1.2777 1.2736 1.2776 1.2817 1.2804 1.2762 1.2776 1.2844 1.2858 1.2816 1.283 1.2816 1.2802 1.2842 1.2913 1.3039 1.3054 1.3097 1.3257 1.3272 1.3288 1.3303 1.3319 1.3334 1.3349 1.3395 1.3411 1.3427 1.3442 1.3458 1.3506 1.3491 1.3476 1.3461 1.3508 1.3461 1.3446 1.3526 1.3479 1.3558 1.3703 1.3753 1.377 1.3722 1.3805 1.3888 1.3941 1.3792 1.3711 1.3598 1.3486 1.3535 1.3649 1.3699 1.3585 1.3603 1.3619 1.3637 1.372 1.4008 1.4096 1.4185 1.4276 1.4369 1.465 1.4748 1.4809 1.487 1.4932 1.4955 1.5098 1.504 1.5063 1.5045 1.4907 1.493 1.4912 1.5016 1.5203 0 0 0 0 0 0 0 0 0 0 0 0 0 0 0 0 0 0 0 0 0 0 0 0 0 0 0 0 0 0 0 0 0 0 0 0 0 0 0 0 0 0 0 0 0 0 2.2114 2.2087 2.1968 2.2032 0 2.0271 2.0246 2.0869 0 0 0 0 0 0 0 0 0 2.0125 2.0021 1.9689 1.944 1.9489 1.9614 1.944 1.9269 1.9244 1.9515 1.9641 1.9768 2.0216 2.0271 2.0575 0 0 0 0 0 0 0 0 0 0 0 0 0 0 0 0 0 0 0 0 0 0 0 0 0 0 0 0 0 0 0 0 0 0 0 0 0 0 0 0 0 0 0 0 0 0 0 0 0 0 0 0 0 0 0 0 0 0 0 0 0 0 0 0 0 0 0 0 0 0 0 0 0 0 0 0 0 0 0 0 0 0 0 0 0 0 1.7426 1.7267 1.7375 1.5068 1.5097 1.5075 0 0 0 0 0 0 1.4922 1.4951 1.5398 1.5539 1.5516 1.5493 1.547 1.4426 1.4453 1.5623 1.527 1.5037 1.5119 0 0 0.75853 0.75739 0.77117 0.74716 0.74603 0.74622 0.74509 0.74396 0.74283 0.74038 0.73803 0.73559 0.73071 0.72829 0.72473 0.71987 0.71633 0.71766 0.71898 0.71544 0.71313 0.71693 0.72957 0.72459
1.1795 1.1804 1.1835 1.1802 1.1769 1.1799 1.1831 1.1863 1.1917 1.1905 1.187 1.1881 1.1891 1.1901 1.1911 1.1922 1.1998 1.1986 1.1997 1.2007 1.204 1.2028 1.2016 1.2004 1.206 1.214 1.2174 1.228 1.2315 1.2278 1.2265 1.2252 1.2288 1.23 1.2336 1.2371 1.2358 1.237 1.2357 1.2368 1.2331 1.2318 1.2282 1.2269 1.2232 1.2243 1.2327 1.2365 1.2375 1.2437 1.2474 1.2512 1.2524 1.2537 1.2549 1.2535 1.2548 1.2665 1.2703 1.2743 1.2729 1.2743 1.2782 1.2796 1.2782 1.2768 1.2728 1.2741 1.2728 1.2768 1.2781 1.2767 1.2753 1.2767 1.2808 1.2794 1.2807 1.2793 1.2807 1.2821 1.2918 1.3044 1.303 1.3102 1.3292 1.3337 1.3353 1.3369 1.3354 1.3429 1.3415 1.3431 1.3447 1.3463 1.3386 1.3372 1.3418 1.3434 1.3451 1.3466 1.3482 1.3436 1.3452 1.35 1.3485 1.3533 1.3709 1.3726 1.3743 1.3695 1.3778 1.3862 1.3846 1.3831 1.3748 1.3603 1.3524 1.3573 1.372 1.3737 1.3656 1.364 1.3722 1.3741 1.3758 1.3944 1.4067 1.4191 1.4282 1.4339 1.4468 1.4527 1.4585 1.4798 1.482 1.4842 1.5023 1.4965 1.4909 1.4931 1.4835 1.4817 1.48 1.4823 1.5127 0 0 0 0 0 0 0 0 0 0 0 0 0 0 0 0 0 0 0 0 0 0 0 0 0 0 0 0 0 0 0 0 0 0 0 0 0 0 0 0 0 0 0 0 0 0 2.2124 2.2097 2.2069 2.2042 0 2.028 2.0413 2.0878 0 0 0 0 0 0 0 0 2.0399 2.0213 2.003 1.9698 1.9449 1.9424 1.9623 1.9449 1.9277 1.9253 1.9524 1.965 1.9855 2.0306 2.0527 2.0585 0 0 0 0 0 0 0 0 0 0 0 0 0 0 0 0 0 0 0 0 0 0 0 0 0 0 0 0 0 0 0 0 0 0 0 0 0 0 0 0 0 0 0 0 0 0 0 0 0 0 0 0 0 0 0 0 0 0 0 0 0 0 0 0 0 0 0 0 0 0 0 0 0 0 0 0 0 0 0 0 0 0 0 1.7578 1.7351 1.7392 1.612 1.6097 1.7385 1.5076 1.5054 1.5083 0 0 0 0 0 0 1.4929 1.4958 1.5461 1.5384 1.5524 1.5501 1.3393 1.3414 1.446 1.5195 1.4562 1.4589 1.5127 0 0 0.75893 0.76585 0.77159 0.74756 0.74908 0.75059 0.74813 0.747 0.74455 0.7421 0.74097 0.73853 0.73234 0.73121 0.72757 0.72401 0.7216 0.72179 0.72189 0.71956 0.71845 0.71975 0.72113 0.72499
1.1799 1.1808 1.1818 1.1806 1.1794 1.1847 1.1879 1.1889 1.1921 1.1887 1.1854 1.1885 1.1895 1.1905 1.1916 1.1948 1.198 1.1968 1.1978 1.1989 1.1999 1.2009 1.1997 1.203 1.2064 1.2121 1.2132 1.2284 1.2295 1.2307 1.2247 1.2234 1.2317 1.2377 1.2389 1.2474 1.2461 1.2448 1.246 1.2422 1.2385 1.2347 1.231 1.2297 1.2261 1.2296 1.2357 1.2369 1.2405 1.2467 1.2505 1.2568 1.2529 1.2542 1.2529 1.2515 1.2502 1.2644 1.2656 1.2722 1.2708 1.2721 1.2761 1.2801 1.2787 1.2773 1.276 1.2746 1.2732 1.2746 1.2759 1.2772 1.2758 1.2744 1.2758 1.2771 1.284 1.2826 1.284 1.2937 1.3007 1.3135 1.315 1.3194 1.3388 1.3373 1.3388 1.3434 1.342 1.3465 1.3481 1.3467 1.3513 1.3499 1.3392 1.3377 1.3423 1.3439 1.3486 1.3502 1.3457 1.3472 1.3489 1.3537 1.3584 1.3601 1.3714 1.3699 1.3716 1.3701 1.3784 1.3867 1.3785 1.3769 1.3787 1.3706 1.3691 1.3708 1.3758 1.3875 1.3826 1.3878 1.3929 1.3948 1.3864 1.395 1.4073 1.4233 1.4252 1.4345 1.4401 1.4421 1.4516 1.4727 1.4787 1.4848 1.491 1.4892 1.4875 1.4858 1.4841 1.4745 1.4728 1.4789 1.5133 0 0 0 0 0 0 0 0 0 0 0 0 0 0 0 0 0 0 0 0 0 0 0 0 0 0 0 0 0 0 0 0 0 0 0 0 0 0 0 0 0 0 0 0 0 0 0 0 2.2458 2.243 0 2.0609 2.0583 2.0887 0 0 0 0 0 0 0 0 2.0408 2.0382 2.0197 1.9783 1.9457 1.9507 1.9632 1.9532 1.9286 1.9334 1.9684 1.9889 2.01 2.048 2.0789 2.1022 0 0 0 0 0 0 0 0 0 0 0 0 0 0 0 0 0 0 0 0 0 0 0 0 0 0 0 0 0 0 0 0 0 0 0 0 0 0 0 0 0 0 0 0 0 0 0 0 0 0 0 0 0 0 0 0 0 0 0 0 0 0 0 0 0 0 0 0 0 0 0 0 0 0 0 0 0 0 0 0 0 0 0 1.7587 1.736 1.7401 1.6128 1.6105 1.7529 1.5135 1.5113 1.5091 0 0 0 0 0 0 1.4937 1.4966 0 0 1.5533 1.5564 1.3399 1.3421 1.5225 1.5046 1.4718 1.4597 0 0 0 0.77433 0.77317 0.772 0.75592 0.7561 0.75761 0.75382 0.75136 0.7489 0.74513 0.74269 0.74155 0.73781 0.73415 0.7318 0.72685 0.72703 0.72843 0.72982 0.72869 0.72506 0.72144 0.72032 0.7192
1.1803 1.1813 1.1822 1.181 1.182 1.1851 1.1883 1.1871 1.1925 1.187 1.1836 1.1846 1.1877 1.1888 1.1898 1.193 1.1963 1.195 1.1938 1.1994 1.2004 1.2013 1.1979 1.1989 1.2069 1.2103 1.2137 1.2217 1.2252 1.2264 1.2227 1.2191 1.2297 1.2382 1.2417 1.2478 1.2491 1.2503 1.249 1.2452 1.239 1.2352 1.2315 1.2278 1.2265 1.2276 1.2362 1.2398 1.241 1.2472 1.251 1.2573 1.256 1.252 1.2482 1.2469 1.2481 1.257 1.2609 1.2622 1.2608 1.2647 1.2686 1.2726 1.2739 1.2751 1.2712 1.2671 1.271 1.2724 1.2764 1.275 1.2763 1.2749 1.2763 1.2776 1.2817 1.2831 1.2845 1.2913 1.2983 1.3141 1.3155 1.3199 1.3423 1.3438 1.3423 1.3409 1.3425 1.3471 1.3487 1.3472 1.3488 1.3504 1.3366 1.3382 1.3429 1.3476 1.3522 1.3539 1.3524 1.3509 1.3526 1.3605 1.3685 1.3703 1.3785 1.3737 1.3722 1.3706 1.3789 1.3905 1.3857 1.3808 1.3793 1.3744 1.3729 1.378 1.3863 1.3915 1.3899 1.3917 1.4003 1.3987 1.3903 1.3991 1.4113 1.4239 1.4294 1.4313 1.4407 1.4391 1.4484 1.4695 1.4754 1.4815 1.4916 1.4859 1.4841 1.4864 1.4768 1.4674 1.4618 1.4717 1.4896 0 0 0 0 0 0 0 0 0 0 0 0 0 0 0 0 0 0 0 0 0 0 0 0 0 0 0 0 0 0 0 0 0 0 0 0 0 0 0 0 0 0 0 0 0 0 0 0 0 0 0 0 0 0 0 0 0 0 0 0 0 0 1.9345 1.9996 2.0126 1.9792 1.9616 1.9666 1.9717 1.9541 1.9295 1.9417 1.9769 2.0055 2.0269 2.0656 2.0799 2.0192 2.0166 2.0891 2.0778 0 0 0 0 0 0 0 0 0 0 0 0 0 0 0 0 0 0 0 0 0 0 0 0 0 0 0 0 0 0 0 0 0 0 0 0 0 0 0 0 0 0 0 0 0 0 0 0 0 0 0 0 0 0 0 0 0 0 0 0 0 0 0 0 0 0 0 0 0 0 0 0 0 0 0 0 0 0 0 0 1.5921 1.5898 1.5931 1.6137 1.6172 1.8403 1.4941 1.5019 1.4897 0 0 0 0 0 0 0 0 0 0 1.5377 1.5518 1.3407 1.3428 1.4972 1.5002 1.4726 1.4556 0 0.78551 0.78434 0.77475 0.77358 0.7696 0.75765 0.75651 0.75802 0.75687 0.75309 0.75062 0.74685 0.74572 0.74327 0.73952 0.73708 0.73342 0.73108 0.72995 0.73005 0.73144 0.7316 0.72667 0.72434 0.72193 0.7221
1.1743 1.1774 1.1805 1.1793 1.1803 1.1812 1.1844 1.1876 1.1907 1.1852 1.1819 1.1828 1.1859 1.187 1.188 1.1912 1.1945 1.191 1.1876 1.1908 1.1941 1.1974 1.1962 1.1971 1.2026 1.2061 1.2071 1.2129 1.2163 1.2196 1.2161 1.2148 1.2278 1.2386 1.2422 1.2508 1.2521 1.2532 1.2519 1.2506 1.2418 1.2406 1.2369 1.2259 1.2246 1.2281 1.2366 1.2378 1.2414 1.2502 1.2515 1.2527 1.2538 1.2475 1.2436 1.2423 1.241 1.2498 1.2536 1.2497 1.2483 1.2496 1.2586 1.2625 1.2637 1.2651 1.2637 1.2624 1.2636 1.2676 1.2715 1.2701 1.2714 1.2782 1.2768 1.2781 1.2822 1.2836 1.285 1.2918 1.2988 1.3088 1.3132 1.3175 1.3337 1.3443 1.3429 1.3445 1.343 1.3445 1.3461 1.3416 1.3432 1.3448 1.3372 1.3418 1.3465 1.3481 1.3559 1.3576 1.3624 1.3609 1.3657 1.3739 1.3821 1.3872 1.3923 1.3841 1.376 1.3843 1.3861 1.3911 1.3863 1.3814 1.3798 1.3783 1.3801 1.3885 1.3902 1.3954 1.3972 1.3991 1.4044 1.4062 1.3977 1.4065 1.419 1.428 1.4336 1.4319 1.4413 1.4397 1.4453 1.4548 1.4607 1.4667 1.4882 1.4748 1.4731 1.4714 1.4735 1.4718 1.4586 1.4646 1.4902 0 0 0 0 0 0 0 0 0 0 0 0 0 0 0 0 0 0 0 0 0 0 0 0 0 0 0 0 0 0 0 0 0 0 0 0 0 0 0 0 0 0 0 0 0 0 0 0 0 0 0 0 0 0 0 0 0 0 0 0 0 0 1.9426 1.9699 2.0135 1.9955 1.9852 2.0218 2.0113 1.9777 1.945 1.9575 2.0011 2.0386 2.0608 2.0921 2.0894 2.0529 2.0338 2.0644 2.0787 0 0 0 0 0 0 0 0 0 0 0 0 0 0 0 0 0 0 0 0 0 0 0 0 0 0 0 0 0 0 0 0 0 0 0 0 0 0 0 0 0 0 0 0 0 0 0 0 0 0 0 0 0 0 0 0 0 0 0 0 0 0 0 0 0 0 0 0 0 0 0 0 0 0 0 0 0 0 0 0 1.5929 1.5906 1.5939 1.6145 1.618 1.8412 1.4948 1.4778 1.4905 0 0 0 0 0 0 0 0 0 0 1.5385 1.5526 1.3414 1.3435 1.498 1.5062 1.4936 1.4564 0 0.78593 0.78476 0.77516 0.77675 0.77001 0.75674 0.75825 0.75975 0.75728 0.75613 0.75235 0.74858 0.74744 0.7463 0.74516 0.74271 0.73897 0.73523 0.7341 0.73427 0.73444 0.7333 0.72837 0.72724 0.72483 0.7225
1.1748 1.1757 1.1788 1.1798 1.1786 1.1816 1.1848 1.1859 1.1911 1.1856 1.1844 1.1832 1.1864 1.1896 1.1884 1.1894 1.1949 1.1892 1.1858 1.189 1.1923 1.1978 1.1943 1.1954 1.2031 1.2042 1.2076 1.2133 1.2144 1.2154 1.2142 1.213 1.2307 1.2439 1.2451 1.2538 1.2526 1.2537 1.2549 1.2511 1.2448 1.241 1.2373 1.2311 1.225 1.2286 1.2371 1.2383 1.2419 1.2506 1.2519 1.2531 1.2543 1.248 1.2467 1.2428 1.2441 1.2452 1.249 1.2477 1.2437 1.245 1.2539 1.2578 1.2616 1.2628 1.2615 1.2601 1.2641 1.2681 1.272 1.2706 1.2719 1.2787 1.28 1.2786 1.28 1.2813 1.2827 1.2923 1.2965 1.3093 1.3108 1.3122 1.3283 1.3389 1.3434 1.3419 1.3404 1.3451 1.3436 1.3421 1.3437 1.3453 1.3377 1.3423 1.347 1.3487 1.3596 1.3581 1.3693 1.371 1.3695 1.3842 1.3893 1.3944 1.3962 1.3879 1.3798 1.3882 1.39 1.3916 1.3835 1.382 1.3804 1.3788 1.3773 1.3924 1.3942 1.3926 1.3944 1.3996 1.405 1.4068 1.4052 1.4106 1.4196 1.4286 1.4342 1.4362 1.4382 1.4403 1.4459 1.4517 1.4538 1.4634 1.4849 1.4754 1.4698 1.4681 1.4742 1.4725 1.463 1.4652 1.4949 0 0 0 0 0 0 0 0 0 0 0 0 0 0 0 0 0 0 0 0 0 0 0 0 0 0 0 0 0 0 0 0 0 0 0 0 0 0 0 0 0 0 0 0 0 0 0 0 0 0 0 0 0 0 0 0 0 0 0 0 0 0 1.9732 1.986 2.0384 2.0278 2.0173 2.0388 2.0281 2.0018 1.9685 1.9736 2.0179 2.056 2.0786 2.1018 2.0991 2.0706 2.0429 2.0738 2.1058 0 0 0 0 0 0 0 0 0 0 0 0 0 0 0 0 0 0 0 0 0 0 0 0 0 0 0 0 0 0 0 0 0 0 0 0 0 0 0 0 0 0 0 0 0 0 0 0 0 0 0 0 0 0 0 0 0 0 0 0 0 0 0 0 0 0 0 0 0 0 0 0 0 0 0 0 0 0 0 0 0 1.4672 1.4699 1.554 1.5571 1.7836 1.4662 1.4641 1.4667 0 0 0 0 0 0 1.6404 1.638 1.5658 1.5635 1.5612 1.5534 1.5511 1.5062 1.504 1.5174 1.5151 1.5077 0 0 0 0.78967 0.77858 0.77042 0.75714 0.75865 0.75884 0.75769 0.75522 0.75144 0.74898 0.74784 0.74802 0.74819 0.74574 0.73937 0.73824 0.7358 0.73597 0.73614 0.73371 0.73128 0.72765 0.72402 0.72161
1.1709 1.1719 1.1728 1.1738 1.1705 1.1714 1.1724 1.1733 1.1764 1.1731 1.1698 1.1772 1.1781 1.1856 1.1844 1.1876 1.1931 1.1897 1.1863 1.1895 1.1927 1.1959 1.197 1.1958 1.2013 1.2001 1.2034 1.2114 1.2125 1.2113 1.2147 1.218 1.2335 1.2444 1.2481 1.2518 1.253 1.2541 1.2504 1.2491 1.2453 1.244 1.2402 1.2316 1.2279 1.229 1.2375 1.2388 1.2424 1.2486 1.2498 1.2511 1.2498 1.2485 1.2445 1.2407 1.2394 1.2432 1.2469 1.2455 1.2442 1.2455 1.2518 1.2608 1.2621 1.2633 1.2647 1.2633 1.262 1.2632 1.2645 1.2684 1.2671 1.2737 1.2724 1.2764 1.2777 1.2791 1.2804 1.2872 1.2914 1.3041 1.3026 1.3099 1.3259 1.3333 1.3379 1.3395 1.338 1.3426 1.3411 1.3397 1.3442 1.3428 1.3413 1.3429 1.3475 1.3523 1.3602 1.3618 1.3698 1.3747 1.3732 1.3914 1.3965 1.4016 1.4035 1.3952 1.3969 1.3988 1.3972 1.3957 1.3874 1.3859 1.3843 1.386 1.3844 1.3964 1.3914 1.3898 1.3882 1.3901 1.402 1.4074 1.4058 1.4146 1.4237 1.4328 1.4347 1.4368 1.4461 1.4444 1.4465 1.4523 1.4582 1.4602 1.4855 1.476 1.4666 1.4649 1.467 1.4653 1.4636 1.4696 1.4956 0 0 0 0 0 0 0 0 0 0 0 0 0 0 0 0 0 0 0 0 0 0 0 0 0 0 0 0 0 0 0 0 0 0 0 0 0 0 0 0 0 0 0 0 0 0 0 0 0 0 0 0 0 0 0 0 0 0 0 0 2.1081 2.1054 1.9014 1.899 2.0556 2.0367 2.0261 2.0478 2.0452 2.0185 2.0001 1.9976 2.0431 2.0653 2.0881 2.1115 2.1001 2.0716 2.0605 2.0833 2.098 2.0953 2.0926 2.1252 0 0 0 0 0 0 0 0 0 0 0 0 0 0 0 0 0 0 0 0 0 0 0 0 0 0 0 0 0 0 0 0 0 0 0 0 0 0 0 0 0 0 0 0 0 0 0 0 0 0 0 0 0 0 0 0 0 0 0 0 0 0 0 0 0 0 0 0 0 0 0 0 0 0 0 0 0 0 1.4679 1.4706 1.5284 1.5262 1.7845 1.467 1.4649 1.4675 0 0 0 0 0 1.7474 1.6412 1.6388 1.5667 1.5643 1.562 1.5597 1.5519 1.5333 1.5258 1.5235 1.5212 1.5085 0 0 0 0.78584 0.77899 0.77084 0.76154 0.76172 0.76198 0.76083 0.75695 0.75448 0.74939 0.74825 0.74974 0.74991 0.74745 0.74108 0.73864 0.73621 0.73508 0.73654 0.73411 0.72788 0.72425 0.72063 0.7183
1.1713 1.1702 1.1732 1.1721 1.1688 1.1697 1.1707 1.1716 1.1747 1.1693 1.1702 1.1776 1.1808 1.1839 1.1848 1.1903 1.1935 1.1901 1.1889 1.1899 1.1931 1.1941 1.1951 1.1962 1.1994 1.2005 1.2038 1.2096 1.2106 1.2117 1.2174 1.2232 1.2389 1.2473 1.2486 1.2497 1.2509 1.2522 1.2509 1.2496 1.2483 1.2445 1.2432 1.2344 1.2331 1.2344 1.2454 1.2441 1.2428 1.2516 1.2502 1.2515 1.2527 1.2463 1.245 1.2387 1.2349 1.2437 1.2473 1.246 1.2473 1.2484 1.2575 1.2665 1.2678 1.2718 1.2677 1.2664 1.265 1.2664 1.2677 1.2663 1.2675 1.2742 1.2728 1.2769 1.281 1.2823 1.2837 1.2877 1.2919 1.3018 1.3032 1.3075 1.3264 1.3368 1.3385 1.337 1.3355 1.3431 1.3417 1.3402 1.3448 1.3433 1.3449 1.3434 1.348 1.3528 1.3607 1.3592 1.3672 1.3721 1.377 1.392 1.4208 1.4056 1.3973 1.3957 1.4009 1.4061 1.408 1.4029 1.3946 1.3931 1.3949 1.3966 1.3985 1.3969 1.3886 1.387 1.3888 1.3939 1.4026 1.408 1.4063 1.4118 1.4242 1.4333 1.4353 1.441 1.4504 1.4525 1.4471 1.4529 1.4588 1.4685 1.4861 1.4805 1.4749 1.4732 1.4715 1.4737 1.472 1.478 1.5002 0 0 0 0 0 0 0 0 0 0 0 0 0 0 0 0 0 0 0 0 0 0 0 0 0 0 0 0 0 0 0 0 0 0 0 0 0 0 0 0 0 0 0 0 0 0 0 0 0 0 0 0 0 0 0 0 0 0 0 0 2.109 2.1064 1.9023 1.8999 2.0899 2.0789 2.0762 2.082 2.0794 2.0768 2.0657 2.0549 2.0689 2.0917 2.0977 2.1124 2.101 2.0896 2.087 2.1016 2.0989 2.0963 2.1023 2.1352 0 0 0 0 0 0 0 0 0 0 0 0 0 0 0 0 0 0 0 0 0 0 0 0 0 0 0 0 0 0 0 0 0 0 0 0 0 0 0 0 0 0 0 0 0 0 0 0 0 0 0 0 0 0 0 0 0 0 0 0 0 0 0 0 0 0 0 0 0 0 0 0 0 0 0 0 0 0 0 0 1.5292 1.527 0 0 0 0 0 0 0 0 0 1.7483 1.712 1.6834 1.5787 1.5764 1.5741 1.5717 1.5808 1.5784 1.5428 1.5296 1.5273 1.5251 0 0 0 0.78626 0.77941 0.77267 0.76876 0.76761 0.76645 0.76389 0.76141 0.75753 0.75243 0.74997 0.75015 0.75032 0.74786 0.74279 0.73905 0.73661 0.73548 0.73695 0.73452 0.72707 0.72344 0.72103 0.71749
1.1696 1.1706 1.1694 1.1704 1.1671 1.168 1.169 1.1699 1.173 1.1718 1.1706 1.178 1.1789 1.1864 1.1875 1.1885 1.194 1.1928 1.1916 1.1926 1.1936 1.1946 1.1911 1.1921 1.1999 1.201 1.2043 1.2077 1.2111 1.2122 1.2226 1.2261 1.2417 1.2453 1.2465 1.2501 1.2489 1.2501 1.2513 1.2501 1.2462 1.2449 1.2436 1.2374 1.2361 1.2372 1.2459 1.2446 1.2458 1.252 1.2507 1.252 1.2532 1.2468 1.243 1.2367 1.2379 1.2415 1.2478 1.2491 1.2477 1.2489 1.2631 1.2723 1.2736 1.2775 1.2736 1.2695 1.2655 1.2668 1.2628 1.2694 1.268 1.2747 1.276 1.2774 1.2842 1.2828 1.2842 1.2882 1.2924 1.2994 1.3009 1.3051 1.3239 1.3314 1.339 1.3375 1.339 1.3437 1.3422 1.3407 1.3453 1.3438 1.3423 1.3439 1.3486 1.3533 1.3581 1.3566 1.3646 1.3662 1.3711 1.3696 1.3843 1.3894 1.3879 1.3829 1.3814 1.4033 1.4017 1.3968 1.3952 1.3936 1.3954 1.3972 1.3991 1.4008 1.3892 1.3876 1.3893 1.3945 1.4032 1.4051 1.4 1.4053 1.4178 1.4303 1.4359 1.438 1.451 1.453 1.4514 1.4535 1.4631 1.4691 1.4947 1.485 1.4833 1.4777 1.476 1.4782 1.4803 1.4866 1.5008 0 0 0 0 0 0 0 0 0 0 0 0 0 0 0 0 0 0 0 0 0 0 0 0 0 0 0 0 0 0 0 0 0 0 0 0 0 0 0 0 0 0 0 0 0 0 0 0 0 0 0 0 0 0 0 0 0 0 0 0 2.0596 2.057 2.0066 2.0041 2.108 2.1139 2.0941 2.1 2.0888 2.0862 2.0836 2.0724 2.0867 2.0926 2.0986 2.1047 2.0846 2.082 2.0879 2.1026 2.0999 2.106 2.1033 2.1006 1.8853 1.8829 1.8804 0 0 0 0 0 0 0 0 0 0 0 0 0 0 0 0 0 0 0 0 0 0 0 0 0 0 0 0 0 0 0 0 0 0 0 0 0 0 0 0 0 0 0 0 0 0 0 0 0 0 0 0 0 0 0 0 0 0 0 0 0 0 0 0 0 0 0 0 0 0 0 0 0 0 0 0 0 0 0 0 0 0 0 0 0 0 0 0 1.7492 1.7129 1.6653 1.5795 1.5829 1.5806 1.5839 1.5873 1.5907 1.549 1.5304 1.5282 1.5259 0 0 0 0.78952 0.78267 0.77583 0.77051 0.76802 0.76819 0.7643 0.76182 0.75794 0.75152 0.75038 0.75055 0.7481 0.74696 0.74189 0.73945 0.73701 0.73588 0.73475 0.73362 0.72617 0.72254 0.72143 0.71789
1.17 1.1689 1.1698 1.1687 1.1675 1.1663 1.1673 1.1704 1.1713 1.1701 1.1668 1.1785 1.1794 1.1869 1.1879 1.1889 1.1922 1.1932 1.192 1.193 1.194 1.1928 1.1916 1.1926 1.1981 1.2014 1.2024 1.2058 1.2092 1.2126 1.2254 1.2313 1.2446 1.2482 1.2469 1.2506 1.2493 1.2506 1.2518 1.2505 1.2467 1.2479 1.2441 1.2428 1.2415 1.2427 1.2514 1.2501 1.2488 1.2525 1.2512 1.2525 1.2537 1.2448 1.2409 1.2347 1.2358 1.242 1.2483 1.252 1.2482 1.252 1.2662 1.2755 1.2794 1.278 1.2794 1.2727 1.2687 1.2673 1.266 1.2673 1.2712 1.2779 1.2793 1.2806 1.2847 1.2861 1.2847 1.2887 1.2929 1.2999 1.3014 1.3 1.3157 1.326 1.3334 1.332 1.3335 1.3381 1.3427 1.3412 1.3398 1.3443 1.3429 1.3475 1.3523 1.3539 1.3586 1.3571 1.3619 1.3668 1.3684 1.3766 1.3751 1.3735 1.372 1.3737 1.3722 1.387 1.3822 1.3873 1.3857 1.3875 1.3926 1.3944 1.3996 1.398 1.393 1.3881 1.3966 1.3951 1.4037 1.4022 1.3971 1.4025 1.4184 1.4238 1.4293 1.4349 1.4443 1.4499 1.452 1.4578 1.4637 1.4735 1.4913 1.4895 1.4839 1.4822 1.4805 1.4867 1.4889 1.4911 1.5014 0 0 0 0 0 0 0 0 0 0 0 0 0 0 0 0 0 0 0 0 0 0 0 0 0 0 0 0 0 0 0 0 0 0 0 0 0 0 0 0 0 0 0 0 0 0 0 0 0 0 0 0 0 0 0 0 0 0 0 0 2.0605 2.0579 2.0075 2.005 2.1263 2.1325 2.121 2.1096 2.1069 2.0956 2.1016 2.0903 2.0962 2.1022 2.0909 2.0797 2.0602 2.0576 2.0889 2.0949 2.0922 2.0982 2.1042 2.1015 1.8862 1.8837 1.8813 0 0 0 0 0 0 0 0 0 0 0 0 0 0 0 0 0 0 0 0 0 0 0 0 0 0 0 0 0 0 0 0 0 0 0 0 0 0 0 0 0 0 0 0 0 0 0 0 0 0 0 0 0 0 0 0 0 0 0 0 0 0 0 0 0 0 0 0 0 0 0 0 0 0 0 0 0 0 0 0 0 0 0 0 0 0 0 0 1.7501 1.6686 1.6662 1.627 1.5895 1.5871 1.5905 1.5939 1.5974 1.5498 1.5312 1.529 1.5267 0 0 0 0.79136 0.78309 0.77624 0.77233 0.76843 0.76728 0.76471 0.76091 0.75835 0.75193 0.75079 0.75096 0.74851 0.74737 0.73714 0.73471 0.73358 0.73124 0.73011 0.72899 0.72406 0.72173 0.7194 0.717
1.1684 1.1693 1.1703 1.1691 1.17 1.1689 1.1698 1.1708 1.1738 1.1705 1.1694 1.181 1.1842 1.1895 1.1906 1.1916 1.1948 1.1981 1.1969 1.1979 1.1966 1.1954 1.1964 1.1952 1.1985 1.2019 1.2028 1.2062 1.2096 1.213 1.233 1.239 1.2499 1.2512 1.2499 1.2511 1.2523 1.251 1.2523 1.251 1.2497 1.2508 1.2495 1.2507 1.2519 1.2532 1.2569 1.2556 1.2569 1.2556 1.2543 1.253 1.2516 1.2477 1.2439 1.2376 1.2388 1.2476 1.2513 1.2577 1.259 1.2602 1.2746 1.2812 1.2853 1.2839 1.2853 1.2812 1.2771 1.2705 1.2717 1.2704 1.2744 1.2812 1.2825 1.2839 1.2852 1.2838 1.2852 1.292 1.2934 1.3004 1.3019 1.3005 1.3162 1.3265 1.331 1.3295 1.334 1.3357 1.3432 1.3418 1.3403 1.3449 1.3434 1.3543 1.359 1.3638 1.3623 1.3577 1.3688 1.3738 1.3722 1.3739 1.3692 1.3708 1.3726 1.3743 1.376 1.381 1.3794 1.3845 1.3896 1.3913 1.3932 1.3983 1.4002 1.4054 1.397 1.3955 1.4041 1.4025 1.4009 1.4027 1.4046 1.4135 1.4189 1.428 1.4299 1.4354 1.4559 1.4581 1.4564 1.4698 1.4796 1.4858 1.4919 1.4863 1.4884 1.4828 1.4811 1.4833 1.4856 1.4917 1.5102 0 0 0 0 0 0 0 0 0 0 0 0 0 0 0 0 0 0 0 0 0 0 0 0 0 0 0 0 0 0 0 0 0 0 0 0 0 0 0 0 0 0 0 0 0 0 0 0 0 0 0 0 0 0 0 0 0 0 0 0 0 0 2.0563 2.0537 2.163 2.1693 2.1396 2.1281 2.1254 2.1139 2.1112 2.1086 2.1146 2.112 2.0919 2.0722 2.0612 2.0502 2.0985 2.0872 2.1018 2.1079 2.1229 2.1291 1.887 1.8846 1.8892 0 0 0 0 0 0 0 0 0 0 0 0 0 0 0 0 0 0 0 0 0 0 0 0 0 0 0 0 0 0 0 0 0 0 0 0 0 0 0 0 0 0 0 0 0 0 0 0 0 0 0 0 0 0 0 0 0 0 0 0 0 0 0 0 0 0 0 0 0 0 0 0 0 0 0 0 0 0 0 0 0 0 0 0 0 0 0 0 0 1.6758 1.667 1.61 1.6077 1.5936 1.5971 1.6064 1.61 1.5452 1.5374 1.5298 1.5275 0 0 0 0.79179 0.7906 0.77808 0.77133 0.76885 0.76495 0.7638 0.75991 0.75612 0.75102 0.74856 0.74742 0.75023 0.74777 0.73623 0.73135 0.73145 0.72659 0.72669 0.72687 0.72446 0.72091 0.7198 0.71618
1.1709 1.1697 1.1728 1.1738 1.1705 1.1714 1.1745 1.1733 1.1764 1.1731 1.1719 1.1837 1.1868 1.19 1.191 1.1898 1.1953 1.1985 1.2017 1.2029 1.2016 1.2004 1.1992 1.198 1.2035 1.2045 1.2056 1.2067 1.2078 1.2112 1.2359 1.2419 1.253 1.2517 1.2528 1.2515 1.2502 1.2515 1.2502 1.2514 1.2476 1.2513 1.25 1.2512 1.2499 1.2536 1.2574 1.2561 1.2547 1.2534 1.2547 1.2508 1.2546 1.2482 1.2469 1.2406 1.2418 1.2505 1.2569 1.2608 1.262 1.2633 1.2751 1.2817 1.2831 1.2844 1.2857 1.2844 1.2776 1.2763 1.2749 1.2735 1.2802 1.2871 1.2884 1.2844 1.2884 1.2871 1.2857 1.2925 1.2968 1.3009 1.3024 1.301 1.3139 1.3271 1.3315 1.33 1.3345 1.3392 1.3438 1.3392 1.3408 1.3454 1.3439 1.3549 1.3564 1.3644 1.3629 1.3614 1.3662 1.371 1.3728 1.3713 1.3665 1.3682 1.3731 1.3748 1.3765 1.3815 1.38 1.3884 1.3969 1.3919 1.3971 1.3989 1.4041 1.4059 1.4009 1.4028 1.4046 1.403 1.4049 1.4033 1.4052 1.4175 1.4265 1.4321 1.4341 1.4471 1.4679 1.4699 1.4721 1.4781 1.4881 1.4942 1.4965 1.4908 1.489 1.4834 1.4817 1.4839 1.4862 1.4845 0 0 0 0 0 0 0 0 0 0 0 0 0 0 0 0 0 0 0 0 0 0 0 0 0 0 0 0 0 0 0 0 0 0 0 0 0 0 0 0 0 0 0 0 0 0 0 0 0 0 0 0 0 0 0 0 0 0 0 0 0 0 0 0 0 0 2.1612 2.1495 2.129 2.1263 2.1237 2.121 2.1183 2.1156 2.1217 2.0928 2.0816 2.0705 2.0511 2.1082 2.0881 2.0941 2.1089 2.115 2.1575 1.9463 1.9514 2.1492 0 0 0 0 0 0 0 0 0 0 0 0 0 0 0 0 0 0 0 0 0 0 0 0 0 0 0 0 0 0 0 0 0 0 0 0 0 0 0 0 0 0 0 0 0 0 0 0 0 0 0 0 0 0 0 0 0 0 0 0 0 0 0 0 0 0 0 0 0 0 0 0 0 0 0 0 0 0 1.7567 1.7611 0 0 1.6321 1.6357 1.8122 1.6132 1.6109 1.6085 1.589 1.5867 1.7197 1.7239 1.7147 1.5945 1.6038 1.6311 1.6409 1.6697 1.6672 1.6647 1.6686 0 0 0 0.79514 0.79395 0.76748 0.769 0.76518 0.76262 0.75882 0.75767 0.75388 0.74614 0.74245 0.74001 0.72508 0.72398 0.72287 0.72668 0.72434 0.72201 0.72334 0.72475 0.72364 0.72131 0.7189 0.71779
1.1734 1.1723 1.1732 1.172 1.1709 1.174 1.1749 1.1759 1.1747 1.1714 1.1702 1.1862 1.1893 1.1904 1.1892 1.1858 1.1912 1.1989 1.2022 1.2055 1.2043 1.2009 1.2019 1.2006 1.204 1.2049 1.206 1.2071 1.2082 1.2116 1.2364 1.2424 1.2484 1.2471 1.2483 1.252 1.2507 1.247 1.2457 1.2468 1.2455 1.2517 1.2504 1.2491 1.2478 1.2516 1.2553 1.254 1.2502 1.2514 1.2526 1.2488 1.25 1.2487 1.2473 1.2435 1.2473 1.251 1.2548 1.2561 1.2573 1.2586 1.2702 1.2742 1.2756 1.2769 1.2808 1.2849 1.2808 1.2794 1.2808 1.2767 1.2835 1.2931 1.2889 1.2903 1.2889 1.2875 1.2862 1.2902 1.2944 1.2987 1.3029 1.3015 1.3173 1.3276 1.332 1.3335 1.3321 1.3397 1.3443 1.3428 1.3443 1.3459 1.3475 1.3554 1.36 1.3617 1.3602 1.3587 1.3604 1.3652 1.3669 1.3654 1.3607 1.356 1.3672 1.3721 1.3771 1.3821 1.3805 1.3923 1.4008 1.3992 1.3977 1.4029 1.4046 1.4134 1.4049 1.4068 1.4052 1.4036 1.409 1.4108 1.4092 1.4217 1.4271 1.4399 1.4383 1.4855 1.4838 1.4859 1.4804 1.4865 1.4965 1.4988 1.5011 1.4954 1.4937 1.4879 1.4823 1.4845 1.4868 1.4811 0 0 0 0 0 0 0 0 0 0 0 0 0 0 0 0 0 0 0 0 0 0 0 0 0 0 0 0 0 0 0 0 0 0 0 0 0 0 0 0 0 0 0 0 0 0 0 0 0 0 0 0 0 0 0 0 0 0 0 0 0 2.0633 2.0689 2.0663 2.0637 2.1469 2.1532 2.1415 2.1388 2.1273 2.1334 2.1307 2.1192 2.1078 2.1139 2.0938 2.0741 2.0631 2.0521 2.0831 2.0636 2.0525 2.0837 2.0897 2.0957 1.903 1.9006 1.9053 2.2948 2.3024 0 0 0 0 0 0 0 0 0 0 0 0 0 0 0 0 0 0 0 0 0 0 0 0 0 0 0 0 0 0 0 0 0 0 0 0 0 0 0 0 0 0 0 0 0 0 0 0 0 0 0 0 0 0 0 0 0 0 0 0 0 0 0 0 0 0 0 0 0 0 0 0 0 0 0 0 1.7241 1.7216 1.5857 1.5835 1.627 1.6246 1.6646 1.6141 1.6117 1.6036 1.5956 1.5875 1.714 1.7115 1.7024 1.5782 1.5987 1.6504 1.6666 1.677 1.6745 1.6656 1.6631 0 0 0 0.78409 0.78292 0.76923 0.76674 0.76285 0.75904 0.75524 0.75278 0.74767 0.74142 0.73774 0.73407 0.72794 0.72437 0.72327 0.71848 0.71616 0.71506 0.71763 0.72141 0.72282 0.72171 0.7193 0.71819
1.1738 1.1727 1.1736 1.1703 1.1692 1.1744 1.1753 1.1742 1.173 1.1697 1.1664 1.1866 1.1877 1.1908 1.1896 1.1819 1.1894 1.1971 1.2026 1.2082 1.2025 1.2013 1.2001 1.2033 1.2044 1.2077 1.2065 1.2052 1.2063 1.2097 1.2417 1.2453 1.2465 1.2427 1.2463 1.2475 1.2487 1.2474 1.2462 1.2449 1.2436 1.2498 1.2509 1.2496 1.2483 1.2495 1.2558 1.2519 1.2507 1.2518 1.2505 1.2492 1.2504 1.2466 1.2478 1.244 1.2452 1.2515 1.2528 1.2539 1.2552 1.2539 1.2681 1.2721 1.2733 1.2747 1.2813 1.2827 1.2867 1.2826 1.2839 1.2826 1.2895 1.2964 1.295 1.2936 1.2894 1.288 1.2867 1.2907 1.2949 1.2992 1.3005 1.3105 1.3414 1.3369 1.3325 1.3401 1.3417 1.3523 1.3509 1.3494 1.351 1.3495 1.3511 1.3559 1.3575 1.3622 1.3607 1.3561 1.3578 1.3626 1.3642 1.3596 1.3549 1.3534 1.3614 1.3694 1.3809 1.396 1.3944 1.4029 1.4047 1.4066 1.4084 1.4068 1.4121 1.4245 1.4194 1.4178 1.4162 1.4146 1.4201 1.4184 1.4203 1.4258 1.4313 1.4405 1.4535 1.5057 1.5081 1.5104 1.5087 1.5109 1.5213 1.5196 1.5179 1.5161 1.5104 1.5086 1.4949 1.4931 1.4874 1.4857 0 0 0 0 0 0 0 0 0 0 0 0 0 0 0 0 0 0 0 0 0 0 0 0 0 0 0 0 0 0 0 0 0 0 0 0 0 0 0 0 0 0 0 0 0 0 0 0 0 0 0 0 0 0 0 0 0 0 0 0 0 2.0642 2.0698 2.0672 2.0813 2.139 2.1541 2.1425 2.1309 2.1282 2.1433 2.1406 2.1202 2.1175 2.1148 2.0777 2.0751 2.064 2.053 2.0756 2.0396 2.037 2.0592 2.065 2.0966 1.9039 1.9015 1.9062 2.2959 2.3034 0 0 0 0 0 0 0 0 0 0 0 0 0 0 0 0 0 0 0 0 0 0 0 0 0 0 0 0 0 0 0 0 0 0 0 0 0 0 0 0 0 0 0 0 0 0 0 0 0 0 0 0 0 0 0 0 0 0 0 0 0 0 0 0 0 0 0 0 0 0 0 0 0 0 0 0 1.725 1.7225 1.5865 1.6069 1.6278 1.6435 1.6471 1.6267 1.6126 1.6102 1.5964 1.5883 1.7083 1.7124 1.7033 1.5848 1.5996 1.6574 1.6803 1.6973 1.7147 1.7189 1.7163 0 0 0 0.78451 0.77774 0.77098 0.76849 0.76326 0.75679 0.75432 0.75186 0.74675 0.74182 0.73938 0.73826 0.73335 0.72969 0.72489 0.71887 0.71532 0.71423 0.71803 0.72059 0.72192 0.72454 0.72099 0.71988
1.1764 1.1731 1.1719 1.1707 1.1717 1.1769 1.1758 1.1767 1.1734 1.168 1.1689 1.1849 1.1881 1.1935 1.19 1.1845 1.1921 1.1998 1.2076 1.2064 1.2052 1.2017 1.2005 1.2037 1.2094 1.2105 1.2092 1.208 1.2068 1.2102 1.2397 1.2409 1.242 1.2432 1.2444 1.2505 1.2466 1.2479 1.2466 1.2453 1.244 1.2502 1.2489 1.2501 1.2488 1.25 1.2562 1.2549 1.2511 1.2523 1.251 1.2497 1.2509 1.2471 1.2483 1.2445 1.2457 1.2519 1.2532 1.257 1.2583 1.257 1.2686 1.2752 1.2738 1.2779 1.2818 1.2858 1.2872 1.2831 1.2872 1.2859 1.2927 1.2969 1.2982 1.2968 1.2954 1.2913 1.2899 1.2968 1.2983 1.3024 1.3039 1.3139 1.3329 1.3345 1.336 1.3376 1.3422 1.3498 1.3545 1.3499 1.3515 1.3531 1.3517 1.3564 1.358 1.3596 1.355 1.3536 1.3551 1.3568 1.3585 1.357 1.3523 1.3508 1.3619 1.37 1.3782 1.3965 1.3982 1.4001 1.4019 1.4037 1.4056 1.4074 1.4127 1.4215 1.4235 1.4183 1.4167 1.4151 1.4206 1.419 1.4208 1.4264 1.4319 1.4374 1.4505 1.5225 1.5127 1.515 1.5132 1.5155 1.522 1.5244 1.5185 1.5167 1.511 1.5092 1.4994 1.5016 1.504 1.5269 0 0 0 0 0 0 0 0 0 0 0 0 0 0 0 0 0 0 0 0 0 0 0 0 0 0 0 0 0 0 0 0 0 0 0 0 0 0 0 0 0 0 0 0 0 0 0 0 0 0 0 0 0 0 0 0 0 0 0 0 0 2.0651 2.0708 2.0682 2.0823 2.1399 2.1461 2.1346 2.1231 2.1204 2.1177 2.1326 2.1037 2.0924 2.0898 2.0787 2.0676 2.0566 2.0457 2.0681 2.0405 2.0216 2.0271 2.0409 1.9979 1.912 1.9023 1.9071 2.2969 2.3045 0 0 0 0 0 0 0 0 0 0 0 0 0 0 0 0 0 0 0 0 0 0 0 0 0 0 0 0 0 0 0 0 0 0 0 0 0 0 0 0 0 0 0 0 0 0 0 0 0 0 0 0 0 0 0 0 0 0 0 0 0 0 0 0 1.6308 1.6285 1.6262 0 1.5293 1.5322 1.6583 1.6559 1.6357 1.6333 1.7714 1.6228 1.6205 1.624 1.5874 1.6077 1.6287 1.6443 1.654 1.6335 1.6134 1.6111 1.6205 1.6543 1.7158 1.7067 1.7107 1.6205 1.6122 1.6709 1.6942 1.7048 1.7291 1.7198 1.724 0 0 0 0.78493 0.77815 0.77139 0.7689 0.76367 0.75587 0.7534 0.74961 0.74716 0.7409 0.73854 0.73611 0.7312 0.72762 0.72529 0.72172 0.7194 0.7183 0.72209 0.72342 0.72483 0.72494 0.72382 0.72149
1.1768 1.1756 1.1723 1.1712 1.1743 1.1795 1.1804 1.1771 1.1738 1.1705 1.1693 1.1897 1.1929 1.1961 1.1927 1.1893 1.197 1.207 1.2103 1.2068 1.2034 1.1998 1.2032 1.2042 1.2121 1.2132 1.2073 1.2084 1.2072 1.2106 1.2377 1.2365 1.2376 1.2364 1.2375 1.246 1.2447 1.241 1.2421 1.2408 1.2395 1.2432 1.2469 1.2505 1.2492 1.2505 1.2567 1.2554 1.2516 1.2528 1.2515 1.2502 1.2514 1.2475 1.2462 1.2449 1.2461 1.2575 1.2562 1.2601 1.2666 1.2652 1.2744 1.2784 1.277 1.281 1.2877 1.289 1.2877 1.2863 1.2904 1.2891 1.296 1.3029 1.3043 1.3029 1.3044 1.303 1.3016 1.3057 1.3072 1.3115 1.313 1.3173 1.3247 1.3291 1.3365 1.3381 1.3397 1.3473 1.3519 1.3504 1.3521 1.3506 1.3522 1.3538 1.3523 1.354 1.3525 1.351 1.3495 1.3511 1.3558 1.3543 1.3528 1.3513 1.3593 1.3673 1.3722 1.3937 1.3988 1.4074 1.4058 1.4009 1.4062 1.4079 1.4132 1.4257 1.4241 1.426 1.4244 1.4228 1.4246 1.4267 1.425 1.4305 1.436 1.438 1.4511 1.5231 1.5255 1.5238 1.522 1.5285 1.5309 1.5291 1.5232 1.5215 1.5156 1.5099 1.5081 1.5186 1.5251 1.5275 0 0 0 0 0 0 0 0 0 0 0 0 0 0 0 0 0 0 0 0 0 0 0 0 0 0 0 0 0 0 0 0 0 0 0 0 0 0 0 0 0 0 0 0 0 0 0 0 0 0 0 0 0 0 0 0 0 0 0 0 0 2.0743 2.0635 2.0691 2.0665 2.1409 2.1471 2.1007 2.0727 2.0785 2.0758 2.0902 2.0458 2.0514 2.0654 2.0462 2.0354 2.0329 2.0384 2.069 2.0011 1.9986 1.996 1.9856 1.9988 1.9129 1.8819 1.908 2.298 2.3055 0 0 0 0 0 0 0 0 0 0 0 0 0 0 0 0 0 0 0 0 0 0 0 0 0 0 0 0 0 0 0 0 0 0 0 0 0 0 0 0 0 0 0 0 0 0 0 0 0 0 0 0 0 0 0 0 0 0 0 0 0 0 0 0 1.6316 1.6293 1.627 0 1.5301 1.533 1.6591 1.6567 1.6365 1.6342 1.7723 1.6237 1.6213 1.6248 1.5882 1.5859 1.6295 1.6451 1.6488 1.6284 1.6201 1.6119 1.6576 1.6551 1.7035 1.701 1.6791 1.6516 1.6492 1.6781 1.7016 1.719 1.7369 1.7207 1.7249 0 0 0 0.78535 0.77438 0.76913 0.76798 0.76274 0.75627 0.74982 0.74744 0.74499 0.7413 0.73638 0.73271 0.72666 0.72555 0.72568 0.72335 0.72101 0.72114 0.72248 0.72382 0.72523 0.72663 0.72552 0.7244
1.1751 1.1739 1.1727 1.1737 1.1747 1.182 1.1808 1.1775 1.1742 1.1731 1.1719 1.1923 1.1955 1.1988 1.1954 1.1919 1.1997 1.2097 1.2131 1.2095 1.2038 1.198 1.2058 1.2091 1.2126 1.2137 1.2078 1.2066 1.21 1.2111 1.2357 1.2345 1.2356 1.2344 1.238 1.244 1.2403 1.2414 1.2401 1.2389 1.2352 1.2437 1.2448 1.251 1.2497 1.2534 1.2547 1.2533 1.2546 1.2532 1.2519 1.2531 1.2518 1.248 1.2467 1.2454 1.2492 1.2606 1.2619 1.2632 1.2723 1.2735 1.2775 1.2816 1.2828 1.2841 1.2882 1.2924 1.291 1.2896 1.2909 1.295 1.2965 1.3034 1.3048 1.3063 1.3049 1.3063 1.3077 1.3119 1.3134 1.3178 1.3164 1.3207 1.3281 1.3325 1.334 1.3417 1.3402 1.3478 1.3524 1.3541 1.3495 1.3511 1.3496 1.3543 1.3528 1.3513 1.353 1.3484 1.3501 1.3516 1.3532 1.3549 1.3534 1.3519 1.3598 1.3646 1.3728 1.3943 1.3993 1.408 1.4064 1.4048 1.4101 1.4119 1.4138 1.4298 1.4282 1.4337 1.4321 1.4234 1.4252 1.4272 1.4256 1.4311 1.4366 1.4496 1.5093 1.5036 1.5261 1.5244 1.5267 1.5291 1.5357 1.5298 1.5239 1.5221 1.5162 1.5105 1.5087 1.5151 1.5216 1.5198 0 0 0 0 0 0 0 0 0 0 0 0 0 0 0 0 0 0 0 0 0 0 0 0 0 0 0 0 0 0 0 0 0 0 0 0 0 0 0 0 0 0 0 0 0 0 0 0 0 0 0 0 0 0 0 0 0 0 0 0 0 0 0 0 0 0 2.1129 2.0846 2.0653 2.0545 2.0685 2.0659 2.0146 2.036 2.058 2.039 2.0283 2.0097 1.9993 0 0 0 1.966 1.9634 0 1.8642 1.8687 1.8595 0 0 0 0 0 0 0 0 0 0 0 0 0 0 0 0 0 0 0 0 0 0 0 0 0 0 0 0 0 0 0 0 0 0 0 0 0 0 0 0 0 0 0 0 0 0 0 0 0 0 0 0 0 0 0 0 0 0 0 0 0 0 0 1.7382 1.7357 1.7399 1.6325 1.6302 1.6279 1.4597 1.4576 1.4555 1.5265 1.5294 1.6083 1.606 1.6038 1.6245 1.6222 1.7385 1.6903 1.6879 1.6667 1.646 1.6376 1.6233 1.6151 1.6186 0 1.6874 1.6913 1.6954 1.6864 1.6775 1.6625 1.679 1.696 1.7199 1.7517 0 0 0 0 0 0.77453 0.77203 0.76812 0.76697 0.76182 0.75668 0.75022 0.74785 0.74672 0.74046 0.73678 0.73187 0.72582 0.72471 0.72484 0.72251 0.72018 0.71908 0.72288 0.723 0.72441 0.72573 0.72462 0.7235
1.1755 1.1722 1.171 1.172 1.1751 1.1846 1.1855 1.1758 1.1747 1.1714 1.1723 1.1949 1.196 1.1992 1.1958 1.1924 1.1979 1.2033 1.2089 1.2099 1.2065 1.2007 1.204 1.2074 1.2107 1.2118 1.2106 1.2093 1.2104 1.2115 1.2386 1.2373 1.2336 1.2324 1.2384 1.2444 1.2432 1.2394 1.2382 1.2369 1.2356 1.2416 1.2453 1.254 1.2501 1.2539 1.2551 1.2538 1.2525 1.2562 1.2549 1.2536 1.2549 1.251 1.2523 1.2535 1.2547 1.2689 1.2702 1.2689 1.2753 1.274 1.278 1.274 1.2727 1.2766 1.2833 1.2873 1.2887 1.2901 1.2914 1.2955 1.297 1.3067 1.3082 1.3068 1.3054 1.3068 1.3082 1.3153 1.3168 1.3241 1.3227 1.3212 1.3286 1.3301 1.3376 1.3422 1.3408 1.3484 1.3469 1.3515 1.35 1.3485 1.3471 1.3518 1.3503 1.3519 1.3536 1.3521 1.3537 1.3552 1.3569 1.3586 1.3571 1.3556 1.3635 1.3716 1.3766 1.3915 1.3999 1.4085 1.4069 1.402 1.4038 1.409 1.4109 1.4268 1.4252 1.4306 1.4327 1.4169 1.4188 1.4242 1.4226 1.4317 1.4408 1.4841 1.5059 1.5082 1.5268 1.525 1.5273 1.5339 1.5447 1.5345 1.5286 1.5227 1.521 1.5151 1.5134 1.5157 1.5181 1.5205 0 0 0 0 0 0 0 0 0 0 0 0 0 0 0 0 0 0 0 0 0 0 0 0 0 0 0 0 0 0 0 0 0 0 0 0 0 0 0 0 0 0 0 0 0 0 0 0 0 0 0 0 0 0 0 0 0 0 0 0 0 0 0 0 0 0 2.0967 2.0688 2.0499 2.0391 2.0366 2.034 1.9691 1.9972 2.0263 2.0237 2.0132 1.9054 1.903 1.9294 0 0 1.9669 1.9643 0 1.8651 1.8696 1.8603 0 0 0 0 0 0 0 0 0 0 0 0 0 0 0 0 0 0 0 0 0 0 0 0 0 0 0 0 0 0 0 0 0 0 0 0 0 0 0 0 0 0 0 0 0 0 0 0 0 0 0 0 0 0 0 0 0 0 0 0 0 0 0 1.4497 1.4522 1.4501 1.6333 1.631 1.6287 1.442 1.4399 1.4379 1.5273 1.5564 1.5757 1.5789 1.6335 1.6253 1.623 1.7129 1.6786 1.6395 1.6372 1.6348 1.6384 1.6361 1.6159 1.6194 0 1.6569 1.6544 1.652 1.6435 1.6848 1.6634 1.6609 1.7167 1.7141 1.7526 2.0248 2.0503 0 0 0 0.77494 0.7711 0.76853 0.76604 0.76089 0.75575 0.75062 0.74825 0.74712 0.74086 0.73718 0.73103 0.72745 0.72387 0.72277 0.71798 0.71451 0.71465 0.72328 0.72339 0.72481 0.72613 0.72502 0.7252
1.1759 1.1747 1.1736 1.1724 1.1798 1.1894 1.1903 1.1763 1.1729 1.1718 1.1706 1.1931 1.1964 1.1974 1.194 1.1883 1.1961 1.2015 1.2048 1.2104 1.2091 1.2057 1.2067 1.2078 1.2135 1.2122 1.211 1.2098 1.2085 1.212 1.2342 1.2306 1.2293 1.2281 1.234 1.2425 1.2436 1.2375 1.2386 1.2398 1.2385 1.2446 1.2457 1.2519 1.2506 1.2518 1.2556 1.2568 1.2555 1.2567 1.2605 1.2567 1.2579 1.2566 1.2629 1.2668 1.2681 1.2772 1.2785 1.2746 1.2758 1.2772 1.2758 1.2718 1.2704 1.2771 1.2811 1.2851 1.2891 1.2906 1.2919 1.296 1.2974 1.3044 1.3058 1.3044 1.303 1.3073 1.3087 1.3188 1.3202 1.3275 1.3291 1.3246 1.3291 1.3335 1.3381 1.3457 1.3413 1.3458 1.3474 1.3489 1.3537 1.3491 1.3476 1.3554 1.3539 1.3524 1.3572 1.3557 1.3573 1.3621 1.3606 1.3623 1.3608 1.3593 1.3737 1.3787 1.3837 1.402 1.4039 1.4126 1.411 1.4026 1.4044 1.4096 1.4115 1.4238 1.4222 1.4277 1.4296 1.414 1.4194 1.4213 1.4197 1.4322 1.4414 1.4619 1.5026 1.5088 1.5274 1.5256 1.5321 1.5387 1.5453 1.5393 1.5334 1.5316 1.5257 1.5281 1.5181 1.5205 1.5228 1.5211 0 0 0 0 0 0 0 0 0 0 0 0 0 0 0 0 0 0 0 0 0 0 0 0 0 0 0 0 0 0 0 0 0 0 0 0 0 0 0 0 0 0 0 0 0 0 0 0 0 0 0 0 0 0 0 0 0 0 0 0 0 0 0 0 0 0 2.1062 2.0698 2.0508 2.0482 2.0294 2.0189 1.9776 2.0059 2.0353 2.0246 2.0141 1.9063 1.9039 1.9303 0 0 0 0 0 0 0 0 0 0 0 0 0 0 0 0 0 0 0 0 0 0 0 0 0 0 0 0 0 0 0 0 0 0 0 0 0 0 0 0 0 0 0 0 0 0 0 0 0 0 0 0 0 0 0 0 0 0 0 0 0 0 0 0 0 0 0 0 0 0 0 1.4504 1.4529 1.4509 1.6341 1.6204 1.6353 1.4427 1.4406 1.4386 1.5281 1.531 1.582 1.5797 1.7018 1.6261 1.6297 1.7073 1.6732 1.6464 1.638 1.6357 1.6393 1.649 1.665 0 0 1.6515 1.631 1.6287 1.6505 0 1.7362 1.7404 1.9801 1.9861 2.0289 2.0353 2.0514 0 0 0 0.77535 0.77151 0.7676 0.76779 0.76263 0.75749 0.75236 0.7499 0.74752 0.74126 0.73501 0.72894 0.72537 0.72303 0.72193 0.71476 0.71129 0.71381 0.72244 0.72501 0.72643 0.72783 0.72671 0.72559
1.1763 1.173 1.174 1.1728 1.1781 1.1898 1.1886 1.1745 1.1691 1.168 1.1689 1.1892 1.1923 1.1934 1.19 1.1866 1.192 1.1997 1.2052 1.2086 1.2096 1.2084 1.2071 1.2082 1.2139 1.2127 1.2091 1.2079 1.2066 1.2054 1.2251 1.2263 1.2226 1.2213 1.2296 1.2405 1.2368 1.2379 1.2367 1.2378 1.2389 1.245 1.2462 1.25 1.2487 1.2498 1.2561 1.2573 1.2585 1.2572 1.2559 1.2597 1.2584 1.2571 1.2634 1.2647 1.2712 1.2777 1.2738 1.2724 1.2763 1.275 1.2736 1.2723 1.2709 1.2776 1.2815 1.2829 1.2869 1.2882 1.2924 1.2965 1.2951 1.3021 1.3035 1.3021 1.3007 1.305 1.3064 1.3164 1.3178 1.3251 1.3266 1.3252 1.3296 1.334 1.3416 1.3433 1.3357 1.3313 1.3479 1.3526 1.3511 1.3496 1.3512 1.3591 1.3576 1.3561 1.3577 1.3562 1.361 1.3626 1.3643 1.3628 1.3581 1.3598 1.3775 1.3792 1.3842 1.4128 1.4112 1.4131 1.4116 1.4065 1.4049 1.4102 1.4121 1.4244 1.4228 1.4248 1.4267 1.411 1.413 1.4183 1.4132 1.4293 1.4348 1.4332 1.5072 1.5094 1.528 1.5303 1.5286 1.5435 1.546 1.5399 1.534 1.5323 1.5346 1.5329 1.5187 1.5252 1.5318 1.5384 0 0 0 0 0 0 0 0 0 0 0 0 0 0 0 0 0 0 0 0 0 0 0 0 0 0 0 0 0 0 0 0 0 0 0 0 0 0 0 0 0 0 0 0 0 0 0 0 0 0 0 0 0 0 0 0 0 0 0 0 0 0 0 0 0 0 2.0985 2.0707 2.0435 2.0491 2.0303 2.0278 1.9861 2.0227 2.0443 2.0417 2.0311 1.9889 1.9787 0 0 0 0 0 0 0 0 0 0 0 0 0 0 0 0 0 0 0 0 0 0 0 0 0 0 0 0 0 0 0 0 0 0 0 0 0 0 0 0 0 0 0 0 0 0 0 0 0 0 0 0 0 0 0 0 0 0 0 0 0 0 0 0 0 0 0 0 0 0 0 1.4396 1.4421 1.5943 1.5976 1.5953 1.6042 1.6075 1.5831 1.5809 1.5786 1.5929 1.5851 1.634 1.6375 1.7027 1.5983 1.6016 1.6954 1.6866 1.6594 1.6509 1.6365 1.6341 1.6318 1.6176 1.6211 0 1.5876 1.6082 1.6059 1.5807 1.5955 1.5271 1.5249 1.5226 1.5204 2.03 2.0459 2.0817 0 0 0 0.77164 0.77192 0.76801 0.7682 0.76304 0.75789 0.75143 0.74905 0.74917 0.74033 0.73293 0.72686 0.72328 0.72219 0.7187 0.71276 0.7093 0.71182 0.72407 0.72671 0.72805 0.72945 0.72833 0.72851
1.1767 1.1734 1.1723 1.1691 1.1764 1.1858 1.1847 1.1728 1.1674 1.1662 1.1672 1.1875 1.1906 1.1916 1.1904 1.1848 1.1902 1.1979 1.2034 1.209 1.2078 1.2066 1.2076 1.2109 1.2144 1.2154 1.2095 1.2083 1.2071 1.2059 1.2162 1.215 1.2138 1.2102 1.2182 1.2336 1.2324 1.2263 1.2298 1.231 1.2346 1.2406 1.2393 1.2429 1.2416 1.2428 1.2489 1.2502 1.2539 1.2576 1.2563 1.2576 1.2563 1.2575 1.2639 1.2678 1.2691 1.2756 1.2716 1.2703 1.2716 1.2728 1.2741 1.2727 1.2714 1.2754 1.2794 1.2807 1.2847 1.286 1.2929 1.297 1.2956 1.2999 1.304 1.3026 1.3012 1.3055 1.3097 1.314 1.3154 1.3227 1.3271 1.3257 1.3331 1.3346 1.3391 1.3407 1.3332 1.3288 1.3424 1.3439 1.3485 1.347 1.3518 1.3596 1.3581 1.3567 1.3582 1.3598 1.3615 1.3632 1.3648 1.3665 1.3618 1.3635 1.378 1.383 1.4014 1.4168 1.4153 1.4171 1.4155 1.4071 1.409 1.4107 1.4126 1.418 1.4095 1.4113 1.4202 1.4116 1.41 1.4119 1.4138 1.4263 1.4318 1.4373 1.4541 1.4598 1.4581 1.4678 1.4511 1.4494 1.5217 1.5281 1.5222 1.5205 1.5353 1.5377 1.5235 1.53 1.5366 1.539 0 0 0 0 0 0 0 0 0 0 0 0 0 0 0 0 0 0 0 0 0 0 0 0 0 0 0 0 0 0 0 0 0 0 0 0 0 0 0 0 0 0 0 0 0 0 0 0 0 0 0 0 0 0 0 0 0 0 0 0 0 0 0 0 2.1937 2.191 2.1081 2.08 2.0608 2.05 2.0474 2.0367 2.0103 2.0316 2.0617 2.0509 2.032 1.9898 1.9796 0 0 0 0 0 0 0 0 0 0 0 0 0 0 0 0 0 0 0 0 0 0 0 0 0 0 0 0 0 0 0 0 0 0 0 0 0 0 0 0 0 0 0 0 0 0 0 0 0 0 0 0 0 0 0 0 0 0 0 0 0 0 0 0 0 0 0 0 0 0 0 1.4403 1.4428 1.5574 1.5712 1.5743 1.5829 1.6083 1.5949 1.5871 1.5849 1.5881 1.6083 1.6231 1.6383 1.6783 1.5991 1.6081 1.6773 1.6938 1.6788 1.6579 1.6555 1.641 1.5534 1.5674 1.5543 1.6619 1.5884 1.5861 1.5838 1.5929 1.5963 1.5332 1.5257 1.5287 1.5212 1.9942 2.0004 2.0828 0 0 0 0.77206 0.77233 0.76976 0.76459 0.76211 0.7583 0.75316 0.7507 0.74957 0.74073 0.73332 0.72849 0.72367 0.72258 0.72025 0.71439 0.71207 0.70623 0.72569 0.72834 0.72845 0.73116 0.73003 0.72891
1.1772 1.1739 1.1727 1.1674 1.1746 1.1841 1.1851 1.1732 1.1721 1.1709 1.174 1.1879 1.1954 1.1965 1.1953 1.1896 1.1951 1.2006 1.2061 1.2117 1.2082 1.2092 1.2126 1.2137 1.2171 1.2159 1.21 1.2111 1.2099 1.2086 1.2167 1.2154 1.2119 1.2083 1.2163 1.2292 1.2256 1.2244 1.2254 1.229 1.2326 1.2386 1.2397 1.2409 1.2421 1.2408 1.2494 1.2532 1.2518 1.2556 1.2543 1.2581 1.2568 1.258 1.2643 1.2683 1.2695 1.2734 1.2721 1.2708 1.2747 1.2733 1.2773 1.2759 1.2772 1.2758 1.2799 1.2786 1.2825 1.2865 1.2907 1.2975 1.2961 1.3004 1.3017 1.3031 1.3102 1.3116 1.3188 1.3174 1.3189 1.3232 1.3306 1.3292 1.3306 1.3351 1.3366 1.3382 1.3308 1.3264 1.3459 1.3444 1.3461 1.3507 1.3523 1.3602 1.3587 1.3572 1.3588 1.3603 1.3652 1.3637 1.3686 1.3734 1.3719 1.3704 1.3851 1.3935 1.4155 1.4208 1.4262 1.4211 1.4195 1.4076 1.4163 1.4217 1.4132 1.4081 1.3998 1.405 1.4103 1.4122 1.4211 1.4265 1.4249 1.434 1.436 1.4415 1.4509 1.453 1.4624 1.4608 1.4554 1.45 1.5223 1.5164 1.5147 1.5171 1.5401 1.551 1.5366 1.5432 1.55 1.5568 0 0 0 0 0 0 0 0 0 0 0 0 0 0 0 0 0 0 0 0 0 0 0 0 0 0 0 0 0 0 0 0 0 0 0 0 0 0 0 0 0 0 0 0 0 0 0 0 0 0 0 0 0 0 0 0 0 0 0 0 0 0 0 0 2.1947 2.192 2.1351 2.0978 2.0952 2.0925 2.0899 2.0789 2.0762 2.082 2.071 2.0768 2.0826 0 0 0 0 0 0 0 0 0 0 0 0 0 0 0 0 0 0 0 0 0 0 0 0 0 0 0 0 0 0 0 0 0 0 0 0 0 0 0 0 0 0 0 0 0 0 0 0 0 0 0 0 0 0 0 0 0 0 0 0 0 0 0 0 0 0 0 0 0 0 0 0 0 1.441 1.4436 1.5582 1.5719 1.5751 1.5729 1.632 1.6297 1.6216 1.6137 1.6227 1.6263 1.624 1.6392 1.6608 1.6345 1.6147 1.6659 1.7271 1.6986 1.6772 1.681 1.6913 1.5542 1.552 1.5551 1.6627 1.6122 1.587 1.5903 1.6052 1.6087 1.5555 1.5478 1.5242 1.522 1.9953 2.0014 0 0 0 0 0.77246 0.77686 0.77704 0.76366 0.76252 0.75871 0.75624 0.75244 0.75131 0.74503 0.74001 0.73509 0.7315 0.73039 0.73052 0.72818 0.7283 0.72974 0.73239 0.7338 0.73268 0.73408 0.73296 0.73183
1.1776 1.1743 1.1711 1.1678 1.1708 1.1824 1.1834 1.1715 1.1704 1.1692 1.1723 1.1905 1.1936 1.2014 1.198 1.1945 1.2 1.2033 1.2065 1.2121 1.2109 1.2097 1.213 1.2141 1.2199 1.2163 1.2128 1.2115 1.2103 1.2091 1.2171 1.2136 1.2123 1.2088 1.2145 1.2249 1.2237 1.2201 1.2236 1.2295 1.2306 1.2415 1.2402 1.2413 1.24 1.2413 1.2499 1.2511 1.2548 1.2561 1.2548 1.256 1.2547 1.256 1.2674 1.2713 1.2726 1.2766 1.2752 1.2739 1.2777 1.2791 1.2778 1.279 1.2804 1.279 1.2804 1.2816 1.283 1.2843 1.2939 1.298 1.2994 1.3009 1.305 1.3036 1.3107 1.315 1.3193 1.3208 1.3165 1.3267 1.3311 1.3297 1.3312 1.3297 1.3313 1.3387 1.3313 1.3269 1.3404 1.342 1.3496 1.3512 1.3528 1.3607 1.356 1.3577 1.3624 1.3673 1.3658 1.3674 1.3723 1.3804 1.3757 1.3774 1.3857 1.394 1.4058 1.4145 1.4164 1.4217 1.4132 1.388 1.3636 1.3916 1.3968 1.3918 1.387 1.3821 1.3905 1.3991 1.4181 1.427 1.4254 1.4345 1.4366 1.4385 1.4479 1.4462 1.4519 1.4503 1.4523 1.4543 1.4831 1.501 1.5153 1.5177 1.5408 1.5516 1.5456 1.5481 1.5463 1.536 1.5954 0 0 0 0 0 0 0 0 0 0 0 0 0 0 0 0 0 0 0 0 0 0 0 0 0 0 0 0 0 0 0 0 0 0 0 0 0 0 0 0 0 0 0 0 0 0 0 0 0 0 0 0 0 0 0 0 0 0 0 0 0 0 0 2.1592 2.1565 2.0433 2.0735 2.0793 2.085 2.0741 2.0714 2.0688 2.083 2.0803 2.061 2.0419 0 0 0 0 0 0 0 0 0 0 0 0 0 0 0 0 0 0 0 0 0 0 0 0 0 0 0 0 0 0 0 0 0 0 0 0 0 0 0 0 0 0 0 0 0 0 0 0 0 0 0 0 0 0 0 0 0 0 0 0 0 0 0 0 0 0 0 0 0 0 0 0 0 0 1.4813 1.4792 1.5781 1.5977 1.6409 1.6504 1.6481 1.6282 1.6259 1.6236 1.6271 1.6248 1.6341 1.6436 1.6178 1.5493 1.5471 1.6892 1.6867 1.6656 1.6757 1.6921 1.5497 1.5528 1.5505 1.6636 1.6131 1.5878 1.5911 1.606 1.6037 1.5619 1.5596 1.7079 1.7054 0 0 0 0 0 0 0.78264 0.78005 0.77746 0.76541 0.76293 0.76179 0.75664 0.75417 0.75304 0.74925 0.74555 0.74186 0.73694 0.73706 0.73471 0.73483 0.73248 0.73259 0.73533 0.7342 0.73308 0.73449 0.73336 0.73093
1.178 1.1727 1.1694 1.1661 1.1692 1.1764 1.1795 1.172 1.1729 1.1718 1.1748 1.1909 1.1985 1.2041 1.2029 1.1994 1.2027 1.2059 1.2093 1.2126 1.2113 1.2101 1.2112 1.2146 1.2204 1.2191 1.2132 1.212 1.2107 1.2095 1.2176 1.2163 1.2128 1.2069 1.2126 1.2206 1.2218 1.2181 1.2216 1.2251 1.2335 1.2395 1.2406 1.2418 1.243 1.2442 1.2503 1.2516 1.2528 1.2565 1.2552 1.2539 1.2526 1.2564 1.2653 1.2666 1.2679 1.2744 1.2731 1.2743 1.281 1.2796 1.2836 1.2822 1.2809 1.2822 1.2835 1.2821 1.2862 1.2875 1.2917 1.2985 1.2971 1.3014 1.3055 1.3041 1.3112 1.3155 1.3198 1.3213 1.3199 1.3272 1.3345 1.3272 1.3288 1.3273 1.3288 1.3332 1.3289 1.3245 1.3379 1.3425 1.3501 1.3517 1.3564 1.3612 1.3597 1.3582 1.3661 1.3678 1.3727 1.3743 1.376 1.3809 1.3827 1.3812 1.3895 1.3979 1.4031 1.4048 1.4067 1.4119 1.4103 1.3722 1.3772 1.3855 1.3807 1.3758 1.3742 1.3727 1.3745 1.3895 1.4152 1.4242 1.426 1.4351 1.4335 1.4355 1.4374 1.4358 1.4414 1.4362 1.4419 1.4549 1.4608 1.4704 1.5119 1.5142 1.5414 1.5523 1.5505 1.5487 1.5427 1.5451 1.5915 0 0 0 0 0 0 0 0 0 0 0 0 0 0 0 0 0 0 0 0 0 0 0 0 0 0 0 0 0 0 0 0 0 0 0 0 0 0 0 0 0 0 0 0 0 0 0 0 0 0 0 0 0 0 0 0 0 0 0 0 0 0 0 2.1602 2.1575 2.0523 2.0417 2.0636 2.0692 2.0666 2.064 2.0614 2.0671 2.0729 2.0373 2.0187 0 0 0 0 0 0 0 0 0 0 0 0 0 0 0 0 0 0 0 0 0 0 0 0 0 0 0 0 0 0 0 0 0 0 0 0 0 0 0 0 0 0 0 0 0 0 0 0 0 0 0 0 0 0 0 0 0 0 0 0 0 0 0 0 0 0 0 0 0 0 0 0 0 0 1.482 1.4799 1.5628 1.6441 1.6476 1.6692 1.6608 1.6466 1.6384 1.6302 1.6279 1.6256 1.6233 1.6152 1.6016 1.5607 1.5478 1.5563 1.5487 1.5465 1.5879 1.5856 1.5241 1.5323 1.5197 1.6281 1.6081 1.5886 1.592 1.584 1.576 1.5572 1.5494 1.639 1.4977 1.5006 0 0 0 0 0 0.78305 0.78324 0.78073 0.76582 0.76333 0.76219 0.75838 0.75725 0.75478 0.75231 0.75118 0.7474 0.74247 0.74002 0.7389 0.7391 0.73797 0.73554 0.73573 0.73461 0.73348 0.73489 0.73376 0.73264
1.1849 1.1772 1.1698 1.1665 1.1696 1.179 1.18 1.1788 1.1819 1.1893 1.1947 1.2024 1.2057 1.209 1.2078 1.2066 1.2098 1.211 1.2098 1.213 1.2118 1.2129 1.2139 1.215 1.2185 1.2196 1.2207 1.2194 1.2182 1.2169 1.2204 1.2191 1.2179 1.2166 1.22 1.2235 1.2223 1.2186 1.2245 1.2304 1.2364 1.2448 1.2461 1.2472 1.2459 1.2471 1.2508 1.2546 1.2583 1.257 1.2557 1.2569 1.2556 1.2569 1.2657 1.2671 1.2684 1.2696 1.2709 1.2748 1.2868 1.2854 1.2868 1.2908 1.2921 1.2908 1.2921 1.2907 1.2894 1.2907 1.2977 1.299 1.2976 1.299 1.3032 1.3074 1.3145 1.3188 1.3232 1.3247 1.3233 1.3336 1.341 1.3307 1.3322 1.3307 1.3323 1.3397 1.3323 1.328 1.3415 1.34 1.3537 1.3553 1.36 1.3618 1.3634 1.3619 1.373 1.3747 1.3764 1.3781 1.3798 1.3815 1.3865 1.3916 1.3967 1.4018 1.4003 1.3987 1.4038 1.4091 1.4075 1.3891 1.3843 1.3828 1.3779 1.3731 1.3748 1.3865 1.395 1.4002 1.4123 1.4212 1.4266 1.4322 1.4305 1.4325 1.4345 1.4364 1.4384 1.4367 1.4425 1.4482 1.4576 1.4597 1.5207 1.523 1.5504 1.5615 1.5555 1.5623 1.5736 1.585 1.5922 0 0 0 0 0 0 0 0 0 0 0 0 0 0 0 0 0 0 0 0 0 0 0 0 0 0 0 0 0 0 0 0 0 0 0 0 0 0 0 0 0 0 0 0 0 0 0 0 0 0 0 0 0 0 0 0 0 0 0 0 0 0 0 0 0 2.0779 2.0671 2.0728 2.0619 2.0593 2.0567 2.0624 2.0598 2.0572 2.0301 2.0196 0 0 0 0 0 0 0 0 0 0 0 0 0 0 0 0 0 0 0 0 0 0 0 0 0 0 0 0 0 0 0 0 0 0 0 0 0 0 0 0 0 0 0 0 0 0 0 0 0 0 0 0 0 0 0 0 0 0 0 0 0 0 0 0 0 0 0 0 0 0 0 0 0 0 1.6757 1.6794 1.6832 1.6932 1.7033 1.7329 1.7176 1.6653 1.651 1.6369 1.6345 1.6322 1.6241 1.6103 1.5911 1.5778 1.5701 1.5571 1.5495 1.5473 1.5887 1.5643 1.5353 1.5227 1.5205 1.6289 1.5917 1.5838 1.5815 1.5792 1.5602 1.5525 1.5835 1.6219 1.4985 1.5014 0 0 0 0 0 0 0 0.78249 0.78132 0.77597 0.76528 0.76146 0.76032 0.75918 0.75804 0.75557 0.75311 0.74411 0.74042 0.7393 0.7395 0.73838 0.73725 0.73613 0.73501 0.73388 0.73399 0.73416 0.73304
1.1831 1.1798 1.1702 1.169 1.17 1.1773 1.1782 1.1792 1.1823 1.1876 1.1929 1.1984 1.2039 1.2117 1.2082 1.207 1.208 1.209 1.2102 1.2134 1.2122 1.211 1.2143 1.2131 1.2189 1.22 1.2188 1.2199 1.2186 1.2197 1.2231 1.2195 1.2206 1.2194 1.2205 1.2263 1.2227 1.2214 1.2225 1.2308 1.2344 1.2478 1.2465 1.2476 1.2464 1.2476 1.2538 1.2575 1.2588 1.26 1.2562 1.2574 1.2561 1.2599 1.2689 1.2675 1.2688 1.2675 1.2714 1.2753 1.2845 1.2832 1.2846 1.2859 1.2872 1.2913 1.2899 1.2912 1.2899 1.2885 1.2954 1.2995 1.2954 1.3023 1.3036 1.3051 1.315 1.3165 1.3179 1.3223 1.3209 1.3341 1.3415 1.3341 1.3327 1.3313 1.3328 1.3433 1.3418 1.3344 1.345 1.3435 1.3542 1.359 1.3606 1.3654 1.3639 1.3624 1.3704 1.3721 1.3801 1.3786 1.3804 1.3853 1.3904 1.3921 1.4005 1.4024 1.4042 1.3993 1.4043 1.4096 1.4081 1.3864 1.3815 1.38 1.3752 1.3737 1.3721 1.3706 1.3922 1.3973 1.4094 1.4182 1.4272 1.4292 1.4311 1.4295 1.4314 1.4334 1.4353 1.4373 1.4393 1.4414 1.4434 1.4308 1.5253 1.5277 1.5553 1.5665 1.5561 1.5629 1.5786 1.5857 1.5928 0 0 0 0 0 0 0 0 0 0 0 0 0 0 0 0 0 0 0 0 0 0 0 0 0 0 0 0 0 0 0 0 0 0 0 0 0 0 0 0 0 0 0 0 0 0 0 0 0 0 0 0 0 0 0 0 0 0 0 0 0 0 0 0 0 2.0221 2.0516 2.0654 2.0711 2.0937 2.1081 2.0884 2.0774 2.0747 2.0392 2.0447 0 0 0 0 0 0 0 0 0 0 0 0 0 0 0 0 0 0 0 0 0 0 0 0 0 0 0 0 0 0 0 0 0 0 0 0 0 0 0 0 0 0 0 0 0 0 0 0 0 0 0 0 0 0 0 0 0 0 0 0 0 0 0 0 0 0 0 0 0 0 0 0 0 0 1.6294 1.6622 1.6841 1.6941 1.7042 1.747 1.7314 1.6908 1.6638 1.6495 1.6472 1.6449 1.6366 1.6226 1.6032 1.5952 1.6215 1.5111 1.5345 1.5067 1.618 1.576 1.5414 1.5287 1.537 1.6662 1.5273 1.5624 1.5767 1.5155 1.5448 1.5425 1.5901 1.6167 1.422 1.4245 1.5103 1.5132 0 0 0 0 0 0.79727 0.78316 0.77504 0.76702 0.76053 0.75939 0.75825 0.75711 0.75598 0.75218 0.7484 0.74338 0.74226 0.74245 0.74001 0.73889 0.73776 0.73541 0.73551 0.73439 0.73457 0.73214
1.1857 1.1802 1.1727 1.1695 1.1704 1.1777 1.1808 1.1796 1.1806 1.1837 1.1868 1.1965 1.2021 1.2076 1.2064 1.2052 1.2062 1.2072 1.2083 1.2116 1.2104 1.2114 1.2125 1.2135 1.2147 1.2158 1.2145 1.2203 1.2191 1.2178 1.2212 1.22 1.2187 1.2152 1.2209 1.2244 1.2231 1.2219 1.2254 1.2313 1.2349 1.2483 1.247 1.2481 1.2468 1.2481 1.2543 1.2605 1.2618 1.2605 1.2566 1.2578 1.2592 1.2604 1.2693 1.268 1.2667 1.268 1.2693 1.2705 1.2824 1.2811 1.2797 1.281 1.2823 1.289 1.2876 1.2863 1.2876 1.2863 1.2931 1.2945 1.2959 1.3 1.3041 1.3056 1.3155 1.317 1.3156 1.3199 1.3185 1.3316 1.3391 1.3377 1.3391 1.3377 1.3422 1.3469 1.3484 1.344 1.3516 1.3471 1.3548 1.3595 1.3611 1.3659 1.3644 1.3692 1.3709 1.3758 1.3807 1.3824 1.3874 1.3957 1.3975 1.3993 1.3978 1.4029 1.4047 1.3998 1.4049 1.4102 1.4053 1.3836 1.3821 1.3805 1.3757 1.3742 1.3727 1.3711 1.3827 1.3845 1.4031 1.4154 1.4243 1.4333 1.4317 1.4301 1.4285 1.4304 1.4359 1.4379 1.4363 1.4346 1.4294 1.4314 1.5178 1.5284 1.556 1.5759 1.561 1.5592 1.5881 1.5819 1.5935 0 0 0 0 0 0 0 0 0 0 0 0 0 0 0 0 0 0 0 0 0 0 0 0 0 0 0 0 0 0 0 0 0 0 0 0 0 0 0 0 0 0 0 0 0 0 0 0 0 0 0 0 0 0 0 0 0 0 0 0 0 0 0 0 0 2.0231 2.0607 2.0663 2.0888 2.1649 2.199 2.1595 2.1388 2.1011 2.0815 2.0456 0 0 0 0 0 0 0 0 0 0 0 0 0 0 0 0 0 0 0 0 0 0 0 0 0 0 0 0 0 0 0 0 0 0 0 0 0 0 0 0 0 0 0 0 0 0 0 0 0 0 0 0 0 0 0 0 0 0 0 0 0 0 0 0 0 0 0 0 0 0 0 0 0 0 1.6302 1.628 1.6849 1.7074 1.7177 1.7749 1.7655 1.7429 1.6768 1.6684 1.666 1.6637 1.6613 1.6589 1.6328 1.6246 1.6223 1.5169 1.4996 1.5075 1.6188 1.6165 1.5422 1.5295 1.5378 1.667 1.528 1.5258 1.6117 1.5163 1.5192 1.5541 1.5518 1.6416 1.4227 1.4252 1.5111 1.514 0 0 0 0 0 0.7977 0.78358 0.77403 0.76609 0.76361 0.76113 0.75999 0.75885 0.75771 0.75525 0.75411 0.75032 0.74919 0.74673 0.74428 0.74184 0.74071 0.73958 0.73722 0.7361 0.73619 0.73384
1.184 1.1806 1.171 1.1677 1.1708 1.176 1.1812 1.1822 1.181 1.1841 1.185 1.1948 1.2025 1.208 1.2046 1.2034 1.2067 1.2077 1.2065 1.2121 1.2108 1.2096 1.213 1.214 1.2127 1.2139 1.215 1.2161 1.2172 1.2159 1.217 1.2181 1.2145 1.2133 1.2167 1.2248 1.2212 1.2223 1.2281 1.2317 1.2378 1.2462 1.2474 1.2486 1.2473 1.2485 1.2572 1.261 1.2622 1.2609 1.2571 1.2609 1.2596 1.2633 1.2698 1.2685 1.2645 1.2658 1.2671 1.2684 1.2829 1.2788 1.2802 1.2814 1.2801 1.2868 1.2854 1.2841 1.2854 1.2868 1.2936 1.2978 1.2964 1.3005 1.3047 1.3089 1.316 1.3175 1.3161 1.3204 1.319 1.3321 1.3396 1.3382 1.3396 1.3412 1.3428 1.3504 1.349 1.3475 1.3521 1.3507 1.3522 1.36 1.3616 1.3664 1.368 1.3665 1.3715 1.3731 1.3845 1.3862 1.3879 1.3996 1.4014 1.3999 1.3983 1.4035 1.4053 1.4004 1.4022 1.4074 1.4058 1.3842 1.3794 1.3778 1.3763 1.3747 1.3732 1.3717 1.3767 1.3784 1.4003 1.4159 1.4249 1.4374 1.4358 1.4307 1.429 1.4346 1.4401 1.4421 1.4368 1.4316 1.4264 1.4212 1.5104 1.5208 1.5566 1.5678 1.5616 1.5556 0 0 0 0 0 0 0 0 0 0 0 0 0 0 0 0 0 0 0 0 0 0 0 0 0 0 0 0 0 0 0 0 0 0 0 0 0 0 0 0 0 0 0 0 0 0 0 0 0 0 0 0 0 0 0 0 0 0 0 0 0 0 0 0 0 0 0 0 2.1147 2.0865 2.0839 2.0982 2.175 2.2189 2.1879 2.1577 2.1283 2.0994 2.0883 0 0 0 0 0 0 0 0 0 0 0 0 0 0 0 0 0 0 0 0 0 0 0 0 0 0 0 0 0 0 0 0 0 0 0 0 0 0 0 0 0 0 0 0 0 0 0 0 0 0 0 0 0 0 0 0 0 0 0 0 0 0 0 0 0 0 0 0 0 0 0 0 0 0 1.5974 1.6174 1.6919 1.7146 1.738 1.7826 1.787 1.7845 1.6716 1.6692 1.673 1.6645 1.6682 1.6659 1.6395 1.6254 1.6348 1.4829 1.4856 1.4787 1.6862 1.6838 1.517 1.5199 1.5177 0 1.5288 1.5266 1.6606 1.517 1.52 1.6472 1.6448 0 1.4281 1.426 0 0 0 0 0 0 0 0 0.7756 0.7731 0.7665 0.76402 0.76288 0.76174 0.76059 0.76078 0.75964 0.75451 0.75205 0.75091 0.74846 0.746 0.74355 0.74243 0.74129 0.73885 0.73772 0.73537 0.73547
1.1887 1.1811 1.1736 1.1681 1.1713 1.1807 1.1859 1.1869 1.1857 1.1866 1.1898 1.1996 1.2052 1.2107 1.2073 1.2061 1.2071 1.2081 1.2091 1.2103 1.2113 1.2123 1.2134 1.2144 1.2132 1.2143 1.2131 1.2188 1.2176 1.2164 1.2151 1.2162 1.2127 1.2114 1.2171 1.2253 1.2216 1.2204 1.2263 1.2298 1.2333 1.2418 1.2454 1.249 1.2453 1.249 1.2577 1.2615 1.2627 1.2589 1.255 1.2562 1.2601 1.2613 1.2676 1.2663 1.265 1.2637 1.2676 1.2663 1.278 1.2767 1.2807 1.2819 1.2833 1.2873 1.2886 1.2846 1.2859 1.2873 1.2941 1.2983 1.2969 1.3038 1.308 1.3123 1.3194 1.3208 1.3194 1.3209 1.3195 1.3356 1.343 1.3416 1.3432 1.3417 1.3433 1.351 1.3495 1.351 1.3527 1.3512 1.3558 1.3605 1.3622 1.3639 1.3655 1.3671 1.372 1.3769 1.385 1.39 1.3918 1.4035 1.4087 1.4037 1.4022 1.404 1.4059 1.4009 1.406 1.408 1.4064 1.3881 1.3832 1.385 1.3801 1.3785 1.377 1.3755 1.3805 1.3823 1.4042 1.4165 1.4289 1.4345 1.4329 1.4312 1.4296 1.4352 1.4407 1.4427 1.4338 1.4287 1.427 1.4218 1.4911 1.5093 1.553 1.5684 1.558 1.5562 1.563 1.5569 0 0 0 0 0 0 0 0 0 0 0 0 0 0 0 0 0 0 0 0 0 0 0 0 0 0 0 0 0 0 0 0 0 0 0 0 0 0 0 0 0 0 0 0 0 0 0 0 0 0 0 0 0 0 0 0 0 0 0 0 0 0 0 0 0 0 2.1156 2.1044 2.0849 2.0991 2.1136 2.249 2.1705 2.1497 2.1292 2.109 2.0892 0 0 0 0 0 0 0 0 0 0 0 0 0 0 0 0 0 0 0 0 0 0 0 0 0 0 0 0 0 0 0 0 0 0 0 0 0 0 0 0 0 0 0 0 0 0 0 0 0 0 0 0 0 0 0 0 0 0 0 0 0 0 0 0 0 0 0 0 0 0 0 0 0 0 1.5982 1.6296 1.6564 1.6541 1.6459 1.6436 1.7606 1.7581 1.6724 1.6886 1.68 1.6474 1.6391 1.6546 1.6403 1.6205 1.6124 1.4837 1.4815 1.4794 1.6501 1.6477 1.5177 1.5207 1.5185 1.7069 1.5296 1.5274 1.6615 1.5178 1.5208 1.5343 1.6457 1.7133 1.4288 1.4267 0 0 0 0 0 0 0 0.7828 0.77601 0.77217 0.76825 0.76443 0.76329 0.76214 0.76233 0.76252 0.76137 0.75625 0.75378 0.75132 0.74886 0.74773 0.74528 0.74283 0.7417 0.74057 0.73813 0.73577 0.73334
1.1955 1.1879 1.174 1.1707 1.1737 1.1875 1.195 1.1938 1.1949 1.1981 1.199 1.2091 1.2124 1.2112 1.2099 1.2087 1.212 1.2108 1.2119 1.2107 1.2117 1.2127 1.2184 1.2195 1.2183 1.2171 1.2182 1.2216 1.2204 1.2191 1.2156 1.2143 1.2154 1.2119 1.2176 1.2257 1.2221 1.2208 1.2243 1.2302 1.2338 1.2447 1.2484 1.2495 1.2508 1.252 1.2607 1.2645 1.2658 1.2593 1.258 1.2567 1.2579 1.2618 1.2708 1.2668 1.263 1.2641 1.2707 1.272 1.2811 1.2798 1.2838 1.2851 1.2865 1.2877 1.2891 1.2877 1.2891 1.2904 1.2946 1.2959 1.2974 1.307 1.3113 1.3184 1.3257 1.3272 1.3257 1.3273 1.3258 1.3421 1.3466 1.3451 1.3437 1.3452 1.3468 1.3545 1.3561 1.3577 1.3593 1.3578 1.3626 1.3642 1.3659 1.3675 1.3691 1.3708 1.3757 1.3806 1.3856 1.3906 1.3923 1.4041 1.4092 1.4144 1.4095 1.4113 1.4064 1.4015 1.4066 1.4119 1.4103 1.3986 1.3971 1.3955 1.3906 1.3824 1.3875 1.3893 1.391 1.3929 1.3946 1.4311 1.426 1.4315 1.4299 1.4318 1.4337 1.4393 1.4449 1.4397 1.4417 1.4364 1.4311 1.4224 1.5116 1.5179 1.5536 1.5691 1.5629 1.5611 1.568 1.5575 0 0 0 0 0 0 0 0 0 0 0 0 0 0 0 0 0 0 0 0 0 0 0 0 0 0 0 0 0 0 0 0 0 0 0 0 0 0 0 0 0 0 0 0 0 0 0 0 0 0 0 0 0 0 0 0 0 0 0 0 0 0 0 0 0 0 2.1166 2.0968 2.0691 2.0748 2.132 2.3001 2.1444 2.1417 2.139 2.1275 2.1336 0 0 0 0 0 0 0 0 0 0 0 0 0 0 0 0 0 0 0 0 0 0 0 0 0 0 0 0 0 0 0 0 0 0 0 0 0 0 0 0 0 0 0 0 0 0 0 0 0 0 0 0 0 0 0 0 0 0 0 0 0 0 0 0 0 0 0 0 0 0 0 0 0 0 1.656 1.6537 1.6514 1.6432 1.6467 1.6444 1.7614 1.759 1.73 1.7341 1.7251 1.6364 1.64 1.6554 1.6471 1.6213 1.6132 1.4844 1.4823 1.485 1.6509 1.6486 1.5237 1.5164 1.5193 1.7078 1.5517 1.5494 1.6624 1.66 1.532 1.5351 1.6465 1.7142 1.7116 0 0 0 0 0 0 0 0 0.78322 0.77642 0.77258 0.76732 0.76484 0.76369 0.76389 0.76274 0.7616 0.76045 0.75533 0.75419 0.75172 0.75059 0.74813 0.74568 0.74455 0.7421 0.74097 0.73853 0.73618 0.73374
1.1938 1.1862 1.1764 1.169 1.1741 1.1858 1.191 1.1942 1.1953 1.1963 1.1951 1.2118 1.2128 1.2116 1.2081 1.2092 1.2102 1.2112 1.21 1.2134 1.2144 1.2178 1.2189 1.2223 1.2211 1.2222 1.2233 1.2268 1.2255 1.2196 1.216 1.2148 1.2159 1.2146 1.218 1.2214 1.2179 1.2166 1.2224 1.2282 1.2343 1.2476 1.2488 1.2525 1.2512 1.2549 1.2637 1.2676 1.2636 1.2598 1.2585 1.2572 1.261 1.2648 1.2686 1.2673 1.2659 1.2672 1.2738 1.2777 1.287 1.2856 1.2897 1.2884 1.2896 1.2882 1.2896 1.2882 1.2896 1.2909 1.2923 1.2937 1.2979 1.3075 1.3147 1.3189 1.3291 1.3277 1.3292 1.3248 1.3322 1.3426 1.3471 1.3487 1.3472 1.3488 1.3473 1.3581 1.3597 1.3613 1.366 1.3583 1.36 1.3647 1.3664 1.365 1.3665 1.3714 1.3763 1.3811 1.3861 1.3911 1.3896 1.4046 1.4132 1.4116 1.4134 1.4118 1.4036 1.3986 1.4039 1.4124 1.4075 1.4024 1.4009 1.4028 1.3878 1.3862 1.3881 1.3931 1.395 1.39 1.3852 1.3639 1.3624 1.4284 1.4305 1.4288 1.4308 1.4399 1.4493 1.4439 1.446 1.448 1.439 1.4373 1.5368 1.5392 1.5542 1.5611 1.5636 1.5661 1.573 1.5757 0 0 0 0 0 0 0 0 0 0 0 0 0 0 0 0 0 0 0 0 0 0 0 0 0 0 0 0 0 0 0 0 0 0 0 0 0 0 0 0 0 0 0 0 0 0 0 0 0 0 0 0 0 0 0 0 0 0 0 0 0 0 0 0 0 0 0 2.0241 2.0375 2.0429 2.0244 2.157 1.9507 1.9482 2.14 2.1373 0 0 0 0 0 0 0 0 0 0 0 0 0 0 0 0 0 0 0 0 0 0 0 0 0 0 0 0 0 0 0 0 0 0 0 0 0 0 0 0 0 0 0 0 0 0 0 0 0 0 0 0 0 0 0 0 0 0 0 0 0 0 0 0 0 0 0 0 0 0 0 0 0 0 0 0 0 0 0 0 0 0 0 1.7641 1.7549 1.7659 1.6198 1.6349 1.6684 1.6479 1.6338 1.6256 1.635 1.6385 1.6245 1.628 1.6677 1.5615 1.5592 1.6544 1.7086 1.591 1.5887 1.6632 1.5298 1.5276 1.5306 1.5337 1.6825 1.68 0 0 0 0 0 0 0 0 0.78363 0.77414 0.77022 0.76504 0.7639 0.76276 0.76162 0.76182 0.75934 0.7582 0.75573 0.75327 0.75213 0.74967 0.74722 0.74608 0.74495 0.74251 0.74138 0.74025 0.73781 0.73292
1.1921 1.1866 1.1768 1.1715 1.1767 1.1884 1.1914 1.1947 1.1979 1.1989 1.1977 1.2099 1.2087 1.2075 1.2041 1.2051 1.2084 1.2072 1.2082 1.2092 1.2126 1.2182 1.2217 1.2228 1.2239 1.2227 1.2238 1.2295 1.2283 1.22 1.2165 1.2152 1.214 1.2127 1.2162 1.2219 1.216 1.2147 1.2252 1.2287 1.2347 1.253 1.2517 1.2555 1.2542 1.2553 1.2642 1.2706 1.2668 1.2628 1.259 1.2602 1.264 1.2652 1.2717 1.2704 1.269 1.2677 1.2769 1.2808 1.2902 1.2915 1.2928 1.2914 1.2901 1.2914 1.2928 1.2914 1.2928 1.2914 1.2928 1.2887 1.2955 1.3109 1.3152 1.3223 1.3296 1.3282 1.3297 1.3283 1.3356 1.3491 1.3506 1.3492 1.3477 1.3493 1.351 1.3617 1.3633 1.365 1.3666 1.362 1.3636 1.3685 1.367 1.3686 1.364 1.3656 1.3736 1.3753 1.3802 1.3852 1.3868 1.3952 1.4037 1.4021 1.4038 1.4023 1.4041 1.3992 1.4044 1.4096 1.4046 1.403 1.4049 1.4067 1.3917 1.3868 1.392 1.3937 1.3855 1.3806 1.3791 1.3709 1.363 1.422 1.424 1.4258 1.4313 1.4405 1.4535 1.4518 1.4539 1.4559 1.4506 1.4379 1.5374 1.5398 1.5422 1.5404 1.5513 1.5582 1.5564 1.546 0 0 0 0 0 0 0 0 0 0 0 0 0 0 0 0 0 0 0 0 0 0 0 0 0 0 0 0 0 0 0 0 0 0 0 0 0 0 0 0 0 0 0 0 0 0 0 0 0 0 0 0 0 0 0 0 0 0 0 0 0 0 0 0 0 0 0 1.9273 1.9614 1.9738 1.9865 2.055 1.9225 1.9201 2.072 2.0694 2.1355 0 0 0 0 0 0 0 0 0 0 0 0 0 0 0 0 0 0 0 0 0 0 0 0 0 0 0 0 0 0 0 0 0 0 0 0 0 0 0 0 0 0 0 0 0 0 0 0 0 0 0 0 0 0 0 0 0 0 0 0 0 0 0 0 0 0 0 0 0 0 0 0 0 0 0 0 0 0 0 0 0 0 1.765 1.7693 1.7668 1.6264 1.6183 1.6754 1.6547 1.6287 1.6264 1.63 1.6335 1.637 1.6172 1.5921 1.5623 1.56 1.5741 1.5773 1.5586 1.5564 1.5224 1.5254 1.539 1.5314 1.5292 1.5927 1.5514 1.5491 0 0 0 0 0 0 0.76731 0.78118 0.76504 0.7639 0.76008 0.76029 0.75915 0.75668 0.75555 0.75308 0.75195 0.75082 0.74969 0.74989 0.74875 0.74762 0.74517 0.74536 0.74291 0.74309 0.74065 0.73821 0.73455
