-0.29482 -0.29491 -0.29499 -0.29769 -0.29612 -0.29632 -0.297 -0.29768 -0.29777 -0.29797 -0.29829 -0.29862 -0.2987 -0.29879 -0.29852 -0.29837 -0.29774 -0.29842 -0.29827 -0.29871 -0.29939 -0.29984 -0.29992 -0.30001 -0.30069 -0.3009 -0.30086 -0.30071 -0.3008 -0.30112 -0.30109 -0.30082 -0.30079 -0.30075 -0.30072 -0.30092 -0.30077 -0.30062 -0.30094 -0.30115 -0.30111 -0.30624 -0.30633 -0.30582 -0.3047 -0.30539 -0.3056 -0.30556 -0.30589 -0.30586 -0.30294 -0.30314 -0.30419 -0.30488 -0.30497 -0.30518 -0.30514 -0.30427 -0.30568 0 0 0 0 0 0 0 0 0 0 0 -0.24656 -0.24676 -0.24695 -0.24702 -0.24721 -0.24728 -0.24747 -0.24754 -0.24797 -0.24913 -0.24945 -0.24976 -0.25202 -0.25258 -0.25313 0 0 -0.31793 -0.31705 -0.31689 -0.31613 -0.31537 -0.31509 -0.31518 -0.31515 -0.31523 -0.3152 -0.3148 -0.31477 -0.31461 -0.31458 -0.31748 -0.31757 -0.31802 -0.31469 -0.3149 -0.31511 -0.32021 -0.32043 -0.31733 -0.31644 -0.31653 -0.3176 -0.31769 -0.32293 -0.32142 -0.32164 -0.3216 -0.32182 -0.3219 -0.32163 -0.32159 -0.32168 -0.32177 -0.32174 -0.32159 -0.32155 -0.32152 -0.32173 -0.32133 -0.32142 0 0 0 0 0 0 0 0 0 0 -0.24511 -0.24443 -0.24413 -0.24395 -0.24254 -0.24235 -0.24205 -0.24002 -0.24008 -0.23903 -0.23749 -0.23756 -0.23725 -0.23682 -0.23676 -0.23658 -0.23627 -0.23609 -0.23566 -0.23572 -0.23405 -0.23387 -0.23368 -0.23362 -0.2322 -0.23239 -0.23233 -0.23214 -0.23195 -0.23189 -0.23146 -0.23115 -0.23084 -0.23028 -0.22997 -0.22978 -0.22935 -0.22929 -0.22923 -0.22916 -0.22923 -0.22854 -0.22835 -0.22817 -0.22798 -0.22779 -0.22785 -0.22792 -0.22785 -0.22792 -0.22785 -0.22779 -0.2276 -0.22742 -0.22748 -0.22754 -0.22773 -0.22766 -0.22735 -0.22729 -0.22722 -0.22728 -0.22735 -0.22753 -0.2276 -0.22753 -0.22722 -0.22728 -0.22722 -0.22703 -0.22696 -0.22703 -0.22683 -0.22677 -0.22658 -0.22664 -0.2267 -0.22676 -0.2267 -0.22689 -0.22695 -0.22701 -0.22707 -0.22726 -0.22745 -0.22751 -0.22783 -0.22789 -0.22808 -0.22839 -0.22845 -0.22851 -0.22883 -0.22889 -0.22908 -0.22914 -0.2292 -0.22939 -0.22946 -0.22964 -0.22996 -0.23015 -0.23047 -0.23078 -0.23084 -0.23116 -0.23135 -0.23154 -0.23198 -0.23205 -0.23236 -0.23268 -0.233 -0.23344 -0.23363 -0.23382 -0.2344 -0.23472 -0.23491 -0.23586 -0.23605 -0.23663 -0.23695 -0.23727 -0.23784 -0.23816 -0.23835 -0.23905 -0.2395 -0.24033 -0.24091 -0.24136 -0.24219 -0.24251 -0.24347 -0.24367 -0.2436 -0.24572 -0.24745 -0.24752 -0.24951 -0.24958 -0.25144 -0.2551 -0.2553 -0.25562 0 0 0 -0.36944 -0.36967 -0.36964 -0.36909 -0.36894 -0.3689 -0.36874 -0.36884 -0.36881 -0.36891 -0.36875 -0.36885 -0.36895 -0.36943 -0.36953 -0.37208 -0.3727 -0.37254 -0.37238 -0.37106 -0.37141 -0.37255 -0.37368 -0.37378 -0.37388 -0.37268 -0.37343 -0.37353 -0.37596 -0.37606 -0.37525 -0.37522 -0.37506 -0.37101 -0.37111 -0.37224 -0.37377 -0.37374 -0.37215 -0.37225 -0.37248 -0.37244 -0.37566 -0.37589 -0.3769 -0.377 -0.37749 -0.37759 -0.37756 -0.37779 -0.37815
-0.29483 -0.29468 -0.29501 -0.2977 -0.29613 -0.29633 -0.29701 -0.29721 -0.29718 -0.29727 -0.29783 -0.29791 -0.29812 -0.2982 -0.2977 -0.29778 -0.29775 -0.29807 -0.29852 -0.29872 -0.29881 -0.29925 -0.29958 -0.29942 -0.30023 -0.30031 -0.30064 -0.30036 -0.30045 -0.30054 -0.30062 -0.30047 -0.30056 -0.30052 -0.30073 -0.30081 -0.3009 -0.30087 -0.30095 -0.30104 -0.30124 -0.30637 -0.30586 -0.30583 -0.30471 -0.30456 -0.30465 -0.30473 -0.3053 -0.30539 -0.30295 -0.30352 -0.30384 -0.30429 -0.30462 -0.30471 -0.30455 -0.30428 0 0 0 0 0 0 0 0 0 0 0 0 -0.24669 -0.24688 -0.24696 -0.24715 -0.24722 -0.24741 -0.24736 -0.24755 -0.24786 -0.24902 -0.24946 -0.24977 -0.25191 -0.25259 -0.25314 0 0 -0.31794 -0.31706 -0.31715 -0.31529 -0.31501 -0.31486 -0.31483 -0.31467 -0.31476 -0.31472 -0.31469 -0.31442 -0.31438 -0.31459 -0.31749 -0.31782 -0.31803 -0.3147 -0.31479 -0.31512 -0.32022 -0.32044 -0.31734 -0.31658 -0.31679 -0.31724 -0.3177 -0.32049 -0.32094 -0.32103 -0.32076 -0.32084 -0.3213 -0.32115 -0.32111 -0.32133 -0.32142 -0.32126 -0.3211 -0.32107 -0.32116 -0.32137 -0.32134 -0.32143 0 0 0 0 0 0 0 0 0 0 -0.24511 -0.24444 -0.24439 -0.24359 -0.24267 -0.24249 -0.24206 -0.24002 -0.24009 -0.23991 -0.23762 -0.23756 -0.23714 -0.2367 -0.23665 -0.23659 -0.23628 -0.2361 -0.23554 -0.23573 -0.23443 -0.234 -0.23382 -0.23376 -0.2322 -0.23227 -0.23221 -0.23202 -0.23196 -0.2319 -0.23147 -0.23116 -0.23097 -0.23029 -0.2301 -0.22979 -0.22936 -0.22917 -0.22911 -0.22905 -0.22923 -0.22867 -0.22849 -0.22842 -0.22811 -0.22805 -0.22786 -0.22792 -0.22786 -0.22792 -0.22786 -0.22792 -0.22761 -0.22767 -0.22761 -0.22767 -0.22786 -0.2278 -0.22748 -0.22729 -0.22736 -0.22742 -0.22748 -0.22767 -0.22761 -0.22754 -0.22735 -0.22729 -0.22735 -0.22703 -0.22697 -0.22691 -0.22684 -0.22678 -0.22659 -0.22665 -0.22659 -0.22665 -0.22671 -0.22677 -0.22696 -0.22702 -0.22708 -0.22727 -0.22733 -0.22752 -0.22783 -0.22802 -0.22808 -0.2284 -0.22846 -0.22852 -0.22884 -0.2289 -0.22909 -0.22915 -0.22921 -0.22953 -0.22959 -0.22965 -0.22997 -0.23016 -0.23047 -0.23066 -0.23085 -0.23117 -0.23136 -0.23155 -0.23199 -0.23218 -0.23225 -0.23269 -0.23288 -0.23345 -0.23364 -0.23383 -0.23441 -0.23472 -0.23491 -0.23587 -0.23606 -0.23664 -0.23695 -0.23727 -0.23785 -0.23817 -0.23823 -0.23906 -0.23951 -0.23996 -0.24117 -0.24149 -0.2422 -0.24342 -0.24348 -0.24342 -0.24361 -0.24739 -0.24746 -0.24753 -0.24952 -0.24958 -0.25196 -0.25511 -0.25518 -0.25576 0 0 0 -0.36958 -0.36955 -0.36927 -0.36872 -0.36856 -0.36815 -0.36824 -0.36808 -0.36779 -0.36802 -0.36863 -0.36847 -0.36896 -0.36945 -0.36954 -0.37197 -0.37168 -0.3719 -0.37097 -0.37107 -0.37156 -0.37191 -0.37266 -0.37276 -0.3726 -0.3727 -0.37344 -0.37354 -0.37597 -0.37607 -0.37526 -0.37523 -0.37507 -0.37102 -0.37112 -0.37161 -0.37261 -0.37284 -0.37216 -0.37226 -0.37236 -0.37259 -0.37502 -0.37538 -0.376 -0.37636 -0.37672 -0.37721 -0.37731 -0.37715 -0.37816
-0.29437 -0.29446 -0.29395 -0.29368 -0.29364 -0.2942 -0.29476 -0.29485 -0.29493 -0.2949 -0.2951 -0.29519 -0.29527 -0.29548 -0.29675 -0.2972 -0.29728 -0.29737 -0.29793 -0.29802 -0.29822 -0.29843 -0.29863 -0.29896 -0.29952 -0.30008 -0.30005 -0.30002 -0.3001 -0.30019 -0.3004 -0.30012 -0.30009 -0.30017 -0.30026 -0.30047 -0.30055 -0.30052 -0.3006 -0.30069 -0.30042 -0.30014 -0.30023 -0.30031 -0.30088 -0.30084 -0.30141 -0.3021 -0.30219 -0.30215 -0.302 -0.30293 -0.30325 -0.3037 -0.30403 -0.30412 -0.30408 -0.30356 0 0 0 0 0 0 0 0 0 0 0 0 -0.24682 -0.24689 -0.24696 -0.24703 -0.24723 -0.24729 -0.24737 -0.24756 -0.24787 -0.24903 -0.24947 -0.24978 -0.25204 -0.25247 -0.25327 -0.25432 -0.25439 0 0 0 -0.31457 -0.31466 -0.31438 -0.31447 -0.31444 -0.31465 -0.31437 -0.31422 -0.31418 -0.31427 -0.31411 -0.31457 -0.31466 -0.31487 -0.31471 -0.3148 -0.31501 -0.31571 -0.31568 -0.31638 -0.31634 -0.31643 -0.31664 -0.31575 -0.31621 -0.31716 -0.31749 -0.31733 -0.31767 -0.31825 -0.31993 -0.32076 -0.32109 -0.32118 -0.32103 -0.32099 -0.32108 -0.32105 -0.32126 -0.32123 -0.32144 0 0 0 0 0 0 0 0 0 0 -0.24512 -0.24457 -0.24452 -0.24199 -0.24169 -0.242 -0.24182 -0.24003 -0.23997 -0.23955 -0.23788 -0.23757 -0.23727 -0.23671 -0.23678 -0.2366 -0.23617 -0.23611 -0.23555 -0.23549 -0.23407 -0.23388 -0.2337 -0.23364 -0.23221 -0.23228 -0.23222 -0.23191 -0.23197 -0.23191 -0.23148 -0.23117 -0.23098 -0.2303 -0.23011 -0.22968 -0.22924 -0.22905 -0.22899 -0.22906 -0.22912 -0.22856 -0.22849 -0.22843 -0.22825 -0.22806 -0.228 -0.22781 -0.22787 -0.22793 -0.22787 -0.22781 -0.22762 -0.22768 -0.22774 -0.22781 -0.22787 -0.22793 -0.22749 -0.22718 -0.22736 -0.22743 -0.22736 -0.22755 -0.22774 -0.22755 -0.22736 -0.2273 -0.22736 -0.22704 -0.22698 -0.22691 -0.22685 -0.22679 -0.2266 -0.22666 -0.22672 -0.22665 -0.22672 -0.22678 -0.22697 -0.22703 -0.22709 -0.22715 -0.22734 -0.22753 -0.22784 -0.22803 -0.22809 -0.22841 -0.22847 -0.22853 -0.22897 -0.22903 -0.22922 -0.22928 -0.22935 -0.22941 -0.2296 -0.22966 -0.22998 -0.23004 -0.23048 -0.23067 -0.23086 -0.23118 -0.23137 -0.23156 -0.232 -0.23206 -0.23225 -0.2327 -0.23289 -0.23333 -0.23352 -0.23384 -0.23441 -0.23473 -0.23492 -0.23588 -0.23607 -0.23664 -0.23696 -0.23715 -0.23786 -0.23792 -0.23824 -0.23907 -0.23939 -0.23971 -0.24157 -0.24163 -0.24208 -0.24432 -0.24439 -0.24535 -0.24541 -0.2474 -0.24773 -0.24843 -0.24953 -0.24959 -0.2512 -0.25512 -0.25519 -0.25577 0 0 0 -0.36882 -0.36918 -0.36902 -0.36835 -0.36845 -0.36713 -0.36723 -0.36745 -0.36703 -0.36623 -0.36439 -0.36462 -0.3651 -0.3652 -0.36556 -0.3663 -0.37079 -0.37088 -0.36633 -0.36669 -0.37105 -0.37115 -0.37138 -0.37186 -0.37248 -0.37271 -0.36828 -0.36837 -0.36873 -0.37479 -0.37489 -0.3746 -0.3747 -0.36948 -0.37048 -0.3711 -0.37211 -0.37246 -0.37178 -0.37188 -0.37172 -0.37117 -0.37374 -0.37436 -0.37484 -0.37533 -0.37582 -0.37618 -0.37602 -0.37677 -0.37752
-0.29391 -0.29316 -0.29313 -0.29309 -0.29377 -0.29421 -0.29477 -0.29486 -0.29494 -0.29491 -0.29511 -0.2952 -0.29528 -0.29549 -0.29677 -0.2959 -0.29598 -0.2963 -0.29639 -0.29659 -0.29668 -0.29677 -0.29697 -0.29789 -0.29881 -0.29962 -0.29994 -0.29943 -0.29964 -0.29972 -0.29981 -0.29894 -0.29902 -0.29887 -0.29895 -0.29904 -0.29912 -0.29945 -0.29953 -0.30034 -0.30043 -0.30015 -0.30024 -0.30032 -0.30089 -0.30086 -0.30142 -0.30211 -0.3022 -0.30216 -0.30165 -0.30221 -0.30242 -0.30275 -0.30307 -0.30316 -0.30325 -0.30357 0 0 0 0 0 0 0 0 0 0 0 0 -0.24683 -0.2469 -0.24697 -0.24704 -0.24723 -0.2473 -0.24749 -0.24744 -0.24776 -0.24892 -0.24948 -0.24991 -0.25168 -0.25321 -0.25377 -0.25433 -0.2544 0 0 0 -0.31458 -0.31394 -0.31318 -0.31326 -0.31323 -0.31356 -0.31353 -0.31325 -0.31334 -0.31343 -0.31388 -0.31397 -0.31418 -0.31488 -0.31448 -0.31481 -0.31441 -0.31499 -0.31544 -0.3159 -0.3155 -0.31546 -0.31555 -0.31552 -0.31597 -0.31606 -0.31664 -0.31661 -0.31682 -0.31826 -0.31994 -0.32016 -0.32024 -0.32046 -0.32055 -0.32051 -0.32048 -0.32069 -0.3209 -0.32124 -0.32145 0 0 0 0 0 0 0 0 0 0 -0.24526 -0.24446 -0.24453 -0.242 -0.24169 -0.24164 -0.24158 -0.24004 -0.24011 -0.23881 -0.23851 -0.23795 -0.23703 -0.23709 -0.23679 -0.23661 -0.23617 -0.23611 -0.23544 -0.23563 -0.23408 -0.23377 -0.23358 -0.23328 -0.23247 -0.23228 -0.2321 -0.23192 -0.23198 -0.23192 -0.23148 -0.2313 -0.23074 -0.22993 -0.22975 -0.22956 -0.22912 -0.22894 -0.22875 -0.22881 -0.22888 -0.22856 -0.22838 -0.22844 -0.22813 -0.22807 -0.228 -0.22781 -0.22788 -0.22794 -0.22788 -0.22781 -0.22763 -0.22769 -0.22775 -0.22781 -0.228 -0.22794 -0.22762 -0.22731 -0.22737 -0.22756 -0.2275 -0.22768 -0.22762 -0.22768 -0.22724 -0.22718 -0.22711 -0.22705 -0.22699 -0.22705 -0.22686 -0.22679 -0.22673 -0.22679 -0.22685 -0.22679 -0.22685 -0.22691 -0.22697 -0.22703 -0.22722 -0.22728 -0.22735 -0.22753 -0.22785 -0.22804 -0.22823 -0.22842 -0.22848 -0.22867 -0.22898 -0.22904 -0.22923 -0.22929 -0.22936 -0.22954 -0.22961 -0.22967 -0.22998 -0.23017 -0.23049 -0.23068 -0.231 -0.23131 -0.2315 -0.23156 -0.23201 -0.23207 -0.23213 -0.2327 -0.23289 -0.23321 -0.23353 -0.23372 -0.23417 -0.23448 -0.23493 -0.23601 -0.23608 -0.23665 -0.23697 -0.23729 -0.23799 -0.23818 -0.23838 -0.23908 -0.2394 -0.23972 -0.24157 -0.24164 -0.24209 -0.24433 -0.2444 -0.24536 -0.24542 -0.24741 -0.24773 -0.24857 -0.24953 -0.2496 -0.25121 -0.25513 -0.2552 -0.25578 0 0 0 -0.36884 -0.36894 -0.36826 -0.3681 -0.36807 -0.36572 -0.36595 -0.3663 -0.36576 -0.36508 -0.36415 -0.36412 -0.3646 -0.36483 -0.36531 -0.36631 -0.3708 -0.3709 -0.36634 -0.3667 -0.37016 -0.36974 -0.36997 -0.3711 -0.37262 -0.37272 -0.36829 -0.36722 -0.36874 -0.3748 -0.37386 -0.37396 -0.37432 -0.36949 -0.36959 -0.37007 -0.37121 -0.37144 -0.37089 -0.37085 -0.37069 -0.37105 -0.37193 -0.37242 -0.37291 -0.37366 -0.37401 -0.37476 -0.3746 -0.37535 -0.37662
-0.29237 -0.2927 -0.29254 -0.29239 -0.29164 -0.29185 -0.29431 -0.28964 -0.28972 -0.2898 -0.28965 -0.28902 -0.28922 -0.28966 -0.29546 -0.29555 -0.29552 -0.29572 -0.29592 -0.29601 -0.29609 -0.2963 -0.29627 -0.29623 -0.2962 -0.2958 -0.29589 -0.29621 -0.29725 -0.2971 -0.29778 -0.29823 -0.29807 -0.2984 -0.29812 -0.29821 -0.29842 -0.29838 -0.29859 -0.29783 -0.29804 -0.29764 -0.29737 -0.29757 -0.29814 -0.29822 -0.29879 -0.29935 -0.29968 -0.30097 -0.30142 -0.30186 -0.30231 -0.30252 -0.30284 -0.30281 -0.3029 -0.30347 -0.3021 -0.30219 0 0 0 0 0 0 0 0 0 0 -0.24684 -0.24703 -0.24698 -0.24705 -0.24724 -0.24743 -0.24738 -0.24745 -0.24777 -0.24893 -0.24948 -0.2498 -0.25145 -0.25334 -0.2539 -0.25433 -0.25441 0 0 0 -0.31082 -0.31091 -0.31258 -0.31242 -0.31251 -0.31284 -0.31269 -0.31265 -0.31274 -0.31295 -0.3134 -0.31361 -0.3137 -0.31367 -0.31205 -0.31213 -0.31405 -0.31439 -0.31521 -0.31554 -0.31502 -0.31511 -0.31507 -0.31528 -0.31562 -0.31583 -0.31579 -0.316 -0.31609 -0.31606 -0.31676 -0.31685 -0.31964 -0.31998 -0.32031 -0.3204 -0.32049 -0.32058 -0.32079 -0.32125 -0.32146 0 0 0 0 0 0 0 0 0 0 -0.24687 -0.24521 -0.24528 -0.24201 -0.24183 -0.24165 -0.24159 -0.24116 -0.24135 -0.23907 -0.23876 -0.23858 -0.23766 -0.23723 -0.2368 -0.23661 -0.23618 -0.236 -0.23532 -0.23539 -0.23384 -0.23365 -0.23347 -0.23328 -0.23248 -0.23229 -0.23211 -0.2318 -0.23186 -0.23193 -0.23137 -0.23118 -0.22988 -0.22981 -0.22963 -0.22944 -0.22901 -0.22895 -0.22876 -0.22882 -0.22888 -0.22857 -0.22851 -0.22845 -0.22826 -0.22807 -0.22789 -0.22782 -0.22789 -0.22795 -0.22789 -0.22782 -0.22776 -0.22782 -0.22789 -0.22807 -0.22814 -0.22807 -0.22763 -0.22744 -0.22751 -0.22757 -0.22763 -0.22769 -0.22775 -0.22769 -0.22725 -0.22706 -0.22712 -0.22693 -0.22699 -0.22706 -0.22674 -0.2268 -0.22674 -0.2268 -0.22673 -0.2268 -0.22686 -0.22692 -0.22698 -0.22704 -0.22723 -0.22729 -0.22748 -0.22754 -0.22786 -0.22805 -0.22811 -0.22842 -0.22848 -0.22855 -0.22899 -0.22905 -0.22911 -0.2293 -0.22936 -0.22955 -0.22961 -0.22968 -0.22999 -0.23005 -0.2305 -0.23081 -0.231 -0.23145 -0.23151 -0.2317 -0.23202 -0.23195 -0.23214 -0.23271 -0.2329 -0.23322 -0.23354 -0.23373 -0.23405 -0.23436 -0.23456 -0.23602 -0.23608 -0.23679 -0.23711 -0.23755 -0.23813 -0.23832 -0.23851 -0.23909 -0.23941 -0.23985 -0.24017 -0.24037 -0.24197 -0.24331 -0.24338 -0.24447 -0.24466 -0.24729 -0.24736 -0.24742 -0.24967 -0.24974 -0.25391 -0.25514 -0.2552 -0.25566 -0.25611 -0.25618 0 0 0 -0.35965 -0.36001 -0.36023 -0.36573 -0.36583 -0.36606 -0.36525 -0.36471 -0.36364 -0.36335 -0.36397 -0.36484 -0.36558 -0.36606 -0.36216 -0.36225 -0.36661 -0.36374 -0.36396 -0.36406 -0.36442 -0.36451 -0.3681 -0.36639 -0.367 -0.36645 -0.3659 -0.36665 -0.36649 -0.36983 -0.36889 -0.36885 -0.36934 -0.36983 -0.37057 -0.37132 -0.37077 -0.37087 -0.37057 -0.3708 -0.37155 -0.37191 -0.37253 -0.37328 -0.37364 -0.37387 -0.37422 -0.37497 -0.37624
-0.29132 -0.29152 -0.29149 -0.29133 -0.2913 -0.29114 -0.29004 -0.28965 -0.28973 -0.28958 -0.28919 -0.28879 -0.28887 -0.28896 -0.2888 -0.28889 -0.28957 -0.29525 -0.29522 -0.29495 -0.29503 -0.29512 -0.29532 -0.29457 -0.29429 -0.2939 -0.29423 -0.29455 -0.29523 -0.29532 -0.29648 -0.29644 -0.29665 -0.29673 -0.29706 -0.29714 -0.29735 -0.29743 -0.2974 -0.29712 -0.29697 -0.29693 -0.29702 -0.29722 -0.29755 -0.29775 -0.29856 -0.29864 -0.29969 -0.30026 -0.30071 -0.30151 -0.30184 -0.30193 -0.30201 -0.29908 -0.29917 -0.29938 -0.29801 -0.29786 -0.29794 -0.2979 -0.29799 0 0 0 0 0 0 0 -0.24685 -0.24704 -0.24699 -0.24706 -0.24725 -0.24732 -0.24727 -0.24734 -0.24765 -0.24809 -0.2484 -0.24847 -0.24927 -0.25116 -0.25123 -0.25434 -0.25442 0 0 0 -0.31034 -0.31067 -0.31137 -0.31146 -0.31167 -0.31163 -0.31148 -0.31132 -0.31153 -0.31162 -0.31183 -0.31179 -0.31188 -0.31185 -0.31157 -0.31166 -0.31199 -0.31244 -0.31241 -0.31188 -0.31185 -0.31389 -0.31386 -0.31407 -0.31453 -0.31474 -0.31483 -0.3154 -0.31549 -0.31546 -0.31567 -0.31563 -0.31707 -0.31778 -0.31799 -0.31832 -0.31853 -0.31899 -0.31933 -0.31917 -0.32148 0 0 0 0 0 0 0 0 0 0 -0.24515 -0.2441 -0.24417 -0.24202 -0.24196 -0.24178 -0.2416 -0.2413 -0.24111 -0.2392 -0.23877 -0.23847 -0.23816 -0.23736 -0.2368 -0.2365 -0.23607 -0.23588 -0.23508 -0.23514 -0.23372 -0.23341 -0.23323 -0.23304 -0.23224 -0.23205 -0.23199 -0.23168 -0.23175 -0.23181 -0.23113 -0.23094 -0.22988 -0.2297 -0.22951 -0.22933 -0.22901 -0.22895 -0.22877 -0.22883 -0.22889 -0.22858 -0.22852 -0.22858 -0.22814 -0.22796 -0.22789 -0.22758 -0.22764 -0.22771 -0.22764 -0.22758 -0.22752 -0.22758 -0.22764 -0.22758 -0.22777 -0.2277 -0.22764 -0.22745 -0.22751 -0.22758 -0.22764 -0.2277 -0.22764 -0.22757 -0.22726 -0.22719 -0.22713 -0.22707 -0.227 -0.22694 -0.22687 -0.22681 -0.22662 -0.22681 -0.227 -0.22693 -0.22699 -0.22705 -0.22712 -0.22718 -0.22737 -0.22743 -0.22749 -0.22768 -0.22787 -0.22805 -0.22812 -0.2283 -0.22837 -0.22843 -0.229 -0.22906 -0.22912 -0.22918 -0.22924 -0.22943 -0.22962 -0.22968 -0.23013 -0.23032 -0.23051 -0.23082 -0.23114 -0.23145 -0.23152 -0.23171 -0.23202 -0.23209 -0.23215 -0.23272 -0.23278 -0.23323 -0.23355 -0.23374 -0.23418 -0.23437 -0.23456 -0.2359 -0.23609 -0.23667 -0.23699 -0.23743 -0.23814 -0.23846 -0.23852 -0.23922 -0.23954 -0.24012 -0.24044 -0.24025 -0.24223 -0.24281 -0.24403 -0.24448 -0.24454 -0.24666 -0.24672 -0.24666 -0.24968 -0.24975 -0.25289 -0.25437 -0.25457 -0.25567 -0.25612 -0.25619 0 -0.35639 -0.35674 -0.35735 -0.35667 -0.35677 -0.35635 -0.35631 -0.35654 -0.35663 -0.35673 -0.35682 -0.35692 -0.35727 -0.36059 -0.36081 -0.36156 -0.36178 -0.36188 -0.36236 -0.36233 -0.36281 -0.36252 -0.36262 -0.36271 -0.36294 -0.36304 -0.36352 -0.36284 -0.36294 -0.3629 -0.363 -0.36867 -0.3628 -0.36303 -0.36377 -0.36504 -0.36513 -0.36887 -0.36909 -0.36945 -0.36955 -0.36978 -0.37052 -0.37101 -0.37176 -0.37186 -0.37222 -0.37284 -0.37359 -0.37433 -0.37587
-0.29133 -0.29153 -0.2915 -0.29099 -0.29107 -0.29056 -0.29005 -0.28966 -0.28951 -0.28935 -0.28896 -0.28857 -0.28841 -0.28849 -0.28846 -0.28866 -0.28958 -0.29526 -0.29535 -0.29472 -0.2948 -0.29489 -0.29497 -0.29422 -0.29383 -0.29355 -0.294 -0.29456 -0.29524 -0.29533 -0.29637 -0.29645 -0.29642 -0.29662 -0.29671 -0.29691 -0.297 -0.29708 -0.29717 -0.29701 -0.29674 -0.29682 -0.29691 -0.29711 -0.29744 -0.29764 -0.29833 -0.29853 -0.29946 -0.30015 -0.3006 -0.30116 -0.30173 -0.30182 -0.3019 -0.2991 -0.29906 -0.29866 -0.29839 -0.29775 -0.29771 -0.29755 -0.298 0 0 0 0 0 0 0 -0.2471 -0.24693 -0.247 -0.24695 -0.24726 -0.24733 -0.24728 -0.24735 -0.24766 -0.24822 -0.24841 -0.24884 -0.24928 -0.25117 -0.25124 -0.25435 -0.25455 0 0 0 -0.31035 -0.31044 -0.31053 -0.31098 -0.31107 -0.31116 -0.31088 -0.31084 -0.31105 -0.31114 -0.31147 -0.31132 -0.3114 -0.31137 -0.31133 -0.31142 -0.31163 -0.31184 -0.31181 -0.31177 -0.31235 -0.31317 -0.31338 -0.31347 -0.31405 -0.31413 -0.31434 -0.31492 -0.31501 -0.3151 -0.31506 -0.31565 -0.31672 -0.31717 -0.31738 -0.31784 -0.31793 -0.31851 -0.31922 -0.31918 0 0 0 0 0 0 0 0 0 0 0 -0.24516 -0.24411 -0.24418 -0.24264 -0.24209 -0.24191 -0.24185 -0.24118 -0.24112 -0.23933 -0.23903 -0.23885 -0.23792 -0.23737 -0.23681 -0.23663 -0.23595 -0.23577 -0.23496 -0.23515 -0.23385 -0.2333 -0.23299 -0.23293 -0.232 -0.23194 -0.23188 -0.23169 -0.23175 -0.23182 -0.23114 -0.23095 -0.23052 -0.22983 -0.22977 -0.22946 -0.22915 -0.22909 -0.2289 -0.22884 -0.22903 -0.22859 -0.22865 -0.22871 -0.22815 -0.22784 -0.22778 -0.22771 -0.22765 -0.22771 -0.22753 -0.22759 -0.2274 -0.22759 -0.22752 -0.22759 -0.22765 -0.22771 -0.22752 -0.22746 -0.22752 -0.22758 -0.22765 -0.22758 -0.22764 -0.22771 -0.22726 -0.22733 -0.22714 -0.2272 -0.22726 -0.2272 -0.22701 -0.22682 -0.22675 -0.22694 -0.227 -0.22719 -0.22725 -0.22719 -0.22725 -0.22744 -0.2275 -0.22769 -0.22775 -0.22781 -0.228 -0.22806 -0.22825 -0.22844 -0.22837 -0.22844 -0.22888 -0.22907 -0.22913 -0.22919 -0.22925 -0.22957 -0.22963 -0.22982 -0.23026 -0.23032 -0.23064 -0.23083 -0.23102 -0.23134 -0.2314 -0.23159 -0.23178 -0.23197 -0.23203 -0.23273 -0.23279 -0.23336 -0.23355 -0.23387 -0.23419 -0.23451 -0.2347 -0.23604 -0.23623 -0.23667 -0.23699 -0.23744 -0.23814 -0.23846 -0.23866 -0.23936 -0.23968 -0.24064 -0.24096 -0.24153 -0.24275 -0.2432 -0.24416 -0.24449 -0.24455 -0.24667 -0.24673 -0.24667 -0.25007 -0.25014 -0.2529 -0.25438 -0.25458 -0.2558 0 0 0 -0.3564 -0.35675 -0.35736 -0.35643 -0.35613 -0.35597 -0.35594 -0.35603 -0.35613 -0.35635 -0.3567 -0.3568 -0.35741 -0.3606 -0.36083 -0.36092 -0.36128 -0.36176 -0.36199 -0.36234 -0.36218 -0.36215 -0.36198 -0.36234 -0.36218 -0.36253 -0.36353 -0.36285 -0.36204 -0.36214 -0.36301 -0.36868 -0.36281 -0.36252 -0.36378 -0.36427 -0.36514 -0.36888 -0.36898 -0.36842 -0.36878 -0.36927 -0.37015 -0.37089 -0.37138 -0.37148 -0.37171 -0.37207 -0.37282 -0.3737 -0.37549
-0.2879 -0.28822 -0.28842 -0.28886 -0.28894 -0.28986 -0.2897 -0.28931 -0.28928 -0.28924 -0.28861 -0.28834 -0.28818 -0.28791 -0.28799 -0.28807 -0.28792 -0.28752 -0.28773 -0.29127 -0.29267 -0.29275 -0.29379 -0.29292 -0.29312 -0.29309 -0.29221 -0.29206 -0.29142 -0.29127 -0.29135 -0.29335 -0.29344 -0.29663 -0.2966 -0.29668 -0.29677 -0.29697 -0.29694 -0.2969 -0.29675 -0.29683 -0.29668 -0.29712 -0.29721 -0.29753 -0.2981 -0.29818 -0.29935 -0.30016 -0.30037 -0.30105 -0.30162 -0.30183 -0.30203 -0.29911 -0.29859 -0.29819 -0.29791 -0.2974 -0.29724 -0.29732 -0.29717 -0.29737 -0.29685 -0.29681 0 0 0 0 -0.24675 -0.24682 -0.24689 -0.24696 -0.24715 -0.24734 -0.24729 -0.24736 -0.24767 -0.24823 -0.24854 -0.24897 -0.24977 -0.25057 -0.25077 -0.25193 -0.25346 -0.25365 0 0 -0.30829 -0.30838 -0.31017 -0.31038 -0.31059 -0.31068 -0.31065 -0.31061 -0.3107 -0.31091 -0.31112 -0.31108 -0.31105 -0.31114 -0.31098 -0.31107 -0.3114 -0.31149 -0.31157 -0.31166 -0.31199 -0.31269 -0.31278 -0.31299 -0.31344 -0.31366 -0.31387 -0.31457 -0.31466 -0.3145 -0.31446 -0.31406 -0.31636 -0.31682 -0.31715 -0.31724 -0.31757 -0.31742 0 0 0 0 0 0 0 0 0 0 0 0 0 -0.24418 -0.2435 -0.24357 -0.24253 -0.24198 -0.24192 -0.24186 -0.23983 -0.23989 -0.23959 -0.23916 -0.23898 -0.23756 -0.23738 -0.23694 -0.23664 -0.23583 -0.23565 -0.23534 -0.23491 -0.23386 -0.23318 -0.233 -0.23281 -0.232 -0.23182 -0.23188 -0.2317 -0.23164 -0.2317 -0.23114 -0.23096 -0.23052 -0.22996 -0.22978 -0.22959 -0.22916 -0.22922 -0.22903 -0.22909 -0.22903 -0.22872 -0.22866 -0.22872 -0.22828 -0.22785 -0.22791 -0.22772 -0.22766 -0.22772 -0.22753 -0.2276 -0.22741 -0.22747 -0.22753 -0.22759 -0.22753 -0.22759 -0.22753 -0.22747 -0.22753 -0.22759 -0.22765 -0.22759 -0.22753 -0.22759 -0.2274 -0.22734 -0.22727 -0.22721 -0.2274 -0.22721 -0.22701 -0.22682 -0.22676 -0.22695 -0.22701 -0.2272 -0.22713 -0.2272 -0.22726 -0.22745 -0.22751 -0.2277 -0.22776 -0.22795 -0.22801 -0.2282 -0.22838 -0.22845 -0.22851 -0.22857 -0.22889 -0.22907 -0.22914 -0.2292 -0.22939 -0.22945 -0.22964 -0.22983 -0.23027 -0.23033 -0.23052 -0.23071 -0.2309 -0.23122 -0.23128 -0.23134 -0.23166 -0.23185 -0.23191 -0.23274 -0.2328 -0.23337 -0.23369 -0.23388 -0.2342 -0.23452 -0.23483 -0.23617 -0.23636 -0.23681 -0.237 -0.23745 -0.23815 -0.23847 -0.23866 -0.23924 -0.23969 -0.24065 -0.2411 -0.24154 -0.24276 -0.24321 -0.2443 -0.24475 -0.24494 -0.24809 -0.24918 -0.24924 -0.25034 -0.25053 -0.25188 -0.25401 -0.2542 -0.25684 -0.25691 0 0 -0.35358 -0.35393 -0.35518 -0.35541 -0.35537 -0.35547 -0.35518 -0.35527 -0.35537 -0.35585 -0.35633 -0.35655 -0.35665 -0.3579 -0.35774 -0.36042 -0.36051 -0.36139 -0.36161 -0.36171 -0.3618 -0.36177 -0.36148 -0.36131 -0.36141 -0.36151 -0.3616 -0.3604 -0.36102 -0.36033 -0.36043 -0.36078 -0.36127 -0.36188 -0.36315 -0.36389 -0.36399 -0.36421 -0.36613 -0.36727 -0.36775 -0.3685 -0.3699 -0.37052 -0.371 -0.3711 -0.3712 -0.3713 -0.37139 -0.37084 -0.37172
-0.28458 -0.28562 -0.2857 -0.2859 -0.2861 -0.28654 -0.28663 -0.28671 -0.28786 -0.28818 -0.28803 -0.28775 -0.2876 -0.2872 -0.28729 -0.28737 -0.28745 -0.2873 -0.28726 -0.28853 -0.28981 -0.2899 -0.29165 -0.29126 -0.2917 -0.29166 -0.29139 -0.29135 -0.29108 -0.29104 -0.29112 -0.29145 -0.29153 -0.29185 -0.29194 -0.29202 -0.29642 -0.29627 -0.29623 -0.29619 -0.29604 -0.29612 -0.29597 -0.29605 -0.29638 -0.29646 -0.29607 -0.29459 -0.29455 -0.29451 -0.29893 -0.29902 -0.30079 -0.29545 -0.29554 -0.29538 -0.2957 -0.29724 -0.29684 -0.2962 -0.29616 -0.29625 -0.29645 -0.29666 -0.29565 -0.2955 0 0 0 0 -0.24676 -0.24683 -0.24677 -0.24685 -0.24704 -0.24711 -0.2473 -0.24737 -0.24768 -0.24824 -0.24867 -0.2491 -0.25002 -0.25046 -0.25078 -0.25157 -0.25323 -0.2533 -0.25337 -0.25344 -0.2585 -0.25858 -0.25865 -0.31027 -0.30756 -0.30777 -0.30846 -0.30904 -0.30912 -0.30958 -0.31027 -0.31036 -0.31045 -0.31054 -0.31062 -0.31071 -0.3108 -0.31088 -0.31097 -0.31081 -0.31115 -0.31148 -0.31193 -0.31202 -0.31223 -0.31232 -0.3124 -0.31261 -0.31283 -0.31316 -0.313 -0.31247 -0.31256 -0.31228 -0.31126 -0.31135 -0.31685 -0.31706 0 0 0 0 0 0 0 0 0 0 0 0 0 -0.24382 -0.2424 -0.24259 -0.24192 -0.24199 -0.2418 -0.24175 -0.23983 -0.2399 -0.23922 -0.23892 -0.23849 -0.23682 -0.23676 -0.2367 -0.2364 -0.23559 -0.23516 -0.23498 -0.2343 -0.23387 -0.23319 -0.233 -0.23282 -0.23201 -0.23183 -0.23189 -0.23158 -0.23152 -0.23146 -0.23115 -0.23097 -0.23066 -0.22997 -0.22979 -0.2296 -0.22929 -0.22923 -0.22904 -0.2291 -0.22892 -0.2286 -0.22867 -0.22861 -0.22817 -0.22786 -0.22792 -0.22773 -0.22767 -0.22773 -0.22754 -0.22748 -0.22742 -0.22748 -0.22754 -0.22748 -0.22754 -0.22735 -0.22729 -0.22722 -0.22729 -0.22735 -0.22741 -0.22735 -0.22753 -0.2276 -0.22728 -0.22734 -0.22715 -0.22722 -0.2274 -0.22734 -0.22702 -0.22696 -0.22677 -0.22696 -0.22715 -0.22721 -0.22727 -0.2272 -0.22726 -0.22745 -0.22764 -0.2277 -0.22789 -0.22795 -0.22814 -0.22833 -0.22839 -0.22845 -0.22852 -0.22858 -0.22889 -0.22895 -0.22914 -0.22921 -0.22927 -0.22958 -0.22965 -0.22984 -0.23028 -0.23034 -0.23053 -0.23072 -0.23091 -0.2311 -0.23129 -0.23135 -0.23167 -0.23173 -0.23192 -0.23275 -0.23281 -0.23338 -0.23357 -0.23389 -0.23433 -0.23452 -0.23484 -0.23644 -0.23637 -0.23695 -0.23701 -0.23746 -0.23803 -0.23835 -0.23854 -0.23899 -0.23944 -0.24014 -0.24046 -0.24053 -0.24264 -0.24373 -0.24444 -0.24489 -0.24495 -0.24835 -0.24855 -0.24887 -0.24932 -0.25054 -0.25138 -0.25209 -0.25216 -0.25685 -0.25692 -0.35032 -0.35054 -0.35102 -0.35111 -0.35172 -0.35207 -0.35384 -0.35406 -0.35403 -0.35425 -0.35422 -0.35444 -0.35479 -0.35502 -0.35537 -0.35585 -0.35556 -0.35849 -0.35872 -0.35985 -0.36033 -0.36043 -0.36052 -0.36036 -0.36033 -0.36016 -0.36013 -0.36022 -0.36071 -0.36003 -0.35934 -0.35944 -0.35953 -0.35963 -0.35985 -0.3606 -0.3616 -0.36235 -0.36283 -0.36254 -0.36185 -0.36195 -0.36582 -0.36604 -0.36692 -0.36767 -0.35996 -0.36005 -0.3608 -0.36089 -0.36177 -0.36043 -0.36052
-0.2846 -0.28563 -0.28571 -0.28591 -0.28599 -0.28631 -0.2864 -0.28648 -0.2874 -0.2876 -0.28768 -0.28764 -0.28737 -0.28698 -0.28706 -0.28702 -0.2871 -0.28707 -0.28727 -0.28855 -0.28982 -0.28991 -0.29166 -0.29115 -0.29123 -0.29131 -0.29092 -0.29088 -0.29085 -0.29081 -0.29102 -0.29122 -0.29154 -0.29162 -0.29171 -0.29203 -0.29643 -0.29592 -0.296 -0.29597 -0.29605 -0.29613 -0.29562 -0.29582 -0.29615 -0.29599 -0.29608 -0.2946 -0.2942 -0.29452 -0.29894 -0.29903 -0.3008 -0.29546 -0.29555 -0.29539 -0.29572 -0.29713 -0.29601 -0.29561 -0.29557 -0.29577 -0.29586 -0.29606 -0.29542 -0.29551 0 0 0 0 0 0 -0.24678 -0.24685 -0.24704 -0.24724 -0.24731 -0.2475 -0.24781 -0.24849 -0.2488 -0.24911 -0.25003 -0.25035 -0.2509 -0.25158 -0.25324 -0.25331 -0.25338 -0.25345 -0.25851 -0.25859 -0.25866 0 -0.30757 -0.30778 -0.30872 -0.30856 -0.30865 -0.30983 -0.31004 -0.31001 -0.31009 -0.3103 -0.31063 -0.31072 -0.31056 -0.31065 -0.31062 -0.3107 -0.31116 -0.311 -0.31158 -0.31166 -0.31163 -0.31159 -0.31168 -0.31201 -0.31222 -0.31231 -0.3124 -0.31236 -0.31257 -0.31229 -0.31127 -0.31136 -0.31686 -0.31707 0 0 0 0 0 0 0 0 0 0 0 0 0 -0.24382 -0.24241 -0.24235 -0.24205 -0.24187 -0.24169 -0.24176 -0.24145 -0.24152 -0.23936 -0.2388 -0.23862 -0.23683 -0.23665 -0.23659 -0.23628 -0.23536 -0.23505 -0.23499 -0.23419 -0.23388 -0.2332 -0.23314 -0.23295 -0.23215 -0.23196 -0.2319 -0.23159 -0.23153 -0.23134 -0.23104 -0.23085 -0.23066 -0.23011 -0.23004 -0.22986 -0.22942 -0.22936 -0.22917 -0.22911 -0.22905 -0.22861 -0.22867 -0.22874 -0.22818 -0.22799 -0.22793 -0.22786 -0.22767 -0.22774 -0.22755 -0.22749 -0.22755 -0.22749 -0.22755 -0.22748 -0.22742 -0.22736 -0.22717 -0.22723 -0.22729 -0.22723 -0.22729 -0.22736 -0.22742 -0.22748 -0.22729 -0.22723 -0.22716 -0.22735 -0.22741 -0.22735 -0.22716 -0.22722 -0.22715 -0.22722 -0.2274 -0.22747 -0.22753 -0.22759 -0.22765 -0.22771 -0.22778 -0.22809 -0.22815 -0.22821 -0.22828 -0.22834 -0.2284 -0.22872 -0.22865 -0.22859 -0.22903 -0.22909 -0.22928 -0.22921 -0.22928 -0.22959 -0.22965 -0.22984 -0.23029 -0.23035 -0.23054 -0.23085 -0.23104 -0.23123 -0.23142 -0.23148 -0.23193 -0.23212 -0.23244 -0.23301 -0.2332 -0.23352 -0.23371 -0.2339 -0.23434 -0.23453 -0.23485 -0.23657 -0.23664 -0.23695 -0.23727 -0.23759 -0.23817 -0.23849 -0.23868 -0.239 -0.23945 -0.23989 -0.24034 -0.24054 -0.24278 -0.24438 -0.24496 -0.24541 -0.24547 -0.2481 -0.24855 -0.24888 -0.24933 -0.25132 -0.25139 -0.2521 -0.25216 0 0 -0.35033 -0.35042 -0.35052 -0.35113 -0.35148 -0.35183 -0.35334 -0.35395 -0.35353 -0.35375 -0.35346 -0.35381 -0.35403 -0.35413 -0.35461 -0.35483 -0.35557 -0.35773 -0.35873 -0.35844 -0.35957 -0.35966 -0.35989 -0.35998 -0.35956 -0.35966 -0.35975 -0.35985 -0.36033 -0.35939 -0.35897 -0.35893 -0.35916 -0.35925 -0.35948 -0.35983 -0.36109 -0.36249 -0.36245 -0.36255 -0.36187 -0.36196 -0.36583 -0.36605 -0.36693 -0.36768 -0.35997 -0.36006 -0.36055 -0.36077 -0.36126 -0.36083 -0.36145
-0.28378 -0.28291 -0.28299 -0.28545 -0.28577 -0.28597 -0.28605 -0.28625 -0.28705 -0.28737 -0.28733 -0.2873 -0.28714 -0.28675 -0.28671 -0.28668 -0.28676 -0.28684 -0.28609 -0.28617 -0.28637 -0.28645 -0.29119 -0.29116 -0.29112 -0.29121 -0.29081 -0.29078 -0.29062 -0.29058 -0.29091 -0.29111 -0.29131 -0.29152 -0.2916 -0.29156 -0.29213 -0.29197 -0.29277 -0.29274 -0.2927 -0.2929 -0.29239 -0.29247 -0.29219 -0.29228 -0.2926 -0.29268 -0.29349 -0.29285 -0.29245 -0.29218 -0.29214 -0.29258 -0.29267 -0.29311 -0.29319 -0.29328 -0.29433 -0.29501 -0.29522 -0.29518 -0.29551 -0.29571 -0.29507 -0.29515 -0.29512 -0.2952 0 0 0 0 -0.24704 -0.24698 -0.24718 -0.24724 -0.24744 -0.24751 -0.24794 -0.2485 -0.24881 -0.24912 -0.24992 -0.25036 -0.25067 -0.25135 -0.25264 -0.2532 -0.25339 -0.25346 -0.25475 0 0 -0.3053 -0.30453 -0.30474 -0.30409 -0.30271 -0.30292 -0.30203 -0.30199 -0.30208 -0.30265 -0.30274 -0.30844 -0.30168 -0.30189 -0.30491 -0.30451 -0.30472 -0.30541 -0.30452 -0.3046 -0.31033 -0.31103 -0.31111 -0.3112 -0.31153 -0.31162 -0.31195 -0.31179 -0.31188 -0.31172 -0.31009 -0.30809 -0.30817 -0.30813 -0.30822 0 0 0 0 0 0 0 0 0 0 0 0 0 -0.24383 -0.24242 -0.24224 -0.24194 -0.24175 -0.2417 -0.24152 -0.24121 -0.24116 -0.23924 -0.23881 -0.23863 -0.2382 -0.23666 -0.2366 -0.23629 -0.23549 -0.23506 -0.23487 -0.23432 -0.23389 -0.23333 -0.23314 -0.23308 -0.23228 -0.23209 -0.23191 -0.23147 -0.23141 -0.23135 -0.23092 -0.23073 -0.23042 -0.22999 -0.2298 -0.22974 -0.22943 -0.22924 -0.22931 -0.22912 -0.22906 -0.22862 -0.22856 -0.2285 -0.22818 -0.22787 -0.22793 -0.22787 -0.22781 -0.22775 -0.22756 -0.22762 -0.22756 -0.22749 -0.22756 -0.22749 -0.22743 -0.22737 -0.2273 -0.22724 -0.2273 -0.22736 -0.2273 -0.22736 -0.22742 -0.22749 -0.2273 -0.22723 -0.22717 -0.22723 -0.22742 -0.22736 -0.22717 -0.22723 -0.22729 -0.22735 -0.22767 -0.22773 -0.22779 -0.22785 -0.22779 -0.22797 -0.22804 -0.2281 -0.22829 -0.22822 -0.22828 -0.22835 -0.22841 -0.2286 -0.22866 -0.22872 -0.22904 -0.2291 -0.22929 -0.22935 -0.22941 -0.2296 -0.22979 -0.22998 -0.23029 -0.23036 -0.23067 -0.23086 -0.23105 -0.2315 -0.23156 -0.23175 -0.23206 -0.23238 -0.2327 -0.23314 -0.23333 -0.23365 -0.23384 -0.23403 -0.23435 -0.23467 -0.23486 -0.23645 -0.23664 -0.23709 -0.23728 -0.2376 -0.23818 -0.2385 -0.23881 -0.23913 -0.23958 -0.24041 -0.24202 -0.24221 -0.24317 -0.24516 -0.24522 -0.24542 -0.24587 -0.24811 -0.24843 -0.24914 -0.24934 -0.24953 -0.25165 0 0 0 -0.34858 -0.34867 -0.34966 -0.34976 -0.35037 -0.35046 -0.34991 -0.35013 -0.3519 -0.35276 -0.35286 -0.35269 -0.35266 -0.35314 -0.35336 -0.35385 -0.35433 -0.35326 -0.35322 -0.35706 -0.3578 -0.35855 -0.35864 -0.35912 -0.35987 -0.35854 -0.35902 -0.35938 -0.35986 -0.35996 -0.35901 -0.35846 -0.35856 -0.35878 -0.35874 -0.35897 -0.35907 -0.35877 -0.36133 -0.35727 -0.35737 -0.3572 -0.35729 -0.35778 -0.35722 -0.35706 -0.35832 -0.35816 -0.35942 -0.36017 -0.36026 -0.36036 -0.36058 -0.36055
-0.28284 -0.28292 -0.28122 -0.2813 -0.28245 -0.28253 -0.28261 -0.28258 -0.28266 -0.28631 -0.28675 -0.28671 -0.28656 -0.28628 -0.28625 -0.28621 -0.28629 -0.28637 -0.2861 -0.28618 -0.28626 -0.28635 -0.28643 -0.29045 -0.29077 -0.29098 -0.29034 -0.29007 -0.28991 -0.28987 -0.29008 -0.2904 -0.29084 -0.29105 -0.29113 -0.29145 -0.29166 -0.29162 -0.29086 -0.28975 -0.28971 -0.29195 -0.28891 -0.28912 -0.2892 -0.29 -0.28996 -0.29209 -0.29242 -0.2925 -0.29246 -0.29194 -0.29203 -0.29223 -0.29268 -0.293 -0.29308 -0.29329 -0.29373 -0.29418 -0.2945 -0.29471 -0.29479 -0.29488 -0.29496 -0.29492 -0.29501 -0.29497 -0.29529 0 0 0 -0.2468 -0.24699 -0.24718 -0.24738 -0.24744 -0.24764 -0.24795 -0.24826 -0.24857 -0.24889 -0.24945 -0.25 -0.25019 -0.25087 -0.25216 -0.25284 -0.2534 -0.25371 -0.25476 -0.25593 -0.256 -0.30531 -0.30381 -0.30402 -0.30349 -0.30273 -0.30232 -0.30216 -0.30188 -0.30209 -0.30229 -0.30116 -0.30124 -0.30108 -0.30104 -0.30296 -0.30378 -0.30387 -0.30236 -0.30232 -0.30229 -0.30237 -0.30258 -0.30315 -0.30287 -0.30308 -0.30451 -0.30472 -0.30763 -0.30747 -0.30694 -0.3069 -0.30404 -0.30425 -0.30384 -0.3038 0 0 0 0 0 0 0 -0.25219 -0.25103 -0.25098 -0.25117 -0.25099 -0.25118 -0.24298 -0.2423 -0.24225 -0.24194 -0.24164 -0.24146 -0.2414 -0.24122 -0.24104 -0.23925 -0.23882 -0.23852 -0.23833 -0.23654 -0.23661 -0.2363 -0.2355 -0.23506 -0.23488 -0.23433 -0.23389 -0.23346 -0.23328 -0.23309 -0.23229 -0.23198 -0.23192 -0.23148 -0.2313 -0.23124 -0.2308 -0.23049 -0.23031 -0.22975 -0.22969 -0.22962 -0.22944 -0.22925 -0.22906 -0.229 -0.22906 -0.22863 -0.22844 -0.2285 -0.22807 -0.22788 -0.22794 -0.22775 -0.22769 -0.22763 -0.22756 -0.22763 -0.22744 -0.2275 -0.22756 -0.2275 -0.22744 -0.22737 -0.22731 -0.22725 -0.22731 -0.22737 -0.22743 -0.22725 -0.22731 -0.22737 -0.22718 -0.22712 -0.22718 -0.22724 -0.2273 -0.22736 -0.22742 -0.22749 -0.2273 -0.22761 -0.2278 -0.22799 -0.22805 -0.22811 -0.22805 -0.22811 -0.22817 -0.22836 -0.22842 -0.22823 -0.22829 -0.22835 -0.22842 -0.2286 -0.22867 -0.22873 -0.22904 -0.22911 -0.22942 -0.22948 -0.22954 -0.22973 -0.2298 -0.22998 -0.2303 -0.23036 -0.23081 -0.231 -0.23119 -0.23163 -0.23169 -0.23188 -0.23233 -0.23264 -0.23309 -0.23341 -0.23347 -0.23379 -0.23398 -0.23417 -0.23448 -0.23468 -0.23487 -0.23646 -0.23652 -0.2371 -0.23755 -0.23774 -0.23844 -0.2385 -0.23882 -0.23927 -0.23985 -0.24042 -0.24202 -0.24222 -0.24318 -0.24427 -0.2451 -0.24542 -0.24549 -0.24594 -0.24729 -0.24748 -0.24947 -0.24954 -0.25166 0 -0.34558 -0.3458 -0.34679 -0.34765 -0.348 -0.34848 -0.34909 -0.34918 -0.34953 -0.35001 -0.35062 -0.3511 -0.3512 -0.3509 -0.35087 -0.35109 -0.35157 -0.35179 -0.35214 -0.35224 -0.35156 -0.3554 -0.35627 -0.3561 -0.35361 -0.35345 -0.3538 -0.35506 -0.35528 -0.35524 -0.35456 -0.35466 -0.35475 -0.35484 -0.35675 -0.35724 -0.35759 -0.35768 -0.35752 -0.35684 -0.35641 -0.35651 -0.35686 -0.35695 -0.35679 -0.35675 -0.35685 -0.35668 -0.35716 -0.35765 -0.35813 -0.35862 -0.35871 -0.35881 -0.35942 -0.35991
-0.28214 -0.28293 -0.28123 -0.28143 -0.28187 -0.28254 -0.28262 -0.28259 -0.28267 -0.28632 -0.2864 -0.28637 -0.28621 -0.28605 -0.2859 -0.28586 -0.28594 -0.28603 -0.28611 -0.28619 -0.28615 -0.28636 -0.28644 -0.29046 -0.29055 -0.29099 -0.29 -0.28996 -0.28956 -0.28941 -0.28973 -0.28993 -0.29037 -0.29106 -0.29114 -0.29122 -0.29143 -0.29091 -0.29063 -0.29 -0.28984 -0.29196 -0.28892 -0.28913 -0.28921 -0.28953 -0.2901 -0.2921 -0.29219 -0.29227 -0.29211 -0.29183 -0.29192 -0.29212 -0.29245 -0.29289 -0.29297 -0.2933 -0.29362 -0.29407 -0.29427 -0.2946 -0.29456 -0.29477 -0.29485 -0.29481 -0.29478 -0.29498 -0.29518 0 0 0 -0.24693 -0.24688 -0.24719 -0.24738 -0.24758 -0.24777 -0.24808 -0.24827 -0.24846 -0.24865 -0.24945 -0.24965 -0.2502 -0.251 -0.25156 -0.25224 -0.25341 -0.25384 -0.25501 -0.25557 -0.25601 0 -0.30382 -0.30391 -0.30277 -0.30249 -0.30221 -0.30193 -0.30189 -0.30198 -0.30218 -0.30166 -0.30125 -0.30122 -0.30191 -0.30261 -0.30318 -0.30351 -0.30286 -0.30234 -0.30242 -0.30238 -0.30271 -0.30316 -0.303 -0.3037 -0.30428 -0.30461 -0.30752 -0.3076 -0.30695 -0.30691 -0.30405 -0.30401 -0.30385 -0.30381 0 0 0 0 0 0 0 -0.2522 -0.25128 -0.25098 -0.25118 -0.25112 -0.25107 -0.24299 -0.24256 -0.24226 -0.24208 -0.24165 -0.24172 -0.24153 -0.24111 -0.24105 -0.23938 -0.23883 -0.23852 -0.23834 -0.23655 -0.23649 -0.23631 -0.23501 -0.23507 -0.23489 -0.23421 -0.23403 -0.23359 -0.23341 -0.23322 -0.23205 -0.23211 -0.23192 -0.23149 -0.23131 -0.23137 -0.23081 -0.23062 -0.23031 -0.23 -0.22982 -0.22963 -0.22945 -0.22926 -0.22907 -0.22901 -0.22895 -0.22864 -0.22845 -0.22839 -0.22807 -0.22789 -0.22795 -0.22776 -0.2277 -0.22776 -0.22757 -0.22764 -0.22757 -0.22751 -0.22757 -0.22751 -0.22745 -0.22738 -0.22744 -0.22751 -0.22744 -0.22738 -0.22757 -0.22725 -0.22731 -0.22738 -0.22731 -0.22737 -0.22731 -0.22737 -0.22743 -0.22737 -0.22743 -0.22762 -0.22756 -0.22787 -0.22793 -0.228 -0.22818 -0.22825 -0.22818 -0.22837 -0.22843 -0.22837 -0.22843 -0.22836 -0.22843 -0.22836 -0.22842 -0.22874 -0.22867 -0.22874 -0.22905 -0.22911 -0.2293 -0.22949 -0.22955 -0.22987 -0.22993 -0.22999 -0.23031 -0.23037 -0.23081 -0.231 -0.23119 -0.23151 -0.2317 -0.23189 -0.23259 -0.23291 -0.23322 -0.23341 -0.2336 -0.23392 -0.23411 -0.2343 -0.23462 -0.23494 -0.23513 -0.23634 -0.23666 -0.23711 -0.23755 -0.23787 -0.2387 -0.23889 -0.23909 -0.23953 -0.23986 -0.24056 -0.24216 -0.24222 -0.24344 -0.24376 -0.24434 -0.24543 -0.2455 -0.24595 -0.2473 -0.24749 -0.25128 -0.25135 0 0 -0.34559 -0.34594 -0.34642 -0.3469 -0.34737 -0.34837 -0.34859 -0.34894 -0.34903 -0.34925 -0.35051 -0.35034 -0.35043 -0.3504 -0.35023 -0.35033 -0.35042 -0.35116 -0.35125 -0.35147 -0.3517 -0.35541 -0.35563 -0.35611 -0.35362 -0.35346 -0.35381 -0.35507 -0.35529 -0.35526 -0.35457 -0.35467 -0.35476 -0.35486 -0.35586 -0.35686 -0.35695 -0.35705 -0.35662 -0.35685 -0.35642 -0.35639 -0.35648 -0.35657 -0.35628 -0.35611 -0.35608 -0.3563 -0.3564 -0.35688 -0.35775 -0.35798 -0.35833 -0.35856 -0.35891 -0.3594
-0.28096 -0.28056 -0.28076 -0.2812 -0.28176 -0.2822 -0.28228 -0.28212 -0.28149 -0.28181 -0.28189 -0.28626 -0.28598 -0.28535 -0.28543 -0.2854 -0.2856 -0.28568 -0.28576 -0.28584 -0.28592 -0.2841 -0.28394 -0.2876 -0.28781 -0.28777 -0.28785 -0.28794 -0.28778 -0.28894 -0.28902 -0.28934 -0.28859 -0.29011 -0.29067 -0.29123 -0.29132 -0.29068 -0.2904 -0.29001 -0.28997 -0.29125 -0.28797 -0.28866 -0.2891 -0.2893 -0.28914 -0.29055 -0.2916 -0.29168 -0.29176 -0.29173 -0.29181 -0.29201 -0.29234 -0.29254 -0.29262 -0.29319 -0.29339 -0.29372 -0.29416 -0.29437 -0.29433 -0.29441 -0.29425 -0.29434 -0.29442 -0.29439 -0.29398 0 0 0 0 -0.24786 -0.24744 -0.24752 -0.24746 -0.2479 -0.24797 -0.24828 -0.24835 -0.24866 -0.24922 -0.24953 -0.25009 -0.25077 -0.25133 -0.25128 -0.25342 -0.25373 -0.2549 -0.25533 -0.25553 -0.25609 -0.25604 0 -0.30242 -0.30214 -0.30198 -0.30157 -0.30154 -0.30162 -0.30171 -0.30142 -0.30102 -0.3011 -0.3018 -0.3025 -0.30295 -0.30303 -0.30275 -0.30222 -0.30231 -0.30239 -0.30284 -0.30317 -0.30289 -0.30347 -0.3038 -0.30351 -0.30716 -0.30725 -0.30426 -0.30447 -0.30418 -0.30378 -0.30374 -0.30382 0 0 0 0 0 -0.25207 -0.25214 -0.25184 -0.25129 -0.25124 -0.25119 -0.25101 -0.25108 -0.2425 -0.24244 -0.24226 -0.24208 -0.24166 -0.2416 -0.24167 -0.23963 -0.23982 -0.23976 -0.23909 -0.23866 -0.2386 -0.23631 -0.23637 -0.23607 -0.2344 -0.23471 -0.23465 -0.23422 -0.23391 -0.23373 -0.23354 -0.23336 -0.23218 -0.23212 -0.23193 -0.2315 -0.23131 -0.23125 -0.23069 -0.23051 -0.23032 -0.22989 -0.22983 -0.22964 -0.22945 -0.22939 -0.2292 -0.22914 -0.22896 -0.22864 -0.22846 -0.22852 -0.22796 -0.22789 -0.22796 -0.22764 -0.22771 -0.22764 -0.22758 -0.22764 -0.22745 -0.22752 -0.22758 -0.22752 -0.22745 -0.22739 -0.22745 -0.22751 -0.22745 -0.22751 -0.22757 -0.22726 -0.22732 -0.22726 -0.22732 -0.22726 -0.22719 -0.22726 -0.22744 -0.22738 -0.22744 -0.22763 -0.22756 -0.22775 -0.22794 -0.228 -0.22819 -0.22825 -0.22819 -0.22825 -0.22844 -0.22837 -0.22844 -0.2285 -0.22843 -0.22837 -0.22843 -0.22875 -0.22881 -0.22887 -0.22893 -0.22912 -0.22944 -0.2295 -0.22956 -0.22988 -0.22994 -0.23013 -0.23044 -0.23051 -0.23082 -0.23114 -0.2312 -0.23152 -0.23171 -0.2319 -0.2326 -0.23291 -0.23336 -0.23342 -0.23361 -0.23406 -0.23412 -0.23444 -0.23463 -0.23482 -0.23514 -0.23635 -0.23667 -0.23724 -0.23756 -0.23788 -0.23871 -0.2389 -0.2391 -0.23954 -0.23986 -0.24031 -0.24217 -0.24223 -0.24345 -0.24364 -0.24371 -0.24544 -0.24551 -0.24852 -0.24949 -0.24955 -0.25116 -0.25135 0 0 -0.3447 -0.34544 -0.34579 -0.34601 -0.34507 -0.34516 -0.34525 -0.34805 -0.34827 -0.34733 -0.34652 -0.34662 -0.34993 -0.34977 -0.34973 -0.34969 -0.34992 -0.35014 -0.35023 -0.35032 -0.34925 -0.34935 -0.34944 -0.34966 -0.34989 -0.34998 -0.35072 -0.35146 -0.35181 -0.35255 -0.35174 -0.35209 -0.35179 -0.35163 -0.35211 -0.35285 -0.35295 -0.35356 -0.35339 -0.35335 -0.35358 -0.35536 -0.35571 -0.35594 -0.35564 -0.35561 -0.35544 -0.3554 -0.35563 -0.35637 -0.35725 -0.35747 -0.35783 -0.35805 -0.35827 -0.35876
-0.28097 -0.28058 -0.28077 -0.28109 -0.28189 -0.2809 -0.28098 -0.28094 -0.28114 -0.28134 -0.2819 -0.28603 -0.28492 -0.28405 -0.28401 -0.28421 -0.28441 -0.28462 -0.28458 -0.28478 -0.28474 -0.28411 -0.28395 -0.28762 -0.28782 -0.28778 -0.28786 -0.28795 -0.28791 -0.28763 -0.28807 -0.28852 -0.2886 -0.29012 -0.29008 -0.29089 -0.29097 -0.29045 -0.29041 -0.28978 -0.28974 -0.29126 -0.28798 -0.28795 -0.28815 -0.28835 -0.2894 -0.28984 -0.29028 -0.29061 -0.29081 -0.29089 -0.29122 -0.29142 -0.29174 -0.29207 -0.29203 -0.29223 -0.29232 -0.29349 -0.29297 -0.29305 -0.29313 -0.29297 -0.29294 -0.29374 -0.29395 -0.29379 -0.294 0 0 0 0 -0.24787 -0.24794 -0.24728 -0.24735 -0.24803 -0.2481 -0.24829 -0.24836 -0.24855 -0.24923 -0.24954 -0.24998 -0.25066 -0.25097 -0.25128 -0.25342 -0.2535 -0.25454 -0.25486 -0.25554 -0.25573 -0.25617 0 -0.30243 -0.30166 -0.30174 -0.3011 -0.3013 -0.30127 -0.30135 -0.30082 -0.30079 -0.30087 -0.3012 -0.30153 -0.30186 -0.30219 -0.30215 -0.30211 -0.3022 -0.30228 -0.30249 -0.30269 -0.30229 -0.30274 -0.30283 -0.30328 -0.30644 -0.30726 -0.30427 -0.30423 -0.30419 -0.30379 -0.30375 -0.30383 0 0 0 0 0 -0.25208 -0.2519 -0.25197 -0.2513 -0.251 -0.25095 -0.25102 -0.25121 -0.24251 -0.24245 -0.24227 -0.24197 -0.24142 -0.24136 -0.24143 -0.23964 -0.23971 -0.23965 -0.23909 -0.23891 -0.23873 -0.23632 -0.23626 -0.23583 -0.23502 -0.23459 -0.23441 -0.2341 -0.23392 -0.23373 -0.23355 -0.23349 -0.23256 -0.23225 -0.23219 -0.23151 -0.23132 -0.23114 -0.2307 -0.23052 -0.23033 -0.23002 -0.22983 -0.22977 -0.22946 -0.2294 -0.22934 -0.22915 -0.22909 -0.22865 -0.22847 -0.22853 -0.22809 -0.2279 -0.22797 -0.22765 -0.22759 -0.22753 -0.22759 -0.22765 -0.22759 -0.22765 -0.22759 -0.22753 -0.22746 -0.2274 -0.22746 -0.22752 -0.22746 -0.2274 -0.22746 -0.22714 -0.2272 -0.22714 -0.2272 -0.22714 -0.2272 -0.22714 -0.22732 -0.22739 -0.22745 -0.22764 -0.2277 -0.22789 -0.22795 -0.22801 -0.22807 -0.22814 -0.2282 -0.22826 -0.22832 -0.22826 -0.22819 -0.22838 -0.22832 -0.22838 -0.22844 -0.22875 -0.22882 -0.22888 -0.22907 -0.22913 -0.22945 -0.22963 -0.2297 -0.23001 -0.23007 -0.23014 -0.23045 -0.23051 -0.23083 -0.23102 -0.23121 -0.23153 -0.23159 -0.23178 -0.23261 -0.23292 -0.23324 -0.23343 -0.23362 -0.23406 -0.23425 -0.23445 -0.23476 -0.23508 -0.23527 -0.23636 -0.23668 -0.23738 -0.23783 -0.23814 -0.23872 -0.23904 -0.2391 -0.23955 -0.23987 -0.24032 -0.2423 -0.2425 -0.24346 -0.24365 -0.24372 -0.24545 -0.24552 -0.24879 -0.24924 -0.24956 -0.25117 -0.25136 0 0 -0.34484 -0.3448 -0.34464 -0.34422 -0.34444 -0.34479 -0.34501 -0.34626 -0.34648 -0.34619 -0.34589 -0.34663 -0.34904 -0.34926 -0.34807 -0.34803 -0.34812 -0.34821 -0.34818 -0.34827 -0.3481 -0.34846 -0.34855 -0.34877 -0.34873 -0.34896 -0.34982 -0.35018 -0.35117 -0.35153 -0.35162 -0.35145 -0.35155 -0.35151 -0.3516 -0.35183 -0.35218 -0.35227 -0.35249 -0.35246 -0.35268 -0.35355 -0.35495 -0.35517 -0.35422 -0.35432 -0.35402 -0.35398 -0.3546 -0.35612 -0.35648 -0.35696 -0.35679 -0.35715 -0.35802 -0.35812
-0.27932 -0.27797 -0.27793 -0.27825 -0.27988 -0.2802 -0.28028 -0.28048 -0.28092 -0.281 -0.2812 -0.28282 -0.28303 -0.28323 -0.28331 -0.28363 -0.28383 -0.28403 -0.28399 -0.28407 -0.2838 -0.28376 -0.28372 -0.28249 -0.28233 -0.28253 -0.28249 -0.28269 -0.28732 -0.28752 -0.28761 -0.28218 -0.28238 -0.28965 -0.28973 -0.2825 -0.28258 -0.28254 -0.28263 -0.28355 -0.28351 -0.28371 -0.28799 -0.28772 -0.28768 -0.28812 -0.28892 -0.28937 -0.28969 -0.29001 -0.29034 -0.29054 -0.29098 -0.29107 -0.29139 -0.2916 -0.29156 -0.29152 -0.29148 -0.29132 -0.29237 -0.29258 -0.29242 -0.29226 -0.29222 -0.29206 -0.29118 -0.29138 -0.29352 -0.29361 -0.29381 0 0 0 0 -0.24729 -0.24736 -0.24804 -0.24811 -0.2483 -0.24849 -0.24868 -0.24924 -0.24955 -0.24999 -0.25067 -0.25098 -0.25141 -0.25209 -0.25216 -0.25443 -0.25462 -0.25494 -0.25525 -0.25642 -0.25649 -0.25669 -0.25676 -0.25695 0 -0.30083 -0.30091 -0.30099 -0.30059 -0.30067 -0.30051 -0.30109 -0.30129 -0.30162 -0.30171 -0.30179 -0.30188 -0.30196 -0.30229 -0.30213 -0.30222 -0.30218 -0.30226 -0.30247 -0.30243 -0.30288 -0.3053 -0.30379 -0.30388 -0.30396 -0.3038 -0.30364 -0.30372 0 0 0 0 0 -0.25172 -0.25179 -0.25198 -0.25082 -0.25076 -0.25083 -0.2509 -0.25097 -0.24252 -0.24234 -0.24216 -0.24185 -0.2413 -0.24125 -0.24119 -0.23952 -0.23959 -0.23966 -0.2391 -0.23892 -0.23861 -0.23633 -0.23627 -0.23596 -0.23503 -0.2346 -0.23454 -0.23411 -0.23393 -0.23374 -0.23356 -0.23337 -0.23282 -0.23251 -0.2322 -0.23164 -0.23133 -0.23114 -0.23071 -0.23053 -0.23034 -0.23003 -0.22984 -0.22978 -0.22959 -0.22953 -0.22935 -0.22928 -0.2291 -0.22866 -0.22847 -0.22841 -0.22797 -0.22791 -0.22797 -0.22766 -0.2276 -0.22753 -0.2276 -0.22753 -0.2276 -0.22766 -0.2276 -0.22753 -0.22759 -0.22753 -0.22747 -0.22753 -0.22747 -0.2274 -0.22747 -0.22703 -0.22696 -0.22715 -0.22709 -0.22715 -0.22708 -0.22715 -0.22721 -0.22727 -0.22758 -0.22764 -0.22771 -0.22777 -0.22783 -0.22789 -0.22808 -0.22814 -0.2282 -0.22827 -0.2282 -0.22814 -0.2282 -0.22826 -0.22832 -0.22839 -0.22845 -0.22876 -0.22882 -0.22889 -0.22908 -0.22914 -0.22958 -0.22977 -0.22983 -0.22989 -0.23008 -0.23014 -0.23046 -0.23052 -0.23084 -0.23103 -0.23122 -0.23153 -0.2316 -0.23179 -0.23248 -0.2328 -0.23312 -0.23331 -0.2335 -0.23395 -0.23426 -0.23445 -0.23477 -0.23509 -0.23541 -0.23637 -0.23668 -0.23739 -0.23783 -0.23815 -0.23873 -0.23892 -0.23924 -0.23943 -0.23988 -0.2402 -0.24231 -0.24251 -0.24334 -0.24533 -0.24539 -0.24699 -0.24706 -0.24905 -0.24925 -0.2497 -0.25143 -0.2515 -0.25208 0 0 0 -0.34362 -0.34384 -0.34419 -0.34441 -0.34489 -0.34537 -0.34546 -0.34555 -0.34539 -0.34509 -0.34506 -0.34695 -0.34717 -0.34714 -0.3471 -0.34719 -0.34741 -0.34738 -0.34747 -0.34756 -0.34765 -0.34775 -0.34784 -0.34806 -0.34893 -0.34954 -0.35028 -0.35063 -0.35085 -0.35134 -0.3513 -0.35113 -0.35123 -0.35132 -0.35128 -0.35137 -0.35147 -0.35169 -0.35178 -0.35175 -0.35197 -0.35323 -0.35333 -0.35342 -0.35325 -0.35322 -0.35292 -0.35379 -0.35389 -0.35359 -0.35342 -0.35377 -0.35295 -0.35305
-0.27755 -0.27715 -0.27723 -0.27719 -0.27739 -0.27616 -0.27613 -0.27656 -0.27652 -0.27577 -0.27585 -0.27712 -0.2766 -0.27656 -0.27736 -0.27744 -0.2774 -0.27748 -0.27744 -0.27764 -0.27808 -0.27816 -0.27836 -0.27855 -0.27864 -0.27919 -0.27915 -0.27911 -0.27955 -0.27975 -0.27995 -0.28219 -0.28203 -0.28211 -0.28207 -0.28227 -0.28259 -0.28267 -0.28312 -0.28332 -0.2834 -0.2836 -0.28392 -0.28388 -0.28564 -0.28669 -0.28677 -0.28781 -0.28838 -0.28906 -0.28926 -0.28947 -0.29015 -0.29011 -0.29032 -0.29028 -0.29036 -0.29032 -0.29004 -0.29025 -0.29093 -0.29126 -0.2911 -0.29094 -0.29078 -0.29098 -0.29119 -0.29175 -0.29268 -0.29265 -0.29273 0 0 0 0 -0.24742 -0.24749 -0.24804 -0.24812 -0.24831 -0.24838 -0.24869 -0.24925 -0.24956 -0.24999 -0.25055 -0.25087 -0.25155 -0.25186 -0.25217 -0.25407 -0.25427 -0.25458 -0.2549 -0.25509 -0.25577 -0.25584 -0.25579 -0.25562 -0.25997 -0.26004 -0.30092 -0.30027 -0.30011 -0.30007 -0.30016 -0.30049 -0.30057 -0.30078 -0.30123 -0.30119 -0.3014 -0.30148 -0.30144 -0.30153 -0.30137 -0.30133 -0.3019 -0.30236 -0.3022 -0.30228 -0.30261 -0.30282 -0.30352 -0.30348 -0.30356 -0.30352 -0.30373 0 0 0 0 0 -0.25173 -0.25217 -0.25199 -0.25095 -0.25065 -0.25072 -0.25079 -0.25111 -0.24253 -0.2421 -0.24167 -0.24137 -0.24119 -0.24113 -0.2412 -0.23941 -0.23947 -0.23954 -0.23899 -0.23856 -0.23838 -0.23621 -0.23615 -0.23597 -0.23504 -0.23473 -0.23467 -0.23412 -0.23393 -0.2335 -0.23332 -0.23326 -0.23258 -0.23239 -0.23221 -0.23152 -0.23134 -0.23115 -0.23072 -0.23041 -0.23022 -0.23004 -0.22985 -0.22979 -0.22948 -0.22954 -0.22935 -0.22917 -0.22911 -0.22842 -0.22836 -0.22829 -0.22811 -0.22792 -0.22798 -0.22767 -0.22761 -0.22754 -0.22748 -0.22754 -0.22735 -0.22742 -0.22735 -0.22742 -0.22735 -0.22741 -0.22735 -0.22741 -0.22735 -0.22716 -0.22722 -0.22691 -0.22697 -0.2269 -0.22709 -0.22715 -0.22709 -0.22703 -0.22709 -0.22728 -0.22746 -0.22765 -0.22771 -0.22778 -0.22771 -0.22777 -0.22809 -0.22815 -0.22821 -0.22827 -0.22821 -0.22802 -0.22795 -0.22827 -0.22833 -0.22839 -0.22845 -0.22877 -0.22883 -0.22889 -0.22908 -0.22927 -0.22946 -0.22978 -0.22984 -0.23003 -0.23009 -0.23028 -0.23047 -0.23053 -0.23085 -0.23116 -0.23123 -0.23154 -0.23173 -0.23192 -0.23262 -0.23294 -0.23325 -0.23332 -0.23364 -0.23395 -0.23427 -0.23446 -0.23478 -0.23497 -0.23516 -0.23612 -0.23669 -0.23752 -0.23784 -0.23816 -0.23886 -0.23906 -0.2395 -0.23957 -0.23989 -0.24021 -0.24245 -0.24251 -0.24347 -0.24533 -0.24617 -0.24675 -0.24694 -0.24829 -0.24861 -0.24894 -0.25144 -0.25151 -0.25209 0 -0.34384 -0.34393 -0.34338 -0.34347 -0.34382 -0.34404 -0.34439 -0.34448 -0.34431 -0.34428 -0.34411 -0.34369 -0.34378 -0.34477 -0.34512 -0.34521 -0.34531 -0.34514 -0.34523 -0.34558 -0.3458 -0.34602 -0.34586 -0.34595 -0.34578 -0.34575 -0.34648 -0.34722 -0.34654 -0.34676 -0.34931 -0.34953 -0.34963 -0.34972 -0.34968 -0.34977 -0.34909 -0.34879 -0.34914 -0.3495 -0.34959 -0.34968 -0.34977 -0.35064 -0.35126 -0.35226 -0.35235 -0.35245 -0.35241 -0.3525 -0.35259 -0.35243 -0.35252 -0.35287 -0.3531 -0.35345
-0.27756 -0.27716 -0.27724 -0.2772 -0.2774 -0.27617 -0.2759 -0.27621 -0.27594 -0.27578 -0.2761 -0.27665 -0.27661 -0.27669 -0.27725 -0.27745 -0.27741 -0.27749 -0.27757 -0.27777 -0.27809 -0.27817 -0.27837 -0.27857 -0.27864 -0.2792 -0.27916 -0.27912 -0.27968 -0.27976 -0.27984 -0.28232 -0.28144 -0.28152 -0.28148 -0.28228 -0.28236 -0.28244 -0.28301 -0.28309 -0.28317 -0.28349 -0.28369 -0.28401 -0.28565 -0.2867 -0.28678 -0.28795 -0.28791 -0.28871 -0.2894 -0.28936 -0.29004 -0.29013 -0.29021 -0.29029 -0.29025 -0.29034 -0.28981 -0.29002 -0.2907 -0.29127 -0.29051 -0.29083 -0.29043 -0.29063 -0.2912 -0.29152 -0.29233 -0.29241 -0.29262 0 0 0 0 -0.24755 -0.24762 -0.24805 -0.24812 -0.24832 -0.24827 -0.24846 -0.24913 -0.24957 -0.24988 -0.25032 -0.25063 -0.25095 -0.25199 -0.25218 -0.25396 -0.25427 -0.25435 -0.25466 -0.2551 -0.25542 -0.25549 -0.25556 -0.25563 -0.25998 -0.26005 0 -0.30028 -0.3 -0.29996 -0.30017 -0.30038 -0.30046 -0.30054 -0.30075 -0.30083 -0.30092 -0.30137 -0.30096 -0.30093 -0.30089 -0.30097 -0.30142 -0.30212 -0.30221 -0.30229 -0.3025 -0.30271 -0.30353 -0.30337 -0.30357 0 0 0 0 0 0 0 -0.2526 -0.25255 -0.25224 -0.25121 -0.2509 -0.25073 -0.25067 -0.25111 -0.24315 -0.24198 -0.24205 -0.24125 -0.24132 -0.24126 -0.24121 -0.23954 -0.23948 -0.23942 -0.23862 -0.23832 -0.23814 -0.23634 -0.23616 -0.23585 -0.2353 -0.23487 -0.23468 -0.23425 -0.23407 -0.23351 -0.23333 -0.23314 -0.23246 -0.23228 -0.23197 -0.23153 -0.23135 -0.23116 -0.2306 -0.23042 -0.23036 -0.22992 -0.22986 -0.2298 -0.22949 -0.22942 -0.22936 -0.22917 -0.22911 -0.22843 -0.22824 -0.2283 -0.22811 -0.22805 -0.22799 -0.22768 -0.22749 -0.22755 -0.22749 -0.22742 -0.22736 -0.2273 -0.22723 -0.2273 -0.22736 -0.2273 -0.22736 -0.22742 -0.22736 -0.22717 -0.22723 -0.22692 -0.22698 -0.22691 -0.2271 -0.22716 -0.2271 -0.22703 -0.2271 -0.22728 -0.22747 -0.22766 -0.22772 -0.22791 -0.22772 -0.22791 -0.2281 -0.22828 -0.22822 -0.22828 -0.22834 -0.22815 -0.22809 -0.22828 -0.22834 -0.2284 -0.22846 -0.2289 -0.22897 -0.22903 -0.22922 -0.22941 -0.22972 -0.22978 -0.22985 -0.23016 -0.2301 -0.23016 -0.23048 -0.23054 -0.23086 -0.23117 -0.23136 -0.23181 -0.23199 -0.23231 -0.23288 -0.23295 -0.23339 -0.23345 -0.23377 -0.23409 -0.23415 -0.23447 -0.23479 -0.23498 -0.23517 -0.23613 -0.2367 -0.23779 -0.23811 -0.23842 -0.23913 -0.23945 -0.23977 -0.23996 -0.24015 -0.2406 -0.24246 -0.24278 -0.24361 -0.24598 -0.2463 -0.24663 -0.24708 -0.24817 -0.24862 -0.24907 -0.25158 -0.25165 0 0 -0.34385 -0.34394 -0.34365 -0.34322 -0.34332 -0.34366 -0.34414 -0.34423 -0.34394 -0.34429 -0.34399 -0.34357 -0.34379 -0.34479 -0.34488 -0.34484 -0.34493 -0.34425 -0.34473 -0.34482 -0.3453 -0.34539 -0.34548 -0.34531 -0.34528 -0.3455 -0.34624 -0.34659 -0.34668 -0.34677 -0.34751 -0.34903 -0.34912 -0.34921 -0.34904 -0.34901 -0.34832 -0.34828 -0.34851 -0.34886 -0.34908 -0.34917 -0.34965 -0.35014 -0.35062 -0.35188 -0.35224 -0.35194 -0.35203 -0.35199 -0.35222 -0.35218 -0.35227 -0.35249 -0.35272 -0.35307
-0.27412 -0.27444 -0.27452 -0.27496 -0.27432 -0.27428 -0.27567 -0.27587 -0.27571 -0.27567 -0.27587 -0.27619 -0.27638 -0.2767 -0.27726 -0.27734 -0.27754 -0.2775 -0.27758 -0.2779 -0.27798 -0.27806 -0.27838 -0.27846 -0.27865 -0.27909 -0.27917 -0.27913 -0.27957 -0.27977 -0.28009 -0.28053 -0.28085 -0.28081 -0.28077 -0.28037 -0.28165 -0.28209 -0.28265 -0.28286 -0.28306 -0.28326 -0.28346 -0.28342 -0.2841 -0.28418 -0.28414 -0.28423 -0.28419 -0.28427 -0.28411 -0.28431 -0.28523 -0.28953 -0.28407 -0.28427 -0.28713 -0.28576 -0.28584 -0.2858 -0.286 -0.28959 -0.28991 -0.28963 -0.28766 -0.28774 -0.29085 -0.29117 -0.29198 -0.29206 -0.29202 0 0 0 0 -0.24744 -0.24751 -0.24806 -0.24813 -0.24808 -0.24803 -0.24822 -0.2489 -0.24921 -0.24965 -0.25021 -0.2504 -0.25047 -0.25334 -0.25353 -0.25372 -0.25404 -0.25423 -0.25455 -0.25474 -0.25518 -0.25525 -0.25545 -0.25576 -0.2595 -0.25969 -0.26013 -0.26021 -0.26077 0 -0.29993 -0.30026 -0.30035 -0.30043 -0.30052 -0.30072 -0.30081 -0.30089 -0.30061 -0.3002 -0.30029 -0.30037 -0.30131 -0.30189 -0.30209 -0.30242 -0.30239 -0.30259 -0.3044 0 0 0 -0.25465 -0.25472 -0.25466 -0.25474 -0.25493 -0.2534 -0.25298 -0.25268 -0.25238 -0.25134 -0.25091 -0.25074 -0.24895 -0.24915 -0.24415 -0.24385 -0.24379 -0.24176 -0.24158 -0.24152 -0.24146 -0.24103 -0.24098 -0.23943 -0.23739 -0.23783 -0.23777 -0.23623 -0.23617 -0.23586 -0.23518 -0.23487 -0.23481 -0.23426 -0.2342 -0.23339 -0.23321 -0.23303 -0.23234 -0.23216 -0.23197 -0.23129 -0.23123 -0.23105 -0.23061 -0.2303 -0.23024 -0.22993 -0.22987 -0.22968 -0.22949 -0.22943 -0.22937 -0.22918 -0.22912 -0.22843 -0.22825 -0.22831 -0.22812 -0.22793 -0.228 -0.22756 -0.2275 -0.22756 -0.22737 -0.22743 -0.22724 -0.22718 -0.22724 -0.22731 -0.22737 -0.2273 -0.22737 -0.22743 -0.22737 -0.2273 -0.22749 -0.22692 -0.22698 -0.22705 -0.22711 -0.22717 -0.22711 -0.22704 -0.2271 -0.22729 -0.22761 -0.22779 -0.22786 -0.22779 -0.22785 -0.22792 -0.22823 -0.22817 -0.22823 -0.22829 -0.22835 -0.22816 -0.2281 -0.22828 -0.22847 -0.22841 -0.2286 -0.22891 -0.22898 -0.22904 -0.22923 -0.22941 -0.2296 -0.22979 -0.22998 -0.23004 -0.23011 -0.23017 -0.23048 -0.23055 -0.23086 -0.23118 -0.23137 -0.23181 -0.23213 -0.23245 -0.23289 -0.23308 -0.2334 -0.23359 -0.23378 -0.2341 -0.23416 -0.23448 -0.2348 -0.23499 -0.23518 -0.23614 -0.23671 -0.23779 -0.23811 -0.23843 -0.23926 -0.23958 -0.23978 -0.2401 -0.24029 -0.24074 -0.24298 -0.24304 -0.24375 -0.24586 -0.24619 -0.24651 -0.24696 -0.24805 -0.24863 -0.24908 -0.25017 -0.25024 -0.25365 0 0 0 -0.34237 -0.34285 -0.34294 -0.34316 -0.34081 -0.34116 -0.33932 -0.33889 -0.33911 -0.33959 -0.33981 -0.3399 -0.33883 -0.33866 -0.34262 -0.34323 -0.34409 -0.34431 -0.34479 -0.34501 -0.34472 -0.34481 -0.3449 -0.34525 -0.34586 -0.34608 -0.34643 -0.34665 -0.34726 -0.34813 -0.34861 -0.3487 -0.34854 -0.34824 -0.34781 -0.34752 -0.348 -0.34835 -0.34844 -0.34866 -0.34915 -0.34937 -0.34998 -0.35137 -0.35173 -0.35156 -0.35165 -0.35161 -0.35171 -0.3518 -0.35189 -0.35238 -0.35247 -0.35269
-0.2733 -0.27338 -0.27382 -0.27413 -0.27398 -0.27405 -0.27461 -0.27481 -0.27501 -0.27497 -0.27516 -0.27572 -0.27592 -0.27624 -0.27679 -0.27687 -0.27707 -0.27715 -0.27723 -0.27743 -0.27763 -0.27783 -0.27803 -0.27823 -0.27831 -0.27863 -0.27871 -0.27867 -0.27934 -0.27966 -0.27986 -0.28006 -0.28002 -0.2801 -0.28019 -0.28026 -0.28095 -0.28114 -0.28171 -0.28191 -0.28199 -0.28243 -0.28263 -0.28295 -0.28327 -0.28359 -0.28355 -0.28387 -0.28371 -0.28356 -0.28219 -0.28191 -0.28199 -0.28207 -0.28191 -0.28211 -0.28207 -0.28215 -0.28235 -0.28243 -0.28251 -0.28368 -0.28376 -0.28444 -0.2844 -0.2846 -0.28529 -0.28477 -0.28412 -0.2842 -0.29203 0 0 0 0 -0.24745 -0.24752 -0.2488 -0.24814 -0.24809 -0.24816 -0.24823 -0.24867 -0.24898 -0.24917 -0.24949 -0.2498 -0.24975 -0.25018 -0.25038 -0.25337 -0.25368 -0.25388 -0.25444 -0.25463 -0.25495 -0.25502 -0.25533 -0.2554 -0.25609 -0.25604 -0.26014 -0.26034 -0.26078 0 -0.29958 -0.29978 -0.30011 -0.29995 -0.29991 -0.29975 -0.29972 -0.29968 -0.29939 -0.29899 -0.29907 -0.2994 -0.30059 -0.30116 -0.30149 -0.30219 -0.30215 -0.30224 -0.30441 0 -0.25365 -0.25372 -0.25441 -0.2546 -0.25467 -0.25474 -0.25432 -0.25366 -0.25299 -0.25269 -0.25202 -0.25135 -0.25117 -0.24902 -0.24452 -0.24458 -0.24416 -0.24398 -0.2438 -0.24189 -0.24171 -0.24165 -0.24147 -0.2398 -0.24 -0.23882 -0.2374 -0.23747 -0.23728 -0.23661 -0.2363 -0.23587 -0.23531 -0.23488 -0.23482 -0.23452 -0.23421 -0.2334 -0.23322 -0.23291 -0.2321 -0.23192 -0.23173 -0.2313 -0.23124 -0.23118 -0.23062 -0.23056 -0.23037 -0.23006 -0.22975 -0.22969 -0.2295 -0.22944 -0.22938 -0.22919 -0.22913 -0.22844 -0.22838 -0.22832 -0.22813 -0.22794 -0.22788 -0.22757 -0.22738 -0.22732 -0.22738 -0.22731 -0.22713 -0.22719 -0.22713 -0.22719 -0.22725 -0.22731 -0.22737 -0.22744 -0.22737 -0.22731 -0.22737 -0.22706 -0.22699 -0.22705 -0.22712 -0.22718 -0.22711 -0.22705 -0.22711 -0.2273 -0.22761 -0.2278 -0.22786 -0.22793 -0.22799 -0.22792 -0.22811 -0.22817 -0.22824 -0.2283 -0.22823 -0.22817 -0.22811 -0.22829 -0.22836 -0.22842 -0.22861 -0.22892 -0.22898 -0.22904 -0.22936 -0.22942 -0.22974 -0.2298 -0.22986 -0.23005 -0.23011 -0.2303 -0.23049 -0.23055 -0.23087 -0.23119 -0.23138 -0.23195 -0.23214 -0.23245 -0.2329 -0.23309 -0.23341 -0.23347 -0.23379 -0.23411 -0.23442 -0.23449 -0.23493 -0.23512 -0.23519 -0.23614 -0.23697 -0.23793 -0.23825 -0.23857 -0.2394 -0.23959 -0.23991 -0.2401 -0.24017 -0.24049 -0.24247 -0.2428 -0.24376 -0.24587 -0.24619 -0.24639 -0.24645 -0.24819 -0.24864 -0.24909 -0.25018 -0.25025 -0.25289 0 0 0 -0.33943 -0.33926 -0.33935 -0.33828 -0.33747 -0.33769 -0.33727 -0.33787 -0.33809 -0.33831 -0.33866 -0.33875 -0.33858 -0.33867 -0.33979 -0.33988 -0.34075 -0.34187 -0.343 -0.34322 -0.34331 -0.34366 -0.34388 -0.34436 -0.34535 -0.34558 -0.34567 -0.34615 -0.34637 -0.34115 -0.3415 -0.34612 -0.34674 -0.34631 -0.34627 -0.3461 -0.34658 -0.34667 -0.34715 -0.34738 -0.34773 -0.34782 -0.34713 -0.34722 -0.34731 -0.34689 -0.34711 -0.34707 -0.34729 -0.35129 -0.35047 -0.35069 -0.35079 -0.35101
-0.27284 -0.27292 -0.27323 -0.27355 -0.27351 -0.27359 -0.27414 -0.27434 -0.27454 -0.27462 -0.27494 -0.27525 -0.27569 -0.27601 -0.27657 -0.27664 -0.27672 -0.2768 -0.277 -0.2772 -0.2774 -0.27748 -0.2778 -0.27788 -0.27796 -0.2784 -0.27848 -0.27856 -0.27899 -0.27931 -0.27963 -0.27983 -0.27968 -0.27975 -0.27984 -0.27992 -0.28071 -0.2808 -0.28124 -0.28132 -0.2814 -0.28196 -0.28216 -0.28236 -0.28304 -0.28336 -0.28332 -0.28352 -0.28336 -0.28357 -0.2822 -0.28192 -0.28176 -0.28184 -0.28192 -0.28188 -0.28208 -0.28216 -0.28224 -0.28244 -0.283 -0.28333 -0.28377 -0.28433 -0.28441 -0.28449 -0.28494 -0.28478 -0.28413 -0.28421 0 0 0 0 0 -0.25182 -0.25189 -0.24917 -0.24864 -0.24834 -0.24841 -0.2486 -0.24904 -0.24911 -0.24906 -0.24925 -0.24956 -0.25 -0.25019 -0.25026 -0.25326 -0.25369 -0.25377 -0.25432 -0.25452 -0.25471 -0.2549 -0.25522 -0.25541 -0.25573 -0.25617 -0.26015 -0.26022 -0.26079 0 -0.29971 -0.29967 -0.29988 -0.29996 -0.29968 -0.2994 -0.29923 -0.29907 -0.29879 -0.29851 -0.29859 -0.2999 -0.29998 -0.30129 -0.30126 -0.30208 -0.30216 -0.30225 0 0 -0.25366 -0.25398 -0.25429 -0.25449 -0.25468 -0.25475 -0.25446 -0.25379 -0.25324 -0.25319 -0.25166 -0.25123 -0.2513 -0.24902 -0.24452 -0.24447 -0.24454 -0.24424 -0.24418 -0.24239 -0.24196 -0.24178 -0.24173 -0.23981 -0.24 -0.23883 -0.23766 -0.23748 -0.23717 -0.23661 -0.23631 -0.23613 -0.23532 -0.23502 -0.23483 -0.23452 -0.23434 -0.23353 -0.23323 -0.23292 -0.23211 -0.23193 -0.23187 -0.23143 -0.2315 -0.23144 -0.231 -0.23081 -0.23075 -0.23032 -0.23013 -0.22995 -0.22951 -0.22957 -0.22951 -0.22945 -0.22926 -0.2287 -0.22851 -0.22833 -0.22814 -0.22795 -0.22789 -0.22757 -0.22739 -0.22745 -0.22739 -0.22732 -0.22714 -0.2272 -0.22726 -0.2272 -0.22726 -0.22732 -0.22738 -0.22732 -0.22738 -0.22732 -0.22738 -0.22694 -0.227 -0.22706 -0.22712 -0.22719 -0.22725 -0.22718 -0.22725 -0.22743 -0.22775 -0.22781 -0.22787 -0.22781 -0.228 -0.22781 -0.22799 -0.22806 -0.22824 -0.22818 -0.22824 -0.22805 -0.22811 -0.2283 -0.22849 -0.22842 -0.22874 -0.22893 -0.22912 -0.22918 -0.22962 -0.22968 -0.22975 -0.22981 -0.23 -0.23019 -0.23025 -0.23031 -0.2305 -0.23056 -0.23101 -0.2312 -0.23151 -0.23196 -0.23227 -0.23259 -0.23291 -0.2331 -0.23342 -0.23348 -0.2338 -0.23424 -0.23443 -0.23475 -0.23519 -0.23551 -0.2357 -0.23692 -0.23736 -0.23832 -0.23864 -0.23896 -0.23941 -0.2396 -0.23992 -0.23998 -0.24018 -0.2405 -0.24248 -0.24268 -0.24377 -0.24601 -0.24633 -0.24652 -0.24646 -0.2482 -0.24916 -0.24935 -0.25083 -0.2509 -0.25289 0 0 0 -0.33944 -0.33927 -0.33936 -0.3383 -0.33748 -0.3377 -0.33741 -0.33724 -0.33759 -0.33793 -0.33828 -0.33824 -0.33833 -0.33894 -0.33929 -0.33976 -0.34063 -0.34188 -0.34184 -0.34271 -0.3428 -0.34315 -0.3435 -0.34385 -0.34536 -0.34559 -0.34555 -0.34577 -0.34638 -0.34116 -0.34151 -0.34614 -0.34636 -0.3458 -0.34576 -0.34585 -0.34608 -0.3463 -0.34678 -0.34739 -0.34709 -0.34705 -0.34701 -0.34685 -0.34694 -0.3469 -0.34686 -0.34695 -0.34717 -0.3513 -0.34983 -0.34979 -0.35002 -0.35011
-0.27237 -0.27245 -0.27265 -0.27309 -0.27293 -0.27312 -0.27356 -0.27388 -0.27419 -0.27427 -0.27447 -0.27491 -0.27522 -0.27554 -0.27622 -0.2763 -0.27638 -0.27646 -0.27665 -0.27685 -0.27693 -0.27701 -0.27733 -0.27741 -0.27749 -0.27793 -0.27801 -0.27809 -0.27865 -0.27873 -0.27917 -0.27925 -0.27921 -0.27941 -0.27948 -0.27957 -0.28025 -0.28044 -0.28053 -0.28073 -0.28093 -0.28137 -0.28157 -0.28189 -0.28113 -0.28241 -0.28297 -0.28305 -0.28277 -0.28189 -0.28149 -0.28 -0.28117 -0.28137 -0.28145 -0.28177 -0.28197 -0.28193 -0.28201 -0.28221 -0.28253 -0.28297 -0.2833 -0.28386 -0.28394 -0.28414 -0.28422 -0.28418 -0.28269 -0.28277 -0.28273 -0.28281 0 0 0 0 0 -0.24918 -0.24828 -0.24835 -0.24842 -0.24861 -0.24905 -0.24912 -0.24907 -0.24926 -0.24945 -0.24989 -0.2502 -0.25015 -0.25083 -0.25175 -0.25182 -0.25409 -0.2544 -0.2546 -0.25467 -0.25499 -0.25518 -0.2555 -0.25544 -0.25955 -0.25974 -0.25945 0 0 0 0 -0.29826 -0.29896 -0.29892 -0.299 -0.29884 -0.29831 -0.2979 -0.2975 -0.29795 -0.29803 -0.29971 -0.30078 -0.30135 0 0 0 -0.25569 -0.25429 -0.25436 -0.2543 -0.25462 -0.25469 -0.25476 -0.25446 -0.25404 -0.25325 -0.25332 -0.25314 -0.25124 -0.25131 -0.24903 -0.24453 -0.24448 -0.24455 -0.24449 -0.24456 -0.24252 -0.2421 -0.24179 -0.24149 -0.23933 -0.23939 -0.23847 -0.2373 -0.23736 -0.23718 -0.23662 -0.23619 -0.23601 -0.23533 -0.2349 -0.23484 -0.23453 -0.23435 -0.23342 -0.23311 -0.23255 -0.232 -0.23181 -0.23175 -0.23156 -0.2315 -0.23144 -0.23101 -0.23095 -0.23089 -0.23045 -0.23026 -0.22995 -0.22964 -0.22958 -0.22952 -0.22933 -0.22927 -0.22858 -0.2284 -0.22833 -0.22815 -0.22796 -0.22802 -0.22758 -0.22752 -0.22746 -0.22727 -0.22733 -0.22714 -0.22708 -0.22714 -0.2272 -0.22714 -0.2272 -0.22739 -0.22745 -0.22739 -0.2272 -0.22726 -0.22707 -0.22701 -0.22707 -0.22713 -0.22719 -0.22726 -0.22719 -0.22725 -0.22744 -0.22776 -0.22782 -0.22775 -0.22782 -0.22788 -0.22781 -0.22787 -0.22794 -0.22812 -0.22806 -0.22812 -0.22806 -0.22812 -0.22831 -0.2285 -0.22869 -0.22875 -0.22906 -0.22912 -0.22919 -0.22963 -0.22969 -0.22988 -0.22982 -0.22988 -0.23019 -0.23026 -0.23032 -0.23064 -0.23057 -0.23114 -0.23146 -0.23165 -0.23222 -0.23241 -0.2326 -0.23304 -0.23323 -0.23342 -0.23361 -0.2338 -0.23425 -0.23444 -0.23476 -0.23508 -0.23539 -0.23558 -0.23718 -0.2375 -0.23833 -0.23865 -0.23897 -0.23942 -0.23961 -0.23993 -0.24012 -0.24031 -0.24102 -0.24249 -0.24268 -0.24352 -0.24704 -0.24672 -0.24679 -0.24724 -0.24885 -0.24981 -0.25 -0.25123 -0.25129 -0.25213 -0.2531 -0.25317 0 0 -0.33813 -0.33847 -0.33393 -0.33428 -0.3345 -0.33561 -0.33648 -0.33708 -0.33756 -0.33765 -0.33761 -0.33783 -0.33843 -0.33865 -0.33887 -0.33819 -0.33763 -0.33449 -0.33458 -0.33906 -0.33915 -0.33976 -0.33571 -0.3358 -0.33693 -0.33702 -0.3371 -0.3381 -0.3378 -0.33776 -0.33798 -0.33794 -0.33881 -0.33877 -0.34003 -0.34219 -0.34215 -0.34237 -0.34649 -0.34684 -0.34654 -0.34625 -0.34621 -0.34643 -0.346 -0.34609 -0.34618 -0.34562 -0.34662 -0.34789 -0.34902 -0.34937 -0.34908
-0.2712 -0.27139 -0.27147 -0.27191 -0.27187 -0.27206 -0.27238 -0.27281 -0.27325 -0.27333 -0.27365 -0.27408 -0.27428 -0.27472 -0.27551 -0.27547 -0.27567 -0.27587 -0.27607 -0.27627 -0.27635 -0.27607 -0.27603 -0.27611 -0.27547 -0.27531 -0.27575 -0.27582 -0.27602 -0.27622 -0.27618 -0.27626 -0.27814 -0.27858 -0.27878 -0.27898 -0.27954 -0.27962 -0.2797 -0.27965 -0.27986 -0.28054 -0.28062 -0.28058 -0.2803 -0.27989 -0.27997 -0.28005 -0.28062 -0.28106 -0.28065 -0.27989 -0.27985 -0.28005 -0.28037 -0.28093 -0.28113 -0.28134 -0.28142 -0.28174 -0.28194 -0.28214 -0.28246 -0.2829 -0.2831 -0.28294 -0.28302 -0.28298 -0.28258 -0.2823 -0.28225 -0.28161 -0.28181 0 0 0 0 -0.24919 -0.24805 -0.24836 -0.24843 -0.24874 -0.24906 -0.24913 -0.24908 -0.24927 -0.24934 -0.24977 -0.24997 -0.25016 -0.25108 -0.25127 -0.25134 -0.25239 -0.25295 -0.25375 -0.25395 -0.25414 -0.25482 -0.25489 -0.25509 -0.2565 -0.25816 -0.25824 -0.25941 -0.25936 0 0 -0.25909 -0.25916 -0.2596 -0.25943 -0.25938 -0.25921 -0.25928 -0.25911 -0.25881 -0.25888 -0.25908 -0.25866 -0.25873 -0.2588 -0.2574 -0.25735 -0.2557 -0.25429 -0.25449 -0.25444 -0.25463 -0.25458 -0.25477 -0.25447 -0.25417 -0.25314 -0.25296 -0.25278 -0.25125 -0.25132 -0.24904 -0.24454 -0.24461 -0.24418 -0.24438 -0.24444 -0.24266 -0.2421 -0.2418 -0.24137 -0.23872 -0.23891 -0.23786 -0.23718 -0.23712 -0.23694 -0.23651 -0.2362 -0.23602 -0.23534 -0.23491 -0.23472 -0.23442 -0.23423 -0.2333 -0.23299 -0.23256 -0.232 -0.23194 -0.23176 -0.23157 -0.23151 -0.23145 -0.23114 -0.23095 -0.23089 -0.23033 -0.23015 -0.22984 -0.22965 -0.22959 -0.2294 -0.22947 -0.22928 -0.22847 -0.22828 -0.22834 -0.22815 -0.22809 -0.2279 -0.22772 -0.22753 -0.22747 -0.22728 -0.22746 -0.22715 -0.22721 -0.22715 -0.22709 -0.22715 -0.22734 -0.22727 -0.22746 -0.2274 -0.22721 -0.22714 -0.22708 -0.22702 -0.22708 -0.22701 -0.2272 -0.22726 -0.2272 -0.22739 -0.22745 -0.22776 -0.2277 -0.22776 -0.22782 -0.22776 -0.2277 -0.22788 -0.22795 -0.22801 -0.22794 -0.228 -0.22794 -0.228 -0.22832 -0.22851 -0.22869 -0.22876 -0.22907 -0.22913 -0.22932 -0.22964 -0.22983 -0.22989 -0.22995 -0.23001 -0.2302 -0.23026 -0.23033 -0.23064 -0.23083 -0.23115 -0.23147 -0.23178 -0.23223 -0.23254 -0.23286 -0.23318 -0.23337 -0.23356 -0.23375 -0.23381 -0.23426 -0.23445 -0.23464 -0.23483 -0.23553 -0.23559 -0.23719 -0.23751 -0.23847 -0.23866 -0.23898 -0.23942 -0.23962 -0.23994 -0.24013 -0.24045 -0.24103 -0.2425 -0.24256 -0.24352 -0.24705 -0.24712 -0.24718 -0.24725 -0.24898 -0.24956 -0.25053 -0.25111 -0.25156 -0.25214 -0.25311 -0.25317 -0.33076 -0.3311 -0.33183 -0.33205 -0.33227 -0.33326 -0.33412 -0.33447 -0.33481 -0.33555 -0.33602 -0.33624 -0.33607 -0.33616 -0.33677 -0.33699 -0.33475 -0.33458 -0.33351 -0.33347 -0.33395 -0.33597 -0.33477 -0.33499 -0.3343 -0.33413 -0.33409 -0.33418 -0.33478 -0.33785 -0.33768 -0.33738 -0.33747 -0.33756 -0.33778 -0.33839 -0.34043 -0.34116 -0.34177 -0.34174 -0.34572 -0.34594 -0.34357 -0.34483 -0.34479 -0.34488 -0.34458 -0.34454 -0.34463 -0.34212 -0.34195 -0.3479 -0.34838 -0.3486 -0.34309
-0.27037 -0.27081 -0.27113 -0.27132 -0.27164 -0.2716 -0.2718 -0.27294 -0.27302 -0.2731 -0.27354 -0.27362 -0.27405 -0.27413 -0.27528 -0.27536 -0.27544 -0.27576 -0.27596 -0.27604 -0.27612 -0.2756 -0.27556 -0.27552 -0.27524 -0.27556 -0.27564 -0.27583 -0.27591 -0.27611 -0.27619 -0.27627 -0.27815 -0.27823 -0.27855 -0.27863 -0.27931 -0.27951 -0.27923 -0.27931 -0.27987 -0.27995 -0.28015 -0.2801 -0.28031 -0.2799 -0.27998 -0.28006 -0.28038 -0.28022 -0.2803 -0.27966 -0.2795 -0.27946 -0.27978 -0.2807 -0.2809 -0.28098 -0.28118 -0.28138 -0.28183 -0.28203 -0.28223 -0.28267 -0.28263 -0.28247 -0.28243 -0.28239 -0.2821 -0.28194 -0.2819 -0.28186 -0.2817 0 0 0 0 0 -0.2483 -0.24849 -0.2488 -0.249 -0.24919 -0.24914 -0.24921 -0.24928 -0.24947 -0.24966 -0.24985 -0.25017 -0.25097 -0.25128 -0.2516 -0.25252 -0.25272 -0.2534 -0.25347 -0.25378 -0.25459 -0.2549 -0.25497 -0.25651 -0.25817 -0.25825 -0.25942 -0.25937 0 0 -0.2591 -0.25917 -0.25949 -0.25944 -0.25939 -0.25946 -0.25917 -0.25924 -0.25882 -0.25889 -0.25909 -0.25879 -0.25874 -0.25881 -0.25741 -0.25724 -0.25669 -0.2543 -0.2545 -0.25444 -0.25452 -0.25459 -0.25466 -0.25448 -0.25418 -0.25302 -0.25272 -0.25255 -0.25188 -0.25145 -0.25103 -0.24974 -0.24993 -0.24419 -0.24438 -0.24445 -0.24279 -0.24224 -0.24181 -0.24138 -0.23872 -0.23867 -0.23824 -0.23731 -0.23713 -0.23695 -0.23639 -0.23621 -0.23603 -0.23535 -0.23492 -0.23486 -0.23442 -0.23424 -0.23344 -0.233 -0.23257 -0.23214 -0.23195 -0.23177 -0.23158 -0.23152 -0.23146 -0.23115 -0.23109 -0.2309 -0.23034 -0.22991 -0.22972 -0.22966 -0.2296 -0.22953 -0.22947 -0.22929 -0.2286 -0.22841 -0.22835 -0.22816 -0.22823 -0.22804 -0.22772 -0.22766 -0.2276 -0.22741 -0.22747 -0.22741 -0.22747 -0.22728 -0.22734 -0.22728 -0.22747 -0.22753 -0.22772 -0.22753 -0.22722 -0.22715 -0.22721 -0.22715 -0.22709 -0.22715 -0.22734 -0.2274 -0.22733 -0.2274 -0.22771 -0.2279 -0.22783 -0.22789 -0.22796 -0.22789 -0.22783 -0.22789 -0.22808 -0.22801 -0.2282 -0.22814 -0.22833 -0.22826 -0.22832 -0.22864 -0.22883 -0.22889 -0.2292 -0.22927 -0.22958 -0.2299 -0.22996 -0.23002 -0.23009 -0.23015 -0.23034 -0.23053 -0.23059 -0.23078 -0.23109 -0.23154 -0.23198 -0.23217 -0.23261 -0.23281 -0.233 -0.23331 -0.23338 -0.23357 -0.23376 -0.23395 -0.23452 -0.23484 -0.23516 -0.23573 -0.23618 -0.23713 -0.23745 -0.23777 -0.23847 -0.23892 -0.23911 -0.23969 -0.24001 -0.24033 -0.24065 -0.24097 -0.24193 -0.24238 -0.2427 -0.24353 -0.24808 -0.24815 -0.2486 -0.2488 -0.24925 -0.2497 -0.25015 -0.25124 -0.25131 -0.25215 0 0 -0.33077 -0.33111 -0.33185 -0.33206 -0.33228 -0.33237 -0.33336 -0.33371 -0.33405 -0.33504 -0.33565 -0.33522 -0.33518 -0.3354 -0.33588 -0.33609 -0.33476 -0.33408 -0.33391 -0.33361 -0.33421 -0.33521 -0.3353 -0.33487 -0.33457 -0.33414 -0.3341 -0.33419 -0.3348 -0.33786 -0.33743 -0.33726 -0.33709 -0.33692 -0.33714 -0.33723 -0.33953 -0.34131 -0.3414 -0.34149 -0.34573 -0.34466 -0.34358 -0.3438 -0.34428 -0.34424 -0.34381 -0.3439 -0.34399 -0.34213 -0.34196 -0.3483 -0.34813 -0.34849 -0.3431
-0.27015 -0.27058 -0.27078 -0.27109 -0.27117 -0.27125 -0.27097 -0.27069 -0.27065 -0.27216 -0.27164 -0.2716 -0.27275 -0.27283 -0.27494 -0.27502 -0.27509 -0.27529 -0.27549 -0.27569 -0.27601 -0.27585 -0.27533 -0.27541 -0.27501 -0.27509 -0.27541 -0.27537 -0.27544 -0.27552 -0.27548 -0.27496 -0.27408 -0.27416 -0.27352 -0.27348 -0.27368 -0.27448 -0.27467 -0.27499 -0.27531 -0.27551 -0.27931 -0.27675 -0.27707 -0.27691 -0.27699 -0.27971 -0.28015 -0.27759 -0.27778 -0.27895 -0.27927 -0.27923 -0.27967 -0.28047 -0.28067 -0.28087 -0.28107 -0.28115 -0.28135 -0.28168 -0.282 -0.28232 -0.2824 -0.28187 -0.28183 -0.28191 -0.28175 -0.28159 -0.28167 -0.28163 -0.28134 -0.28106 -0.28126 0 0 0 -0.24879 -0.24874 -0.24881 -0.24901 -0.2492 -0.24915 -0.24922 -0.24941 -0.24948 -0.24967 -0.24986 -0.25005 -0.25086 -0.25117 -0.25136 -0.25216 -0.25248 -0.25292 -0.25335 -0.25355 -0.25423 -0.25467 -0.25462 -0.25469 -0.25721 -0.25728 -0.25759 -0.25767 -0.25786 -0.2583 -0.25837 -0.25918 -0.25938 -0.25945 -0.25952 -0.25947 -0.2593 -0.25912 -0.25895 -0.25902 -0.2591 -0.2588 -0.25875 -0.25882 -0.25693 -0.25725 -0.2567 -0.25431 -0.25451 -0.25445 -0.25453 -0.2546 -0.25467 -0.25449 -0.25419 -0.25315 -0.25273 -0.25255 -0.25188 -0.25146 -0.25116 -0.24431 -0.24438 -0.24432 -0.24427 -0.24421 -0.2428 -0.24237 -0.24194 -0.24164 -0.23873 -0.23855 -0.23812 -0.2372 -0.23701 -0.23683 -0.2364 -0.23609 -0.23603 -0.23536 -0.23505 -0.23474 -0.23443 -0.23425 -0.23344 -0.23314 -0.23258 -0.23214 -0.23196 -0.2319 -0.23159 -0.23153 -0.23147 -0.23116 -0.2311 -0.23103 -0.23048 -0.23004 -0.22985 -0.22954 -0.22961 -0.22942 -0.22936 -0.22929 -0.22861 -0.22829 -0.22836 -0.22817 -0.22811 -0.22804 -0.22773 -0.22779 -0.22761 -0.22742 -0.22761 -0.22742 -0.22735 -0.22742 -0.22723 -0.22742 -0.22748 -0.22754 -0.2276 -0.22754 -0.22722 -0.22728 -0.22722 -0.22728 -0.22734 -0.22716 -0.22734 -0.2274 -0.22734 -0.22753 -0.22772 -0.22778 -0.22772 -0.22778 -0.22771 -0.22778 -0.22784 -0.2279 -0.22809 -0.22815 -0.22821 -0.22827 -0.22821 -0.22827 -0.22846 -0.22865 -0.22884 -0.2289 -0.22921 -0.22928 -0.22946 -0.22991 -0.22997 -0.23003 -0.23009 -0.23015 -0.23034 -0.23053 -0.23072 -0.23078 -0.2311 -0.23155 -0.23186 -0.23218 -0.23275 -0.23281 -0.233 -0.23332 -0.23338 -0.2337 -0.23376 -0.23408 -0.23453 -0.23497 -0.23516 -0.23586 -0.23618 -0.23714 -0.23746 -0.23778 -0.23848 -0.23893 -0.23925 -0.2397 -0.24002 -0.24034 -0.24066 -0.24098 -0.24194 -0.24252 -0.24296 -0.24431 -0.24668 -0.24675 -0.24835 -0.24868 -0.24926 -0.24958 -0.24965 -0.2501 -0.25029 -0.25216 0 0 -0.32795 -0.32804 -0.3253 -0.32538 -0.3292 -0.33212 -0.33298 -0.33307 -0.33355 -0.33248 -0.33398 -0.33459 -0.33468 -0.33477 -0.33537 -0.33533 -0.33361 -0.33396 -0.33379 -0.33349 -0.33397 -0.33444 -0.33453 -0.33436 -0.33432 -0.33402 -0.33398 -0.33433 -0.33442 -0.33567 -0.33654 -0.33637 -0.33646 -0.33642 -0.33547 -0.33608 -0.33617 -0.34015 -0.34089 -0.34098 -0.3451 -0.34454 -0.34359 -0.34368 -0.34377 -0.34373 -0.3433 -0.34261 -0.33892 -0.33914 -0.34054 -0.34024 -0.34032 -0.34107 -0.34142
-0.26956 -0.26976 -0.26996 -0.27015 -0.27023 -0.27031 -0.27027 -0.27035 -0.27066 -0.27217 -0.27165 -0.27161 -0.27276 -0.27284 -0.27435 -0.27443 -0.27439 -0.27459 -0.27526 -0.27534 -0.27542 -0.27538 -0.27486 -0.2747 -0.27454 -0.2745 -0.27458 -0.2743 -0.27438 -0.27434 -0.27418 -0.27497 -0.27409 -0.27333 -0.27341 -0.27301 -0.27369 -0.27448 -0.27456 -0.275 -0.27508 -0.27552 -0.27932 -0.27676 -0.27684 -0.2768 -0.277 -0.27888 -0.28029 -0.27759 -0.27779 -0.27896 -0.27819 -0.27803 -0.27883 -0.27988 -0.28068 -0.28052 -0.28084 -0.28116 -0.28124 -0.2812 -0.28116 -0.28136 -0.28144 -0.28128 -0.28124 -0.28144 -0.28128 -0.28124 -0.28119 -0.28127 -0.28075 -0.2807 -0.28127 0 0 0 -0.2488 -0.24887 -0.24894 -0.24901 -0.24921 -0.24915 -0.24923 -0.24929 -0.24949 -0.24956 -0.24951 -0.24994 -0.25062 -0.25094 -0.25125 -0.25181 -0.252 -0.25244 -0.25288 -0.25307 -0.25387 -0.25431 -0.2545 -0.25482 -0.25721 -0.25729 -0.2576 -0.25755 -0.25799 -0.25819 -0.25838 -0.25919 -0.25926 -0.25933 -0.25941 -0.25948 -0.25918 -0.25913 -0.25896 -0.25891 -0.25898 -0.25881 -0.25876 -0.25871 -0.25694 -0.25688 -0.25671 -0.25432 -0.25452 -0.25459 -0.25453 -0.25461 -0.25468 -0.25438 -0.2542 -0.25316 -0.25286 -0.25281 -0.25189 -0.25172 -0.25154 -0.24432 -0.24377 -0.24384 -0.24378 -0.24422 -0.2428 -0.24225 -0.24232 -0.24177 -0.23874 -0.23831 -0.23788 -0.23696 -0.23677 -0.23659 -0.23628 -0.2361 -0.23592 -0.23524 -0.23493 -0.23475 -0.23432 -0.23426 -0.23358 -0.23314 -0.23271 -0.23215 -0.23197 -0.23191 -0.2316 -0.23141 -0.23135 -0.23129 -0.2311 -0.23104 -0.23073 -0.23017 -0.22974 -0.22955 -0.22961 -0.22918 -0.22924 -0.22918 -0.22849 -0.2283 -0.22837 -0.22818 -0.22812 -0.22805 -0.22799 -0.22793 -0.22774 -0.22755 -0.22761 -0.22755 -0.22749 -0.22742 -0.22723 -0.2273 -0.22748 -0.22755 -0.22761 -0.22767 -0.22736 -0.22742 -0.22723 -0.22729 -0.22735 -0.22742 -0.22748 -0.22754 -0.22748 -0.22754 -0.2276 -0.22766 -0.2276 -0.22766 -0.22772 -0.22778 -0.22784 -0.22791 -0.22809 -0.22828 -0.22834 -0.22841 -0.22834 -0.2284 -0.22847 -0.22865 -0.22884 -0.22891 -0.22909 -0.22928 -0.22934 -0.22979 -0.22998 -0.23004 -0.2301 -0.23016 -0.23035 -0.23054 -0.23073 -0.23105 -0.23111 -0.23168 -0.232 -0.23219 -0.23289 -0.2332 -0.23327 -0.23358 -0.23365 -0.23384 -0.23403 -0.23409 -0.23466 -0.23498 -0.2353 -0.236 -0.23632 -0.23715 -0.23747 -0.23779 -0.23836 -0.23881 -0.23913 -0.23958 -0.24002 -0.24035 -0.24066 -0.24111 -0.2422 -0.24278 -0.24297 -0.24432 -0.24669 -0.24676 -0.24836 -0.24856 -0.24888 -0.2492 -0.24965 -0.25011 -0.2503 -0.25217 0 0 -0.32796 -0.32805 -0.32531 -0.3254 -0.32921 -0.33226 -0.33222 -0.33231 -0.3324 -0.33249 -0.33399 -0.33396 -0.33417 -0.33426 -0.33435 -0.33444 -0.33363 -0.33371 -0.33354 -0.33337 -0.33346 -0.33368 -0.33377 -0.33386 -0.33382 -0.33274 -0.33283 -0.33305 -0.33443 -0.33568 -0.33461 -0.3347 -0.33504 -0.33513 -0.33522 -0.33544 -0.33618 -0.34016 -0.34025 -0.34099 -0.34511 -0.3452 -0.3436 -0.34369 -0.34365 -0.34257 -0.3424 -0.34262 -0.33894 -0.33915 -0.33925 -0.33959 -0.33981 -0.34056 -0.34091
-0.26922 -0.26953 -0.26961 -0.26981 -0.26988 -0.26984 -0.26992 -0.26988 -0.2696 -0.26956 -0.26999 -0.26995 -0.27003 -0.26927 -0.26947 -0.26907 -0.26915 -0.26923 -0.26942 -0.2695 -0.27531 -0.27527 -0.27463 -0.27435 -0.27431 -0.27427 -0.27423 -0.27383 -0.27379 -0.27363 -0.27371 -0.27354 -0.27242 -0.27298 -0.27318 -0.27254 -0.2725 -0.27414 -0.27445 -0.27489 -0.27509 -0.27517 -0.27537 -0.27653 -0.27661 -0.27669 -0.27677 -0.27709 -0.27644 -0.27616 -0.27624 -0.2774 -0.27748 -0.27708 -0.27631 -0.27627 -0.28009 -0.28017 -0.28013 -0.27827 -0.27835 -0.28097 -0.28093 -0.28113 -0.28121 -0.2796 -0.2798 -0.27927 -0.27911 -0.27907 -0.27793 -0.27801 -0.28015 -0.28023 -0.28007 -0.28003 -0.28023 0 0 0 -0.24859 -0.2489 -0.24909 -0.24916 -0.24911 -0.2493 -0.2495 -0.24957 -0.24951 -0.24995 -0.25051 -0.25082 -0.25114 -0.25157 -0.25189 -0.25233 -0.25276 -0.25295 -0.25376 -0.2542 -0.25439 -0.25483 -0.25515 -0.25522 -0.25725 -0.25744 -0.258 -0.25807 -0.25827 -0.25895 -0.25915 -0.25922 -0.25942 -0.25937 -0.25919 -0.25914 -0.25885 -0.25892 -0.25899 -0.2587 -0.25865 -0.2586 -0.2567 -0.25677 -0.25672 -0.25433 -0.25453 -0.2546 -0.25454 -0.25449 -0.25456 -0.25439 -0.25421 -0.25317 -0.253 -0.25282 -0.25215 -0.25185 -0.25155 -0.2431 -0.24329 -0.24348 -0.2433 -0.24324 -0.24195 -0.24214 -0.24221 -0.23905 -0.2385 -0.23832 -0.23777 -0.23709 -0.23678 -0.2366 -0.23605 -0.23599 -0.2358 -0.23512 -0.23469 -0.23463 -0.23433 -0.23427 -0.23358 -0.23328 -0.23284 -0.23216 -0.23197 -0.23179 -0.23148 -0.2313 -0.23123 -0.23105 -0.23111 -0.23118 -0.23099 -0.23093 -0.22974 -0.22956 -0.22962 -0.22931 -0.22925 -0.22906 -0.2285 -0.22844 -0.22837 -0.22819 -0.22812 -0.22806 -0.228 -0.22793 -0.22775 -0.22756 -0.22762 -0.22756 -0.2275 -0.22743 -0.22724 -0.22731 -0.22749 -0.22756 -0.22762 -0.22768 -0.22737 -0.2273 -0.22724 -0.2273 -0.22736 -0.22742 -0.22748 -0.22755 -0.22761 -0.22754 -0.22748 -0.22767 -0.22761 -0.22767 -0.22773 -0.22779 -0.22785 -0.22792 -0.2281 -0.22817 -0.22835 -0.22842 -0.22835 -0.22829 -0.22848 -0.22879 -0.22885 -0.22891 -0.22898 -0.22916 -0.22935 -0.22967 -0.22986 -0.23005 -0.23011 -0.23017 -0.23036 -0.23055 -0.23074 -0.23093 -0.23125 -0.23182 -0.23213 -0.23245 -0.23302 -0.23321 -0.2334 -0.23372 -0.23378 -0.23397 -0.23403 -0.23423 -0.2348 -0.23512 -0.23544 -0.23601 -0.23645 -0.23728 -0.23748 -0.2378 -0.2385 -0.23869 -0.23901 -0.23971 -0.23978 -0.24048 -0.24067 -0.24099 -0.24247 -0.24279 -0.24324 -0.24599 -0.24696 -0.24702 -0.2485 -0.24857 -0.24902 -0.24921 -0.24941 -0.2514 -0.25159 -0.25269 0 0 -0.32682 -0.32703 -0.32519 -0.32541 -0.32639 -0.32712 -0.32695 -0.32756 -0.32764 -0.32773 -0.32756 -0.32662 -0.3267 -0.32782 -0.32765 -0.328 -0.32821 -0.32817 -0.32994 -0.32964 -0.32972 -0.32981 -0.32964 -0.32973 -0.33137 -0.33172 -0.3318 -0.33228 -0.3325 -0.33298 -0.33345 -0.33406 -0.33428 -0.33437 -0.33497 -0.33506 -0.33515 -0.33498 -0.33507 -0.33516 -0.33485 -0.33481 -0.33503 -0.33772 -0.33781 -0.33699 -0.33708 -0.33703 -0.33738 -0.33747 -0.33834 -0.33882 -0.3393 -0.34005 -0.3404
-0.26839 -0.26847 -0.26855 -0.26863 -0.26871 -0.26878 -0.26874 -0.2687 -0.26854 -0.26862 -0.26881 -0.26889 -0.26885 -0.26869 -0.26829 -0.26813 -0.2682 -0.26828 -0.26848 -0.26808 -0.26815 -0.26883 -0.26891 -0.27376 -0.27384 -0.27392 -0.27209 -0.27228 -0.27236 -0.27232 -0.2724 -0.27248 -0.27255 -0.27239 -0.27223 -0.27219 -0.27263 -0.27282 -0.27266 -0.27262 -0.27306 -0.27326 -0.27502 -0.27558 -0.27626 -0.27622 -0.27642 -0.27637 -0.27332 -0.2734 -0.27625 -0.27368 -0.27375 -0.2748 -0.2756 -0.27568 -0.276 -0.27608 -0.27664 -0.27732 -0.2774 -0.27748 -0.27707 -0.27703 -0.27735 -0.27779 -0.27823 -0.27819 -0.27827 -0.27811 -0.27819 -0.27814 -0.27895 -0.27903 -0.27911 -0.27919 -0.27878 -0.27886 -0.27772 -0.2778 -0.24872 -0.24891 -0.2491 -0.24905 -0.24888 -0.24895 -0.24914 -0.24945 -0.2494 -0.24972 -0.25015 -0.25047 -0.25078 -0.25134 -0.25153 -0.25197 -0.25216 -0.25248 -0.25328 -0.25372 -0.25416 -0.25472 -0.25479 -0.2551 -0.25517 -0.25512 -0.25532 -0.256 -0.25595 -0.25602 -0.25904 -0.25923 -0.25918 -0.25876 -0.25822 -0.25829 -0.258 -0.25782 -0.2579 -0.25772 -0.25779 -0.25774 -0.25622 -0.25629 -0.25624 -0.25372 -0.25392 -0.25399 -0.25406 -0.25401 -0.25408 -0.2539 -0.25373 -0.25306 -0.25288 -0.25283 -0.25228 -0.25198 -0.2518 -0.2431 -0.24305 -0.24299 -0.24269 -0.24238 -0.2422 -0.24202 -0.24197 -0.23906 -0.23863 -0.2382 -0.23765 -0.2371 -0.23679 -0.23661 -0.23605 -0.236 -0.23569 -0.23501 -0.2347 -0.23452 -0.23433 -0.23427 -0.23384 -0.23366 -0.2321 -0.23204 -0.23198 -0.2318 -0.23136 -0.2313 -0.23124 -0.23106 -0.23112 -0.23118 -0.22975 -0.22981 -0.22975 -0.22969 -0.22963 -0.22932 -0.22925 -0.22919 -0.22876 -0.22857 -0.22838 -0.22819 -0.22826 -0.22807 -0.22801 -0.22794 -0.22763 -0.22757 -0.22763 -0.22757 -0.2275 -0.22744 -0.22738 -0.22731 -0.2275 -0.22756 -0.22762 -0.22744 -0.22725 -0.22706 -0.22712 -0.22706 -0.22712 -0.22718 -0.22737 -0.22743 -0.22749 -0.22768 -0.22762 -0.22768 -0.22761 -0.22767 -0.22774 -0.22792 -0.22786 -0.22792 -0.22811 -0.2283 -0.22836 -0.22842 -0.22848 -0.22842 -0.22848 -0.2288 -0.22886 -0.22892 -0.22898 -0.22905 -0.22923 -0.22968 -0.22987 -0.23006 -0.23012 -0.23018 -0.23037 -0.23069 -0.23075 -0.23106 -0.23138 -0.23208 -0.23227 -0.23258 -0.23316 -0.23322 -0.23354 -0.23373 -0.23379 -0.23398 -0.23417 -0.23436 -0.23493 -0.23525 -0.23544 -0.23627 -0.23659 -0.23729 -0.23761 -0.23793 -0.23838 -0.2387 -0.23902 -0.23959 -0.23978 -0.24011 -0.24043 -0.24036 -0.24209 -0.24318 -0.24324 -0.24574 -0.24607 -0.24639 -0.24838 -0.24857 -0.24902 -0.24935 -0.24941 -0.25141 -0.25186 -0.2527 0 0 -0.32567 -0.32576 -0.32366 -0.324 -0.32512 -0.32546 -0.32632 -0.32641 -0.32675 -0.32658 -0.32654 -0.3265 -0.32671 -0.32732 -0.32753 -0.32762 -0.32784 -0.32896 -0.3293 -0.32926 -0.32922 -0.32944 -0.32952 -0.32974 -0.32983 -0.33043 -0.33065 -0.331 -0.33147 -0.33182 -0.3323 -0.33329 -0.33351 -0.33373 -0.33447 -0.33455 -0.33464 -0.33447 -0.33456 -0.33452 -0.33474 -0.33469 -0.33504 -0.33565 -0.33678 -0.337 -0.33696 -0.33679 -0.33687 -0.33683 -0.33705 -0.33766 -0.33814 -0.33862 -0.33871
-0.26829 -0.26836 -0.26844 -0.2684 -0.2686 -0.26855 -0.26875 -0.26871 -0.26831 -0.26815 -0.26835 -0.26842 -0.26838 -0.26834 -0.26794 -0.26778 -0.26786 -0.26805 -0.26813 -0.26785 -0.26804 -0.26812 -0.26892 -0.27377 -0.27385 -0.27393 -0.2721 -0.27193 -0.27201 -0.27197 -0.27205 -0.27213 -0.27232 -0.27204 -0.27188 -0.27184 -0.27216 -0.27236 -0.27243 -0.27263 -0.27283 -0.27315 -0.27491 -0.27619 -0.27627 -0.27623 -0.2763 -0.27638 -0.27333 -0.27341 -0.27626 -0.27369 -0.27364 -0.27469 -0.275 -0.27544 -0.27552 -0.27609 -0.27665 -0.27733 -0.27692 -0.277 -0.27696 -0.2768 -0.27712 -0.27732 -0.27776 -0.27784 -0.27804 -0.27799 -0.27807 -0.27815 -0.27872 -0.2788 -0.27899 -0.27907 -0.27867 -0.27887 -0.27773 -0.27781 -0.24897 -0.24904 -0.24948 -0.24869 -0.24876 -0.24884 -0.24903 -0.24922 -0.24929 -0.2496 -0.25016 -0.25035 -0.25055 -0.25135 -0.25154 -0.25173 -0.25205 -0.25236 -0.25317 -0.25373 -0.25404 -0.25448 -0.25455 -0.25462 -0.25469 -0.25477 -0.2552 -0.25552 -0.25559 -0.25603 -0.25917 -0.25912 -0.25931 -0.25816 -0.25823 -0.25818 -0.25751 -0.25746 -0.25741 -0.25724 -0.25731 -0.25726 -0.2566 -0.25617 -0.25612 -0.25373 -0.2538 -0.25388 -0.25382 -0.25377 -0.25396 -0.25366 -0.25337 -0.25294 -0.25277 -0.25271 -0.25229 -0.25224 -0.25206 -0.24311 -0.24293 -0.24288 -0.24245 -0.24239 -0.24221 -0.24203 -0.2421 -0.23907 -0.23864 -0.23821 -0.23766 -0.23711 -0.2368 -0.23662 -0.23606 -0.23588 -0.2357 -0.23502 -0.23471 -0.23453 -0.23434 -0.23428 -0.2341 -0.23416 -0.23211 -0.23218 -0.23199 -0.23181 -0.2315 -0.23131 -0.23125 -0.23106 -0.231 -0.23107 -0.22976 -0.22982 -0.22989 -0.2297 -0.22964 -0.22945 -0.22939 -0.22933 -0.22889 -0.22883 -0.22864 -0.22833 -0.22826 -0.22808 -0.22814 -0.22808 -0.22776 -0.22745 -0.22764 -0.22757 -0.22751 -0.22745 -0.22726 -0.2272 -0.22738 -0.22732 -0.22738 -0.22744 -0.22713 -0.22694 -0.227 -0.22706 -0.22712 -0.22719 -0.22737 -0.22744 -0.2275 -0.22769 -0.2275 -0.22756 -0.22775 -0.22768 -0.22775 -0.22781 -0.228 -0.22793 -0.22825 -0.22831 -0.2285 -0.22856 -0.22849 -0.22856 -0.22862 -0.22881 -0.22887 -0.22893 -0.22899 -0.22905 -0.22924 -0.22969 -0.22987 -0.23019 -0.23025 -0.23031 -0.23063 -0.23082 -0.23114 -0.23145 -0.23177 -0.23234 -0.23266 -0.23272 -0.23316 -0.23323 -0.23342 -0.23386 -0.23392 -0.23411 -0.23431 -0.2345 -0.23532 -0.23564 -0.23596 -0.23641 -0.23685 -0.23743 -0.23775 -0.23807 -0.23851 -0.23871 -0.23903 -0.23947 -0.23979 -0.24037 -0.24069 -0.24037 -0.24287 -0.24344 -0.24377 -0.2455 -0.24582 -0.24653 -0.24852 -0.24871 -0.24968 -0.25102 -0.25173 -0.25206 -0.25187 -0.25283 0 0 -0.32568 -0.32577 -0.32367 -0.32376 -0.32474 -0.32586 -0.32569 -0.32642 -0.32651 -0.32685 -0.32642 -0.32587 -0.32621 -0.32681 -0.32742 -0.3275 -0.32772 -0.32858 -0.32919 -0.32914 -0.32923 -0.32932 -0.32941 -0.32949 -0.32971 -0.3298 -0.33027 -0.33049 -0.3311 -0.33131 -0.33192 -0.33317 -0.33365 -0.334 -0.33422 -0.33431 -0.33465 -0.33448 -0.33457 -0.33453 -0.33462 -0.33444 -0.33492 -0.33527 -0.3364 -0.33688 -0.33671 -0.3368 -0.33663 -0.33658 -0.3368 -0.33715 -0.33763 -0.33785 -0.33781
-0.26568 -0.26564 -0.26584 -0.26591 -0.26647 -0.26666 -0.26674 -0.26646 -0.26654 -0.2678 -0.268 -0.26808 -0.26804 -0.26787 -0.26759 -0.26743 -0.26763 -0.2677 -0.26778 -0.2675 -0.26746 -0.26742 -0.26701 -0.2696 -0.27147 -0.27167 -0.27151 -0.27159 -0.27154 -0.27162 -0.27158 -0.27178 -0.27186 -0.27157 -0.27153 -0.27161 -0.27169 -0.27188 -0.27196 -0.2724 -0.27248 -0.27196 -0.27215 -0.27211 -0.27219 -0.27275 -0.27282 -0.2729 -0.27238 -0.27233 -0.27241 -0.27297 -0.27329 -0.27445 -0.27465 -0.27485 -0.27493 -0.27453 -0.27521 -0.27601 -0.27633 -0.27653 -0.27637 -0.27644 -0.27676 -0.27696 -0.27741 -0.27761 -0.27781 -0.27801 -0.27796 -0.27804 -0.2786 -0.27868 -0.27901 -0.27896 -0.27856 -0.27839 -0.27653 -0.27661 -0.27668 0 0 -0.24822 -0.24853 -0.24872 -0.24891 -0.24911 -0.24918 -0.24949 -0.25017 -0.25036 -0.25068 -0.25123 -0.25143 -0.25162 -0.25194 -0.25225 -0.25305 -0.25349 -0.25381 -0.25424 -0.25419 -0.25402 -0.25409 -0.25428 -0.25472 -0.25504 -0.25511 -0.25506 -0.25513 -0.2552 -0.25552 -0.2551 -0.25529 -0.25709 -0.25716 -0.25686 -0.25693 -0.25688 -0.25695 -0.2569 -0.25623 -0.25606 -0.25601 -0.25362 -0.25381 -0.25388 -0.25371 -0.25366 -0.25373 -0.25355 -0.25313 -0.25271 -0.25265 -0.2526 -0.25242 -0.24348 -0.24367 -0.24312 -0.24294 -0.24276 -0.24258 -0.2424 -0.24222 -0.24204 -0.24211 -0.2392 -0.23877 -0.23822 -0.23767 -0.23699 -0.23668 -0.23663 -0.23607 -0.23576 -0.23558 -0.2349 -0.23459 -0.23453 -0.23422 -0.23429 -0.23386 -0.23392 -0.23212 -0.23218 -0.232 -0.23181 -0.23138 -0.23132 -0.23113 -0.23095 -0.23089 -0.23095 -0.22977 -0.2297 -0.22977 -0.22971 -0.22964 -0.22946 -0.2294 -0.22933 -0.22902 -0.22896 -0.22877 -0.22846 -0.22827 -0.22821 -0.22802 -0.22808 -0.22777 -0.22746 -0.22764 -0.22758 -0.22752 -0.22746 -0.22714 -0.2272 -0.22727 -0.2272 -0.22739 -0.2272 -0.22701 -0.22695 -0.22688 -0.22695 -0.22701 -0.2272 -0.22726 -0.22745 -0.22751 -0.2277 -0.22751 -0.22757 -0.22763 -0.22769 -0.22775 -0.22781 -0.22788 -0.22819 -0.22825 -0.22831 -0.2285 -0.22856 -0.2285 -0.22844 -0.22862 -0.22881 -0.22887 -0.22894 -0.229 -0.22906 -0.22912 -0.22969 -0.22975 -0.2302 -0.23026 -0.23045 -0.23076 -0.23095 -0.23127 -0.23146 -0.23178 -0.23235 -0.23267 -0.23273 -0.23317 -0.23323 -0.23342 -0.23374 -0.23393 -0.23412 -0.23431 -0.23463 -0.23533 -0.23565 -0.23597 -0.23654 -0.23686 -0.23744 -0.23763 -0.23795 -0.23839 -0.23871 -0.23903 -0.23948 -0.2398 -0.24063 -0.24108 -0.24153 -0.24288 -0.24345 -0.24377 -0.24538 -0.24583 -0.24628 -0.24852 -0.24872 -0.2502 -0.25193 -0.25213 -0.25245 -0.25278 -0.25451 0 0 -0.32106 -0.32115 -0.32175 -0.32184 -0.32231 -0.32239 -0.32248 -0.32321 -0.3233 -0.32351 -0.32424 -0.3251 -0.32596 -0.3267 -0.32704 -0.32738 -0.3276 -0.32859 -0.32907 -0.32903 -0.32924 -0.32894 -0.32903 -0.3295 -0.32959 -0.32981 -0.3299 -0.33011 -0.33046 -0.33055 -0.33012 -0.33007 -0.33029 -0.33025 -0.33371 -0.33419 -0.33402 -0.33164 -0.33107 -0.33142 -0.33398 -0.3342 -0.33493 -0.33515 -0.33563 -0.3365 -0.33659 -0.33655 -0.33651 -0.33581 -0.33629 -0.33703 -0.33712 -0.33721 -0.33678
-0.26462 -0.26482 -0.26502 -0.26319 -0.26315 -0.26239 -0.26247 -0.26266 -0.26274 -0.26281 -0.26587 -0.26642 -0.26661 -0.26669 -0.26665 -0.26672 -0.26668 -0.26652 -0.26648 -0.26632 -0.26639 -0.26635 -0.26607 -0.26614 -0.26622 -0.26594 -0.26601 -0.26944 -0.26964 -0.26744 -0.26752 -0.26747 -0.26767 -0.26763 -0.26902 -0.26982 -0.27026 -0.27033 -0.27017 -0.27121 -0.27153 -0.2716 -0.27156 -0.27176 -0.27172 -0.27191 -0.27223 -0.27219 -0.27215 -0.2721 -0.2723 -0.2725 -0.27282 -0.27386 -0.27406 -0.27414 -0.27422 -0.27429 -0.27461 -0.27469 -0.27489 -0.27497 -0.27505 -0.27428 -0.27448 -0.2754 -0.27548 -0.27641 -0.27697 -0.27729 -0.27749 -0.27769 -0.27825 -0.27833 -0.27841 -0.27861 -0.27759 -0.27731 -0.27654 -0.27613 -0.27597 0 0 -0.2481 -0.2483 -0.24849 -0.24868 -0.24899 -0.24918 -0.2495 -0.25018 -0.25037 -0.25068 -0.25112 -0.25144 -0.25163 -0.25182 -0.25201 -0.2527 -0.25313 -0.25321 -0.25352 -0.25347 -0.2533 -0.25337 -0.25356 -0.25375 -0.25383 -0.25402 -0.25433 -0.25453 -0.25472 -0.25492 -0.25511 -0.25518 -0.25574 -0.25582 -0.25613 -0.25608 -0.25615 -0.25622 -0.25617 -0.25588 -0.25558 -0.2554 -0.25375 -0.25382 -0.25365 -0.25347 -0.25342 -0.25337 -0.25319 -0.25301 -0.25259 -0.25241 -0.25248 -0.25243 -0.24336 -0.24343 -0.24338 -0.24295 -0.24277 -0.24247 -0.24241 -0.24223 -0.24205 -0.24199 -0.23921 -0.23878 -0.23848 -0.23706 -0.23675 -0.23657 -0.23639 -0.23595 -0.23565 -0.23534 -0.23478 -0.23448 -0.23454 -0.23411 -0.23417 -0.23362 -0.23368 -0.23213 -0.23219 -0.23201 -0.23195 -0.23139 -0.2312 -0.23114 -0.23083 -0.23077 -0.23071 -0.23027 -0.22996 -0.2299 -0.22984 -0.22965 -0.22947 -0.22928 -0.22922 -0.2289 -0.22884 -0.22878 -0.22847 -0.22828 -0.22822 -0.22803 -0.22809 -0.22778 -0.22747 -0.22765 -0.22747 -0.2274 -0.22734 -0.22715 -0.22709 -0.22727 -0.22708 -0.22715 -0.22708 -0.22702 -0.22695 -0.22689 -0.22695 -0.22701 -0.22708 -0.22726 -0.22733 -0.22739 -0.22758 -0.22751 -0.22757 -0.22764 -0.2277 -0.22776 -0.22782 -0.22788 -0.2282 -0.22826 -0.22845 -0.22851 -0.22857 -0.22851 -0.22844 -0.22863 -0.22882 -0.22901 -0.22895 -0.22901 -0.22907 -0.22913 -0.2297 -0.22976 -0.2302 -0.23039 -0.23058 -0.23077 -0.23096 -0.23128 -0.23159 -0.23178 -0.23236 -0.23242 -0.23261 -0.23293 -0.23312 -0.23331 -0.23362 -0.23381 -0.23413 -0.23419 -0.23464 -0.23534 -0.23579 -0.23611 -0.23655 -0.23687 -0.23744 -0.23764 -0.23795 -0.2384 -0.23872 -0.23891 -0.23949 -0.23994 -0.24039 -0.24147 -0.24192 -0.24301 -0.24346 -0.24365 -0.24526 -0.24609 -0.24629 -0.24853 -0.2486 -0.24931 -0.25181 -0.25188 -0.25272 -0.25278 -0.25452 -0.31872 -0.31983 -0.31992 -0.32052 -0.32086 -0.32095 -0.32142 -0.32125 -0.32159 -0.32168 -0.32189 -0.32262 -0.32283 -0.3224 -0.32301 -0.324 -0.32395 -0.3243 -0.3249 -0.32486 -0.3252 -0.32529 -0.3255 -0.32727 -0.328 -0.32848 -0.32883 -0.32865 -0.329 -0.32909 -0.32917 -0.32926 -0.32935 -0.3297 -0.32991 -0.32987 -0.32996 -0.33043 -0.33052 -0.33152 -0.33083 -0.33091 -0.3323 -0.33304 -0.33378 -0.33399 -0.33226 -0.33235 -0.334 -0.33422 -0.33378 -0.33127 -0.33135 -0.33157 -0.33035 -0.33044 -0.33209
-0.26404 -0.26435 -0.26443 -0.2632 -0.2628 -0.26264 -0.26248 -0.26255 -0.26275 -0.26282 -0.26587 -0.26595 -0.26615 -0.26646 -0.2663 -0.26638 -0.26633 -0.26605 -0.26601 -0.26597 -0.26592 -0.26588 -0.26584 -0.26591 -0.26599 -0.26595 -0.26602 -0.26945 -0.26965 -0.26745 -0.26753 -0.26748 -0.26768 -0.26776 -0.26903 -0.26935 -0.26979 -0.26986 -0.27018 -0.27074 -0.27106 -0.27113 -0.27121 -0.27129 -0.27125 -0.27156 -0.27164 -0.27208 -0.27204 -0.27199 -0.27207 -0.27263 -0.27259 -0.27375 -0.27395 -0.27391 -0.27386 -0.27406 -0.27414 -0.27422 -0.2743 -0.27449 -0.27445 -0.27429 -0.27437 -0.27481 -0.27549 -0.27642 -0.27649 -0.27718 -0.27726 -0.27746 -0.27814 -0.27822 -0.27818 -0.27838 -0.27724 -0.27683 -0.27655 -0.2759 -0.27598 0 0 -0.24811 -0.24818 -0.2485 -0.24881 -0.24937 -0.24956 -0.24987 -0.25019 -0.25062 -0.25094 -0.25125 -0.25144 -0.25164 -0.25171 -0.25202 -0.25246 -0.2529 -0.25309 -0.25328 -0.25323 -0.25306 -0.25313 -0.25333 -0.25352 -0.25347 -0.25366 -0.2541 -0.25417 -0.25449 -0.25468 -0.25487 -0.25519 -0.25538 -0.25558 -0.25565 -0.25572 -0.25579 -0.25587 -0.25594 -0.25539 -0.25534 -0.25492 -0.25438 -0.25383 -0.25366 -0.25323 -0.25318 -0.25325 -0.25308 -0.2529 -0.25248 -0.25255 -0.25237 -0.25256 -0.24337 -0.24344 -0.24338 -0.24296 -0.24278 -0.24235 -0.2423 -0.24211 -0.24181 -0.24213 -0.23922 -0.23879 -0.23873 -0.23706 -0.23676 -0.23658 -0.23639 -0.23584 -0.23566 -0.23547 -0.23479 -0.23448 -0.23442 -0.23424 -0.23406 -0.2335 -0.23344 -0.23313 -0.23233 -0.23214 -0.23208 -0.2314 -0.23134 -0.23128 -0.23084 -0.23078 -0.23072 -0.23053 -0.23047 -0.23041 -0.22997 -0.22991 -0.22947 -0.22929 -0.22923 -0.22891 -0.22885 -0.22879 -0.22848 -0.22829 -0.22823 -0.22816 -0.2281 -0.22779 -0.22747 -0.22779 -0.22747 -0.22741 -0.22735 -0.22703 -0.22697 -0.22716 -0.22709 -0.22715 -0.22709 -0.2269 -0.22696 -0.22703 -0.22696 -0.22715 -0.22721 -0.22727 -0.22734 -0.2274 -0.22771 -0.22752 -0.22758 -0.22764 -0.22758 -0.22764 -0.22783 -0.22789 -0.22833 -0.22839 -0.22846 -0.22864 -0.22858 -0.22852 -0.22858 -0.22864 -0.22896 -0.22902 -0.22908 -0.22914 -0.22908 -0.22927 -0.22971 -0.22977 -0.23009 -0.23028 -0.23059 -0.23078 -0.23097 -0.23129 -0.2316 -0.23179 -0.23236 -0.23243 -0.23262 -0.23293 -0.233 -0.23319 -0.23363 -0.23382 -0.23414 -0.2342 -0.23465 -0.2356 -0.23592 -0.23624 -0.23681 -0.23713 -0.23758 -0.23777 -0.23809 -0.23854 -0.23873 -0.23905 -0.23975 -0.24033 -0.24129 -0.24187 -0.24219 -0.24302 -0.24347 -0.24366 -0.24591 -0.24636 -0.24681 -0.24854 -0.24861 -0.24932 -0.25182 -0.25189 0 0 -0.31865 -0.31937 -0.31972 -0.3198 -0.32014 -0.32049 -0.3207 -0.32079 -0.321 -0.32083 -0.32091 -0.32126 -0.32186 -0.32207 -0.32242 -0.32302 -0.32401 -0.32396 -0.32431 -0.32491 -0.32487 -0.32521 -0.3253 -0.32551 -0.32728 -0.32737 -0.32823 -0.32845 -0.32854 -0.32862 -0.32884 -0.32893 -0.32876 -0.32884 -0.32958 -0.32979 -0.32988 -0.32997 -0.33044 -0.33053 -0.33062 -0.33045 -0.33092 -0.33231 -0.33227 -0.33327 -0.33336 -0.33227 -0.33236 -0.33401 -0.33423 -0.3338 -0.33128 -0.33136 -0.33158 -0.33037 -0.33071 -0.33145
