-0.637 -0.63797 -0.63898 0 0 0 -0.66502 -0.66385 -0.66267 -0.65908 -0.6555 -0.65432 -0.65312 -0.65428 -0.70563 -0.70303 -0.70043 -0.6992 -0.6966 -0.72088 -0.71092 -0.70824 -0.70556 -0.70436 -0.70595 -0.70758 -0.70924 -0.71832 -0.7141 -0.70687 -0.70118 -0.697 -0.74347 -0.74383 -0.74249 -0.73954 -0.73824 -0.73528 -0.73561 -0.731 -0.76221 -0.76267 -0.76316 -0.78412 -0.8274 -0.82397 -0.82911 -0.83217 -0.8581 -0.98014 -0.97599 -0.96885 -0.9677 -1.0044 -0.88982 -0.86831 -0.86208 -0.84869 -0.84736 -0.92423 -0.92303 -1.0163 -0.92917 -0.92501 -0.92086 -1.0372 -1.0325 -1.0206 -1.0017 -0.98346 -0.96241 -0.94835 -0.94709 -0.92404 -0.92277 0 -1.1254 -1.12 -1.1146 -1.1138 -1.2013 -1.0985 -1.0931 -1.1012 -1.1048 -1.0994 -1.0804 -1.0663 -1.0609 -1.0555 -1.0502 -1.0491 -1.0437 -1.0299 -1.0245 -1.0275 -1.0263 -1.0167 -1.0113 -1.0059 -1.0005 -0.99918 -1.0103 -0.99651 -0.97895 -0.96567 -0.96032 -0.96669 -0.97324 -0.96776 -0.96227 -0.95282 -0.94346 -0.94975 -0.94818 -0.95864 -0.94899 -0.92772 -0.92222 -0.92054 -0.9227 -0.921 -0.9154 -0.89843 -0.88918 -0.87638 -0.88555 -0.8874 -0.8818 -0.87253 -0.85972 -0.84713 -0.84514 -0.83963 -0.83761 -0.84619 -0.84057 -0.82793 -0.81892 -0.81678 -0.8112 -0.80563 -0.80005 -0.79782 -0.79222 -0.78663 -0.78434 -0.77872 -0.7764 -0.77075 -0.7651 -0.76272 -0.75381 -0.74498 -0.73624 -0.73374 -0.722 -0.71343 -0.70788 -0.69939 -0.69386 -0.69123 -0.68854 -0.68876 -0.68314 -0.67751 -0.66905 -0.65516 -0.64693 -0.63878 -0.63329 -0.62781 -0.60722 -0.59946 -0.59413 -0.5888 -0.5882 -0.58283 -0.57746 -0.56977 -0.56442 -0.56134 -0.55824 -0.55285 -0.54746 -0.54427 -0.53885 -0.53784 -0.53238 -0.52692 -0.53244 -0.52686 -0.52795 -0.5223 -0.51446 -0.50669 -0.49899 -0.49135 -0.48377 -0.47037 -0.45375 -0.44845 -0.44493 -0.4396 -0.43602 -0.43242 -0.43054 -0.42687 -0.42318 -0.42651 -0.42815 -0.43361 -0.4316 -0.42013 -0.41615 -0.41398 -0.40451 -0.39869 -0.39287 -0.38037 -0.37144 -0.36265 -0.35255 -0.34555 -0.33581 -0.32899 -0.32624 -0.32209 -0.32058 -0.31633 -0.31205 -0.30643 -0.29828 -0.29026 -0.28593 -0.28274 -0.27368 -0.26593 -0.2562 -0.25081 -0.25156 -0.24707 -0.2395 -0.234 -0.22661 -0.22023 -0.2148 -0.21022 -0.20647 -0.19848 -0.19304 -0.18608 -0.18069 -0.1782 -0.17272 -0.16793 -0.1631 -0.15757 -0.15204 -0.14591 -0.14099 -0.13834 -0.1327 -0.12705 -0.1214 -0.11675 -0.11106 -0.10446 -0.097981 -0.091994 -0.086419 -0.079836 -0.074641 -0.069403 -0.063583 -0.057813 -0.052091 -0.046415 -0.040955 -0.03579 -0.030284 -0.024779 -0.019193 -0.013825 -0.0083308 -0.0027903 0.0028571 0.0086516 0.014548 0.020458 0.026421 0.032876 0.038854 0.044832 0.050355 0.055782 0.058537 0.064113 0.069107 0.074949 0.080838 0.086053 0.091989 0.098391 0.10271 0.10736 0.11193 0.11691 0.12337 0.12938 0.13489 0.13981 0.14351 0.14832 0.15309 0.15911 0.16792 0.17562 0.18196 0.18677 0.19074 0.19545 0.20264 0.2082 0.21375 0.21838 0.22391 0.22849 0.23399 0.2395 0.2502 0.26025 0.27184 0.31685 0.32352 0.34588 0.35101 0.34353 0.3502 0.39247 0.3998 0.40267 0.41218 0.42653 0.43886 0.45408 0 0 0 0 0 0 0 0 0 0 0 0 0 0
-0.6327 -0.63368 -0.62725 0 0 0 -0.66988 -0.66627 -0.66388 -0.66148 -0.6555 -0.65312 -0.65193 -0.64725 -0.70563 -0.70303 -0.70181 -0.6992 -0.69796 -0.71945 -0.71241 -0.70824 -0.70415 -0.70289 -0.70736 -0.70758 -0.70924 -0.71832 -0.7141 -0.70536 -0.70118 -0.697 -0.74347 -0.74216 -0.74089 -0.73954 -0.73659 -0.73859 -0.73732 -0.74095 -0.76221 -0.76086 -0.7542 -0.75643 -0.75331 -0.75019 -0.84905 -0.84106 -0.8581 -0.85449 -0.85087 -0.87098 -0.86488 -0.89366 -0.88213 -0.87331 -0.87199 -0.8965 -0.89257 -0.88865 -0.94042 -0.93625 -0.99477 -0.99032 -0.9892 -1.0372 -1.0288 -1.0206 -1.0087 -0.99369 -0.97892 -0.98791 -1.0188 0 0 0 0 0 -1.2991 -1.2072 -1.2014 -1.081 -1.0843 -1.1057 -1.1048 -1.0948 -1.0804 -1.0706 -1.0696 -1.073 -1.0675 -1.062 -1.0522 -1.0425 -1.0413 -1.0402 -1.0347 -1.0293 -1.0154 -1.01 -1.0046 -0.99918 -1.0103 -0.99651 -0.97496 -0.96959 -0.96032 -0.96669 -0.96921 -0.96776 -0.96228 -0.95283 -0.94737 -0.94975 -0.95217 -0.95864 -0.94899 -0.9239 -0.92222 -0.91671 -0.91121 -0.91331 -0.90776 -0.89469 -0.88184 -0.87638 -0.88184 -0.8874 -0.88181 -0.87621 -0.85973 -0.85064 -0.84867 -0.85023 -0.84821 -0.8498 -0.84416 -0.83495 -0.82582 -0.82022 -0.81462 -0.80902 -0.80342 -0.79448 -0.79223 -0.78663 -0.78434 -0.77872 -0.7731 -0.76748 -0.76511 -0.76272 -0.75381 -0.74499 -0.73624 -0.73064 -0.72504 -0.71344 -0.70788 -0.69939 -0.69678 -0.69123 -0.69145 -0.68876 -0.68605 -0.67752 -0.67189 -0.66067 -0.64963 -0.6441 -0.63592 -0.63041 -0.61218 -0.60432 -0.59652 -0.59117 -0.5882 -0.58283 -0.57512 -0.56749 -0.56216 -0.55907 -0.55373 -0.54837 -0.54746 -0.54207 -0.53886 -0.54008 -0.5346 -0.53131 -0.53244 -0.52909 -0.52795 -0.52455 -0.51446 -0.50669 -0.49899 -0.49136 -0.48377 -0.47038 -0.45559 -0.44845 -0.44493 -0.44317 -0.43959 -0.43419 -0.4341 -0.43042 -0.42848 -0.42831 -0.42998 -0.43361 -0.4316 -0.42014 -0.41615 -0.41033 -0.40275 -0.39696 -0.38945 -0.38037 -0.37144 -0.36266 -0.35552 -0.34701 -0.33861 -0.3331 -0.32897 -0.32616 -0.32058 -0.31768 -0.31205 -0.30906 -0.29828 -0.2927 -0.28834 -0.28394 -0.27598 -0.26703 -0.26262 -0.26947 -0.26138 -0.25021 -0.24253 -0.23498 -0.22661 -0.21934 -0.21392 -0.21023 -0.20562 -0.19848 -0.19226 -0.18609 -0.18069 -0.1782 -0.17344 -0.16934 -0.16379 -0.1589 -0.15268 -0.14713 -0.14217 -0.13953 -0.13384 -0.1276 -0.12193 -0.11675 -0.11154 -0.10491 -0.097983 -0.092384 -0.086785 -0.080846 -0.075271 -0.070286 -0.063853 -0.058301 -0.052528 -0.046804 -0.041471 -0.035792 -0.030413 -0.024781 -0.019275 -0.013769 -0.0083678 -0.0028044 0.0028671 0.0086492 0.01461 0.020547 0.026655 0.032874 0.039206 0.04483 0.05058 0.056027 0.057092 0.063576 0.069104 0.074947 0.080499 0.086051 0.092374 0.098809 0.10314 0.10781 0.11193 0.11643 0.12387 0.12992 0.13545 0.13981 0.14351 0.14772 0.15247 0.15846 0.16862 0.17636 0.18273 0.18755 0.19074 0.19709 0.20435 0.20907 0.21464 0.2193 0.22485 0.22944 0.23497 0.2395 0.24914 0.25912 0.26712 0.30021 0.30653 0.34226 0.34556 0.32395 0.33024 0.38187 0.39542 0.40267 0.40993 0.42416 0.43639 0.44891 0.49297 0.51702 0.52543 0 0 0 0 0 0 0 0 0 0 0
-0.62956 -0.63048 -0.62725 0 0 0 -0.66988 -0.66627 -0.66388 -0.66029 -0.65199 -0.6485 -0.64844 -0.64837 -0.70563 -0.70303 -0.70181 -0.6992 -0.69796 -0.72088 -0.70807 -0.70973 -0.70415 -0.70289 -0.70883 -0.71051 -0.7107 -0.71832 -0.7141 -0.70831 -0.70261 -0.697 -0.74179 -0.74216 -0.73922 -0.73954 -0.73659 -0.74532 -0.74737 -0.74775 -0.75513 -0.7538 -0.7542 -0.75464 -0.75331 -0.75019 -0.84905 -0.85239 -0.85113 -0.85213 -0.86501 -0.87344 -0.87711 -0.8885 -0.87959 -0.87079 -0.87199 -0.8965 -0.89258 -0.88865 -0.94043 -0.93626 -0.99477 -1.0072 -0.98921 -1.0372 -1.0325 -1.0206 -0.99829 -0.98684 -0.98228 -0.98791 -1.0188 0 0 0 0 0 -1.2991 -1.2457 -1.2014 -1.081 -1.0887 -1.1057 -1.1048 -1.0903 -1.0673 -1.0706 -1.0874 -1.091 -1.0854 -1.0799 -1.0698 -1.0599 -1.0588 -1.0577 -1.0477 -1.0378 -1.0196 -1.01 -1.0046 -0.99918 -1.002 -0.99241 -0.96713 -0.95793 -0.95647 -0.96277 -0.96522 -0.96375 -0.95434 -0.94891 -0.94737 -0.94975 -0.94819 -0.95459 -0.94899 -0.9239 -0.92222 -0.91672 -0.91502 -0.90949 -0.9002 -0.89469 -0.88552 -0.88003 -0.88926 -0.88741 -0.88933 -0.88369 -0.87061 -0.86501 -0.86675 -0.8685 -0.87031 -0.86457 -0.85512 -0.84212 -0.83645 -0.82722 -0.8251 -0.81593 -0.80683 -0.80121 -0.79559 -0.78663 -0.78434 -0.77872 -0.7764 -0.77075 -0.76511 -0.76273 -0.75706 -0.74817 -0.73937 -0.73374 -0.72812 -0.71945 -0.71385 -0.70234 -0.69678 -0.69412 -0.69145 -0.68876 -0.68606 -0.68041 -0.67766 -0.66627 -0.6551 -0.64952 -0.64395 -0.63837 -0.62491 -0.61429 -0.60385 -0.59843 -0.59061 -0.58522 -0.57513 -0.56749 -0.56443 -0.55908 -0.55373 -0.5506 -0.54969 -0.54877 -0.54557 -0.54459 -0.54133 -0.53802 -0.53696 -0.5336 -0.52795 -0.52455 -0.51447 -0.50884 -0.50109 -0.49136 -0.48176 -0.47232 -0.45743 -0.45027 -0.44494 -0.44863 -0.44873 -0.44139 -0.43954 -0.43766 -0.43761 -0.43568 -0.43372 -0.42984 -0.42593 -0.41469 -0.41075 -0.405 -0.39413 -0.38679 -0.37953 -0.3739 -0.36828 -0.36266 -0.35856 -0.35291 -0.34433 -0.33731 -0.33455 -0.32753 -0.3233 -0.31904 -0.31473 -0.31039 -0.29954 -0.29271 -0.28957 -0.28516 -0.27951 -0.27155 -0.26708 -0.26713 -0.26253 -0.25454 -0.24774 -0.23896 -0.22755 -0.22024 -0.2148 -0.21198 -0.20647 -0.20014 -0.19465 -0.18839 -0.18293 -0.18045 -0.17563 -0.17297 -0.16729 -0.16232 -0.15595 -0.15028 -0.14523 -0.14136 -0.13559 -0.12982 -0.1246 -0.1188 -0.11203 -0.10582 -0.099246 -0.093575 -0.087528 -0.081882 -0.076235 -0.071505 -0.065221 -0.059296 -0.053421 -0.047597 -0.042176 -0.036095 -0.030671 -0.025096 -0.019358 -0.013829 -0.0083354 -0.0027949 0.0028647 0.0086093 0.014607 0.020544 0.026534 0.032576 0.038675 0.044228 0.049683 0.055284 0.05709 0.063573 0.068815 0.074631 0.079826 0.086409 0.09356 0.10009 0.10401 0.10871 0.11193 0.11643 0.12544 0.13156 0.13774 0.14157 0.14351 0.14832 0.15308 0.15975 0.17075 0.17862 0.18508 0.18915 0.19315 0.19875 0.20609 0.21174 0.21738 0.22303 0.2277 0.23136 0.23595 0.23949 0.24602 0.25367 0.26828 0.30021 0.30653 0.33697 0.33857 0.32395 0.33024 0.38395 0.38901 0.40267 0.40769 0.4218 0.43394 0.44636 0.51187 0.52033 0.52542 0 0 0 0 0 0 0 0 0 0 0
-0.62956 -0.63048 -0.63037 -0.64885 -0.64548 -0.64319 -0.66624 -0.66385 -0.66026 -0.65675 -0.64854 -0.64619 -0.64725 -0.64837 -0.70702 -0.70303 -0.70181 -0.70057 -0.69797 -0.69944 -0.7038 -0.70973 -0.70557 -0.70437 -0.7103 -0.71197 -0.71216 -0.71833 -0.7141 -0.70982 -0.70555 -0.70429 -0.74348 -0.74055 -0.74089 -0.73794 -0.73659 -0.74697 -0.75256 -0.75122 -0.75162 -0.75031 -0.75072 -0.75464 -0.75153 -0.74491 -0.86294 -0.8524 -0.84652 -0.84984 -0.86742 -0.87344 -0.87711 -0.88339 -0.87711 -0.86584 -0.85968 -0.8487 -0.84498 -0.88605 -1.0458 -1.0412 -1.033 -1.0248 -1.0237 -1.0598 -1.055 -0.98245 -0.98129 -0.97346 -0.97227 -0.96447 -1.0375 0 0 0 0 0 -1.2517 -1.2514 -1.2397 -1.103 -1.0976 -1.1103 -1.1048 -1.0903 -1.0673 -1.0706 -1.0919 -1.091 -1.0854 -1.0754 -1.0743 -1.0643 -1.0632 -1.0621 -1.0521 -1.0378 -1.0154 -1.01 -0.99645 -0.99513 -0.99785 -0.98435 -0.96324 -0.9541 -0.95262 -0.95885 -0.96128 -0.95978 -0.95045 -0.94891 -0.94737 -0.94975 -0.95218 -0.95059 -0.949 -0.9239 -0.92222 -0.92442 -0.91502 -0.91331 -0.90396 -0.90221 -0.8929 -0.89111 -0.89301 -0.89498 -0.89316 -0.89128 -0.88181 -0.8724 -0.878 -0.87988 -0.87794 -0.86834 -0.86257 -0.84572 -0.83645 -0.83078 -0.82864 -0.81944 -0.80684 -0.80122 -0.79223 -0.78663 -0.78103 -0.77873 -0.7764 -0.77407 -0.7684 -0.76599 -0.7603 -0.75139 -0.74252 -0.73688 -0.73437 -0.7225 -0.71385 -0.70825 -0.70265 -0.69413 -0.69145 -0.68585 -0.68314 -0.68041 -0.67767 -0.66912 -0.66065 -0.65226 -0.64395 -0.64106 -0.63016 -0.62199 -0.6139 -0.60089 -0.59302 -0.5876 -0.57746 -0.57209 -0.56904 -0.56364 -0.55825 -0.55286 -0.55195 -0.55334 -0.55012 -0.54917 -0.5436 -0.54029 -0.53696 -0.53134 -0.53023 -0.52456 -0.51447 -0.5067 -0.5011 -0.49136 -0.48176 -0.47038 -0.45929 -0.45208 -0.44673 -0.45236 -0.4525 -0.44139 -0.43955 -0.43951 -0.43949 -0.43947 -0.43562 -0.42985 -0.42224 -0.4129 -0.4072 -0.40151 -0.39077 -0.38191 -0.37634 -0.36767 -0.36367 -0.36113 -0.36164 -0.3575 -0.34433 -0.34017 -0.33598 -0.32616 -0.32194 -0.31768 -0.31339 -0.30774 -0.29704 -0.29149 -0.28835 -0.28516 -0.27951 -0.2727 -0.26822 -0.2683 -0.26368 -0.25676 -0.2499 -0.24102 -0.23042 -0.22207 -0.21659 -0.21287 -0.20908 -0.20181 -0.19546 -0.18996 -0.18445 -0.18121 -0.17712 -0.17371 -0.16874 -0.16303 -0.15867 -0.15224 -0.14713 -0.14261 -0.13619 -0.13096 -0.12514 -0.11985 -0.11301 -0.10629 -0.10011 -0.094387 -0.088667 -0.081884 -0.076565 -0.071817 -0.065788 -0.060068 -0.053882 -0.048005 -0.042358 -0.036249 -0.030673 -0.025098 -0.019442 -0.013831 -0.0083376 -0.0027971 0.0028501 0.0086445 0.01454 0.020542 0.026297 0.032143 0.038328 0.043641 0.049247 0.054802 0.058777 0.064376 0.06939 0.074011 0.079494 0.086046 0.094367 0.10009 0.10445 0.10871 0.11193 0.11643 0.12543 0.13212 0.13833 0.14157 0.14409 0.14892 0.15371 0.16041 0.17295 0.18016 0.18588 0.19077 0.19397 0.20044 0.20786 0.21355 0.21925 0.22494 0.22867 0.23234 0.23595 0.24049 0.24602 0.25261 0.25816 0 0 0 0.27919 0.28592 0.29517 0.30208 0.30642 0.34259 0.34876 0.42415 0.43153 0.44135 0.53226 0.52705 0.53562 0 0 0 0 0 0 0 0 0 0 0
-0.62847 -0.63048 -0.63037 -0.64885 -0.64771 -0.64319 -0.66624 -0.65909 -0.65559 -0.65322 -0.64854 -0.64619 -0.65075 -0.64837 -0.6627 -0.66144 -0.69224 -0.69235 -0.69114 -0.69536 -0.6941 -0.69419 -0.69157 -0.6931 -0.70449 -0.71051 -0.71362 -0.71384 -0.70963 -0.70248 -0.69831 -0.69558 -0.7451 -0.74384 -0.7425 -0.74121 -0.73991 -0.74868 -0.75427 -0.74436 -0.74472 -0.74513 -0.74724 -0.75291 -0.7498 -0.74669 -0.8583 -0.85703 -0.84427 -0.85449 -0.85088 -0.87344 -0.87711 -0.88594 -0.84098 -0.83964 -0.84063 -0.84164 -0.84498 -0.88605 -1.0422 -1.0412 -0.92627 -0.92502 -0.98587 -0.91102 -0.90969 -0.98245 -0.97796 -0.97346 -0.96896 -0.96447 -1.0375 0 0 0 0 0 -1.2517 -1.2514 -1.2397 -1.0897 -1.0887 -1.1149 -1.1141 -1.1039 -1.0631 -1.062 -1.1011 -1.1002 -1.09 -1.0844 -1.0743 -1.0688 -1.0632 -1.0621 -1.0565 -1.0422 -1.0196 -1.01 -1.0005 -0.99108 -0.98571 -0.97638 -0.95939 -0.95032 -0.95263 -0.95885 -0.96128 -0.95586 -0.95045 -0.94891 -0.94347 -0.95372 -0.94819 -0.94663 -0.94502 -0.92773 -0.92608 -0.92829 -0.91887 -0.91714 -0.91156 -0.89843 -0.88919 -0.89111 -0.8968 -0.89883 -0.89698 -0.89128 -0.88182 -0.87989 -0.88565 -0.88374 -0.88568 -0.87595 -0.86635 -0.85308 -0.84003 -0.83434 -0.82864 -0.82295 -0.81029 -0.80122 -0.79223 -0.7768 -0.77127 -0.77218 -0.76984 -0.76748 -0.75864 -0.75947 -0.75382 -0.73873 -0.73625 -0.73688 -0.73438 -0.72871 -0.71688 -0.70825 -0.70265 -0.69413 -0.69146 -0.68877 -0.68315 -0.67752 -0.67767 -0.66912 -0.65786 -0.65226 -0.64667 -0.64107 -0.6328 -0.622 -0.61137 -0.60089 -0.59545 -0.5876 -0.58219 -0.57677 -0.5737 -0.56826 -0.56053 -0.55511 -0.55654 -0.55565 -0.55475 -0.54917 -0.5436 -0.53802 -0.53023 -0.52687 -0.52349 -0.52009 -0.51015 -0.50457 -0.499 -0.48931 -0.48177 -0.47429 -0.46117 -0.45577 -0.45038 -0.45424 -0.45631 -0.44508 -0.44324 -0.44138 -0.44138 -0.44139 -0.43373 -0.42614 -0.4186 -0.41114 -0.40374 -0.3964 -0.38749 -0.38032 -0.37477 -0.36922 -0.36367 -0.36266 -0.36322 -0.35905 -0.34727 -0.34163 -0.33887 -0.32754 -0.32331 -0.31768 -0.31206 -0.30514 -0.2958 -0.29149 -0.28957 -0.28516 -0.28192 -0.27504 -0.26937 -0.26948 -0.26368 -0.25901 -0.25319 -0.24416 -0.23138 -0.22299 -0.2184 -0.21466 -0.20997 -0.20437 -0.19793 -0.19156 -0.186 -0.18121 -0.17788 -0.17447 -0.16948 -0.16373 -0.15937 -0.15291 -0.14714 -0.14324 -0.13679 -0.13097 -0.1257 -0.11986 -0.11301 -0.10675 -0.10054 -0.094798 -0.088669 -0.082238 -0.076895 -0.07182 -0.066363 -0.06033 -0.05435 -0.04842 -0.042725 -0.036558 -0.030936 -0.025421 -0.019607 -0.014009 -0.00841 -0.0028232 0.0028725 0.00868 0.014475 0.02027 0.025616 0.031311 0.037327 0.042886 0.048396 0.05386 0.058775 0.064103 0.069388 0.074009 0.079163 0.086404 0.094773 0.10052 0.1049 0.10916 0.11333 0.11739 0.12543 0.13268 0.13892 0.14216 0.14409 0.14953 0.15433 0.16107 0.17075 0.17938 0.18669 0.19077 0.19647 0.20216 0.21058 0.21635 0.22212 0.2269 0.22965 0.23332 0.23694 0.22454 0.23061 0.23579 0.24097 0 0 0 0.26692 0.27441 0.28086 0.28621 0.29039 0.29572 0.30226 0.30886 0.34813 0.35408 0.48401 0.52704 0.53561 0 0 0 0 0 0 0 0 0 0 0
-0.62847 -0.62947 -0.63037 -0.6534 -0.65339 -0.66268 -0.66624 -0.65795 -0.65091 -0.64977 -0.64622 -0.64619 -0.6627 -0.66389 -0.66388 -0.66026 -0.68956 -0.68967 -0.68977 -0.69264 -0.69275 -0.69149 -0.68888 -0.68895 -0.69881 -0.7179 -0.71514 -0.71239 -0.71108 -0.70393 -0.69831 -0.69558 -0.7484 -0.74713 -0.74417 -0.74121 -0.74156 -0.7504 -0.75597 -0.74266 -0.74134 -0.74169 -0.74376 -0.75111 -0.7498 -0.7467 -0.8583 -0.86879 -0.86757 -0.94468 -0.94352 -0.8759 -0.86972 -0.88595 -0.84098 -0.83735 -0.83371 -0.8487 -0.84499 -0.88866 -1.0422 -1.0412 -0.92627 -0.92502 -0.98587 -0.91102 -0.90969 -0.98245 -0.97796 -0.97346 -0.96897 -0.96447 0 0 0 0 0 0 0 0 0 -1.0897 -1.0887 -1.1533 -1.1427 -1.137 -1.1362 -1.1305 -1.1248 -1.1191 -1.1086 -1.0983 -1.088 -1.0823 -1.0722 -1.0757 -1.07 -1.0554 -1.0281 -1.0142 -1.0005 -0.99514 -0.98571 -0.97638 -0.96324 -0.95411 -0.95263 -0.96278 -0.96523 -0.95587 -0.95435 -0.94891 -0.94737 -0.95372 -0.9482 -0.94663 -0.94502 -0.93161 -0.93387 -0.92829 -0.91887 -0.90949 -0.90777 -0.8947 -0.88552 -0.88004 -0.88926 -0.89118 -0.89316 -0.89516 -0.88945 -0.88372 -0.89341 -0.89153 -0.88963 -0.88768 -0.87399 -0.86056 -0.84734 -0.84526 -0.83949 -0.83373 -0.81725 -0.80464 -0.7956 -0.7768 -0.76807 -0.76897 -0.76984 -0.76103 -0.75864 -0.75947 -0.75382 -0.74185 -0.73937 -0.74005 -0.74073 -0.73183 -0.71994 -0.70825 -0.70266 -0.69413 -0.69146 -0.68877 -0.68606 -0.68042 -0.67767 -0.66912 -0.66066 -0.65227 -0.65219 -0.64932 -0.63017 -0.622 -0.61137 -0.60089 -0.59545 -0.58761 -0.587 -0.58638 -0.57847 -0.57299 -0.56515 -0.55739 -0.55885 -0.56269 -0.55945 -0.55619 -0.54821 -0.54029 -0.53023 -0.52687 -0.5235 -0.52232 -0.51447 -0.51102 -0.50323 -0.4955 -0.48785 -0.48227 -0.4767 -0.47512 -0.46949 -0.46585 -0.46618 -0.45262 -0.45084 -0.44902 -0.44716 -0.44333 -0.43562 -0.42429 -0.4186 -0.41291 -0.40374 -0.3964 -0.39078 -0.38353 -0.37634 -0.37077 -0.36829 -0.36894 -0.36799 -0.36378 -0.35485 -0.34908 -0.34331 -0.33175 -0.32469 -0.31904 -0.31206 -0.30515 -0.2958 -0.29395 -0.29206 -0.28761 -0.28561 -0.27863 -0.27288 -0.27065 -0.26601 -0.26132 -0.25773 -0.24847 -0.23434 -0.22581 -0.22116 -0.21927 -0.21451 -0.20788 -0.20219 -0.19566 -0.18837 -0.18274 -0.17864 -0.17676 -0.17096 -0.16589 -0.1615 -0.15562 -0.14909 -0.14388 -0.13801 -0.13214 -0.12682 -0.12039 -0.11302 -0.10722 -0.10098 -0.095213 -0.089056 -0.083674 -0.077905 -0.072451 -0.066365 -0.060861 -0.055066 -0.049486 -0.043477 -0.037354 -0.03161 -0.025865 -0.020034 -0.014252 -0.0085943 -0.0028869 0.0028827 0.0086776 0.014472 0.020179 0.025504 0.031308 0.037164 0.042884 0.048187 0.053858 0.059022 0.064371 0.069676 0.075252 0.08049 0.084621 0.095601 0.10095 0.10626 0.11104 0.11525 0.11935 0.12596 0.13325 0.13892 0.14336 0.14468 0.15014 0.1556 0.16241 0.16861 0.18252 0.18998 0.19496 0.20078 0.20844 0.21623 0.22316 0.22911 0.23506 0.23366 0.23532 0.23793 0.22454 0.2306 0.23579 0.24097 0 0 0 0.26692 0.2733 0.28086 0.28391 0.28922 0.29572 0.30105 0.30761 0.34813 0.35408 0.48401 0 0 0 0 0 0 0 0 0 0 0 0 0
-0.62745 -0.62947 -0.63037 -0.65802 -0.65799 -0.66382 -0.66745 -0.64643 -0.64638 -0.64518 -0.64397 -0.64051 -0.65906 -0.66389 -0.66513 -0.66393 -0.68694 -0.687 -0.6871 -0.69128 -0.69004 -0.68879 -0.68619 -0.68626 -0.68906 -0.69195 -0.6879 -0.71384 -0.71259 -0.71729 -0.73153 -0.72704 -0.7484 -0.74713 -0.74417 -0.74121 -0.73825 -0.74869 -0.75427 -0.74096 -0.73965 -0.73832 -0.73866 -0.74938 -0.74801 -0.74492 -0.89458 -0.88341 -0.8797 -0.95332 -0.95218 -0.94814 -0.88719 -0.88595 -0.84098 -0.83735 -0.83372 -0.89388 -0.89258 -0.8993 -0.89268 -0.88872 -0.92918 -0.92502 -0.98587 -0.96205 -0.95769 -0.98246 -0.98129 -1.0331 -0.9857 -0.98452 0 0 0 0 0 0 0 0 0 -1.112 -1.1066 -1.1997 -1.1526 -1.137 -1.1313 -1.1305 -1.1445 -1.1338 -1.1182 -1.1077 -1.0973 -1.087 -1.0767 -1.0803 -1.0792 -1.0599 -1.0281 -1.0184 -1.0087 -0.99919 -0.98975 -0.98034 -0.96714 -0.96181 -0.96033 -0.96278 -0.96523 -0.95979 -0.9583 -0.94891 -0.94738 -0.95774 -0.9482 -0.94663 -0.94108 -0.93553 -0.92998 -0.92442 -0.91122 -0.90197 -0.89649 -0.88731 -0.87822 -0.87279 -0.87456 -0.87632 -0.88182 -0.89129 -0.88182 -0.8799 -0.88953 -0.8876 -0.88963 -0.88376 -0.87789 -0.86056 -0.85104 -0.84897 -0.8395 -0.83738 -0.82081 -0.81156 -0.799 -0.77681 -0.77128 -0.76575 -0.76661 -0.76104 -0.76186 -0.75947 -0.75062 -0.745 -0.74253 -0.74322 -0.74073 -0.73183 -0.72304 -0.7143 -0.70564 -0.69706 -0.69146 -0.68877 -0.68607 -0.68334 -0.67767 -0.66913 -0.65787 -0.65504 -0.65219 -0.64932 -0.63017 -0.61941 -0.61137 -0.59844 -0.59302 -0.58761 -0.58458 -0.58638 -0.58087 -0.57062 -0.56516 -0.5597 -0.56354 -0.56508 -0.56426 -0.55859 -0.55055 -0.54029 -0.5347 -0.52688 -0.52572 -0.52232 -0.51889 -0.51542 -0.50972 -0.50188 -0.49621 -0.49054 -0.49118 -0.48544 -0.47969 -0.47601 -0.4723 -0.45847 -0.45474 -0.45097 -0.44912 -0.44526 -0.43562 -0.4243 -0.4186 -0.41291 -0.40374 -0.3964 -0.39078 -0.3868 -0.37954 -0.37233 -0.37145 -0.37054 -0.3696 -0.3622 -0.3564 -0.35061 -0.34481 -0.33318 -0.32609 -0.32042 -0.3134 -0.30644 -0.2958 -0.29395 -0.29206 -0.29012 -0.28686 -0.28107 -0.27527 -0.27066 -0.26601 -0.26248 -0.25773 -0.24958 -0.23535 -0.22676 -0.2221 -0.21834 -0.21358 -0.20879 -0.20219 -0.1965 -0.18837 -0.18275 -0.17941 -0.17676 -0.17247 -0.16663 -0.16221 -0.15632 -0.15042 -0.14452 -0.13801 -0.13214 -0.12797 -0.12147 -0.11351 -0.10722 -0.10143 -0.095633 -0.089446 -0.083313 -0.07859 -0.072454 -0.066949 -0.060864 -0.055309 -0.049489 -0.043479 -0.037357 -0.03175 -0.02598 -0.020036 -0.014254 -0.0086339 -0.0029018 0.002893 0.0086752 0.01447 0.020177 0.025393 0.031306 0.037162 0.042696 0.048185 0.053625 0.05902 0.064642 0.070265 0.076211 0.081509 0.088256 0.096442 0.10184 0.10719 0.112 0.11476 0.11836 0.12596 0.13268 0.13892 0.14336 0.14409 0.15014 0.1556 0.16173 0.17003 0.18829 0.1934 0.19845 0.19991 0.20936 0.21818 0.22517 0.23223 0.23719 0.23675 0.23838 0.23894 0.23271 0.2371 0 0 0 0.25842 0.26481 0.26799 0.2733 0.27973 0.28391 0.28922 0.29452 0.29983 0.30392 0.3181 0.30714 0.3123 0.31746 0.32262 0 0 0 0 0 0 0 0 0 0.72999 0.74006
-0.62745 -0.62838 -0.62936 -0.63782 -0.63556 -0.6333 -0.66988 -0.64643 -0.64524 -0.63953 -0.63496 -0.6316 -0.63035 -0.62805 -0.66513 -0.66268 -0.68433 -0.6857 -0.68711 -0.68991 -0.68868 -0.68879 -0.68619 -0.68627 -0.68632 -0.68922 -0.6879 -0.71239 -0.71259 -0.71579 -0.71757 -0.7117 -0.73694 -0.73726 -0.73762 -0.73955 -0.73659 -0.73364 -0.75775 -0.73762 -0.73463 -0.73333 -0.73194 -0.75291 -0.7498 -0.7467 -0.88956 -0.88834 -0.8797 -0.90904 -0.90255 -0.9228 -0.88469 -0.8834 -0.84098 -0.83505 -0.83143 -0.89388 -0.89258 -0.89664 -0.89533 -0.90771 -0.91485 -0.91076 -0.94457 -0.96205 -0.95769 -0.96281 -0.9813 -1.0148 -0.9857 -0.98453 0 0 0 0 0 0 0 0 0 -1.112 -1.1066 -1.1997 -1.1526 -1.1419 -1.1265 -1.1305 -1.1546 -1.1387 -1.128 -1.1173 -1.1068 -1.087 -1.0813 -1.0849 -1.0839 -1.0644 -1.0281 -1.0184 -1.0129 -0.9992 -0.99378 -0.98436 -0.97103 -0.96568 -0.96033 -0.9667 -0.96523 -0.96376 -0.9583 -0.95284 -0.94738 -0.95373 -0.94426 -0.94267 -0.93714 -0.93161 -0.92608 -0.92443 -0.9037 -0.89824 -0.89278 -0.88366 -0.87823 -0.8657 -0.87456 -0.87633 -0.88182 -0.89129 -0.8856 -0.8799 -0.88566 -0.8876 -0.88178 -0.88376 -0.87789 -0.86056 -0.85104 -0.84897 -0.84318 -0.84104 -0.82437 -0.81509 -0.799 -0.78007 -0.77128 -0.76897 -0.76661 -0.76104 -0.76187 -0.76274 -0.75383 -0.745 -0.74892 -0.74645 -0.74074 -0.72871 -0.71995 -0.7143 -0.70564 -0.69414 -0.69146 -0.68877 -0.68315 -0.67753 -0.67191 -0.66347 -0.65787 -0.65227 -0.65219 -0.64932 -0.63017 -0.622 -0.61138 -0.59844 -0.59303 -0.59002 -0.58458 -0.58638 -0.58088 -0.57062 -0.56516 -0.5597 -0.56355 -0.56749 -0.56426 -0.5562 -0.54821 -0.5403 -0.53697 -0.5291 -0.52572 -0.52232 -0.51889 -0.51542 -0.51194 -0.50622 -0.5005 -0.49909 -0.49765 -0.49401 -0.48601 -0.48231 -0.47647 -0.46246 -0.45671 -0.45492 -0.45109 -0.44526 -0.43563 -0.4243 -0.41682 -0.40939 -0.40203 -0.39473 -0.39078 -0.39013 -0.38116 -0.37551 -0.37145 -0.37055 -0.3696 -0.36378 -0.35796 -0.34908 -0.34035 -0.32481 -0.31926 -0.31239 -0.30686 -0.30008 -0.29214 -0.28788 -0.28714 -0.28157 -0.28072 -0.27743 -0.27289 -0.26948 -0.26369 -0.25902 -0.25545 -0.24847 -0.23636 -0.2287 -0.22306 -0.21928 -0.21451 -0.20879 -0.20307 -0.1965 -0.18999 -0.18432 -0.18019 -0.17754 -0.17248 -0.16737 -0.16368 -0.15702 -0.15042 -0.14452 -0.13862 -0.13214 -0.1274 -0.12093 -0.11302 -0.10676 -0.10143 -0.095635 -0.089449 -0.083679 -0.078251 -0.072456 -0.06637 -0.0606 -0.055071 -0.049491 -0.043481 -0.037522 -0.031752 -0.025983 -0.020039 -0.014319 -0.0086362 -0.0029169 0.0028906 0.0087107 0.014468 0.020174 0.025499 0.031303 0.036999 0.042879 0.048183 0.053623 0.058768 0.06464 0.070562 0.076536 0.081855 0.088254 0.095596 0.10183 0.10719 0.11152 0.1138 0.11787 0.12542 0.13267 0.13892 0.14275 0.14291 0.14831 0.15433 0.16106 0.16861 0.18829 0.19515 0.20025 0.1999 0.20936 0.21917 0.22723 0.23436 0.23935 0.2378 0.23942 0.23398 0.2327 0.2371 0 0 0 0.25841 0.26374 0.26799 0.2733 0.27973 0.28391 0.28806 0.29335 0.29863 0.30514 0.3117 0.30834 0.31352 0.3187 0.32262 0 0 0 0 0 0 0 0 0.8126 0.72447 0.73446
-0.62957 -0.62947 -0.63037 -0.63565 -0.63448 -0.6333 -0.67352 -0.64984 -0.64411 -0.63953 -0.63496 -0.63266 -0.63035 -0.62805 -0.66513 -0.66268 -0.68564 -0.6857 -0.68581 -0.68992 -0.69004 -0.69149 -0.69023 -0.68493 -0.68098 -0.69195 -0.68929 -0.71239 -0.71108 -0.71278 -0.713 -0.7117 -0.73533 -0.73565 -0.73434 -0.73955 -0.76566 -0.7697 -0.7666 -0.73435 -0.73137 -0.73495 -0.73194 -0.76914 -0.75153 -0.74842 -0.89207 -0.88585 -0.89214 -0.89606 -0.9052 -0.9228 -0.88469 -0.86843 -0.84796 -0.83506 -0.83143 -0.90182 -0.89787 -0.89665 -0.89534 -0.90771 -0.9092 -0.91076 -0.94458 0 -0.96722 -0.96281 -1.0159 -1.0148 0 0 0 0 0 0 0 0 0 0 0 -1.1354 -1.1299 -1.2106 -1.1526 -1.137 -1.1265 -1.1257 -1.1546 -1.1338 -1.1231 -1.1222 -1.1164 -1.1011 -1.0906 -1.0944 -1.0886 -1.069 -1.0367 -1.0226 -1.0171 -1.0116 -0.99786 -0.99242 -0.97896 -0.97357 -0.96818 -0.9667 -0.96523 -0.9598 -0.9583 -0.95284 -0.94738 -0.95774 -0.94426 -0.93875 -0.93714 -0.93553 -0.93387 -0.9283 -0.91888 -0.9095 -0.90397 -0.89471 -0.89291 -0.88005 -0.89302 -0.89884 -0.89699 -0.89517 -0.8856 -0.88373 -0.88566 -0.88375 -0.88178 -0.88377 -0.87789 -0.87202 -0.86231 -0.85646 -0.85061 -0.84477 -0.83159 -0.82219 -0.80937 -0.78664 -0.78104 -0.77874 -0.78309 -0.77739 -0.77506 -0.77267 -0.76362 -0.7579 -0.75873 -0.75296 -0.74395 -0.73183 -0.72304 -0.71737 -0.70866 -0.69414 -0.69146 -0.68878 -0.68315 -0.68042 -0.67478 -0.66629 -0.65787 -0.65784 -0.65499 -0.6521 -0.63548 -0.62723 -0.61648 -0.60589 -0.59792 -0.59493 -0.58945 -0.58883 -0.5833 -0.573 -0.56516 -0.56203 -0.56591 -0.57237 -0.56426 -0.5562 -0.55056 -0.5403 -0.54158 -0.53135 -0.52797 -0.52232 -0.5189 -0.51542 -0.51416 -0.51063 -0.50486 -0.50128 -0.50431 -0.49841 -0.49251 -0.48662 -0.48072 -0.47063 -0.46478 -0.46098 -0.45511 -0.45123 -0.43945 -0.42615 -0.41861 -0.41115 -0.40203 -0.39473 -0.39245 -0.39697 -0.39118 -0.37874 -0.37146 -0.36895 -0.3696 -0.36378 -0.35641 -0.34757 -0.34035 -0.32211 -0.31529 -0.30981 -0.30433 -0.29638 -0.28975 -0.28319 -0.28475 -0.28157 -0.27833 -0.27623 -0.27171 -0.26948 -0.26369 -0.25902 -0.25432 -0.24958 -0.24051 -0.23268 -0.22693 -0.22215 -0.21544 -0.21061 -0.20484 -0.19995 -0.1933 -0.18836 -0.18256 -0.17991 -0.17402 -0.16887 -0.16368 -0.15773 -0.1511 -0.14453 -0.13801 -0.13214 -0.1274 -0.1204 -0.11302 -0.10676 -0.10143 -0.096055 -0.090235 -0.084415 -0.078595 -0.072458 -0.066663 -0.060868 -0.055073 -0.049494 -0.043484 -0.037689 -0.031755 -0.025985 -0.020128 -0.014383 -0.0087142 -0.0029321 0.002901 0.0087469 0.014593 0.020349 0.025497 0.031168 0.036839 0.042691 0.04818 0.053621 0.059015 0.064637 0.07026 0.076534 0.082205 0.088636 0.095177 0.10139 0.10718 0.112 0.11475 0.11835 0.12542 0.13211 0.13891 0.14275 0.14291 0.1483 0.15432 0.16106 0.16861 0.19352 0.19783 0.20206 0.20167 0.21125 0.22117 0.23039 0.23653 0.24268 0.23467 0.23942 0.26356 0.26977 0 0 0 0 0.25841 0.26059 0.26586 0.27112 0.27749 0.28277 0.28692 0.29218 0.29745 0.30513 0.3117 0.312 0.31724 0.32377 0.32904 0 0 0 0 0 0 0 0 0.81259 0.74126 0.73446
-0.62848 -0.62736 -0.62827 -0.63241 -0.63125 -0.63008 -0.6556 -0.64871 -0.64411 -0.63953 -0.63609 -0.6349 -0.63259 -0.6325 -0.66514 -0.66268 -0.68302 -0.6844 -0.68581 -0.68992 -0.69004 -0.69562 -0.69433 -0.69726 -0.70883 -0.7209 -0.71216 -0.71087 -0.70964 -0.71278 -0.713 -0.71021 -0.73694 -0.73565 -0.73762 -0.76694 -0.78758 -0.777 -0.77387 -0.76709 -0.76398 -0.75206 -0.74899 -0.78035 -0.8065 -0.80316 -0.85365 -0.8524 -0.89469 -0.89093 -0.88463 -0.86374 -0.86245 -0.87093 -0.85506 -0.85378 -0.9223 -0.89651 -0.89526 -0.89665 -0.89269 -0.90221 -0.90367 -0.89962 -0.96008 -0.95884 -0.95769 -1.0206 -1.0159 -1.0112 0 0 0 0 0 0 0 0 0 0 0 -1.145 -1.1442 -1.1735 -1.1427 -1.1273 -1.1123 -1.1161 -1.1395 -1.124 -1.1182 -1.1321 -1.1213 -1.1011 -1.0906 -1.0944 -1.0886 -1.0735 -1.0367 -1.0269 -1.0256 -1.0074 -1.002 -0.99243 -0.98295 -0.98155 -0.97212 -0.96671 -0.96524 -0.96376 -0.95436 -0.94892 -0.94348 -0.95774 -0.94426 -0.93876 -0.93715 -0.93553 -0.94179 -0.93221 -0.92661 -0.92102 -0.91542 -0.91368 -0.91193 -0.89485 -0.89302 -0.89119 -0.89317 -0.89905 -0.89331 -0.88756 -0.88566 -0.8876 -0.88178 -0.88377 -0.8779 -0.86815 -0.86231 -0.86028 -0.85441 -0.84477 -0.83893 -0.8258 -0.81288 -0.80018 -0.7911 -0.79222 -0.79682 -0.78758 -0.78523 -0.77604 -0.77027 -0.7645 -0.76538 -0.75956 -0.74395 -0.73502 -0.73246 -0.72045 -0.71171 -0.70002 -0.6944 -0.69172 -0.68902 -0.68926 -0.68058 -0.67201 -0.66634 -0.66349 -0.66066 -0.66065 -0.6409 -0.63255 -0.62428 -0.61095 -0.6029 -0.59989 -0.59436 -0.59379 -0.58331 -0.57537 -0.56987 -0.56436 -0.57071 -0.57237 -0.56668 -0.55859 -0.55292 -0.54491 -0.53926 -0.53362 -0.52797 -0.52233 -0.5189 -0.51991 -0.51867 -0.51511 -0.51383 -0.51021 -0.50656 -0.5029 -0.49695 -0.49321 -0.48505 -0.4791 -0.47315 -0.46509 -0.46125 -0.45324 -0.4414 -0.42986 -0.42225 -0.4094 -0.40548 -0.39981 -0.39755 -0.39871 -0.39289 -0.38039 -0.37305 -0.37055 -0.368 -0.36221 -0.35641 -0.34909 -0.34332 -0.32345 -0.31399 -0.30981 -0.30182 -0.29517 -0.28858 -0.28203 -0.28475 -0.2804 -0.28073 -0.27623 -0.27171 -0.26949 -0.26369 -0.25902 -0.25546 -0.24959 -0.24156 -0.23369 -0.22892 -0.22313 -0.21828 -0.21154 -0.20664 -0.20082 -0.195 -0.19002 -0.18499 -0.17992 -0.17559 -0.16964 -0.16442 -0.15773 -0.15043 -0.14453 -0.13802 -0.13156 -0.12683 -0.11987 -0.11253 -0.1063 -0.10143 -0.096058 -0.090637 -0.084791 -0.078945 -0.073099 -0.066666 -0.060871 -0.055316 -0.049496 -0.043676 -0.037691 -0.031896 -0.026215 -0.02013 -0.014512 -0.0087546 -0.0029606 0.0028984 0.0087836 0.014721 0.020528 0.025386 0.0309 0.036368 0.041967 0.047972 0.053618 0.059265 0.064911 0.070558 0.076859 0.082554 0.088633 0.095592 0.10139 0.10765 0.11199 0.11623 0.12035 0.12595 0.13211 0.13715 0.14155 0.14349 0.14891 0.1556 0.16173 0.16652 0.19442 0.19874 0.20206 0.20437 0.21316 0.22218 0.23146 0.23875 0.2438 0.23467 0.24046 0 0 0 0 0 0.24424 0.24556 0.25551 0.25966 0.26687 0.27529 0.27942 0.28465 0.28987 0.29744 0.30513 0.31295 0.31324 0.3185 0.32377 0.32903 0 0 0 0.65953 0.66944 0.67936 0 0 0.75431 0.73557 0.72895
-0.62745 -0.62736 -0.62726 -0.62923 -0.63017 -0.63008 -0.65561 -0.64985 -0.64411 -0.64066 -0.63722 -0.6349 -0.63371 -0.6325 -0.66028 -0.65785 -0.66272 -0.66897 -0.66518 -0.67413 -0.67546 -0.67292 -0.69992 -0.70149 -0.71325 -0.71637 -0.71362 -0.71087 -0.70812 -0.71134 -0.713 -0.71021 -0.73695 -0.73726 -0.73595 -0.76514 -0.76923 -0.777 -0.77571 -0.76709 -0.76041 -0.75381 -0.74899 -0.78221 -0.78861 -0.80316 -0.85365 -0.85009 -0.88462 -0.84073 -0.83717 -0.83362 -0.86245 -0.86843 -0.85506 -0.84666 -0.91949 -0.90457 -0.88997 -0.89393 -0.88998 -0.89676 -0.90093 -0.89963 -0.95691 -0.95575 -0.9545 -1.0206 -1.0159 -1.0112 0 0 0 0 0 0 0 0 0 0 0 -1.145 -1.1394 -1.1533 -1.1378 -1.1273 -1.0984 -1.0975 -1.1152 -1.1096 -1.1134 -1.1371 -1.1213 -1.1059 -1.1001 -1.0944 -1.0886 -1.0782 -1.041 -1.0311 -1.0256 -1.0116 -1.0062 -0.99653 -0.9952 -0.98971 -0.96818 -0.97068 -0.96923 -0.96377 -0.95831 -0.95285 -0.94739 -0.95373 -0.94426 -0.93876 -0.94109 -0.93945 -0.94581 -0.94421 -0.93452 -0.93287 -0.93116 -0.9295 -0.93182 -0.91408 -0.89681 -0.89119 -0.88935 -0.90297 -0.89331 -0.88757 -0.88182 -0.88375 -0.88179 -0.88377 -0.8779 -0.87203 -0.86231 -0.85647 -0.8582 -0.8523 -0.84267 -0.83308 -0.82001 -0.80714 -0.8014 -0.80612 -0.80743 -0.798 -0.79216 -0.78631 -0.78047 -0.7712 -0.76877 -0.75956 -0.75047 -0.74142 -0.73565 -0.72672 -0.71786 -0.70302 -0.69737 -0.69469 -0.69197 -0.69527 -0.68651 -0.67782 -0.67502 -0.66927 -0.66642 -0.66644 -0.64923 -0.63799 -0.62961 -0.61609 -0.61051 -0.60494 -0.60189 -0.59379 -0.58821 -0.58021 -0.57466 -0.5691 -0.57315 -0.57238 -0.57161 -0.56343 -0.55529 -0.5496 -0.54158 -0.53362 -0.52797 -0.52457 -0.52339 -0.52218 -0.52324 -0.5197 -0.52076 -0.51481 -0.51115 -0.50746 -0.50145 -0.49771 -0.48945 -0.48344 -0.47743 -0.4693 -0.46333 -0.4553 -0.44533 -0.43363 -0.42595 -0.41116 -0.40722 -0.40502 -0.40102 -0.39871 -0.39289 -0.38039 -0.37305 -0.37217 -0.36961 -0.36221 -0.35486 -0.34909 -0.34183 -0.31555 -0.31142 -0.30601 -0.29815 -0.29278 -0.28741 -0.2809 -0.2824 -0.2804 -0.28193 -0.27624 -0.27172 -0.26949 -0.2637 -0.25903 -0.25546 -0.24959 -0.24157 -0.23472 -0.22892 -0.2251 -0.21925 -0.21246 -0.20756 -0.20261 -0.19674 -0.19171 -0.18582 -0.18154 -0.17638 -0.1704 -0.16369 -0.15702 -0.15043 -0.14389 -0.13802 -0.13156 -0.12684 -0.11987 -0.11253 -0.10676 -0.10144 -0.096486 -0.091044 -0.085172 -0.0793 -0.073102 -0.067256 -0.061139 -0.055564 -0.049498 -0.043299 -0.037529 -0.031759 -0.026104 -0.02022 -0.014514 -0.008757 -0.0029241 0.0028708 0.0086658 0.014461 0.020256 0.025169 0.03051 0.035912 0.04144 0.047564 0.053388 0.059262 0.064909 0.070555 0.076857 0.082911 0.089015 0.095589 0.10183 0.10765 0.11297 0.11774 0.12137 0.12648 0.1321 0.13657 0.13695 0.14232 0.14952 0.15624 0.1624 0.16651 0.19442 0.19783 0.20114 0.20622 0.21609 0.22424 0.23255 0.241 0.24726 0.23467 0.24046 0.26732 0.27231 0.27726 0.28483 0.23544 0.24424 0.24556 0.24966 0.25279 0.25779 0.26787 0.27402 0.27807 0.28427 0.29164 0.2968 0.3155 0.31324 0.31723 0.32377 0.32903 0 0 0 0.65952 0.66944 0.67936 0 0 0.76037 0.72446 0.73445
-0.63169 -0.63158 -0.63255 -0.63133 -0.63448 -0.63223 -0.66146 -0.65212 -0.64751 -0.64405 -0.64285 -0.64507 -0.66515 -0.6639 -0.66028 -0.66027 -0.66395 -0.66643 -0.66648 -0.67413 -0.67289 -0.67292 -0.70988 -0.70866 -0.71178 -0.72243 -0.71661 -0.71239 -0.70964 -0.70393 -0.71757 -0.71626 -0.75009 -0.75049 -0.74925 -0.76342 -0.76566 -0.77332 -0.77204 -0.7671 -0.76041 -0.75381 -0.74899 -0.79386 -0.79651 -0.80316 -0.85366 -0.85009 -0.88462 -0.84073 -0.83717 -0.83583 -0.87712 -0.87337 -0.85033 -0.84666 -0.91673 -0.90457 -0.88997 -0.89133 -0.89534 -0.91328 -0.91766 -0.92213 -0.9538 -0.96206 -0.9545 -1.0206 -1.0159 -1.0112 0 0 0 0 0 0 0 0 0 0 0 -1.145 -1.1394 -1.1338 -1.1378 -1.1419 -1.2373 -1.1067 -1.1058 -1.1096 -1.1039 -1.1523 -1.1464 -1.1354 -1.1295 -1.1236 -1.1177 -1.1069 -1.0588 -1.0442 -1.0299 -1.0201 -1.0231 -1.0218 -1.0337 -1.0236 -0.99244 -0.99106 -0.98963 -0.97996 -0.9744 -0.97701 -0.9633 -0.95374 -0.94427 -0.93101 -0.95304 -0.96382 -0.97923 -0.97339 -0.96754 -0.97027 -0.97306 -0.95847 -0.94416 -0.93417 -0.92028 -0.90269 -0.9009 -0.90693 -0.90114 -0.88757 -0.88182 -0.8799 -0.88179 -0.88769 -0.8818 -0.87203 -0.86616 -0.86028 -0.8582 -0.84854 -0.84641 -0.84051 -0.82724 -0.81777 -0.82649 -0.82427 -0.82201 -0.81237 -0.80642 -0.80408 -0.79452 -0.78501 -0.77909 -0.76973 -0.76046 -0.75124 -0.7421 -0.73308 -0.72412 -0.70906 -0.70642 -0.70374 -0.698 -0.69527 -0.6895 -0.68373 -0.6839 -0.67808 -0.67825 -0.67238 -0.66062 -0.65196 -0.64334 -0.63757 -0.63734 -0.62878 -0.61757 -0.60655 -0.60086 -0.59775 -0.59459 -0.59142 -0.5934 -0.58755 -0.5843 -0.57843 -0.57255 -0.5692 -0.56581 -0.55494 -0.54907 -0.54319 -0.53732 -0.53145 -0.53026 -0.52434 -0.52548 -0.51947 -0.51115 -0.50518 -0.50146 -0.49545 -0.48945 -0.48344 -0.47961 -0.47358 -0.46755 -0.46575 -0.45548 -0.44539 -0.43547 -0.42199 -0.41802 -0.41217 -0.40453 -0.39871 -0.39463 -0.38539 -0.37794 -0.3738 -0.37125 -0.3654 -0.35642 -0.34758 -0.33888 -0.31684 -0.31016 -0.30477 -0.29695 -0.29278 -0.28741 -0.28204 -0.2824 -0.2804 -0.28193 -0.27864 -0.27409 -0.26949 -0.2637 -0.25903 -0.2566 -0.2507 -0.24264 -0.23575 -0.22993 -0.2251 -0.22023 -0.21436 -0.20849 -0.20442 -0.19762 -0.19172 -0.18665 -0.18236 -0.17718 -0.1704 -0.16369 -0.15703 -0.14977 -0.14389 -0.1368 -0.13098 -0.12684 -0.12041 -0.11303 -0.10723 -0.10188 -0.097348 -0.092274 -0.086322 -0.080371 -0.073756 -0.066961 -0.061141 -0.055566 -0.049071 -0.043113 -0.037368 -0.031624 -0.025879 -0.020135 -0.014516 -0.0087594 -0.0029011 0.0028436 0.0085882 0.014209 0.019904 0.025061 0.030636 0.03606 0.041787 0.047763 0.053386 0.05926 0.065464 0.07116 0.078892 0.085874 0.090987 0.09686 0.10273 0.10909 0.11654 0.12197 0.12456 0.12979 0.13735 0.14643 0.13695 0.14232 0.17213 0.16513 0.17167 0.17672 0.19442 0.19966 0.20298 0.20621 0.21709 0.22848 0.23927 0.25172 0.25572 0.25594 0.26102 0.26731 0.2723 0.27726 0.28482 0.23543 0.2405 0.24556 0.24966 0.25089 0.2549 0.26379 0.27088 0.27594 0.28208 0.28939 0.29796 0 0 0 0 0 0 0 0 0 0 0 0 0 0 0 0
-0.6338 -0.63478 -0.63465 -0.63782 -0.64879 -0.64541 -0.65796 -0.65099 -0.64751 -0.64405 -0.64285 -0.65201 -0.66389 -0.66272 -0.66028 -0.66027 -0.66272 -0.66273 -0.66395 -0.66895 -0.66902 -0.6665 -0.71574 -0.71155 -0.70884 -0.73002 -0.72264 -0.72137 -0.71858 -0.72654 -0.73787 -0.7366 -0.75009 -0.75049 -0.75092 -0.76169 -0.76388 -0.77154 -0.77204 -0.76892 -0.76399 -0.76087 -0.76498 -0.79386 -0.79651 -0.80316 0 0 0 -0.8362 -0.83489 -0.83811 -0.84593 -0.84231 -0.89244 -0.89117 -0.91673 -0.90183 -0.88998 -0.89133 -0.89269 -0.91047 -0.91201 -0.88877 -0.88478 -0.92838 -0.88212 -0.88078 -0.96486 -0.96363 0 0 0 0 0 0 0 0 0 0 0 -1.145 -1.1394 -1.1386 -1.1476 -1.1986 -1.2373 -1.2311 -1.2483 -1.1338 -1.128 -1.168 -1.1516 -1.1456 -1.1346 -1.1236 -1.1128 -1.102 -1.0633 -1.0486 -1.0386 -1.0287 -1.0231 -1.0175 -1.0337 -1.0325 -0.99661 -0.99521 -0.99802 -0.98821 -0.97849 -0.97291 -0.96733 -0.95374 -0.94037 -0.92718 -1.0042 -0.97647 -0.9836 -0.97773 -0.97617 -0.9746 -0.97744 -0.96711 -0.94837 -0.94668 -0.92835 -0.91852 -0.90875 -0.91493 -0.90507 -0.89144 -0.88955 -0.88375 -0.8857 -0.8877 -0.8818 -0.8759 -0.86616 -0.8641 -0.85821 -0.85231 -0.84641 -0.84426 -0.83093 -0.82505 -0.82649 -0.82428 -0.82201 -0.81237 -0.81006 -0.80408 -0.79452 -0.78857 -0.78262 -0.77317 -0.76046 -0.75124 -0.7454 -0.73309 -0.72412 -0.71215 -0.70949 -0.70681 -0.70104 -0.69527 -0.6895 -0.68673 -0.6839 -0.68412 -0.67825 -0.67536 -0.66062 -0.65196 -0.64616 -0.64037 -0.64017 -0.63432 -0.62026 -0.61183 -0.60608 -0.60296 -0.59719 -0.59401 -0.59604 -0.59279 -0.58951 -0.581 -0.5751 -0.57174 -0.56837 -0.55989 -0.55396 -0.55052 -0.53971 -0.53619 -0.53267 -0.52909 -0.52548 -0.51948 -0.51116 -0.50518 -0.50146 -0.49771 -0.48945 -0.48564 -0.47961 -0.47358 -0.46969 -0.46363 -0.45548 -0.4454 -0.43745 -0.42575 -0.42175 -0.4177 -0.40633 -0.40048 -0.39639 -0.38539 -0.37794 -0.37543 -0.37291 -0.36541 -0.35797 -0.34909 -0.34183 -0.31427 -0.31016 -0.30477 -0.29695 -0.2916 -0.28741 -0.28204 -0.28358 -0.28041 -0.28193 -0.27864 -0.27409 -0.26949 -0.26485 -0.26018 -0.25774 -0.25182 -0.24372 -0.23575 -0.22993 -0.22611 -0.22121 -0.21531 -0.21035 -0.20535 -0.1985 -0.19345 -0.18665 -0.18236 -0.17638 -0.17041 -0.16369 -0.15703 -0.14977 -0.14326 -0.13681 -0.13099 -0.12628 -0.11935 -0.11303 -0.10724 -0.10189 -0.097351 -0.092276 -0.086325 -0.080374 -0.073758 -0.066964 -0.061144 -0.055569 -0.049503 -0.043303 -0.037371 -0.031764 -0.026108 -0.020314 -0.014519 -0.0087237 -0.0029033 0.0028167 0.0085118 0.014146 0.019817 0.024954 0.030506 0.036058 0.041784 0.047559 0.053158 0.059006 0.065183 0.071467 0.078889 0.085872 0.091389 0.097721 0.10365 0.11007 0.11707 0.12252 0.12678 0.13267 0.13982 0.14776 0.14582 0.1522 0.16972 0.17268 0.17792 0.19091 0.19351 0.19782 0.20114 0.20714 0.21809 0.22848 0.23698 0.24925 0.25572 0.25717 0.26102 0.26604 0.27102 0.27725 0.26833 0.2187 0.2242 0.23478 0.23962 0.23501 0.23882 0.24346 0.2648 0.27281 0.28208 0.28939 0.30031 0 0 0 0 0 0 0 0 0 0 0 0 0 0 0.50389 0.51084
-0.63592 -0.63907 -0.64008 -0.6389 -0.64211 -0.65108 -0.65332 -0.64985 -0.64638 -0.64405 -0.64172 -0.65314 -0.66515 -0.65666 -0.65543 -0.65543 -0.66024 -0.66026 -0.66026 -0.66399 -0.66394 -0.66522 -0.71722 -0.70867 -0.70884 -0.73002 -0.71966 -0.72441 -0.7247 -0.73119 -0.73467 -0.73823 -0.75009 -0.75223 -0.75433 -0.76342 -0.76745 -0.777 -0.77938 -0.77812 -0.77496 -0.7718 -0.76498 -0.80179 -0.80046 -0.80316 0 0 0 -0.8362 -0.82827 -0.83135 -0.83681 -0.84231 -0.89244 -0.90436 -0.91674 -0.90726 -0.89527 -0.89665 -0.89805 -0.91047 -0.90921 -0.89418 -0.88478 -0.92838 -0.9069 -0.8781 -0.96486 -0.96363 0 0 0 0 0 0 0 0 0 0 0 -1.145 -1.1394 -1.1386 -1.2046 -1.2095 -1.2146 -1.2197 -1.2543 -1.1338 -1.1635 -1.1841 -1.1673 -1.1405 -1.1346 -1.1236 -1.1128 -1.102 -1.0725 -1.0576 -1.0475 -1.033 -1.0362 -1.0394 -1.0518 -1.0506 -1.0136 -1.0166 -1.0197 -1.0052 -0.99525 -0.98958 -0.98391 -0.96176 -0.92881 -0.92718 -1.0042 -1.0073 -0.99687 -0.99091 -0.98496 -0.99237 -0.99085 -0.98031 -0.96116 -0.95951 -0.94078 -0.93075 -0.92488 -0.92309 -0.91719 -0.90324 -0.89739 -0.89552 -0.8936 -0.89166 -0.88573 -0.87981 -0.87 -0.86796 -0.86984 -0.86386 -0.85404 -0.84808 -0.84213 -0.83241 -0.83397 -0.83174 -0.82202 -0.81604 -0.81006 -0.80772 -0.80172 -0.79213 -0.78615 -0.77667 -0.76384 -0.75459 -0.75204 -0.73955 -0.73047 -0.7215 -0.71883 -0.71301 -0.70412 -0.69832 -0.69555 -0.69278 -0.68694 -0.68716 -0.6843 -0.67838 -0.66651 -0.65771 -0.65186 -0.64602 -0.64017 -0.63715 -0.62299 -0.6145 -0.60873 -0.6056 -0.59981 -0.59925 -0.59605 -0.59544 -0.58951 -0.58359 -0.57766 -0.57692 -0.57352 -0.56752 -0.56151 -0.55804 -0.54703 -0.54105 -0.53994 -0.53391 -0.52787 -0.52184 -0.51581 -0.50747 -0.50374 -0.49999 -0.49168 -0.48565 -0.48181 -0.47575 -0.46969 -0.46576 -0.45757 -0.44742 -0.43942 -0.4315 -0.42555 -0.42149 -0.41178 -0.40405 -0.39816 -0.38708 -0.3796 -0.37544 -0.37623 -0.37031 -0.35798 -0.35216 -0.34483 -0.31556 -0.31271 -0.30982 -0.30434 -0.29762 -0.29216 -0.2867 -0.28716 -0.28518 -0.28316 -0.27986 -0.27529 -0.27067 -0.26485 -0.25903 -0.2566 -0.25182 -0.2459 -0.23785 -0.23301 -0.22916 -0.22421 -0.21823 -0.21322 -0.20721 -0.20121 -0.1952 -0.18834 -0.18236 -0.17639 -0.17118 -0.16443 -0.15774 -0.14977 -0.14326 -0.13681 -0.13042 -0.12572 -0.11883 -0.11303 -0.10724 -0.10234 -0.097787 -0.092694 -0.086327 -0.080014 -0.073761 -0.067563 -0.061417 -0.055819 -0.049946 -0.043495 -0.037865 -0.031906 -0.026225 -0.020316 -0.014521 -0.0087642 -0.0029057 0.0028266 0.0084732 0.014205 0.019815 0.025162 0.030631 0.036056 0.041782 0.048375 0.05407 0.05951 0.064902 0.071774 0.080307 0.086647 0.092209 0.098603 0.10505 0.11106 0.11654 0.12251 0.12907 0.13632 0.14173 0.14511 0.14838 0.15154 0.16738 0.17347 0.17956 0.19001 0.19441 0.19602 0.19843 0.20808 0.2191 0.22634 0.23363 0.24214 0.25082 0.25473 0.25978 0.26479 0.26849 0.27466 0.26833 0.2187 0.22261 0.22974 0.23198 0.23418 0.23799 0.24346 0.26479 0.26974 0.27886 0.29625 0.30031 0 0 0 0 0 0 0 0 0 0 0 0 0 0 0.50389 0.51354
-0.63592 -0.63907 -0.64117 -0.63999 -0.64103 -0.64878 -0.6499 -0.64871 -0.64525 -0.64292 -0.6406 -0.64388 -0.65195 -0.65311 -0.65307 -0.65419 -0.66024 -0.66026 -0.66026 -0.66521 -0.66272 -0.66022 -0.71426 -0.70719 -0.7031 -0.71491 -0.71363 -0.72138 -0.72161 -0.72962 -0.73311 -0.73823 -0.7501 -0.75391 -0.756 -0.76515 -0.77102 -0.78253 -0.785 -0.78372 -0.77866 -0.77549 -0.77418 -0.80377 -0.80447 -0.80316 -0.8142 -0.8108 -0.84429 -0.82303 -0.82172 -0.82697 -0.83227 -0.84231 -0.91645 -0.9152 -0.92231 -0.91274 -0.90061 -0.89665 -0.90347 -0.91609 -0.91766 -0.89963 -0.89287 -0.90816 -0.90971 -0.91706 -0.96486 -0.96364 0 0 0 0 0 0 0 0 0 0 0 -1.2508 -1.2504 -1.2385 -1.2101 -1.2095 -1.2035 -1.2085 -1.2424 -1.2018 -1.1902 -1.1841 -1.1673 -1.1405 -1.1346 -1.1187 -1.1128 -1.102 -1.0725 -1.0622 -1.052 -1.0418 -1.0451 -1.053 -1.0658 -1.0552 -1.0267 -1.0299 -1.0286 -1.014 -1.0039 -1.0025 -1.0054 -1.004 -0.9982 -0.99238 -1.0133 -1.0073 -1.0014 -0.99092 -0.98497 -0.99238 -0.99541 -0.97587 -0.96549 -0.95951 -0.94926 -0.93076 -0.92488 -0.92309 -0.91719 -0.91129 -0.90539 -0.8995 -0.8936 -0.89166 -0.88975 -0.87981 -0.87784 -0.87189 -0.86984 -0.86386 -0.85404 -0.84809 -0.84214 -0.83618 -0.83398 -0.828 -0.82202 -0.81238 -0.81006 -0.80409 -0.79811 -0.79213 -0.78615 -0.77667 -0.76384 -0.75794 -0.75204 -0.74285 -0.73371 -0.72465 -0.72202 -0.71936 -0.70412 -0.70137 -0.69863 -0.69279 -0.69306 -0.68717 -0.68127 -0.67838 -0.66651 -0.66064 -0.65187 -0.64602 -0.64303 -0.63433 -0.62027 -0.61183 -0.60609 -0.60035 -0.59719 -0.59401 -0.59605 -0.59018 -0.58952 -0.581 -0.57767 -0.57953 -0.57353 -0.56752 -0.56407 -0.55804 -0.54951 -0.54597 -0.54241 -0.53882 -0.53029 -0.52423 -0.51581 -0.50978 -0.50605 -0.49999 -0.49393 -0.48565 -0.47962 -0.47358 -0.46969 -0.46363 -0.45549 -0.44945 -0.44141 -0.4315 -0.42555 -0.42149 -0.41365 -0.40406 -0.3964 -0.3888 -0.38126 -0.37878 -0.37624 -0.37199 -0.36117 -0.3553 -0.34634 -0.32212 -0.31662 -0.31372 -0.30946 -0.30262 -0.29582 -0.29397 -0.29083 -0.28763 -0.28563 -0.28109 -0.27529 -0.2695 -0.26255 -0.25791 -0.2566 -0.25182 -0.24701 -0.23997 -0.23511 -0.23123 -0.22626 -0.22022 -0.21419 -0.20911 -0.20305 -0.19609 -0.1892 -0.18319 -0.17719 -0.17118 -0.16518 -0.15774 -0.15044 -0.14326 -0.13742 -0.13099 -0.12573 -0.11988 -0.11403 -0.10819 -0.1028 -0.09779 -0.092281 -0.086719 -0.080379 -0.073763 -0.067865 -0.061967 -0.056319 -0.049949 -0.043688 -0.037867 -0.032047 -0.026227 -0.020407 -0.014523 -0.0087665 -0.0029208 0.0028365 0.0085441 0.014264 0.019984 0.025374 0.030758 0.036053 0.041956 0.049221 0.055016 0.059762 0.065179 0.072084 0.081401 0.087433 0.092623 0.099047 0.10553 0.11106 0.11653 0.12196 0.12734 0.13508 0.14108 0.14511 0.1497 0.15626 0.16661 0.17267 0.17955 0.18912 0.19351 0.19513 0.19933 0.20903 0.22117 0.22527 0.23145 0.23874 0.24609 0.25232 0.25977 0.26355 0.26724 0.27338 0.25799 0.21563 0.22183 0.2273 0.22954 0.23256 0.23716 0.24177 0.24809 0.25362 0.26011 0.26668 0.27237 0 0 0 0 0 0 0 0 0 0 0.32566 0.3316 0.33637 0.34114 0.50923 0.51626
-0.62957 -0.64125 -0.639 -0.63891 -0.63995 -0.64764 -0.64876 -0.64871 -0.64525 -0.64066 -0.63835 -0.64388 -0.65313 -0.6543 -0.65307 -0.65067 -0.64826 -0.6615 -0.66395 -0.66896 -0.66645 -0.66022 -0.71137 -0.70867 -0.70737 -0.70759 -0.70634 -0.726 -0.72319 -0.72962 -0.73154 -0.73498 -0.75178 -0.75559 -0.75947 -0.76694 -0.77102 -0.78627 -0.78874 -0.78939 -0.78807 -0.78486 -0.77232 -0.81815 -0.81064 -0.80519 -0.8142 -0.8108 -0.83974 -0.81874 -0.80475 -0.7993 -0.8256 -0.81992 -0.91917 -0.91797 -0.92231 -0.91275 -0.90062 -0.89666 -0.89535 -0.90221 -0.90368 -0.89963 -0.89831 -0.90259 -0.90404 -0.91706 -0.96486 -0.96364 0 0 0 0 0 0 0 0 0 0 0 -1.2226 -1.2221 -1.2106 -1.2046 -1.2095 -1.2035 -1.2085 -1.2307 -1.2074 -1.1848 -1.1733 -1.1673 -1.1457 -1.1397 -1.1137 -1.103 -1.0972 -1.0679 -1.0576 -1.043 -1.0374 -1.0318 -1.0305 -1.0293 -1.0192 -1.0179 -1.0344 -1.0377 -1.0184 -1.017 -1.0157 -1.0098 -1.013 -1.0026 -1.0102 -1.0088 -1.0119 -1.0059 -0.99092 -0.98941 -1.0015 -0.99541 -0.98031 -0.96987 -0.96386 -0.94926 -0.93489 -0.92899 -0.92309 -0.91719 -0.9113 -0.9054 -0.8995 -0.8936 -0.8957 -0.88975 -0.87591 -0.87001 -0.86411 -0.86594 -0.85999 -0.85404 -0.84427 -0.83462 -0.82506 -0.83398 -0.828 -0.82202 -0.81238 -0.81007 -0.80409 -0.79453 -0.78858 -0.78615 -0.77668 -0.77072 -0.76133 -0.7554 -0.74615 -0.73698 -0.72786 -0.72524 -0.71937 -0.71033 -0.70137 -0.70175 -0.69588 -0.69307 -0.68717 -0.68431 -0.67838 -0.66947 -0.66064 -0.65477 -0.65178 -0.64303 -0.63433 -0.62299 -0.6145 -0.60609 -0.60561 -0.59981 -0.59661 -0.59605 -0.5928 -0.5869 -0.58359 -0.57767 -0.57692 -0.57353 -0.56752 -0.56407 -0.55804 -0.55201 -0.54847 -0.54742 -0.53882 -0.53273 -0.52664 -0.51817 -0.50978 -0.50605 -0.49999 -0.49168 -0.48565 -0.47962 -0.47359 -0.46969 -0.46576 -0.45757 -0.44742 -0.44343 -0.43345 -0.42941 -0.4234 -0.41551 -0.4077 -0.39994 -0.39226 -0.38466 -0.38047 -0.37794 -0.37199 -0.36277 -0.35216 -0.34184 -0.32347 -0.31794 -0.31241 -0.30946 -0.30777 -0.29957 -0.29648 -0.29208 -0.28889 -0.28814 -0.28232 -0.2765 -0.27068 -0.26371 -0.25904 -0.25661 -0.25297 -0.24702 -0.24106 -0.23617 -0.23124 -0.22626 -0.22123 -0.21517 -0.21007 -0.20398 -0.19699 -0.19006 -0.1832 -0.17719 -0.17197 -0.16593 -0.1599 -0.1518 -0.14519 -0.13803 -0.13099 -0.12685 -0.12042 -0.11404 -0.10819 -0.1028 -0.097792 -0.092699 -0.086332 -0.080381 -0.074094 -0.067567 -0.061969 -0.056071 -0.050173 -0.043884 -0.038038 -0.032192 -0.026346 -0.020409 -0.014589 -0.0087689 -0.0029359 0.0028466 0.0086162 0.014386 0.020068 0.025812 0.031151 0.036051 0.041429 0.050095 0.055993 0.058999 0.064897 0.075024 0.082146 0.088641 0.09304 0.099496 0.10601 0.11156 0.11706 0.12196 0.12791 0.13447 0.14044 0.14511 0.15036 0.15696 0.16585 0.17267 0.17955 0.18823 0.19351 0.19513 0.19843 0.2062 0.21509 0.22423 0.23144 0.23762 0.24494 0.24652 0.25261 0.22283 0.22808 0.23332 0.23952 0.21563 0.22027 0.22334 0.21737 0.22937 0.22843 0.23683 0.24216 0.24502 0.24783 0.25229 0.25676 0 0 0 0 0 0 0 0 0 0 0.32565 0.3316 0.33637 0.34114 0.50923 0.5218
-0.64905 -0.64343 -0.64117 -0.63891 -0.63995 -0.64764 -0.64876 -0.64985 -0.64752 -0.63953 -0.63835 -0.66632 -0.66145 -0.65903 -0.65661 -0.65419 -0.64943 -0.67274 -0.67024 -0.67284 -0.67031 -0.66907 -0.71137 -0.70867 -0.70884 -0.70613 -0.70488 -0.73379 -0.7278 -0.72962 -0.73154 -0.73498 -0.7501 -0.75559 -0.76294 -0.77053 -0.78383 -0.78627 -0.7907 -0.79512 -0.80764 -0.80641 -0.79913 -0.82019 -0.82526 -0.83259 -0.83347 -0.83438 -0.83756 -0.81875 -0.80686 -0.7993 -0.8256 -0.81992 -0.92473 -0.92073 -0.92794 -0.90458 -0.90062 -0.89394 -0.8927 -0.89407 -0.89546 -0.89691 -0.89288 -0.91104 -0.90405 0 0 0 0 0 0 0 0 0 0 0 0 0 0 -1.2226 -1.2221 -1.2106 -1.2046 -1.2041 -1.209 -1.2141 -1.2249 -1.2074 -1.1848 -1.1734 -1.1781 -1.156 -1.1448 -1.1137 -1.103 -1.102 -1.0679 -1.0576 -1.0475 -1.033 -1.0318 -1.0305 -1.0337 -1.028 -1.0312 -1.0435 -1.0516 -1.0411 -1.0306 -1.0293 -1.0234 -1.0313 -1.0253 -1.0239 -1.0179 -1.0165 -1.0151 -0.9999 -0.99389 -1.0108 -1.0046 -0.98932 -0.97874 -0.97268 -0.95786 -0.94331 -0.92899 -0.92721 -0.92129 -0.91951 -0.91356 -0.90351 -0.89759 -0.89167 -0.88574 -0.87982 -0.87389 -0.86797 -0.86595 -0.85999 -0.85404 -0.84809 -0.83462 -0.82873 -0.83398 -0.82429 -0.82202 -0.81239 -0.81007 -0.80409 -0.79811 -0.79213 -0.78972 -0.78371 -0.7742 -0.7717 -0.7657 -0.74948 -0.74355 -0.73435 -0.73171 -0.72578 -0.71666 -0.70762 -0.70486 -0.70526 -0.69931 -0.69336 -0.68431 -0.67839 -0.67246 -0.66358 -0.65768 -0.65469 -0.64877 -0.64284 -0.63129 -0.62264 -0.61679 -0.61367 -0.6105 -0.6046 -0.5987 -0.5928 -0.5869 -0.5836 -0.58029 -0.57954 -0.57614 -0.57272 -0.56926 -0.56317 -0.55708 -0.55354 -0.54996 -0.54131 -0.53273 -0.52665 -0.52056 -0.51212 -0.50606 -0.50229 -0.49394 -0.48346 -0.48182 -0.47576 -0.46756 -0.46792 -0.45968 -0.44946 -0.44343 -0.43541 -0.43136 -0.42728 -0.42122 -0.41327 -0.40723 -0.39938 -0.39338 -0.38737 -0.38137 -0.37536 -0.36439 -0.35216 -0.34184 -0.32347 -0.31928 -0.31373 -0.30946 -0.31177 -0.30472 -0.30163 -0.29718 -0.29268 -0.29071 -0.28484 -0.27896 -0.2743 -0.26722 -0.26019 -0.25775 -0.25411 -0.24702 -0.24107 -0.23725 -0.23335 -0.22729 -0.22225 -0.21616 -0.21008 -0.20493 -0.1979 -0.19093 -0.1832 -0.178 -0.17197 -0.16746 -0.16063 -0.15457 -0.14784 -0.1399 -0.13275 -0.12799 -0.12204 -0.11506 -0.10867 -0.10326 -0.098237 -0.092702 -0.086724 -0.080383 -0.074432 -0.06787 -0.062248 -0.056324 -0.050175 -0.044082 -0.038379 -0.032481 -0.026465 -0.020412 -0.014592 -0.0088103 -0.0029643 0.0028818 0.0087278 0.014704 0.020511 0.026266 0.032543 0.038991 0.045408 0.051704 0.057792 0.064772 0.071952 0.077846 0.084077 0.090308 0.095194 0.10087 0.10699 0.11207 0.11759 0.12251 0.12849 0.13446 0.14044 0.14511 0.15036 0.15626 0.1651 0.17267 0.17955 0.18736 0.1935 0.1925 0.19843 0.20903 0.21509 0 0 0 0 0.24652 0.2526 0.22283 0.22452 0.22968 0.23669 0.21563 0.22104 0.22104 0.21737 0.22102 0.22615 0.23443 0.24052 0.24254 0.24617 0.25144 0.25676 0 0 0 0 0 0 0 0 0 0 0.32565 0.3316 0.49257 0.49956 0.51745 0.52744
-0.65014 -0.64452 -0.64226 -0.63999 -0.64103 -0.64879 -0.6499 -0.64985 -0.65326 -0.6603 -0.65791 -0.66632 -0.6639 -0.66147 -0.65904 -0.65661 -0.6566 -0.67275 -0.67147 -0.67155 -0.66903 -0.66779 -0.71427 -0.71008 -0.70737 -0.70467 -0.70342 -0.73379 -0.72938 -0.72962 -0.73154 -0.73499 -0.7501 -0.75559 -0.756 -0.74628 -0.77644 -0.78443 -0.7869 -0.79128 -0.81171 -0.81041 -0.81735 -0.83295 -0.82952 -0.83474 -0.83348 -0.83219 -0.83307 -0.82304 -0.81101 -0.80344 -0.93272 -0.92873 -0.91645 -0.88341 -0.87958 -0.8608 -0.85703 -0.88867 -0.88475 -0.88605 -0.88478 -0.84786 -0.84648 -0.86773 -0.86121 0 0 0 0 0 0 0 0 0 0 0 0 -1.0786 -1.0777 -1.2393 -1.2221 -1.2106 -1.1992 -1.2041 -1.2035 -1.2085 -1.2249 -1.2074 -1.1902 -1.1787 -1.1781 -1.1666 -1.1553 -1.1088 -1.103 -1.1069 -1.0725 -1.0576 -1.043 -1.0374 -1.0318 -1.0394 -1.0427 -1.046 -1.0448 -1.0575 -1.0612 -1.0457 -1.0398 -1.0338 -1.0372 -1.0313 -1.0299 -1.0239 -1.0226 -1.0212 -1.0151 -1.009 -1.003 -1.0061 -1.0046 -0.98933 -0.98324 -0.97715 -0.96222 -0.94331 -0.93736 -0.92721 -0.92546 -0.91951 -0.91768 -0.9117 -0.90166 -0.88771 -0.88574 -0.87982 -0.87389 -0.8719 -0.86595 -0.86387 -0.85405 -0.84427 -0.83835 -0.82873 -0.83398 -0.828 -0.81834 -0.81605 -0.81007 -0.80773 -0.79811 -0.79572 -0.78972 -0.78728 -0.78125 -0.77522 -0.7657 -0.75627 -0.74692 -0.73763 -0.73171 -0.72907 -0.7135 -0.70762 -0.70487 -0.70527 -0.70247 -0.69024 -0.68741 -0.68146 -0.66948 -0.66358 -0.65768 -0.65178 -0.64877 -0.64284 -0.63129 -0.62264 -0.61955 -0.61367 -0.6105 -0.6046 -0.5987 -0.5928 -0.58431 -0.5836 -0.58029 -0.58218 -0.57878 -0.57272 -0.56926 -0.56317 -0.55709 -0.5587 -0.55252 -0.54131 -0.53519 -0.52665 -0.52056 -0.51212 -0.50606 -0.5023 -0.49394 -0.48566 -0.48182 -0.47576 -0.4697 -0.46577 -0.45758 -0.45152 -0.44546 -0.4374 -0.43136 -0.42728 -0.4174 -0.4114 -0.40724 -0.39939 -0.39338 -0.38738 -0.38137 -0.37707 -0.3644 -0.35373 -0.34185 -0.32619 -0.31928 -0.31504 -0.31077 -0.31312 -0.30605 -0.30163 -0.29718 -0.29396 -0.292 -0.28484 -0.2802 -0.27309 -0.26841 -0.26135 -0.25776 -0.25297 -0.24813 -0.23998 -0.23618 -0.23336 -0.2273 -0.22225 -0.21616 -0.21008 -0.20399 -0.1979 -0.19094 -0.18404 -0.17882 -0.17276 -0.16746 -0.16137 -0.15458 -0.14784 -0.14053 -0.13334 -0.12915 -0.12259 -0.11609 -0.10965 -0.10372 -0.09824 -0.092704 -0.086726 -0.081114 -0.07477 -0.068175 -0.062251 -0.056326 -0.050178 -0.044084 -0.038212 -0.032484 -0.026351 -0.020505 -0.014594 -0.0088127 -0.0029666 0.0028923 0.0088031 0.014767 0.020691 0.026263 0.032253 0.038989 0.045405 0.051702 0.05779 0.06477 0.071612 0.077843 0.084471 0.089884 0.095635 0.10134 0.10748 0.11258 0.11759 0.12306 0.12907 0.13569 0.14044 0.14576 0.15036 0.15557 0.1651 0.17188 0.17955 0.18563 0.1935 0.18347 0.18912 0 0 0 0.13151 0.13501 0.18511 0.19047 0.2093 0.21851 0.22023 0.22529 0.23303 0.23908 0.24327 0.20881 0.21312 0.21885 0.22466 0.23208 0.23809 0.24092 0.24452 0.24893 0.25333 0 0 0.5287 0.53744 0.54619 0 0.51288 0.51772 0.60511 0.61421 0.62761 0.48302 0.48742 0.49433 0.47169 0.4782
-0.65124 -0.64787 -0.64334 -0.64331 -0.64326 -0.64994 -0.65104 -0.65213 -0.6556 -0.6579 -0.65911 -0.66758 -0.6639 -0.66147 -0.65786 -0.65786 -0.66396 -0.66644 -0.66518 -0.66522 -0.66645 -0.66779 -0.71575 -0.71156 -0.70597 -0.70467 -0.70342 -0.74654 -0.73247 -0.72654 -0.73311 -0.73824 -0.74842 -0.74882 -0.74926 -0.74455 -0.76038 -0.75562 -0.74569 -0.74437 -0.81171 -0.81859 -0.81736 -0.83295 -0.8339 -0.83696 -0.83348 -0.83438 -0.83307 -0.82521 -0.81318 -0.80344 -0.93272 -0.92594 -0.91645 -0.89118 -0.87706 -0.86576 -0.85948 -0.87572 -0.88216 -0.88083 -0.87691 -0.85525 -0.8539 -0.86001 -0.86121 0 0 0 0 0 0 0 0 0 0 0 0 -1.0786 -1.0777 -1.2393 -1.2166 -1.1997 -1.1728 -1.1879 -1.1981 -1.2085 -1.2192 -1.2074 -1.1848 -1.1734 -1.1727 -1.1666 -1.1553 -1.1137 -1.1079 -1.1069 -1.0772 -1.0622 -1.0475 -1.033 -1.0362 -1.0439 -1.0564 -1.0553 -1.0541 -1.0671 -1.0708 -1.0552 -1.0445 -1.0432 -1.0419 -1.0407 -1.0346 -1.0333 -1.0272 -1.0212 -1.0151 -1.0045 -0.99842 -1.0061 -1.0047 -0.99389 -0.98324 -0.97268 -0.95786 -0.94757 -0.93737 -0.93141 -0.92546 -0.92366 -0.92183 -0.9117 -0.8976 -0.88771 -0.88575 -0.87982 -0.8739 -0.8719 -0.86205 -0.86 -0.8502 -0.84427 -0.83835 -0.82873 -0.83024 -0.82429 -0.81834 -0.81239 -0.81007 -0.80774 -0.80173 -0.79573 -0.79331 -0.78728 -0.77771 -0.76823 -0.7657 -0.75627 -0.74693 -0.73764 -0.73171 -0.72907 -0.7135 -0.70449 -0.70176 -0.70209 -0.69932 -0.6811 -0.68432 -0.68453 -0.66948 -0.66358 -0.65768 -0.65469 -0.64877 -0.64575 -0.63409 -0.62542 -0.61955 -0.6164 -0.61322 -0.6046 -0.5987 -0.59019 -0.58172 -0.58101 -0.58029 -0.58218 -0.57878 -0.57272 -0.56666 -0.55805 -0.55709 -0.55611 -0.55253 -0.54131 -0.5352 -0.52665 -0.51818 -0.51212 -0.50839 -0.5 -0.49169 -0.48566 -0.48182 -0.47795 -0.47186 -0.46792 -0.45968 -0.45152 -0.44546 -0.4374 -0.43334 -0.42728 -0.4174 -0.4114 -0.40539 -0.39939 -0.39517 -0.38914 -0.38311 -0.37708 -0.3677 -0.35688 -0.34484 -0.32896 -0.32062 -0.31637 -0.31209 -0.31449 -0.30872 -0.30295 -0.29848 -0.29527 -0.292 -0.28484 -0.27897 -0.27431 -0.26722 -0.26251 -0.25893 -0.25411 -0.24814 -0.24107 -0.23618 -0.23336 -0.22834 -0.22226 -0.21617 -0.21008 -0.20399 -0.1979 -0.19094 -0.18488 -0.17882 -0.17276 -0.16747 -0.16138 -0.15458 -0.14784 -0.14117 -0.13455 -0.12974 -0.12371 -0.11662 -0.11015 -0.10419 -0.098685 -0.092707 -0.086729 -0.081486 -0.074773 -0.068794 -0.062816 -0.056584 -0.05018 -0.044282 -0.038384 -0.032486 -0.02647 -0.020507 -0.014661 -0.008815 -0.002969 0.0028899 0.0088007 0.014831 0.020782 0.026261 0.032393 0.03881 0.045403 0.051938 0.058054 0.064767 0.07161 0.077841 0.084468 0.090729 0.095632 0.10181 0.10748 0.1131 0.11812 0.12362 0.12906 0.13507 0.14044 0.14446 0.14969 0.15556 0.16435 0.17266 0.17872 0.18478 0.1935 0.18347 0.18911 0.20902 0 0 0.13151 0.13501 0.1851 0.19046 0.2093 0.21434 0.21528 0.21942 0.22774 0.23542 0.23956 0.20881 0.21311 0.21813 0.22245 0.22902 0.23415 0.23775 0.24371 0.24893 0.25333 0 0 0.5287 0.54829 0.54618 0.52056 0.48658 0.49695 0.50167 0.35534 0.27693 0.28097 0.37866 0.3856 0.47169 0.4782
-0.65576 -0.65237 -0.64892 -0.64887 -0.6488 -0.65108 -0.65219 -0.65327 -0.6556 -0.6579 -0.65911 -0.66632 -0.66271 -0.66029 -0.65786 -0.65903 -0.66396 -0.66397 -0.66273 -0.66399 -0.66523 -0.66651 -0.72315 -0.72041 -0.72214 -0.7239 -0.73193 -0.74984 -0.74858 -0.75393 -0.75269 -0.75137 -0.74842 -0.74882 -0.74585 -0.74794 -0.75171 -0.75384 -0.7491 -0.74267 -0.89186 -0.87861 -0.85872 -0.85061 -0.84488 -0.84587 -0.84235 -0.84109 -0.83974 -0.83403 -0.82389 -0.81183 -0.93272 -0.92041 -0.91102 -0.89118 -0.87958 -0.87073 -0.85948 -0.87317 -0.87951 -0.88605 -0.87691 -0.86025 -0.85888 -0.8626 -0.86379 0 0 0 0 0 0 0 0 0 0 0 0 -1.0829 -1.0777 -1.2393 -1.2166 -1.1944 -1.178 -1.1879 -1.1981 -1.2085 -1.2136 -1.2074 -1.1794 -1.1681 -1.1727 -1.1613 -1.1553 -1.1137 -1.1177 -1.1118 -1.0818 -1.0668 -1.0565 -1.0463 -1.0496 -1.0576 -1.0753 -1.0694 -1.0635 -1.0818 -1.0958 -1.0746 -1.0685 -1.0673 -1.0661 -1.0502 -1.0441 -1.038 -1.0319 -1.0259 -1.0198 -1.0045 -0.99842 -1.0015 -1 -0.98481 -0.97875 -0.97269 -0.96223 -0.94332 -0.93737 -0.93561 -0.93385 -0.92784 -0.92184 -0.91583 -0.90166 -0.88771 -0.88575 -0.87982 -0.8739 -0.86798 -0.86595 -0.86388 -0.8502 -0.84428 -0.83835 -0.82873 -0.83025 -0.82429 -0.82203 -0.81239 -0.81007 -0.80774 -0.80173 -0.79573 -0.78972 -0.78729 -0.77421 -0.76823 -0.75883 -0.75627 -0.74356 -0.73436 -0.72846 -0.72579 -0.71034 -0.70138 -0.69864 -0.69897 -0.69308 -0.68111 -0.67827 -0.68146 -0.66653 -0.66358 -0.66062 -0.65766 -0.65761 -0.65161 -0.63692 -0.6282 -0.6223 -0.6164 -0.61323 -0.6073 -0.59871 -0.59019 -0.58173 -0.57844 -0.58029 -0.58218 -0.57878 -0.57272 -0.56666 -0.55805 -0.55454 -0.55611 -0.55253 -0.54382 -0.5352 -0.52908 -0.52056 -0.51685 -0.51074 -0.50462 -0.49394 -0.48788 -0.48404 -0.48015 -0.47404 -0.46792 -0.45969 -0.4536 -0.44958 -0.44142 -0.43533 -0.42925 -0.41931 -0.41327 -0.40724 -0.40304 -0.39881 -0.39453 -0.39022 -0.3823 -0.37445 -0.36336 -0.35255 -0.33611 -0.32894 -0.32322 -0.3175 -0.32007 -0.3142 -0.30833 -0.3038 -0.29923 -0.29463 -0.28738 -0.28021 -0.27678 -0.26961 -0.26488 -0.26487 -0.25878 -0.2504 -0.24326 -0.23833 -0.23443 -0.23046 -0.22328 -0.21717 -0.21008 -0.20399 -0.197 -0.19094 -0.18488 -0.17882 -0.17276 -0.1667 -0.16138 -0.15529 -0.1492 -0.14378 -0.13766 -0.13154 -0.12543 -0.11931 -0.11268 -0.10562 -0.099585 -0.093981 -0.087521 -0.082237 -0.075801 -0.069423 -0.063391 -0.057358 -0.051093 -0.045088 -0.038907 -0.032781 -0.026709 -0.020692 -0.01486 -0.008896 -0.0030112 0.0029131 0.0088376 0.014829 0.020874 0.026611 0.03283 0.039161 0.045609 0.051697 0.05832 0.065376 0.071945 0.078578 0.084869 0.091593 0.096532 0.10276 0.10848 0.11362 0.11866 0.12362 0.12906 0.13568 0.14044 0.14576 0.14969 0.15556 0.16435 0.17188 0.17872 0.18478 0.1944 0.20057 0.20296 0.20902 0 0 0.14537 0.14969 0.1905 0.19604 0.20771 0.21272 0.21289 0.2186 0.22688 0.23362 0.23775 0.24003 0.21311 0.21672 0.22172 0.22826 0.23415 0.23695 0.2413 0.25229 0.25675 0 0 0.59112 0.59649 0.61067 0.52055 0.48658 0.49695 0.50167 0.35534 0.27692 0.28097 0.37866 0.3856 0.51192 0.52178
-0.65576 -0.65237 -0.65117 -0.64887 -0.6488 -0.65108 -0.65105 -0.65099 -0.6556 -0.65557 -0.65672 -0.66632 -0.66271 -0.65903 -0.65786 -0.65903 -0.66396 -0.66397 -0.66273 -0.6627 -0.66394 -0.66779 -0.71871 -0.71893 -0.71913 -0.71938 -0.71218 -0.74819 -0.75023 -0.7523 -0.75099 -0.74806 -0.7468 -0.74714 -0.74586 -0.74794 -0.75172 -0.75562 -0.75258 -0.75294 -0.89186 -0.88342 -0.87029 -0.85972 -0.85167 -0.85035 -0.8514 -0.84785 -0.8443 -0.84074 -0.83267 -0.83585 -0.90016 -0.90682 -0.90031 -0.88859 -0.87706 -0.86326 -0.8546 -0.87318 -0.87698 -0.88347 -0.87691 -0.86026 -0.85888 -0.8626 -0.8638 0 -0.92459 -0.92327 -0.91318 -0.90894 -0.90759 -0.94584 -0.94139 0 0 0 0 -1.1513 -1.1506 -1.245 -1.2166 -1.1839 -1.1833 -1.1986 -1.209 -1.203 -1.2192 -1.2018 -1.1848 -1.1734 -1.1727 -1.1613 -1.1553 -1.1187 -1.1128 -1.1118 -1.0866 -1.0714 -1.0611 -1.0554 -1.0542 -1.0669 -1.0706 -1.0647 -1.0635 -1.0818 -1.0958 -1.0795 -1.0734 -1.0722 -1.0661 -1.0502 -1.0441 -1.0428 -1.0367 -1.0212 -1.0151 -0.99991 -0.9939 -0.99693 -0.98636 -0.98033 -0.96988 -0.96826 -0.95787 -0.94332 -0.93315 -0.93142 -0.92964 -0.92784 -0.92603 -0.92 -0.90573 -0.89571 -0.89377 -0.88779 -0.87786 -0.87584 -0.86596 -0.86388 -0.8502 -0.84428 -0.83835 -0.82873 -0.83025 -0.8243 -0.81835 -0.81239 -0.81375 -0.80774 -0.80174 -0.79573 -0.79332 -0.78372 -0.77772 -0.76823 -0.75883 -0.75288 -0.74357 -0.73112 -0.72847 -0.72257 -0.7072 -0.69834 -0.69556 -0.69589 -0.69002 -0.68111 -0.67526 -0.67538 -0.66357 -0.66066 -0.65769 -0.65766 -0.65465 -0.64867 -0.63981 -0.6282 -0.6223 -0.61915 -0.61323 -0.6073 -0.59871 -0.59019 -0.58173 -0.58101 -0.57768 -0.58218 -0.57615 -0.57012 -0.56409 -0.55805 -0.55709 -0.55871 -0.55253 -0.54383 -0.5352 -0.53154 -0.52784 -0.52167 -0.51311 -0.5023 -0.49622 -0.48789 -0.48404 -0.48016 -0.47186 -0.46365 -0.4555 -0.4536 -0.45166 -0.44346 -0.43937 -0.43123 -0.42316 -0.41707 -0.41288 -0.40865 -0.40065 -0.39453 -0.39022 -0.38586 -0.37446 -0.36502 -0.35736 -0.33757 -0.33036 -0.32462 -0.32167 -0.3215 -0.3156 -0.3097 -0.30516 -0.30059 -0.29331 -0.28611 -0.28021 -0.27554 -0.27083 -0.26608 -0.26246 -0.25879 -0.2527 -0.24548 -0.23942 -0.23771 -0.23154 -0.22432 -0.21717 -0.21105 -0.204 -0.19791 -0.19094 -0.18404 -0.17801 -0.17198 -0.1667 -0.16138 -0.15601 -0.15059 -0.14512 -0.1383 -0.13216 -0.12601 -0.11987 -0.1132 -0.1061 -0.10004 -0.093983 -0.088327 -0.081863 -0.075803 -0.069426 -0.063393 -0.057361 -0.051096 -0.044887 -0.038909 -0.032931 -0.026711 -0.020787 -0.014863 -0.0089785 -0.0030137 0.0029372 0.0089152 0.014826 0.020871 0.026729 0.032976 0.039338 0.045606 0.051933 0.058318 0.065373 0.072285 0.078576 0.08527 0.09159 0.096984 0.10276 0.10899 0.11362 0.11866 0.12361 0.12848 0.13445 0.14107 0.14575 0.14969 0.15625 0.16434 0.17187 0.17872 0.18563 0 0 0 0 0 0 0 0 0.1851 0.19046 0.20385 0.20955 0.21289 0.21779 0.22518 0.23186 0.23508 0.23825 0.20904 0.21463 0.21958 0.22677 0.23338 0.23852 0 0 0 0 0 0 0 0.26649 0.27075 0.27591 0.27839 0.28174 0.2869 0.28208 0.2862 0.4032 0.41069 0.43532 0.43346
-0.65241 -0.65012 -0.65008 -0.64887 -0.64772 -0.64879 -0.64648 -0.64644 -0.64979 -0.65091 -0.64623 -0.66149 -0.66027 -0.65904 -0.65787 -0.65904 -0.66273 -0.66274 -0.6615 -0.6627 -0.66394 -0.66651 -0.70848 -0.71303 -0.71473 -0.71492 -0.71218 -0.74654 -0.74694 -0.74732 -0.74604 -0.74312 -0.7402 -0.74057 -0.74091 -0.74455 -0.74662 -0.75562 -0.75429 -0.75124 -0.88942 -0.88579 -0.87981 -0.87143 -0.85852 -0.85723 -0.85599 -0.85474 -0.85115 -0.84527 -0.8417 -0.83585 -0.88978 -0.89108 -0.88985 -0.88341 -0.87202 -0.86081 -0.85222 -0.87318 -0.87439 -0.87051 -0.86664 -0.86026 -0.85639 -0.85252 -0.84126 0 -0.92165 -0.92035 -0.91318 -0.90894 -0.90759 -0.94585 -0.94139 -0.99727 0 0 -1.1972 -1.1513 -1.1506 -1.2393 -1.2166 -1.1786 -1.1885 -1.2096 -1.209 -1.203 -1.208 -1.1854 -1.1794 -1.1734 -1.1727 -1.1613 -1.1553 -1.1236 -1.1177 -1.1119 -1.0913 -1.0761 -1.0657 -1.0554 -1.0681 -1.0765 -1.0706 -1.06 -1.0588 -1.0818 -1.0958 -1.0896 -1.0784 -1.0722 -1.0612 -1.0551 -1.049 -1.038 -1.0272 -1.0119 -1.0059 -0.9954 -0.98498 -0.99239 -0.97747 -0.96713 -0.96118 -0.95953 -0.95355 -0.93907 -0.93315 -0.93562 -0.93385 -0.92785 -0.92604 -0.92 -0.90983 -0.90383 -0.89782 -0.89587 -0.88581 -0.87584 -0.86986 -0.86388 -0.8579 -0.8481 -0.83836 -0.82874 -0.83025 -0.8243 -0.81835 -0.8124 -0.81008 -0.80774 -0.79812 -0.79215 -0.79332 -0.78372 -0.77421 -0.76823 -0.76226 -0.74949 -0.74026 -0.72788 -0.72525 -0.72257 -0.70413 -0.69529 -0.69557 -0.6928 -0.68393 -0.67811 -0.67229 -0.66646 -0.66357 -0.66066 -0.66063 -0.6547 -0.64878 -0.64576 -0.63981 -0.6282 -0.6223 -0.6164 -0.61323 -0.60461 -0.59342 -0.58498 -0.57413 -0.57588 -0.57512 -0.57435 -0.5684 -0.56244 -0.55649 -0.55302 -0.55202 -0.56134 -0.55253 -0.54383 -0.5352 -0.53154 -0.53282 -0.52659 -0.51311 -0.50462 -0.49395 -0.48789 -0.48183 -0.48016 -0.46757 -0.45532 -0.44735 -0.43558 -0.45166 -0.44552 -0.44142 -0.43525 -0.42709 -0.42094 -0.41673 -0.41249 -0.40438 -0.39637 -0.38842 -0.3823 -0.37619 -0.36669 -0.35736 -0.33905 -0.33037 -0.32889 -0.32595 -0.32293 -0.31701 -0.31249 -0.30654 -0.30059 -0.29331 -0.28485 -0.28021 -0.27554 -0.27083 -0.26488 -0.26247 -0.25761 -0.2527 -0.24775 -0.24164 -0.23771 -0.23263 -0.22432 -0.21818 -0.21204 -0.20494 -0.19791 -0.19095 -0.18404 -0.17801 -0.1712 -0.16595 -0.16138 -0.15601 -0.15201 -0.1458 -0.13895 -0.13216 -0.1266 -0.12043 -0.1132 -0.10611 -0.1005 -0.094418 -0.08833 -0.082242 -0.075805 -0.069745 -0.063396 -0.057625 -0.051331 -0.045093 -0.038912 -0.032934 -0.026714 -0.020789 -0.014999 -0.008981 -0.0030433 0.002948 0.0089532 0.014891 0.020869 0.026968 0.033124 0.039698 0.045814 0.05193 0.058587 0.065371 0.072626 0.078947 0.085267 0.092028 0.096982 0.10276 0.1095 0.11361 0.11866 0.12305 0.1279 0.13445 0.1398 0.14445 0.14836 0.15418 0.16214 0.1673 0.17317 0.17984 0 0 0 0 0 0 0 0 0.1851 0.19046 0.20014 0.20724 0.21133 0.2154 0.22187 0.22591 0.22909 0.20416 0.20904 0.21326 0.21818 0.22603 0.23338 0.23774 0 0 0 0 0 0 0 0.26144 0.26903 0.27501 0.27751 0.28264 0.28598 0.28474 0.2862 0.4032 0.41428 0.42947 0.39477
-0.65124 -0.64896 -0.64784 -0.64887 -0.64658 -0.64765 -0.64648 -0.64417 -0.64752 -0.64858 -0.64856 -0.6603 -0.65908 -0.66029 -0.65904 -0.66146 -0.66521 -0.66521 -0.66396 -0.67155 -0.66774 -0.6678 -0.70848 -0.70868 -0.71473 -0.71346 -0.71364 -0.74819 -0.74365 -0.74404 -0.74277 -0.74149 -0.73858 -0.73889 -0.73924 -0.74289 -0.74662 -0.75562 -0.756 -0.75124 -0.89186 -0.8956 -0.88951 -0.88586 -0.87018 -0.86897 -0.86297 -0.85937 -0.8628 -0.8663 -0.86985 -0.90402 -0.88978 -0.88853 -0.88985 -0.88342 -0.87454 -0.86326 -0.85704 -0.87318 -0.87186 -0.86547 -0.8591 -0.86026 -0.85639 -0.84757 -0.84126 0 -0.92165 -0.92035 -0.97896 -0.97442 -0.98335 -0.99606 -1.002 -0.99728 0 0 -1.1972 -1.1967 0 -1.2393 -1.2389 -1.1998 -1.1938 -1.2151 -1.2146 -1.2085 -1.1969 -1.1854 -1.1688 -1.1787 -1.1781 -1.172 -1.1659 -1.1389 -1.1278 -1.1168 -1.1109 -1.1 -1.0845 -1.0739 -1.0728 -1.0813 -1.0851 -1.0791 -1.078 -1.0868 -1.0907 -1.0896 -1.0834 -1.0772 -1.0711 -1.0699 -1.0587 -1.038 -1.0226 -1.0074 -1.0059 -0.99991 -0.99391 -0.9924 -0.97747 -0.96713 -0.95685 -0.96388 -0.96663 -0.95187 -0.94586 -0.94845 -0.94672 -0.93633 -0.92604 -0.92846 -0.91815 -0.91209 -0.90603 -0.90411 -0.89391 -0.88381 -0.88179 -0.87573 -0.86572 -0.85968 -0.84595 -0.8362 -0.834 -0.83177 -0.82204 -0.81606 -0.81375 -0.80775 -0.80174 -0.79215 -0.79332 -0.78729 -0.78126 -0.77172 -0.76571 -0.7597 -0.7503 -0.73764 -0.73172 -0.72908 -0.71987 -0.71395 -0.70488 -0.69281 -0.68393 -0.67811 -0.67527 -0.67241 -0.66949 -0.66655 -0.66362 -0.6547 -0.64878 -0.64577 -0.64561 -0.63672 -0.62508 -0.62196 -0.61879 -0.60194 -0.59081 -0.58244 -0.57413 -0.57085 -0.57258 -0.56922 -0.56332 -0.55743 -0.55399 -0.55054 -0.54953 -0.56398 -0.55514 -0.54636 -0.54019 -0.53654 -0.53282 -0.52659 -0.51793 -0.50463 -0.49395 -0.48347 -0.47964 -0.48016 -0.46757 -0.45327 -0.44339 -0.43558 -0.46241 -0.45612 -0.44769 -0.44143 -0.42908 -0.4249 -0.41673 -0.4125 -0.4082 -0.39637 -0.38664 -0.37881 -0.37446 -0.36502 -0.35575 -0.3482 -0.34071 -0.33782 -0.33184 -0.32586 -0.31845 -0.3139 -0.30793 -0.30195 -0.29731 -0.28869 -0.28274 -0.2793 -0.27329 -0.26728 -0.26247 -0.25879 -0.25387 -0.24776 -0.24276 -0.23884 -0.23264 -0.22537 -0.2192 -0.21302 -0.20589 -0.19883 -0.19183 -0.18405 -0.17802 -0.17277 -0.16903 -0.16364 -0.15747 -0.15272 -0.14649 -0.13961 -0.1334 -0.1278 -0.121 -0.11426 -0.10709 -0.10097 -0.095295 -0.089151 -0.083007 -0.076508 -0.069748 -0.063398 -0.057365 -0.051333 -0.045301 -0.03909 -0.033085 -0.026837 -0.020792 -0.015138 -0.0091059 -0.0030735 0.002959 0.0089915 0.015162 0.02125 0.027464 0.03358 0.03988 0.046238 0.052411 0.059137 0.065676 0.07228 0.078944 0.086088 0.092469 0.096979 0.10275 0.1095 0.11414 0.1192 0.12361 0.1279 0.13445 0.13917 0.14317 0.14772 0.15284 0.16 0.16438 0.17089 0.17984 0 0 0 0 0 0 0 0 0 0.19321 0.20014 0.20799 0.21055 0.21461 0.21944 0.22508 0.22908 0.20416 0.20904 0.21326 0.21818 0.22603 0.23338 0.23774 0 0 0 0 0 0 0 0.26144 0.26817 0.27414 0.27839 0.28354 0.2878 0.28836 0.29073 0.40494 0.41068 0.43532 0.39477
-0.65241 -0.65121 -0.64892 -0.64887 -0.64658 -0.64765 -0.64648 -0.64531 -0.64979 -0.64978 -0.65088 -0.6603 -0.65908 -0.66147 -0.66272 -0.66146 -0.66644 -0.66397 -0.6615 -0.664 -0.66273 -0.65773 -0.70559 -0.70579 -0.71326 -0.71346 -0.71516 -0.74172 -0.74043 -0.74241 -0.74114 -0.73824 -0.73858 -0.74057 -0.74091 -0.74456 -0.74834 -0.75734 -0.756 -0.75823 -0.84772 -0.87861 -0.8846 -0.87855 -0.83391 -0.83045 -0.84682 -0.85242 -0.86044 -0.86153 -0.85091 -0.85897 -0.85298 -0.8937 -0.89245 -0.88601 -0.87958 -0.86822 -0.86198 -0.87572 -0.87186 -0.86547 -0.8591 -0.85776 -0.85888 -0.84757 -0.84126 0 -0.89032 -0.88623 -0.88213 -0.87804 -0.98335 -0.99606 -1.0092 -1.0381 -1.0649 -1.0599 -1.1238 -1.1138 -1.1084 -1.1354 -1.1346 -1.129 -1.1728 -1.1987 -1.209 -1.2085 -1.2024 -1.1801 -1.1688 -1.1842 -1.1781 -1.172 -1.1659 -1.1389 -1.1278 -1.1168 -1.1109 -1.105 -1.0942 -1.0786 -1.0776 -1.0813 -1.0851 -1.0791 -1.078 -1.0868 -1.0907 -1.0896 -1.0834 -1.0823 -1.0761 -1.0699 -1.0637 -1.0526 -1.0367 -1.0165 -1.0105 -1.0091 -1.003 -1.0015 -0.99543 -0.98033 -0.96989 -0.96827 -0.97108 -0.96058 -0.95452 -0.95281 -0.94673 -0.94064 -0.93028 -0.92422 -0.92663 -0.92478 -0.92292 -0.90828 -0.90217 -0.88786 -0.88585 -0.87976 -0.87367 -0.86362 -0.85365 -0.83621 -0.834 -0.82802 -0.81835 -0.8124 -0.81009 -0.80775 -0.80174 -0.79574 -0.79333 -0.78729 -0.78126 -0.77877 -0.7692 -0.75628 -0.7503 -0.74099 -0.73504 -0.73237 -0.72313 -0.71718 -0.70803 -0.6959 -0.68696 -0.68415 -0.67828 -0.67539 -0.67248 -0.66957 -0.66661 -0.66063 -0.65466 -0.65162 -0.6427 -0.63672 -0.62791 -0.62477 -0.62159 -0.60461 -0.59343 -0.58245 -0.57413 -0.57335 -0.57258 -0.56922 -0.56333 -0.55743 -0.55399 -0.55303 -0.55203 -0.56398 -0.55775 -0.54383 -0.54019 -0.53402 -0.53283 -0.5266 -0.5155 -0.50463 -0.49395 -0.48129 -0.47747 -0.48017 -0.46758 -0.45533 -0.44537 -0.43558 -0.46684 -0.45829 -0.44983 -0.43936 -0.43111 -0.42291 -0.41674 -0.41056 -0.4063 -0.39822 -0.38664 -0.38055 -0.37275 -0.36502 -0.35575 -0.34821 -0.34225 -0.33782 -0.33184 -0.32586 -0.31845 -0.31391 -0.30932 -0.30332 -0.29597 -0.28869 -0.28274 -0.27804 -0.27329 -0.2685 -0.26247 -0.25879 -0.25387 -0.24662 -0.24164 -0.23772 -0.23155 -0.22537 -0.21818 -0.21204 -0.2059 -0.19883 -0.19183 -0.18405 -0.17883 -0.17356 -0.16825 -0.16289 -0.15747 -0.15273 -0.14649 -0.13961 -0.13341 -0.1278 -0.121 -0.11373 -0.10709 -0.10097 -0.095298 -0.089569 -0.083396 -0.077223 -0.070071 -0.06369 -0.05763 -0.05157 -0.04551 -0.039271 -0.033238 -0.026839 -0.020888 -0.015141 -0.0091084 -0.0030899 0.0029837 0.0090716 0.015229 0.021247 0.027461 0.033733 0.040063 0.046236 0.052409 0.059134 0.066301 0.07297 0.079704 0.085672 0.092467 0.096522 0.10275 0.1095 0.11414 0.11975 0.12361 0.12789 0.13445 0.13917 0.14317 0.14771 0.15351 0.1593 0.16366 0.16941 0.17143 0 0 0 0 0 0 0 0 0 0.19531 0.20161 0.20876 0.21133 0.21539 0 0.23099 0.23684 0.20415 0.20836 0.21394 0.21818 0.22602 0.2326 0.23774 0 0 0 0 0 0.25795 0.26306 0.26479 0.26903 0.27501 0.2775 0.28354 0.28873 0.28929 0.29351 0.29213 0.29628 0.39258 0.39799
-0.65015 -0.65012 -0.65008 -0.65111 -0.64996 -0.64994 -0.64877 -0.64758 -0.64753 -0.65558 -0.65792 -0.66149 -0.66027 -0.66273 -0.6639 -0.6627 -0.66273 -0.6615 -0.65412 -0.65168 -0.64923 -0.65773 -0.70559 -0.70291 -0.71767 -0.71792 -0.71815 -0.73691 -0.73728 -0.74241 -0.73951 -0.73825 -0.73858 -0.74057 -0.74252 -0.75301 -0.75344 -0.76083 -0.76131 -0.75823 -0.84991 -0.85763 -0.87266 -0.87143 -0.83391 -0.83045 -0.84682 -0.84329 -0.83975 -0.84298 -0.84856 -0.84729 -0.85299 -0.89108 -0.90032 -0.8886 -0.87959 -0.87074 -0.86199 -0.87573 -0.86933 -0.85303 -0.84683 -0.84787 -0.86143 -0.8451 -0.84126 0 -0.89032 -0.88623 -0.88214 -0.87804 -0.99022 -0.99959 -1.0166 -1.0381 -1.065 -1.0599 -1.1238 -1.1323 -1.1458 -1.1354 -1.1346 -1.129 -1.1728 -1.1987 -1.1981 -1.1975 -1.1969 -1.1801 -1.1741 -1.2007 -1.1835 -1.1666 -1.1606 -1.144 -1.138 -1.1269 -1.1209 -1.12 -1.109 -1.0981 -1.0872 -1.0862 -1.09 -1.084 -1.078 -1.0868 -1.0807 -1.0795 -1.0834 -1.0823 -1.0761 -1.0749 -1.0789 -1.0625 -1.0464 -1.0306 -1.0245 -1.0231 -1.0217 -1.0299 -1.0189 -1.0079 -0.99237 -0.98623 -0.98008 -0.97394 -0.9723 -0.96613 -0.95551 -0.94064 -0.93028 -0.92422 -0.93968 -0.94678 -0.94049 -0.92976 -0.91916 -0.9044 -0.89823 -0.89626 -0.88588 -0.87563 -0.86547 -0.84762 -0.83778 -0.83556 -0.82577 -0.81607 -0.81376 -0.81143 -0.80539 -0.79574 -0.78974 -0.7802 -0.78126 -0.77878 -0.76572 -0.75289 -0.74027 -0.73437 -0.73504 -0.73569 -0.72969 -0.72368 -0.71444 -0.70528 -0.69618 -0.69338 -0.69053 -0.68455 -0.67857 -0.67564 -0.67268 -0.66665 -0.65762 -0.65162 -0.64561 -0.63672 -0.63075 -0.63045 -0.62442 -0.60731 -0.59607 -0.58499 -0.57917 -0.57846 -0.57513 -0.57177 -0.56333 -0.55743 -0.5565 -0.55303 -0.55203 -0.55871 -0.55254 -0.54133 -0.53769 -0.53402 -0.53034 -0.52414 -0.51311 -0.50463 -0.49623 -0.47698 -0.46896 -0.48464 -0.46758 -0.46366 -0.4514 -0.43367 -0.46684 -0.45829 -0.45197 -0.44143 -0.4271 -0.42095 -0.41674 -0.41056 -0.40439 -0.39637 -0.38843 -0.38408 -0.37447 -0.36838 -0.36229 -0.35136 -0.34536 -0.3409 -0.33486 -0.32734 -0.31989 -0.31533 -0.31359 -0.3047 -0.29732 -0.2874 -0.28275 -0.28057 -0.27454 -0.26851 -0.26247 -0.25761 -0.25388 -0.24662 -0.24053 -0.23662 -0.23155 -0.2233 -0.21718 -0.21106 -0.20401 -0.19792 -0.19183 -0.18489 -0.17883 -0.17357 -0.16748 -0.16214 -0.15602 -0.1513 -0.14581 -0.13895 -0.13278 -0.12661 -0.121 -0.11426 -0.10709 -0.10144 -0.095301 -0.089994 -0.084185 -0.077954 -0.070723 -0.063986 -0.057898 -0.05181 -0.045722 -0.039634 -0.033546 -0.027208 -0.020985 -0.015075 -0.0091109 -0.0030924 0.002995 0.0091531 0.015514 0.021542 0.027845 0.034207 0.040629 0.04689 0.053404 0.060266 0.068254 0.074761 0.08167 0.087774 0.093818 0.096974 0.10275 0.10949 0.11467 0.11975 0.12417 0.12905 0.13444 0.13854 0.1413 0.14643 0.15351 0.15999 0.16366 0.16581 0.17143 0 0 0 0 0 0 0 0 0 0.19531 0.20087 0.21111 0.20978 0.21539 0 0.23099 0.23684 0.20481 0.2097 0.21326 0.21818 0.22676 0.23414 0.23774 0 0 0 0 0 0.25795 0.26306 0.26563 0.26903 0.27501 0.2775 0.28445 0.29061 0.29114 0.29351 0.29584 0.29628 0.39258 0.39799
-0.6468 -0.64896 -0.65009 -0.65227 -0.64996 -0.65109 -0.65105 -0.64872 -0.64753 -0.66511 -0.6627 -0.66149 -0.66146 -0.66273 -0.66272 -0.66146 -0.66149 -0.66151 -0.65057 -0.64575 -0.64448 -0.64206 -0.70707 -0.7058 -0.72522 -0.72245 -0.72113 -0.73691 -0.73728 -0.74241 -0.73952 -0.73825 -0.73858 -0.74057 -0.74252 -0.75473 -0.75344 -0.76083 -0.76308 -0.76352 -0.84991 -0.85538 -0.87266 -0.86908 -0.80251 -0.79919 -0.80804 -0.80667 -0.8309 -0.83404 -0.83942 -0.83364 -0.84828 -0.84233 -0.90032 -0.8886 -0.87959 -0.87074 -0.86199 -0.87318 -0.86426 -0.84815 -0.83724 -0.8406 -0.8465 0 -0.92127 -0.91998 -0.9246 -0.91742 -1.021 -0.99837 -0.99726 -1.0068 -1.0129 -1.0996 -1.0987 -1.0978 -1.1569 -1.1514 -1.1755 -1.1499 -1.1346 -1.1291 -1.2046 -1.2041 -1.1981 -1.1975 -1.1915 -1.1854 -1.1794 -1.2064 -1.189 -1.1666 -1.1553 -1.1493 -1.1432 -1.132 -1.1312 -1.1251 -1.1191 -1.103 -1.097 -1.096 -1.095 -1.084 -1.0878 -1.0818 -1.0807 -1.0746 -1.0784 -1.0772 -1.0761 -1.0649 -1.0687 -1.0625 -1.0464 -1.0354 -1.034 -1.0279 -1.0265 -1.0348 -1.0286 -1.0079 -0.99238 -0.98168 -0.9893 -0.98309 -0.98148 -0.97069 -0.96449 -0.94498 -0.93028 -0.92001 -0.93968 -0.95585 -0.9495 -0.93864 -0.92791 -0.91294 -0.9067 -0.90904 -0.89424 -0.88801 -0.87354 -0.85541 -0.84544 -0.83938 -0.82953 -0.82349 -0.8212 -0.81143 -0.8054 -0.79574 -0.78974 -0.7802 -0.78127 -0.77878 -0.75885 -0.7495 -0.73701 -0.72789 -0.72848 -0.72909 -0.72969 -0.72042 -0.71444 -0.71167 -0.70567 -0.69966 -0.69366 -0.68765 -0.68165 -0.68182 -0.67886 -0.66665 -0.65763 -0.65162 -0.64562 -0.63673 -0.6336 -0.63334 -0.62442 -0.61006 -0.59608 -0.58499 -0.57917 -0.57846 -0.57769 -0.57177 -0.56333 -0.55743 -0.554 -0.55055 -0.54953 -0.55613 -0.54745 -0.53884 -0.53521 -0.53403 -0.53034 -0.52168 -0.51551 -0.50463 -0.49396 -0.4879 -0.50739 -0.52904 -0.47405 -0.46794 -0.4576 -0.44543 -0.47366 -0.46049 -0.45197 -0.44144 -0.42909 -0.42095 -0.41481 -0.40866 -0.40252 -0.39455 -0.39023 -0.38588 -0.3762 -0.37008 -0.36565 -0.35621 -0.35012 -0.34246 -0.3364 -0.32734 -0.32134 -0.31677 -0.31504 -0.3047 -0.29598 -0.2887 -0.28147 -0.28186 -0.27454 -0.26851 -0.26368 -0.25762 -0.25271 -0.2455 -0.24054 -0.23553 -0.23155 -0.2233 -0.21718 -0.21107 -0.20495 -0.19792 -0.19183 -0.1849 -0.17884 -0.17278 -0.16672 -0.16066 -0.15531 -0.14991 -0.14446 -0.13831 -0.13217 -0.12661 -0.12044 -0.11321 -0.10759 -0.10145 -0.095747 -0.089574 -0.084988 -0.078324 -0.071055 -0.063988 -0.058167 -0.052051 -0.045724 -0.039819 -0.033549 -0.027211 -0.020987 -0.015146 -0.0091549 -0.0030949 0.0030063 0.0092365 0.015511 0.021742 0.028105 0.034694 0.041014 0.047335 0.053655 0.060848 0.069272 0.075876 0.08248 0.089529 0.095215 0.097434 0.10275 0.10949 0.11413 0.11865 0.12417 0.12905 0.13384 0.13854 0.13947 0.14392 0.14894 0 0 0.13774 0.14241 0 0 0 0 0 0 0 0 0 0 0 0 0 0 0 0.20216 0.20719 0.2088 0.21037 0.21394 0.21818 0.22751 0.23569 0.24252 0 0 0 0 0 0 0 0 0 0.27501 0.27838 0.28353 0.29061 0.29021 0.29351 0.29773 0.30292 0.45382 0.45793
-0.64351 -0.64344 -0.64451 -0.64779 -0.64773 -0.64994 -0.64991 -0.64986 -0.64753 -0.66151 -0.66031 -0.6603 -0.66146 -0.66391 -0.6639 -0.66146 -0.66149 -0.66274 -0.65173 -0.64575 -0.64333 -0.64206 -0.70707 -0.70439 -0.72522 -0.72391 -0.71967 -0.73691 -0.73886 -0.74241 -0.74115 -0.73825 -0.73858 -0.74057 -0.74419 -0.74962 -0.74834 -0.75214 -0.75259 -0.74778 -0.80765 -0.81248 -0.80916 -0.80986 -0.7906 -0.7893 -0.78602 -0.77694 -0.77557 -0.75557 -0.75237 -0.83364 -0.84828 -0.84233 -0.89766 -0.88601 -0.87707 -0.86327 -0.85705 -0.8656 -0.84951 -0.82923 -0.82325 -0.82184 -0.81815 -0.90261 -0.90126 -0.92886 -0.92755 -0.91742 -1.0173 -1.0126 -0.99372 -1.0214 -1.0129 -1.0996 -1.1031 -1.1111 -1.1057 -1.096 -1.1857 -1.0854 -1.08 -1.1291 -1.1626 -1.1879 -1.182 -1.1814 -1.1969 -1.1909 -1.1957 -1.2064 -1.189 -1.1613 -1.1553 -1.1493 -1.1537 -1.1476 -1.1468 -1.1355 -1.1294 -1.1181 -1.1121 -1.1111 -1.105 -1.0989 -1.0928 -1.0968 -1.0857 -1.0795 -1.0834 -1.0823 -1.0761 -1.0649 -1.0687 -1.0477 -1.0226 -1.0119 -1.0245 -1.0279 -1.0265 -1.0349 -1.0286 -0.99852 -0.97876 -0.98168 -0.99394 -0.99237 -0.98611 -0.97985 -0.97359 -0.94937 -0.93456 -0.93276 -0.94854 -0.96047 -0.94496 -0.9342 -0.9235 -0.91724 -0.91098 -0.90904 -0.90275 -0.88801 -0.87766 -0.85936 -0.85325 -0.83938 -0.83715 -0.83106 -0.8212 -0.81514 -0.8054 -0.79575 -0.78974 -0.7802 -0.78127 -0.77878 -0.76227 -0.7529 -0.74028 -0.73438 -0.73173 -0.73569 -0.72969 -0.72368 -0.71768 -0.71491 -0.71212 -0.70285 -0.69682 -0.69078 -0.68788 -0.68495 -0.682 -0.67278 -0.66062 -0.65162 -0.64271 -0.63673 -0.63075 -0.6276 -0.6216 -0.60732 -0.59608 -0.58245 -0.57666 -0.57846 -0.5777 -0.57436 -0.56585 -0.55992 -0.55901 -0.55554 -0.55204 -0.55872 -0.54999 -0.54384 -0.5377 -0.53655 -0.53034 -0.51926 -0.51312 -0.50464 -0.49396 -0.49014 -0.49545 -0.52904 -0.47625 -0.46794 -0.45345 -0.44543 -0.47137 -0.46272 -0.45197 -0.44144 -0.42909 -0.41901 -0.4129 -0.40491 -0.40252 -0.39455 -0.39023 -0.3877 -0.37971 -0.37353 -0.36909 -0.35785 -0.35012 -0.34562 -0.33794 -0.33034 -0.3228 -0.31822 -0.31504 -0.30471 -0.29598 -0.2874 -0.28147 -0.27931 -0.2733 -0.2673 -0.26248 -0.2588 -0.25272 -0.2455 -0.24054 -0.23553 -0.23048 -0.2233 -0.21718 -0.21205 -0.20495 -0.19884 -0.19272 -0.1849 -0.17884 -0.17278 -0.16596 -0.15993 -0.1539 -0.14922 -0.14313 -0.13705 -0.13156 -0.12661 -0.12044 -0.11374 -0.10759 -0.10192 -0.095749 -0.089999 -0.084991 -0.078327 -0.070728 -0.063698 -0.057638 -0.051578 -0.045518 -0.039458 -0.033551 -0.027213 -0.021085 -0.015148 -0.0091574 -0.003126 0.0030177 0.0092775 0.015656 0.022051 0.028371 0.035027 0.041608 0.048021 0.054433 0.061439 0.069615 0.076637 0.083307 0.089526 0.096163 0.097432 0.10275 0.10847 0.11308 0.11865 0.1236 0.12788 0.13384 0.13793 0.14007 0.14331 0.1483 0 0 0.13774 0.14241 0 0 0 0 0 0 0 0 0 0 0 0 0 0 0 0.2015 0.20516 0.20677 0.20836 0.21462 0.21957 0.22312 0.23728 0.24252 0 0 0 0.34965 0.35563 0.36161 0 0 0 0.275 0.27927 0.28445 0.29156 0.29206 0.29351 0.29773 0.30292 0.45169 0.45792
-0.64351 -0.64344 -0.64451 -0.64779 -0.64658 -0.64994 -0.64991 -0.64986 -0.65561 -0.65791 -0.66031 -0.66149 -0.6639 -0.6676 -0.6664 -0.66519 -0.66397 -0.66521 -0.65658 -0.64814 -0.64449 -0.64206 -0.70707 -0.70439 -0.72669 -0.74906 -0.73817 -0.73691 -0.73886 -0.74405 -0.74115 -0.73825 -0.7402 -0.74219 -0.74753 -0.75474 -0.75344 -0.747 -0.75082 -0.74779 -0.80972 -0.80642 -0.8071 -0.80782 -0.78863 -0.77959 -0.77825 -0.77695 -0.7624 -0.75557 -0.75238 -0.90139 -0.84828 -0.84465 -0.89766 -0.8886 -0.88217 -0.87074 -0.86443 -0.86561 -0.83529 -0.82235 -0.81646 -0.81502 -0.82047 -0.90261 -0.90126 -0.96285 -0.95211 -0.93844 -1.0173 -1.0236 -1.0337 -1.0327 -1.047 -1.1262 -1.1074 -1.1066 -1.1102 -1.096 -1.2746 -1.0854 -1.08 -1.1684 -1.178 -1.1933 -1.1873 -1.1867 -1.2136 -1.213 -1.224 -1.2178 -1.1945 -1.1774 -1.1713 -1.176 -1.1809 -1.1746 -1.1684 -1.1622 -1.1505 -1.1337 -1.1489 -1.1373 -1.131 -1.1248 -1.1186 -1.1176 -1.1061 -1.0947 -1.0936 -1.0925 -1.0863 -1.075 -1.0687 -1.0429 -1.0133 -1.0119 -1.0198 -1.0327 -1.0362 -1.0349 -1.0286 -0.99852 -0.97877 -0.98169 -1.0179 -1.0263 -1.0051 -0.99396 -0.98761 -0.96733 -0.95209 -0.95937 -0.97153 -0.96981 -0.94496 -0.9342 -0.9235 -0.91724 -0.91533 -0.91775 -0.90704 -0.89646 -0.88594 -0.86737 -0.8612 -0.84713 -0.84102 -0.8349 -0.82879 -0.82267 -0.81655 -0.80302 -0.79334 -0.7909 -0.78485 -0.78597 -0.77272 -0.76318 -0.75371 -0.74771 -0.7417 -0.73905 -0.73301 -0.72698 -0.72425 -0.71818 -0.7154 -0.71258 -0.70647 -0.70035 -0.69423 -0.69453 -0.6916 -0.67589 -0.66062 -0.65459 -0.64271 -0.63387 -0.63075 -0.62477 -0.6188 -0.60462 -0.59608 -0.585 -0.57918 -0.58362 -0.58031 -0.57956 -0.57097 -0.57014 -0.57457 -0.57107 -0.57022 -0.56665 -0.55776 -0.54895 -0.54275 -0.53907 -0.53284 -0.51927 -0.51075 -0.50232 -0.49396 -0.4879 -0.49545 -0.55444 -0.49225 -0.4859 -0.49134 -0.48483 -0.49286 -0.46272 -0.44984 -0.43937 -0.42909 -0.42292 -0.4129 -0.40491 -0.4044 -0.39638 -0.3939 -0.39322 -0.38877 -0.38064 -0.37257 -0.36119 -0.35337 -0.34723 -0.34108 -0.33186 -0.32577 -0.31822 -0.31504 -0.30333 -0.29598 -0.2874 -0.28148 -0.27931 -0.2733 -0.26609 -0.26129 -0.25645 -0.25272 -0.24663 -0.24054 -0.23663 -0.23156 -0.22434 -0.2182 -0.21304 -0.20784 -0.20164 -0.19544 -0.18835 -0.18133 -0.17358 -0.16749 -0.16066 -0.1546 -0.15061 -0.1438 -0.13705 -0.13279 -0.12721 -0.12101 -0.11427 -0.10861 -0.10241 -0.095752 -0.089579 -0.084994 -0.077962 -0.070404 -0.0637 -0.057378 -0.051346 -0.045313 -0.039281 -0.033554 -0.02734 -0.02128 -0.01529 -0.009202 -0.0031728 0.0030581 0.0094076 0.016034 0.022587 0.029205 0.036067 0.04285 0.04921 0.055781 0.062975 0.07032 0.077024 0.083729 0.089975 0.096646 0.098838 0.10323 0.10897 0.11307 0.11864 0.1236 0.12846 0.13383 0.13792 0.14007 0.14392 0.14893 0 0 0 0 0 0 0 0 0 0 0 0 0 0 0 0 0 0 0 0.2015 0.20583 0.20415 0.20836 0.21393 0.21957 0.22602 0 0 0 0 0 0.34965 0.35563 0.3616 0 0 0 0.28042 0.28109 0.28538 0.2964 0.29301 0.29826 0.44765 0.454 0.45598 0.46008
-0.64352 -0.64453 -0.64335 -0.6478 -0.64658 -0.64994 -0.65105 -0.651 -0.65441 -0.65678 -0.65912 -0.66269 -0.66516 -0.66886 -0.6689 -0.66768 -0.66769 -0.66768 -0.66027 -0.65781 -0.66646 -0.66273 -0.7099 -0.70721 -0.72976 -0.72391 -0.72723 -0.73533 -0.73728 -0.74241 -0.74115 -0.73987 -0.74021 -0.74386 -0.74753 -0.76171 -0.75867 -0.76084 -0.77573 -0.77442 -0.80765 -0.80642 -0.80512 -0.79983 -0.76235 -0.77204 -0.77256 -0.75106 -0.75331 -0.75013 -0.74696 -0.81184 -0.87715 -0.87339 -0.90831 -0.89644 -0.88733 -0.87833 -0.86943 -0.88869 -0.81478 -0.81559 -0.81195 -0.80832 -0.80033 -1.0017 -0.99714 -0.9926 -0.95528 -0.95725 -1.032 -1.0272 -1.0262 -1.0214 -1.0129 -1.091 -1.0943 -1.1066 -1.1192 -1.1418 -1.2746 -1.1748 -1.1691 -1.1634 -1.1833 -1.2096 -1.2035 -1.2085 -1.2192 -1.2245 -1.224 -1.2178 -1.2058 -1.1884 -1.1878 -1.1871 -1.1921 -1.1802 -1.1684 -1.1622 -1.1506 -1.1443 -1.1544 -1.1426 -1.1364 -1.1301 -1.1292 -1.1229 -1.1061 -1.0999 -1.0988 -1.0978 -1.0915 -1.08 -1.0687 -1.0429 -1.0179 -1.0074 -1.0198 -1.0327 -1.0362 -1.0398 -1.0286 -0.99853 -0.97877 -0.98624 -1.0179 -1.0214 -1.0051 -0.99396 -0.98761 -0.96733 -0.95656 -0.95481 -0.97154 -0.96513 -0.94951 -0.9342 -0.92792 -0.92162 -0.91533 -0.91775 -0.9158 -0.90505 -0.8944 -0.87146 -0.86932 -0.85106 -0.84492 -0.84268 -0.83263 -0.82649 -0.82034 -0.81044 -0.79697 -0.79821 -0.78845 -0.78962 -0.77628 -0.77019 -0.75714 -0.75111 -0.74508 -0.7357 -0.73302 -0.73031 -0.72425 -0.72482 -0.7154 -0.71259 -0.70647 -0.70035 -0.69424 -0.69453 -0.69485 -0.67589 -0.66365 -0.65459 -0.64562 -0.63673 -0.63076 -0.62197 -0.61325 -0.60196 -0.59608 -0.585 -0.57918 -0.58891 -0.58557 -0.57957 -0.57617 -0.57275 -0.57457 -0.57376 -0.57023 -0.56666 -0.55516 -0.54896 -0.54275 -0.53655 -0.53035 -0.51687 -0.50841 -0.50003 -0.49172 -0.48568 -0.48855 -0.51339 -0.46547 -0.46155 -0.45552 -0.45154 -0.46685 -0.44972 -0.44352 -0.43527 -0.42909 -0.42096 -0.41482 -0.40679 -0.40822 -0.39823 -0.39391 -0.39323 -0.38694 -0.38065 -0.37083 -0.35952 -0.35337 -0.34723 -0.33951 -0.33339 -0.32428 -0.31678 -0.31217 -0.30471 -0.29733 -0.28871 -0.28275 -0.27805 -0.27207 -0.2661 -0.26012 -0.25645 -0.25042 -0.24439 -0.23944 -0.23773 -0.23049 -0.22434 -0.21921 -0.21405 -0.2098 -0.20452 -0.19636 -0.18835 -0.18218 -0.17519 -0.16904 -0.1629 -0.15603 -0.15202 -0.14447 -0.13768 -0.13342 -0.12781 -0.12216 -0.11481 -0.10861 -0.10241 -0.095755 -0.089581 -0.083802 -0.077236 -0.069763 -0.063126 -0.056863 -0.050885 -0.044907 -0.039105 -0.033403 -0.027343 -0.021282 -0.015363 -0.0092899 -0.0032051 0.0030554 0.0094959 0.016269 0.022921 0.029347 0.036244 0.043062 0.049452 0.056056 0.06329 0.071035 0.077022 0.083302 0.089972 0.097135 0.099796 0.10471 0.11001 0.1136 0.11919 0.12416 0.12846 0.13383 0.13853 0.14007 0.14331 0.14893 0.16582 0 0 0 0 0 0 0 0 0 0 0 0 0 0 0 0 0 0.179 0.18294 0.18687 0.19426 0.19827 0.21393 0.21957 0.22383 0 0 0 0 0 0.34964 0.35562 0.3616 0.44612 0.41063 0.41721 0.28322 0.28857 0.46705 0.30038 0.30586 0.47797 0.44981 0.454 0.45815 0.46227
-0.64461 -0.64453 -0.64335 -0.6478 -0.64658 -0.64994 -0.65106 -0.651 -0.65561 -0.65678 -0.65912 -0.66514 -0.66761 -0.67136 -0.67265 -0.67017 -0.67017 -0.66899 -0.66519 -0.66271 -0.66273 -0.66395 -0.69994 -0.69729 -0.71914 -0.72245 -0.72266 -0.73381 -0.73564 -0.74078 -0.73952 -0.73825 -0.74182 -0.74386 -0.73276 -0.72985 -0.76211 -0.76084 -0.77573 -0.77442 -0.8037 -0.80243 -0.80107 -0.79983 -0.76414 -0.77019 -0.77072 -0.74929 -0.74973 -0.75014 -0.74696 -0.81184 -0.8391 -0.8355 -0.88217 -0.88602 -0.88475 -0.87576 -0.86943 -0.8887 -0.81478 -0.78542 -0.7882 -0.78672 -0.77493 -1.0017 -0.99372 -0.98585 -0.96167 -0.95404 -1.0358 -1.0272 -1.0225 -1.0214 -1.0129 -1.0783 -1.0858 -1.1066 -1.1192 -1.123 -1.2286 -1.145 -1.1491 -1.1386 -1.1576 -1.2263 -1.2202 -1.2141 -1.2365 -1.2303 -1.224 -1.2178 -1.2115 -1.1996 -1.2047 -1.2041 -1.1978 -1.1858 -1.1739 -1.1677 -1.156 -1.1444 -1.1599 -1.1481 -1.1364 -1.1355 -1.1346 -1.1283 -1.1113 -1.0999 -1.0988 -1.0978 -1.0966 -1.0852 -1.0789 -1.0429 -1.0179 -1.0074 -1.0245 -1.0376 -1.0412 -1.0349 -1.0334 -1.0032 -0.98327 -0.99551 -1.0278 -1.0264 -1.0051 -0.99397 -0.98762 -0.97195 -0.96107 -0.95937 -0.96686 -0.96982 -0.94497 -0.93865 -0.93233 -0.92601 -0.92411 -0.92219 -0.92024 -0.91383 -0.8944 -0.87969 -0.86933 -0.85906 -0.84886 -0.84268 -0.83651 -0.83034 -0.82805 -0.8142 -0.80433 -0.79821 -0.79947 -0.78962 -0.78348 -0.77375 -0.76061 -0.75455 -0.74849 -0.73905 -0.73302 -0.73031 -0.72758 -0.72482 -0.7187 -0.71589 -0.70975 -0.70035 -0.69424 -0.69453 -0.69161 -0.67589 -0.6667 -0.65759 -0.64563 -0.63674 -0.63076 -0.61917 -0.61053 -0.60463 -0.59608 -0.59021 -0.58434 -0.58891 -0.58293 -0.58221 -0.57881 -0.57275 -0.57997 -0.57646 -0.57292 -0.564 -0.55777 -0.55154 -0.54276 -0.53907 -0.52786 -0.51927 -0.50609 -0.49775 -0.48949 -0.48349 -0.49314 -0.48923 -0.45718 -0.45534 -0.44538 -0.43368 -0.46023 -0.44554 -0.44144 -0.43325 -0.42514 -0.41902 -0.41482 -0.41058 -0.41014 -0.40011 -0.39576 -0.39323 -0.38694 -0.37884 -0.3691 -0.35786 -0.35337 -0.34723 -0.33951 -0.3334 -0.32429 -0.31678 -0.31217 -0.30471 -0.29868 -0.29132 -0.28403 -0.27931 -0.27208 -0.2661 -0.25895 -0.25414 -0.25042 -0.24328 -0.23836 -0.23663 -0.22942 -0.22434 -0.21922 -0.21405 -0.20981 -0.20549 -0.19728 -0.18924 -0.18133 -0.176 -0.16983 -0.16366 -0.15823 -0.15274 -0.14583 -0.13962 -0.13405 -0.12903 -0.12216 -0.11535 -0.10912 -0.10241 -0.095757 -0.089169 -0.083411 -0.07688 -0.069448 -0.062843 -0.05661 -0.050431 -0.044708 -0.038931 -0.033253 -0.027221 -0.021188 -0.015366 -0.0094237 -0.0032539 0.0031118 0.0095855 0.016511 0.023033 0.029637 0.036241 0.043059 0.049696 0.056053 0.063287 0.071032 0.077409 0.082881 0.089969 0.097132 0.099311 0.10421 0.11053 0.11412 0.11919 0.12416 0.12845 0.13443 0.13853 0.14252 0.1427 0.14893 0.16582 0 0 0 0 0 0 0 0 0 0 0 0 0 0 0 0 0 0.179 0.18185 0.18687 0.19195 0.19648 0.21257 0.21747 0.22098 0.48344 0.49248 0.50152 0.51055 0 0.34807 0.35402 0.35998 0.38862 0.39308 0.4131 0.28322 0.28857 0.45973 0.30038 0.30586 0.47797 0.46092 0.4584 0.46257 0.46447
-0.64461 -0.64344 -0.64336 -0.64888 -0.64658 -0.65224 -0.6522 -0.651 -0.65214 -0.66151 -0.66151 -0.67251 -0.67509 -0.67895 -0.68027 -0.67777 -0.6765 -0.6753 -0.67408 -0.67027 -0.66904 -0.66395 -0.69994 -0.7058 -0.7118 -0.72698 -0.72723 -0.7385 -0.73886 -0.74078 -0.73952 -0.73988 -0.74183 -0.74219 -0.73597 -0.72985 -0.79328 -0.80356 -0.81025 -0.80698 -0.80571 -0.80243 -0.80107 -0.80181 -0.79061 -0.7815 -0.78021 -0.74752 -0.74615 -0.74657 -0.74877 -0.81825 -0.82126 -0.8355 -0.88472 -0.87836 -0.88475 -0.87576 -0.86693 -0.8887 -0.86179 -0.78542 -0.78398 -0.78047 -0.77493 -1.0017 -0.987 -0.97586 -0.96489 -0.95404 -1.0472 -1.031 -1.0262 -1.0327 -1.0316 -1.0742 -1.0858 -1.1066 -1.1193 -1.123 -1.2286 -1.145 -1.1299 -1.1386 -1.2439 -1.2377 -1.2374 -1.237 -1.2544 -1.242 -1.224 -1.2236 -1.2173 -1.211 -1.2104 -1.2099 -1.1978 -1.1915 -1.1795 -1.1845 -1.1725 -1.1607 -1.1711 -1.1591 -1.1472 -1.1409 -1.14 -1.1392 -1.1113 -1.0999 -1.0988 -1.103 -1.0967 -1.08 -1.0789 -1.0625 -1.0367 -1.0354 -1.0438 -1.0524 -1.0562 -1.0398 -1.0384 -1.0271 -1.0112 -1.0243 -1.0379 -1.0365 -1.0149 -1.0036 -0.99719 -0.97657 -0.96108 -0.96393 -0.98102 -0.9842 -0.9541 -0.9523 -0.94589 -0.93495 -0.92857 -0.92666 -0.92472 -0.91383 -0.89871 -0.87969 -0.87343 -0.85906 -0.85687 -0.85064 -0.8444 -0.83817 -0.83194 -0.82185 -0.81182 -0.80565 -0.80325 -0.79704 -0.78348 -0.77734 -0.76763 -0.75455 -0.74849 -0.73905 -0.73637 -0.73367 -0.73775 -0.73157 -0.7254 -0.72262 -0.71642 -0.71022 -0.70071 -0.69454 -0.69161 -0.67903 -0.6667 -0.66061 -0.64857 -0.63962 -0.63076 -0.62198 -0.61053 -0.60733 -0.60413 -0.59818 -0.59222 -0.59158 -0.58294 -0.58221 -0.58147 -0.57804 -0.57997 -0.57918 -0.57566 -0.56937 -0.56307 -0.55678 -0.55049 -0.5442 -0.53791 -0.52661 -0.51076 -0.50003 -0.49172 -0.48569 -0.49314 -0.49153 -0.45922 -0.45128 -0.44145 -0.45155 -0.45807 -0.44554 -0.4394 -0.43527 -0.42319 -0.42096 -0.41872 -0.41641 -0.41406 -0.40389 -0.40335 -0.4028 -0.38878 -0.37707 -0.36567 -0.35786 -0.35175 -0.34723 -0.34109 -0.33494 -0.32578 -0.31969 -0.31505 -0.30894 -0.30564 -0.29808 -0.29329 -0.28579 -0.27836 -0.26852 -0.2613 -0.25529 -0.24929 -0.24328 -0.23836 -0.23446 -0.23049 -0.22229 -0.2182 -0.21405 -0.20981 -0.20549 -0.19729 -0.18924 -0.18218 -0.17601 -0.17144 -0.16521 -0.15972 -0.15567 -0.1472 -0.14229 -0.13662 -0.13027 -0.12333 -0.11645 -0.10964 -0.10289 -0.095759 -0.089171 -0.083414 -0.076528 -0.06945 -0.062846 -0.056358 -0.050433 -0.04471 -0.03911 -0.033256 -0.0271 -0.021287 -0.015958 -0.0097475 -0.0033864 0.0032177 0.0098708 0.016591 0.023145 0.029634 0.036419 0.043056 0.049693 0.056051 0.063607 0.071029 0.077802 0.082878 0.090425 0.098121 0.097421 0.10521 0.11159 0.11412 0.11974 0.12415 0.12787 0.13443 0.13978 0.14639 0.15588 0.15978 0.16582 0 0 0 0 0 0 0 0 0 0 0 0 0 0 0 0 0 0.179 0.18131 0.18577 0.19309 0.19648 0.21256 0.21677 0.22098 0.48344 0.49247 0.50496 0.51055 0 0.34964 0.35562 0.36489 0.3778 0.39307 0.41514 0.42377 0.44354 0.45497 0.46908 0.48109 0.48299 0.47258 0.46977 0.47166 0.47122
