1.2668 1.2653 1.2713 1.2673 1.2684 1.2644 1.263 1.2641 1.2775 1.2861 1.3001 1.3011 1.3023 1.306 1.3072 1.3057 1.3068 1.3053 1.3038 1.3023 1.3008 1.2993 1.3032 1.3043 1.3135 1.312 1.3078 1.3171 1.3237 1.3473 1.3573 1.3529 1.3484 1.3411 1.3424 1.3466 1.3507 1.3491 1.3505 1.3489 1.3501 1.3514 1.3558 1.3659 1.3642 1.3626 1.361 1.3565 1.3638 1.3682 1.3696 1.377 1.3724 1.3768 1.3938 1.3984 1.4031 1.4078 1.4061 1.4076 1.4092 1.4075 1.4122 1.4138 1.4056 1.4039 1.4054 1.4201 1.4184 1.4266 1.4487 1.4574 1.4627 1.4751 1.4769 1.4787 1.4806 1.4788 1.4843 1.4825 1.4843 1.4861 1.4881 1.4862 1.4917 1.4937 1.4955 1.4974 1.4955 1.4974 1.4956 1.4937 1.4994 1.4976 1.4957 1.4938 1.4958 1.4939 1.4882 1.4939 1.5191 1.5252 1.5312 1.5456 1.5395 1.5375 1.5315 1.5418 1.5606 0 0 0 0 0 0 0 0 0 0 0 0 0 0 0 0 0 0 0 0 0 0 0 0 0 0 0 0 0 0 0 0 0 0 0 0 0 0 0 0 0 0 0 0 0 0 0 0 0 0 0 0 0 0 0 0 0 0 0 0 0 0 0 2.0617 2.0588 2.1389 2.0854 2.0907 2.1129 2.1356 2.1678 2.1648 2.198 2.2134 2.2196 2.2355 0 0 0 0 0 0 0 0 0 0 0 0 0 0 0 0 0 0 0 0 0 0 0 0 0 0 0 0 0 0 0 0 0 0 0 0 0 0 0 0 0 0 0 0 1.9588 1.9558 1.9528 1.8748 1.8719 1.8691 1.888 1.8851 1.9746 1.9797 1.9767 0 0 0 0 0 0 0 0 1.7419 1.7456 1.7429 0 1.706 1.7095 1.713 1.6619 1.6535 1.6567 1.654 0 1.7031 1.7067 1.7039 1.7012 0 1.7471 1.7377 1.7819 1.8432 1.6368 1.6401 1.62 1.6118 1.6148 1.6008 1.5982 0 0 0 0 0 0 0 0 0 1.6659 1.6694 1.6984 1.5755 1.5674 1.5703 1.4987 1.4962 1.464 1.4615 1.504 1.5014 0.80668 0.80684 0.81146 0.80554 0.79687 0.794 0.79123 0.78562 0.78144 0.77453 0.7732 0.7732 0.77187 0.76922 0.76921 0.76789 0.76796 0.76663 0.76669 0.76675 0.7668 0.76685 0.76551 0.76555 0.76696 0.76562 0.76289 0.76155 0.7602 0.75885 0.75614 0.75208 0.74802 0.74269 0.73602 0.73216 0.7295 0.72438 0.72054 0.71798 0.71668 0.71539 0.71409 0.71279 0.7115 0.71145 0.70891 0.70761 0.70631 0.70502 0.70372 0.70366 0.70113 0.6986 0.6973 0.69724 0.69472 0.69465 0.69091 0.6884 0.68475 0.68112 0.67627
1.2671 1.2681 1.2716 1.2702 1.2688 1.2648 1.2659 1.2669 1.2779 1.2865 1.303 1.299 1.3 1.3064 1.3049 1.3061 1.3072 1.3031 1.3042 1.3001 1.3012 1.3025 1.3035 1.3074 1.3166 1.3124 1.3136 1.3202 1.3269 1.3506 1.3577 1.3561 1.3517 1.3472 1.3456 1.3527 1.3568 1.3582 1.3595 1.3579 1.3594 1.3666 1.3679 1.3693 1.3677 1.3661 1.3614 1.3598 1.3642 1.3716 1.373 1.3744 1.3728 1.3741 1.3911 1.3989 1.4035 1.405 1.4033 1.4081 1.4064 1.408 1.416 1.4143 1.4092 1.4075 1.4124 1.4173 1.4221 1.4271 1.4458 1.4545 1.4632 1.4756 1.4774 1.4792 1.4811 1.4829 1.4885 1.4866 1.4884 1.4866 1.4847 1.4867 1.4922 1.4904 1.4959 1.4941 1.496 1.4941 1.496 1.4942 1.4999 1.4981 1.4962 1.4943 1.4963 1.4981 1.4962 1.502 1.5157 1.5217 1.5317 1.5502 1.5441 1.538 1.532 1.5464 1.5611 0 0 0 0 0 0 0 0 0 0 0 0 0 0 0 0 0 0 0 0 0 0 0 0 0 0 0 0 0 0 0 0 0 0 0 0 0 0 0 0 0 0 0 0 0 0 0 0 0 0 0 0 0 0 0 0 0 0 0 0 0 0 0 0 0 2.1748 2.1281 2.1252 2.1394 2.1627 2.1776 2.1745 2.1988 2.2049 2.2111 2.2079 0 0 0 0 0 0 0 0 0 0 0 0 0 0 0 0 0 0 0 0 0 0 0 0 0 0 0 0 0 0 0 0 0 0 0 0 0 0 0 0 0 0 0 0 0 0 0 0 0 0 0 0 0 0 0 0 0 0 0 1.8775 1.8745 1.8009 1.7913 1.7426 1.7527 1.7763 1.7537 1.7445 1.7291 1.7327 1.7757 1.7933 1.6751 1.6725 0 1.7355 1.7263 1.7235 1.7208 1.7181 1.6965 1.719 1.7226 1.6402 1.6375 1.6407 1.6207 1.6181 1.6212 1.636 0 0 0 0 0 0 0 0 0 0 0 0 0 0 0 0 0 0 0 0 0.84073 0.83932 0.80702 0.80719 0.81485 0.80741 0.80015 0.79729 0.793 0.78596 0.78178 0.77486 0.77354 0.77221 0.77221 0.77088 0.77096 0.77103 0.7697 0.76836 0.76842 0.76987 0.76714 0.76719 0.76585 0.76589 0.76731 0.76596 0.76323 0.76326 0.76054 0.7592 0.75785 0.75242 0.74836 0.74431 0.73636 0.73377 0.72983 0.72471 0.72087 0.71831 0.71701 0.71572 0.71442 0.71313 0.71057 0.71053 0.71049 0.70919 0.7054 0.7041 0.70405 0.70152 0.70146 0.69893 0.69641 0.69511 0.69382 0.69375 0.69246 0.68751 0.68386 0.68023 0.6766
1.2675 1.2685 1.272 1.273 1.2666 1.2628 1.2613 1.2648 1.2808 1.2869 1.2982 1.2967 1.2979 1.3015 1.3053 1.3038 1.305 1.3035 1.302 1.3005 1.3016 1.3028 1.3039 1.305 1.3197 1.3155 1.3167 1.326 1.3328 1.3511 1.3581 1.3565 1.3549 1.3505 1.349 1.3618 1.3631 1.3704 1.3688 1.3672 1.3715 1.376 1.3774 1.3788 1.3741 1.3725 1.3679 1.3633 1.3676 1.369 1.3704 1.3749 1.3701 1.3716 1.3915 1.3993 1.4071 1.4022 1.4038 1.4053 1.4068 1.4051 1.4164 1.4147 1.413 1.408 1.4129 1.421 1.4193 1.4275 1.4463 1.4549 1.4601 1.4725 1.4743 1.4761 1.4816 1.4797 1.4815 1.4797 1.4779 1.4834 1.4816 1.4798 1.4927 1.4908 1.4928 1.4871 1.489 1.4984 1.5004 1.5023 1.5043 1.5024 1.5005 1.5024 1.5043 1.5181 1.5239 1.5261 1.5361 1.5382 1.5403 1.5589 1.5528 1.5426 1.5365 1.5469 1.5616 0 0 0 0 0 0 0 0 0 0 0 0 0 0 0 0 0 0 0 0 0 0 0 0 0 0 0 0 0 0 0 0 0 0 0 0 0 0 0 0 0 0 0 0 0 0 0 0 0 0 0 0 0 0 0 0 0 0 0 0 0 0 0 0 0 2.1756 2.1997 2.1966 2.1936 2.1905 2.2058 2.1935 2.2181 2.2244 2.2307 2.2087 0 0 0 0 0 0 0 0 0 0 0 0 0 0 0 0 0 0 0 0 0 0 0 0 0 0 0 0 0 0 0 0 0 0 0 0 0 0 0 0 0 0 0 0 0 0 0 0 0 0 0 0 0 0 0 0 0 0 0 1.8782 1.8679 1.8363 1.7654 1.7369 1.7534 1.7703 1.761 1.7517 1.7555 1.7593 1.7631 1.794 1.6758 1.6731 0 1.7362 1.7465 1.7502 1.7215 1.7188 1.6972 1.7069 1.7233 1.6408 1.6382 1.6414 1.6329 1.6131 1.6394 1.6367 0 0 0 0 0 0 0 0 0 0 0 0 0 0 0 0 0 0 0 0 0.83625 0.83485 0.80737 0.80897 0.81671 0.81079 0.80193 0.79914 0.79628 0.78773 0.78212 0.77378 0.77388 0.77255 0.77255 0.77263 0.7713 0.77137 0.77143 0.7701 0.77016 0.77161 0.76748 0.76753 0.76619 0.76623 0.76627 0.76492 0.7622 0.76223 0.75952 0.75817 0.75546 0.75139 0.74733 0.74337 0.73669 0.73283 0.73016 0.72377 0.7212 0.71864 0.71734 0.71605 0.71475 0.71346 0.71216 0.71212 0.71082 0.70952 0.70573 0.70444 0.70314 0.70185 0.70055 0.69926 0.6955 0.69421 0.69292 0.69286 0.69157 0.68784 0.68419 0.68177 0.67692
1.2678 1.2712 1.2724 1.2709 1.267 1.2607 1.2593 1.2603 1.2811 1.2872 1.2934 1.292 1.2956 1.2993 1.3031 1.3042 1.3027 1.3012 1.3024 1.3035 1.302 1.3032 1.3017 1.3081 1.3174 1.3213 1.3252 1.3319 1.3332 1.3457 1.3557 1.3569 1.3553 1.3537 1.3522 1.3682 1.3635 1.3739 1.3782 1.3766 1.3901 1.3947 1.3962 1.4007 1.3959 1.3913 1.3896 1.3818 1.3832 1.3816 1.386 1.4001 1.3984 1.3967 1.4109 1.4125 1.414 1.4188 1.4171 1.4154 1.4137 1.4152 1.4202 1.4184 1.4233 1.4183 1.4232 1.4314 1.4297 1.428 1.4467 1.4518 1.4606 1.4729 1.4711 1.4729 1.4747 1.4765 1.4784 1.4766 1.4748 1.4802 1.4784 1.4802 1.4895 1.4913 1.4894 1.4839 1.4857 1.4989 1.5047 1.5067 1.5163 1.5105 1.5048 1.5067 1.5126 1.5344 1.5364 1.5386 1.5447 1.5428 1.5449 1.5679 1.5575 1.5513 1.5453 1.5515 1.5621 0 0 0 0 0 0 0 0 0 0 0 0 0 0 0 0 0 0 0 0 0 0 0 0 0 0 0 0 0 0 0 0 0 0 0 0 0 0 0 0 0 0 0 0 0 0 0 0 0 0 0 0 0 0 0 0 0 0 0 0 0 0 0 2.2097 2.2067 2.2221 2.2097 2.2066 2.2128 2.2097 2.2066 2.2035 2.2189 2.2443 2.2411 2.238 0 0 0 0 0 0 0 0 0 0 0 0 0 0 0 0 0 0 0 0 0 0 0 0 0 0 0 0 0 0 0 0 0 0 0 0 0 0 0 0 0 0 0 0 0 0 0 0 0 0 0 0 0 0 0 0 0 0 0 1.8789 1.8687 1.83 1.7661 1.7313 1.7477 1.771 1.7617 1.7524 1.7562 1.76 1.7377 1.7286 1.7452 1.7424 1.7142 1.7051 1.7537 1.7642 1.7614 1.8573 1.7104 1.714 1.7436 1.7474 1.6389 1.6421 1.6336 1.6194 1.7947 1.7918 0 0 0 0 0 0 0 0 0 0 0 0 0 0 0 0 0 0 0 0 0.83661 0.83521 0.8338 0.82766 0.82323 0.81872 0.81128 0.80688 0.80249 0.79384 0.78673 0.77829 0.77838 0.77704 0.77289 0.77297 0.77164 0.77311 0.77178 0.77044 0.7705 0.77055 0.76921 0.76787 0.76653 0.76658 0.76661 0.76389 0.76255 0.76258 0.75986 0.75852 0.7558 0.74901 0.74631 0.74099 0.73703 0.73316 0.7305 0.7241 0.7228 0.71897 0.71767 0.71764 0.71508 0.71379 0.71249 0.71245 0.71115 0.7086 0.70606 0.70476 0.70223 0.70218 0.69965 0.69712 0.69583 0.69454 0.69325 0.69196 0.69067 0.68817 0.68573 0.6821 0.67846
1.2682 1.2716 1.2751 1.2762 1.2673 1.2635 1.2621 1.263 1.279 1.2826 1.2912 1.2897 1.2909 1.2997 1.3008 1.302 1.3031 1.3042 1.3027 1.3066 1.3051 1.3036 1.3047 1.3058 1.3205 1.3217 1.3283 1.338 1.3364 1.3518 1.3589 1.3573 1.3557 1.3571 1.3584 1.3686 1.367 1.3743 1.3786 1.38 1.3875 1.3951 1.3966 1.398 1.3963 1.3885 1.39 1.3822 1.3806 1.382 1.3864 1.4005 1.4019 1.4035 1.4146 1.4161 1.421 1.4225 1.4176 1.4224 1.4174 1.419 1.4206 1.4222 1.4205 1.422 1.4236 1.4286 1.4268 1.4284 1.4403 1.4317 1.4367 1.4556 1.4575 1.4557 1.4503 1.4591 1.468 1.4733 1.4679 1.4697 1.4607 1.4589 1.4715 1.477 1.4788 1.4734 1.4789 1.4844 1.4937 1.4995 1.509 1.5071 1.5052 1.5111 1.517 1.5389 1.5451 1.5472 1.5493 1.5473 1.5495 1.5642 1.5622 1.5518 1.5458 1.552 1.5584 1.5607 1.5544 0 0 0 0 0 0 0 0 0 0 0 0 0 0 0 0 0 0 0 0 0 0 0 0 0 0 0 0 0 0 0 0 0 0 0 0 0 0 0 0 0 0 0 0 0 0 0 0 0 0 0 0 0 0 0 0 0 0 0 0 0 2.2105 2.2167 2.2229 2.2105 2.2074 2.2136 2.2105 2.2074 2.195 2.2104 2.226 2.2323 2.2292 0 0 0 0 0 0 0 0 0 0 0 0 0 0 0 0 0 0 0 0 0 0 0 0 0 0 0 0 0 0 0 0 0 0 0 0 0 0 0 0 0 0 0 0 0 0 0 0 0 0 0 0 0 0 0 0 0 0 0 1.8797 1.8694 1.8378 1.7734 1.7383 1.7548 1.7717 1.7624 1.7212 1.706 1.7095 1.7007 1.7167 1.714 1.7302 1.7212 1.7184 1.722 1.7321 1.7423 1.7865 1.7111 1.7147 1.7183 1.7285 1.6395 1.6427 1.646 1.6201 1.7954 1.7925 0 0 0 0 0 0 0 0 0 0 0 0 0 0 0 0 0 0 0 0 0.84181 0.83718 0.83416 0.82802 0.82358 0.81756 0.81163 0.80874 0.80435 0.79419 0.78849 0.77863 0.77872 0.77738 0.7719 0.77057 0.77057 0.77065 0.77212 0.77078 0.76945 0.7709 0.76816 0.76683 0.76826 0.76692 0.76696 0.76561 0.76151 0.76017 0.7602 0.75749 0.75615 0.74935 0.74537 0.74268 0.73609 0.7335 0.73083 0.72571 0.72314 0.72057 0.71927 0.71797 0.71667 0.71412 0.71282 0.71278 0.71148 0.70893 0.70639 0.7051 0.70256 0.70127 0.69998 0.69745 0.69616 0.69364 0.69235 0.69352 0.691 0.68971 0.68606 0.68478 0.67993
1.271 1.272 1.2805 1.2815 1.2726 1.2688 1.2648 1.2634 1.2769 1.2779 1.2865 1.2876 1.2886 1.2949 1.2961 1.2997 1.3035 1.302 1.3005 1.3096 1.3081 1.3066 1.3104 1.3089 1.3154 1.3248 1.3371 1.3496 1.348 1.3609 1.3652 1.3636 1.362 1.3632 1.3617 1.369 1.3703 1.3776 1.3821 1.3804 1.3849 1.3925 1.3939 1.3892 1.3876 1.3828 1.3812 1.3765 1.3719 1.3733 1.3807 1.4009 1.4024 1.407 1.4183 1.4231 1.4246 1.4229 1.4212 1.4262 1.4211 1.4227 1.4243 1.4226 1.4209 1.4159 1.4208 1.4223 1.4273 1.4222 1.4271 1.4254 1.4304 1.4457 1.4509 1.4492 1.4439 1.4526 1.4613 1.463 1.4612 1.4594 1.4576 1.4558 1.4684 1.4738 1.4757 1.4702 1.472 1.4848 1.4904 1.4961 1.5134 1.5115 1.5096 1.5194 1.5293 1.5599 1.5661 1.5642 1.5664 1.5644 1.5624 1.5647 1.5669 1.5607 1.5545 1.5568 1.5632 1.5654 1.5549 0 0 0 0 0 0 0 0 0 0 0 0 0 0 0 0 0 0 0 0 0 0 0 0 0 0 0 0 0 0 0 0 0 0 0 0 0 0 0 0 0 0 0 0 0 0 0 0 0 0 0 0 0 0 0 0 0 0 0 0 0 2.2299 2.2268 2.2237 2.2113 2.2082 2.2144 2.2205 2.2082 2.2051 2.2205 2.2363 2.2427 2.23 0 0 0 0 0 0 0 0 0 0 0 0 0 0 0 0 0 0 0 0 0 0 0 0 0 0 0 0 0 0 0 0 0 0 0 0 0 0 0 0 0 0 0 0 0 0 0 0 0 0 0 0 0 0 0 0 0 0 0 1.8804 1.8701 1.8528 1.8216 1.7454 1.7555 1.7791 1.7697 1.7094 1.7129 1.704 1.7013 1.7111 1.721 1.7309 1.7219 1.7254 1.7227 1.7263 1.743 1.76 1.731 1.709 1.7063 1.7099 1.6461 1.6434 1.6707 1.7181 0 0 0 0 0 0 0 0 0 0 0 0 0 0 0 0 0 0 0 0 0 0 0.84218 0.83117 0.82825 0.82533 0.82233 0.81639 0.81198 0.80909 0.80621 0.79596 0.79025 0.78323 0.78047 0.77772 0.77357 0.77091 0.76958 0.76958 0.77106 0.76832 0.76839 0.76845 0.76711 0.76578 0.76583 0.76449 0.76453 0.76319 0.7591 0.75776 0.7578 0.75509 0.75375 0.74567 0.74298 0.74038 0.73642 0.73247 0.72989 0.72604 0.72474 0.72217 0.7196 0.71957 0.71826 0.71445 0.71315 0.7106 0.71181 0.70926 0.70547 0.70294 0.70165 0.69796 0.69783 0.69539 0.69526 0.69397 0.69268 0.69262 0.69133 0.68882 0.68753 0.68625 0.68261
1.2689 1.2749 1.2833 1.287 1.2755 1.2716 1.2677 1.2663 1.2747 1.2783 1.2819 1.2854 1.289 1.2927 1.2965 1.2975 1.3012 1.3024 1.3089 1.3126 1.3111 1.3123 1.3108 1.3066 1.3158 1.3279 1.343 1.3528 1.3542 1.3613 1.3656 1.364 1.3652 1.3637 1.3621 1.3694 1.3707 1.378 1.3855 1.3778 1.3853 1.3867 1.3881 1.3865 1.3818 1.3802 1.3756 1.3709 1.3693 1.3737 1.3812 1.3982 1.4028 1.4075 1.422 1.4236 1.4251 1.4267 1.4217 1.4266 1.4216 1.4232 1.4215 1.4198 1.4147 1.413 1.4146 1.4228 1.4243 1.4226 1.4209 1.4225 1.4208 1.4428 1.441 1.4426 1.4375 1.4461 1.4547 1.4495 1.4511 1.4564 1.4546 1.4528 1.4652 1.4706 1.4725 1.467 1.4688 1.4816 1.4872 1.4928 1.5177 1.5158 1.5139 1.5238 1.5378 1.5646 1.5709 1.5773 1.5754 1.5734 1.5714 1.5694 1.5674 1.5654 1.5634 1.5614 1.5722 1.5617 1.5513 1.5535 0 0 0 0 0 0 0 0 0 0 0 0 0 0 0 0 0 0 0 0 0 0 0 0 0 0 0 0 0 0 0 0 0 0 0 0 0 0 0 0 0 0 0 0 0 0 0 0 0 0 0 0 0 0 0 0 0 0 0 0 2.2307 2.2276 2.2338 2.2121 2.209 2.2244 2.2213 2.2182 2.2058 2.2213 2.2371 2.2339 2.25 0 0 0 0 0 0 0 0 0 0 0 0 0 0 0 0 0 0 0 0 0 0 0 0 0 0 0 0 0 0 0 0 0 0 0 0 0 0 0 0 0 0 0 0 0 0 0 0 0 0 0 0 0 0 0 0 0 0 0 1.8593 1.8564 1.8535 1.7297 1.7333 1.7434 1.7666 0 0 0 0 0 0 1.7408 1.7189 1.7037 1.7135 1.7234 1.727 1.7308 1.7475 1.7188 1.7035 1.7008 1.6856 1.6586 1.65 1.6775 1.7188 0 0 0 0 0 0 0 0 0 0 0 0 0 0 0 0 0 0 0 0.78666 0.78672 0.83909 0.82824 0.82532 0.82241 0.81951 0.82269 0.81674 0.81081 0.80944 0.80505 0.7963 0.7906 0.78357 0.78223 0.77948 0.77391 0.77258 0.76992 0.76992 0.7714 0.77006 0.76733 0.7674 0.76606 0.76612 0.76478 0.76345 0.76349 0.76077 0.75668 0.75535 0.75402 0.75406 0.75136 0.74335 0.74204 0.73807 0.73548 0.73281 0.7315 0.72637 0.72507 0.7225 0.7212 0.7199 0.71733 0.71604 0.71223 0.71093 0.71089 0.70834 0.70456 0.70202 0.69833 0.69704 0.69576 0.69571 0.6932 0.6943 0.69301 0.69172 0.69044 0.68915 0.68786 0.68543 0.68293
1.2717 1.2777 1.2863 1.2873 1.2783 1.2719 1.2705 1.2667 1.2776 1.2787 1.2848 1.2883 1.2894 1.293 1.2968 1.2978 1.3016 1.3028 1.3092 1.3157 1.3142 1.318 1.3165 1.3043 1.3029 1.345 1.3491 1.359 1.3604 1.3617 1.366 1.3672 1.3656 1.364 1.3654 1.3698 1.3711 1.3755 1.3799 1.3782 1.3827 1.3871 1.3855 1.3839 1.3822 1.3776 1.379 1.3743 1.3697 1.3711 1.3786 1.4018 1.4065 1.4111 1.4225 1.424 1.4223 1.4206 1.4157 1.4204 1.4187 1.4138 1.4153 1.4169 1.4119 1.4135 1.4117 1.4166 1.4182 1.4198 1.4147 1.4163 1.4179 1.4329 1.4312 1.4227 1.4209 1.4259 1.4309 1.4258 1.4274 1.4291 1.4307 1.4289 1.4479 1.4603 1.4693 1.4674 1.4693 1.4821 1.4877 1.497 1.5222 1.5203 1.5223 1.5282 1.5423 1.5733 1.5841 1.5821 1.5844 1.5782 1.5762 1.5699 1.5722 1.5702 1.5682 1.5662 1.5769 1.5664 1.5559 1.5498 0 0 0 0 0 0 0 0 0 0 0 0 0 0 0 0 0 0 0 0 0 0 0 0 0 0 0 0 0 0 0 0 0 0 0 0 0 0 0 0 0 0 0 0 0 0 0 0 0 0 0 0 0 0 0 0 0 0 0 0 2.2315 2.2377 2.2252 2.2128 2.2098 2.2346 2.2128 2.2098 2.2066 2.2128 2.2284 2.2252 2.2221 0 0 0 0 0 0 0 0 0 0 0 0 0 0 0 0 0 0 0 0 0 0 0 0 0 0 0 0 0 0 0 0 0 0 0 0 0 0 0 0 0 0 0 0 0 0 0 0 0 0 0 0 0 0 0 1.762 1.7658 1.8232 1.9073 1.86 1.8571 1.8615 1.7304 1.7532 1.7505 1.7673 1.7979 1.7295 1.7206 1.7179 1.7214 1.7442 1.7415 1.7323 1.7232 1.7332 1.737 1.7342 1.7379 1.7548 1.726 1.7104 1.7015 1.6863 1.6593 1.6507 1.6782 1.7195 0 1.6762 1.6735 1.6708 1.6619 0 0 0 0 0 0 0 0 0 0 0 0 0 0 0.787 0.78705 0.83314 0.82553 0.82262 0.81666 0.81528 0.82 0.8171 0.81116 0.80979 0.80539 0.79665 0.79094 0.78533 0.78257 0.78124 0.77424 0.77292 0.77159 0.77026 0.77314 0.7704 0.76907 0.76913 0.76501 0.76507 0.76512 0.76517 0.76245 0.75973 0.75296 0.75164 0.75032 0.74899 0.74767 0.74232 0.74101 0.73841 0.73445 0.73187 0.73056 0.72798 0.7254 0.7241 0.7228 0.72149 0.71893 0.71637 0.71381 0.71126 0.71122 0.70742 0.70488 0.70118 0.69749 0.69256 0.69253 0.69241 0.69237 0.69108 0.68981 0.6909 0.68962 0.68711 0.68705 0.68454 0.68212
1.2795 1.283 1.2917 1.2928 1.2837 1.2772 1.2758 1.2719 1.2855 1.2866 1.2902 1.2938 1.2949 1.296 1.2997 1.3009 1.3046 1.3057 1.3176 1.3215 1.3254 1.3266 1.3224 1.3154 1.37 1.3655 1.364 1.3682 1.3696 1.365 1.3664 1.3676 1.366 1.3645 1.3658 1.3731 1.3715 1.3759 1.3803 1.3817 1.3861 1.3876 1.389 1.3843 1.3796 1.378 1.3794 1.3748 1.3761 1.3745 1.382 1.4053 1.41 1.4148 1.4229 1.4244 1.4227 1.421 1.4193 1.4176 1.4159 1.4142 1.4157 1.414 1.4123 1.4106 1.4122 1.4171 1.4186 1.4136 1.4152 1.4102 1.415 1.43 1.4283 1.4198 1.4147 1.4196 1.428 1.4195 1.4211 1.4227 1.4176 1.4226 1.4414 1.4752 1.4697 1.4679 1.4697 1.49 1.4994 1.5052 1.5384 1.5365 1.5387 1.5447 1.5591 1.5823 1.5933 1.5913 1.5893 1.583 1.581 1.5704 1.5727 1.5707 1.5687 1.5709 1.5774 1.5669 1.5565 1.5545 0 0 0 0 0 0 0 0 0 0 0 0 0 0 0 0 0 0 0 0 0 0 0 0 0 0 0 0 0 0 0 0 0 0 0 0 0 0 0 0 0 0 0 0 0 0 0 0 0 0 0 0 0 0 0 0 0 0 0 0 2.2416 2.2385 2.226 2.2044 2.2014 2.2167 2.2044 2.1921 2.189 2.2043 2.2104 2.2166 2.2229 0 0 0 0 0 0 0 0 0 0 0 0 0 0 0 0 0 0 0 0 0 0 0 0 0 0 0 0 0 0 0 0 0 0 0 0 0 0 0 0 0 0 0 0 0 0 0 0 0 0 0 0 0 0 0 1.7627 1.7795 1.8379 1.8636 1.8753 1.8651 1.8768 1.8813 1.7603 1.7707 1.8015 1.8055 1.7302 1.7403 1.7312 1.7285 1.7385 1.7552 1.7995 1.8037 1.8008 1.791 1.7745 1.7785 1.7963 1.7331 1.7239 1.7147 1.712 1.6781 1.6633 1.6851 1.7202 0 1.6769 1.668 1.6715 1.6688 0 0 0 0 0 0 0 0 0 0 0 0 0 0 0.7887 0.78739 0.83349 0.82435 0.82144 0.81548 0.81563 0.82035 0.81593 0.81151 0.80863 0.80574 0.797 0.78986 0.7871 0.78292 0.78299 0.776 0.77467 0.77474 0.77341 0.77348 0.77214 0.77081 0.77087 0.76814 0.7668 0.76546 0.76551 0.76279 0.75869 0.75468 0.75198 0.74928 0.74933 0.74664 0.74266 0.74134 0.74003 0.73479 0.73348 0.73089 0.72958 0.72701 0.72697 0.7244 0.72309 0.72052 0.71796 0.71666 0.71536 0.7128 0.71025 0.70646 0.70268 0.69781 0.69413 0.69402 0.69397 0.69269 0.69257 0.69013 0.68885 0.68872 0.68744 0.68615 0.68373 0.68245
1.2824 1.2859 1.2946 1.2957 1.2866 1.2827 1.2787 1.2747 1.2884 1.287 1.2931 1.2967 1.2979 1.2991 1.3027 1.3039 1.3102 1.3115 1.3206 1.3273 1.3285 1.3352 1.3364 1.3404 1.3704 1.3688 1.3644 1.3716 1.37 1.3684 1.3668 1.368 1.3723 1.3678 1.3692 1.3736 1.3719 1.3763 1.3807 1.3821 1.3866 1.388 1.3863 1.3847 1.3831 1.3784 1.3798 1.3782 1.3766 1.3779 1.3856 1.4057 1.4137 1.4184 1.4233 1.4249 1.4231 1.4215 1.4198 1.4181 1.4196 1.4146 1.4129 1.4144 1.4127 1.4143 1.4126 1.4175 1.4158 1.4141 1.4091 1.4074 1.4122 1.4271 1.4253 1.4136 1.4086 1.4167 1.4251 1.42 1.4149 1.4165 1.4114 1.413 1.4112 1.4794 1.4739 1.472 1.4702 1.4942 1.4999 1.5133 1.5389 1.5451 1.5432 1.5452 1.5555 1.5829 1.5895 1.5961 1.5898 1.5835 1.5772 1.5709 1.5648 1.5669 1.5649 1.5672 1.5779 1.5717 1.5739 0 0 0 0 0 0 0 0 0 0 0 0 0 0 0 0 0 0 0 0 0 0 0 0 0 0 0 0 0 0 0 0 0 0 0 0 0 0 0 0 0 0 0 0 0 0 0 0 0 0 0 0 0 0 0 0 0 0 0 0 0 2.2144 2.2206 2.2083 2.2052 2.2021 2.2083 2.1869 2.1658 2.1718 2.1868 2.1837 2.1716 0 0 0 0 0 0 0 0 0 0 0 0 0 0 0 0 0 0 0 0 0 0 0 0 0 0 0 0 0 0 0 0 0 0 0 0 0 0 0 0 0 0 0 0 0 0 0 0 0 0 0 0 0 0 0 0 1.7634 1.7802 1.8316 1.85 1.8615 1.8731 1.8849 1.9046 1.761 1.778 1.8091 1.8201 1.8034 1.767 1.7511 1.7419 1.7392 1.8602 1.8283 1.8254 1.8297 1.8127 1.8098 1.7999 1.8397 1.7209 1.7182 1.7154 1.7191 1.6849 1.658 1.6796 1.7209 0 1.6714 1.6749 1.6722 1.6695 0 0 0 0 0 0 0 0 0 0 0 0 0 0 0.85436 0.85456 0.86312 0.82471 0.82332 0.81736 0.81751 0.81918 0.81628 0.81186 0.80898 0.80609 0.79734 0.79163 0.78744 0.78609 0.78334 0.77775 0.77642 0.77368 0.77234 0.77523 0.77248 0.77115 0.77121 0.76848 0.76714 0.7658 0.76586 0.76175 0.75903 0.75364 0.75232 0.75099 0.74967 0.74568 0.74299 0.74039 0.73908 0.73512 0.73381 0.73123 0.72992 0.72734 0.7273 0.72599 0.72342 0.72212 0.71955 0.71699 0.71569 0.71439 0.71059 0.70804 0.70425 0.70055 0.69686 0.69558 0.6943 0.69418 0.69174 0.69046 0.69033 0.68905 0.68662 0.68648 0.68405 0.68156
1.2877 1.2888 1.295 1.2986 1.2895 1.2856 1.2816 1.2827 1.2888 1.2898 1.2934 1.2971 1.2983 1.3019 1.3031 1.3069 1.3134 1.3145 1.3237 1.3304 1.3344 1.3383 1.3424 1.3437 1.3679 1.3634 1.3648 1.372 1.3732 1.3688 1.3642 1.3656 1.3698 1.3712 1.3696 1.368 1.3694 1.3737 1.378 1.3795 1.3839 1.3854 1.3777 1.376 1.3714 1.3698 1.3682 1.3665 1.3619 1.3603 1.3707 1.3904 1.3983 1.4028 1.4204 1.4221 1.4236 1.4219 1.4202 1.4217 1.42 1.4151 1.4166 1.4149 1.4132 1.4115 1.413 1.4146 1.4162 1.4145 1.4095 1.4078 1.4094 1.4275 1.4224 1.4107 1.4057 1.4139 1.4154 1.4104 1.412 1.407 1.4019 1.4002 1.3952 1.4511 1.4598 1.4616 1.467 1.4946 1.5042 1.5177 1.5475 1.5496 1.5476 1.5498 1.5601 1.5877 1.5943 1.588 1.586 1.5797 1.5692 1.563 1.5568 1.5549 1.557 1.5593 1.5615 1.5595 1.5247 1.5227 0 0 0 0 0 0 0 0 0 0 0 0 0 0 0 0 0 0 0 0 0 0 0 0 0 0 0 0 0 0 0 0 0 0 0 0 0 0 0 0 0 0 0 0 0 0 0 0 0 0 0 0 0 0 0 0 0 0 0 2.2 2.2061 2.203 2.1908 2.1788 2.1757 2.1817 2.1697 2.149 2.1547 2.1695 2.1755 2.1724 2.1966 0 0 0 0 0 0 0 0 0 0 0 0 0 0 0 0 0 0 0 0 0 0 0 0 0 0 0 0 0 0 0 0 0 0 0 0 0 0 0 0 0 0 0 0 0 0 0 0 0 0 0 0 0 0 0 1.7706 1.7613 1.8254 1.8365 1.8407 1.8886 1.8932 1.9053 1.7617 1.7854 1.8168 1.835 1.7973 1.781 1.7584 1.7426 1.7335 1.861 1.8507 1.8478 1.8449 1.8347 1.8318 1.8289 1.8404 1.7216 1.7189 1.7225 1.7327 1.6856 1.6409 1.668 1.7151 0 1.648 1.6513 1.6546 1.6459 0 0 0 0 0 0 0 0 0 0 0 0 0 0 0.837 0.83714 0.83574 0.81739 0.81755 0.81465 0.81634 0.81801 0.81663 0.81222 0.80933 0.80644 0.79769 0.79197 0.78778 0.78644 0.78368 0.77809 0.77534 0.7726 0.77128 0.77557 0.77283 0.77149 0.77155 0.76742 0.76748 0.76614 0.76481 0.76347 0.75937 0.75398 0.74998 0.74995 0.74863 0.74602 0.74204 0.74073 0.73941 0.73682 0.73415 0.73284 0.73025 0.72894 0.72764 0.72633 0.72502 0.72245 0.71988 0.71732 0.71602 0.71472 0.71217 0.70962 0.70583 0.70205 0.69959 0.69831 0.69579 0.6945 0.69322 0.69078 0.69066 0.68937 0.68694 0.68566 0.68438 0.68074
1.2932 1.2943 1.2954 1.3015 1.2899 1.2885 1.2845 1.283 1.2866 1.2877 1.2964 1.2975 1.2987 1.3023 1.3061 1.3073 1.3164 1.3175 1.3323 1.3391 1.3403 1.3416 1.34 1.3441 1.3654 1.3638 1.3594 1.3724 1.3708 1.3692 1.3676 1.366 1.3702 1.3716 1.367 1.3684 1.3668 1.3712 1.3755 1.3799 1.3813 1.3827 1.375 1.3734 1.3688 1.3643 1.3627 1.358 1.3564 1.3548 1.3621 1.3847 1.3892 1.397 1.4176 1.4191 1.424 1.4191 1.4206 1.4221 1.4204 1.4155 1.417 1.4153 1.4136 1.4152 1.4135 1.4151 1.42 1.4182 1.4165 1.4181 1.4163 1.4313 1.4262 1.4144 1.4127 1.4176 1.4159 1.4109 1.4091 1.4041 1.4023 1.4006 1.3956 1.4515 1.4497 1.4585 1.4675 1.4914 1.5047 1.5105 1.5602 1.5749 1.5771 1.5751 1.5817 1.5925 1.5948 1.5885 1.5865 1.5802 1.5739 1.5635 1.5573 1.5513 1.5534 1.5598 1.562 1.5558 1.5292 1.5232 0 0 0 0 0 0 0 0 0 0 0 0 0 0 0 0 0 0 0 0 0 0 0 0 0 0 0 0 0 0 0 0 0 0 0 0 0 0 0 0 0 0 0 0 0 0 0 0 0 0 0 0 0 0 0 0 0 0 0 2.2008 2.2069 2.1947 2.1916 2.1706 2.1676 2.1735 2.1528 2.141 2.1468 2.1703 2.1762 2.1913 2.1974 0 0 0 0 0 0 0 0 0 0 0 0 0 0 0 0 0 0 0 0 0 0 0 0 0 0 0 0 0 0 0 0 0 0 0 0 0 0 0 0 0 0 0 0 0 0 0 0 0 0 0 0 0 0 0 0 1.85 1.8472 1.9812 1.962 1.943 1.9322 1.937 1.8231 1.7996 1.8244 1.8428 1.798 1.775 1.7656 1.7369 1.7342 1.8617 1.8588 1.8707 1.8677 1.8648 1.8844 1.8739 1.8784 0 1.7455 1.7362 1.7399 1.6384 1.6416 1.6687 1.7223 0 1.6546 1.6461 1.6493 1.6466 0 0 0 0 0 0 0 0 0 0 0 0 0 0 0.83735 0.8375 0.8361 0.81774 0.81484 0.81347 0.81363 0.81836 0.81546 0.8156 0.81271 0.80982 0.79954 0.79232 0.78955 0.7882 0.78544 0.77843 0.77568 0.77435 0.77161 0.7745 0.77176 0.77183 0.77189 0.77055 0.76922 0.76788 0.76515 0.76243 0.76109 0.75431 0.75161 0.75029 0.74897 0.74765 0.74238 0.74106 0.74103 0.73715 0.73712 0.73581 0.73449 0.73318 0.73059 0.72928 0.72923 0.72531 0.72274 0.71891 0.71887 0.71756 0.715 0.7112 0.70865 0.70611 0.70233 0.70228 0.69975 0.69723 0.69478 0.6935 0.69098 0.6897 0.68842 0.68836 0.68585 0.68107
1.2961 1.2946 1.2983 1.3019 1.2928 1.2888 1.2849 1.2834 1.287 1.2906 1.2942 1.2979 1.299 1.3027 1.3065 1.3076 1.3194 1.3179 1.33 1.3395 1.3406 1.3447 1.346 1.3501 1.3629 1.3613 1.3568 1.3728 1.3712 1.3666 1.3651 1.3664 1.3706 1.369 1.3704 1.3688 1.3672 1.3716 1.3759 1.3743 1.3817 1.3801 1.3755 1.3679 1.3633 1.3587 1.3631 1.3584 1.3539 1.3523 1.3625 1.382 1.3865 1.388 1.4116 1.4164 1.4212 1.4195 1.4178 1.4193 1.4177 1.416 1.4174 1.4157 1.414 1.4156 1.4139 1.4155 1.4171 1.4154 1.4169 1.4185 1.4168 1.4318 1.4233 1.4183 1.4165 1.4181 1.4197 1.4113 1.4096 1.4079 1.4061 1.401 1.4159 1.4626 1.4643 1.4662 1.4716 1.4881 1.4975 1.4844 1.5091 1.5712 1.5693 1.5715 1.5778 1.593 1.591 1.5933 1.587 1.5807 1.5702 1.5598 1.5496 1.5518 1.5498 1.5561 1.5625 1.5647 1.5297 1.5237 0 0 0 0 0 0 0 0 0 0 0 0 0 0 0 0 0 0 0 0 0 0 0 0 0 0 0 0 0 0 0 0 0 0 0 0 0 0 0 0 0 0 0 0 0 0 0 0 0 0 0 0 0 0 0 0 0 0 0 2.2107 2.1985 2.1864 2.1834 2.1626 2.1596 2.1566 2.1361 2.1331 2.1388 2.1621 2.1591 2.174 2.2074 0 0 0 0 0 0 0 0 0 0 0 0 0 0 0 0 0 0 0 0 0 0 0 0 0 0 0 0 0 0 0 0 0 0 0 0 0 0 0 0 0 0 0 0 0 0 0 0 0 0 0 0 0 0 0 0 1.9018 1.9064 2.0237 1.9708 1.9518 1.9647 1.9862 1.927 1.7868 1.8252 1.8507 1.8056 1.7757 1.7663 1.7505 1.7349 0 0 1.8714 1.8685 1.8655 0 0 0 0 0 0 0 1.639 1.6423 1.6694 1.7102 1.7138 1.6553 1.6467 1.65 1.6473 0 0 0 0 0 0 0 0 0 0 0 0 0 0 0.77084 0.76956 0.76828 0.80179 0.80922 0.80787 0.80948 0.81871 0.81733 0.81444 0.81306 0.80865 0.80132 0.79409 0.79274 0.78997 0.7872 0.78019 0.77744 0.77469 0.77336 0.77484 0.7721 0.77217 0.77223 0.7695 0.76956 0.76683 0.76549 0.76416 0.76143 0.75465 0.75333 0.75201 0.74931 0.74669 0.74271 0.74269 0.74137 0.74005 0.73745 0.73614 0.7361 0.73478 0.73482 0.73088 0.73083 0.72825 0.72433 0.72176 0.72046 0.71915 0.71659 0.71278 0.70898 0.70644 0.7039 0.70261 0.70008 0.69879 0.69627 0.69383 0.69254 0.69003 0.68875 0.68869 0.68618 0.68254
1.2914 1.2899 1.2936 1.2946 1.2881 1.2841 1.2852 1.2863 1.2849 1.2884 1.2997 1.3009 1.2994 1.3006 1.3042 1.308 1.3145 1.3183 1.3249 1.3343 1.3328 1.3395 1.3436 1.3477 1.3575 1.3531 1.3515 1.3614 1.3657 1.367 1.3655 1.3668 1.3681 1.3694 1.3678 1.3662 1.3646 1.369 1.3704 1.3717 1.3701 1.3715 1.3699 1.3653 1.3608 1.3562 1.3576 1.3531 1.3543 1.3527 1.3599 1.3703 1.3717 1.3731 1.3993 1.4071 1.4119 1.4134 1.4117 1.4166 1.4149 1.4164 1.4147 1.4162 1.4113 1.4096 1.4079 1.4126 1.4142 1.4125 1.4108 1.4124 1.4139 1.4254 1.4204 1.4153 1.4202 1.4185 1.4167 1.4084 1.4067 1.4049 1.4032 1.4048 1.4231 1.4384 1.4721 1.4776 1.4758 1.4813 1.4831 1.4923 1.5096 1.5717 1.5655 1.5636 1.57 1.5892 1.5915 1.5895 1.5875 1.5855 1.5665 1.5603 1.5501 1.5564 1.5585 1.5608 1.563 1.5695 1.5261 1.5242 0 0 0 0 0 0 0 0 0 0 0 0 0 0 0 0 0 0 0 0 0 0 0 0 0 0 0 0 0 0 0 0 0 0 0 0 0 0 0 0 0 0 0 0 0 0 0 0 0 0 0 0 0 0 0 0 0 0 0 2.2115 2.1636 2.1606 2.1576 2.1546 2.1516 2.1313 2.1029 2.1083 2.1224 2.1453 2.1423 2.1568 2.2082 0 0 0 0 0 0 0 0 0 0 0 0 0 0 0 0 0 0 0 0 0 0 0 0 0 0 0 0 0 0 0 0 0 0 0 0 0 0 0 0 0 0 0 0 0 0 0 0 0 0 0 0 0 0 0 0 1.9025 1.9301 1.9665 1.9962 1.9767 1.9818 1.9624 1.9277 1.7943 1.7848 1.8883 1.7859 1.7765 1.767 1.7447 1.7356 0 0 1.8722 1.8692 1.8663 0 0 0 0 0 0 0 1.6456 1.6548 1.6762 1.7109 1.7145 1.662 1.6533 1.6506 1.648 0 0 0 0 0 0 0 0 0 0 0 0 0 0 0.77117 0.76989 0.7686 0.80359 0.80079 0.8009 0.80244 0.81754 0.81616 0.81479 0.81341 0.809 0.80167 0.79594 0.79601 0.79466 0.7933 0.78478 0.78202 0.77927 0.77652 0.77659 0.77525 0.77251 0.77258 0.77263 0.7699 0.76856 0.76722 0.76727 0.76455 0.76044 0.75911 0.75777 0.75506 0.75373 0.74837 0.74842 0.74709 0.7444 0.74307 0.74039 0.73907 0.7391 0.73778 0.73645 0.73378 0.7312 0.72854 0.7247 0.72205 0.72074 0.71818 0.71437 0.71056 0.70677 0.70423 0.70418 0.70165 0.70036 0.7003 0.69531 0.69402 0.69158 0.6903 0.69016 0.68773 0.68522
1.2866 1.2852 1.2888 1.2925 1.2809 1.2794 1.2805 1.2841 1.2852 1.2888 1.2976 1.3039 1.2998 1.3009 1.3046 1.3058 1.3149 1.3134 1.3225 1.332 1.3305 1.3344 1.3356 1.3397 1.355 1.3506 1.3462 1.359 1.3603 1.3675 1.3688 1.3672 1.3685 1.3698 1.3653 1.3666 1.3651 1.3695 1.3737 1.3692 1.3705 1.3689 1.3673 1.3628 1.3612 1.3567 1.3609 1.3535 1.3519 1.356 1.3575 1.3677 1.3691 1.3735 1.3966 1.4044 1.4091 1.4106 1.4089 1.4137 1.412 1.4136 1.4151 1.4102 1.4117 1.4068 1.4083 1.4098 1.4114 1.413 1.4112 1.4095 1.4144 1.4192 1.4142 1.4125 1.4207 1.4223 1.4139 1.4056 1.4039 1.4021 1.4037 1.4019 1.4235 1.4388 1.4725 1.4781 1.4798 1.4817 1.4836 1.4891 1.5062 1.568 1.5619 1.5683 1.5705 1.5897 1.592 1.5943 1.5923 1.5903 1.5713 1.5608 1.5588 1.5569 1.5633 1.5655 1.572 0 0 0 0 0 0 0 0 0 0 0 0 0 0 0 0 0 0 0 0 0 0 0 0 0 0 0 0 0 0 0 0 0 0 0 0 0 0 0 0 0 0 0 0 0 0 0 0 0 0 0 0 0 0 0 0 0 0 0 0 0 0 2.0992 2.1298 2.1526 2.1496 2.1466 2.1523 2.115 2.0953 2.1007 2.1231 2.1373 2.1431 2.1576 2.1815 0 0 0 0 0 0 0 0 0 0 0 0 0 0 0 0 0 0 0 0 0 0 0 0 0 0 0 0 0 0 0 0 0 0 0 0 0 0 0 0 0 0 0 0 0 0 0 0 0 0 0 0 0 0 0 0 1.9033 1.9308 1.9673 1.9887 1.9774 1.9908 1.9632 1.9208 1.9101 1.9303 1.9352 1.9012 1.8982 1.7744 1.7783 1.9046 0 0 0 0 0 0 0 0 0 0 0 0 0 1.6674 1.683 1.7116 1.7088 1.6688 1.654 1.6513 1.6487 1.7207 0 0 0 0 0 0 0 0 0 0 0 0 0 0.7715 0.77021 0.76893 0.80248 0.80114 0.7969 0.80134 0.81789 0.81651 0.81514 0.81528 0.81087 0.80201 0.79922 0.79636 0.79651 0.79365 0.78937 0.78519 0.78243 0.77827 0.77975 0.777 0.77566 0.77572 0.77438 0.77303 0.77169 0.77034 0.76761 0.76489 0.76216 0.76083 0.75949 0.75816 0.75682 0.75411 0.75141 0.74871 0.74738 0.74606 0.74345 0.74076 0.74079 0.73947 0.73679 0.73547 0.7328 0.72887 0.72503 0.72238 0.71982 0.71851 0.71345 0.7109 0.70835 0.70456 0.70327 0.70198 0.70193 0.70063 0.69687 0.69558 0.69306 0.69178 0.69049 0.6892 0.68555
1.287 1.2831 1.2892 1.2903 1.2739 1.2725 1.271 1.2745 1.2731 1.2791 1.2902 1.299 1.295 1.296 1.2998 1.3035 1.3125 1.3164 1.3257 1.3296 1.3281 1.3266 1.3251 1.3263 1.3357 1.3314 1.3272 1.3423 1.3435 1.3563 1.3605 1.3617 1.3631 1.3645 1.3629 1.3613 1.3625 1.3699 1.3741 1.3725 1.374 1.3723 1.3737 1.3691 1.3616 1.36 1.3643 1.3568 1.3581 1.3565 1.3607 1.3712 1.3695 1.377 1.4002 1.4048 1.4095 1.4078 1.4094 1.4141 1.4157 1.414 1.4156 1.4138 1.4121 1.4104 1.4087 1.4102 1.4118 1.4101 1.4117 1.41 1.4115 1.4131 1.4081 1.4031 1.4079 1.4062 1.4045 1.3995 1.3978 1.3993 1.3976 1.3991 1.424 1.4359 1.4694 1.4785 1.4767 1.4822 1.4804 1.4858 1.499 1.5644 1.5665 1.5688 1.5751 1.5859 1.5839 1.5862 1.5885 1.5865 1.5718 1.5531 1.5429 1.545 1.5595 1.566 1.5725 0 0 0 0 0 0 0 0 0 0 0 0 0 0 0 0 0 0 0 0 0 0 0 0 0 0 0 0 0 0 0 0 0 0 0 0 0 0 0 0 0 0 0 0 0 0 0 0 0 0 0 0 0 0 0 0 0 0 0 0 0 2.0387 2.0836 2.0646 2.1024 2.1078 2.1048 2.1187 2.0907 2.0554 2.0525 2.0902 2.1381 2.1438 2.1495 2.1642 0 0 0 0 0 0 0 0 0 0 0 0 0 0 0 0 0 0 0 0 0 0 0 0 0 0 0 0 0 0 0 0 0 0 0 0 0 0 0 0 0 0 0 0 0 0 0 0 0 0 0 0 0 0 0 0 1.904 1.9086 2.0092 1.9491 1.9541 1.951 1.9245 1.9138 1.9032 1.9311 1.936 1.9019 1.899 1.7751 1.779 1.9054 0 0 0 0 0 0 0 0 0 1.7683 1.7655 1.7627 1.7598 1.6681 1.6961 1.7123 1.7095 1.6574 1.6668 1.6641 1.6493 1.7214 0 0 0 0 0 0 0 0 0 0 0 0 0 0.77182 0.77054 0.76926 0.80282 0.80003 0.7929 0.79021 0.81671 0.81686 0.81549 0.81259 0.80819 0.80236 0.79957 0.79821 0.79978 0.79842 0.79122 0.78837 0.7856 0.78285 0.7815 0.78015 0.77881 0.77746 0.77472 0.77337 0.77342 0.77208 0.76934 0.768 0.76527 0.76255 0.76121 0.75987 0.75716 0.75582 0.75312 0.75042 0.74909 0.74639 0.74379 0.7411 0.74241 0.74108 0.73848 0.73715 0.73314 0.73055 0.72789 0.72406 0.72141 0.7201 0.71503 0.71123 0.70868 0.70489 0.7036 0.70231 0.70102 0.70096 0.6972 0.69468 0.69462 0.6921 0.69082 0.68953 0.68473
1.2874 1.2859 1.2896 1.2907 1.2742 1.2703 1.2689 1.2674 1.2685 1.272 1.2856 1.2942 1.2902 1.2939 1.3002 1.3039 1.3103 1.3142 1.3288 1.3328 1.3258 1.3242 1.3255 1.3239 1.3306 1.3264 1.3221 1.3399 1.3439 1.3537 1.3579 1.3593 1.3635 1.3649 1.3603 1.3617 1.3629 1.3732 1.3805 1.3789 1.3834 1.3848 1.3832 1.3816 1.3769 1.3753 1.3737 1.366 1.3615 1.3628 1.3672 1.3746 1.3729 1.3804 1.4101 1.4116 1.4132 1.4115 1.413 1.4211 1.4194 1.4209 1.4225 1.4208 1.4191 1.4207 1.419 1.4206 1.4156 1.4105 1.4088 1.4104 1.4153 1.4103 1.4053 1.4036 1.4084 1.4099 1.4049 1.4 1.4015 1.403 1.4045 1.4028 1.4211 1.4364 1.4699 1.4826 1.4807 1.4827 1.4845 1.4863 1.5033 1.569 1.5588 1.561 1.5631 1.5737 1.5759 1.5782 1.5847 1.5827 1.5638 1.5494 1.5393 1.5455 1.5559 1.5623 1.573 0 0 0 0 0 0 0 0 0 0 0 0 0 0 0 0 0 0 0 0 0 0 0 0 0 0 0 0 0 0 0 0 0 0 0 0 0 0 0 0 0 0 0 0 0 0 0 0 0 0 0 0 0 0 0 0 0 0 0 0 0 2.0395 2.0445 2.106 2.0949 2.092 2.0973 2.1027 2.0751 2.0561 2.0533 2.0909 2.1389 2.1359 2.1503 2.165 0 0 0 0 0 0 0 0 0 0 0 0 0 0 0 0 0 0 0 0 0 0 0 0 0 0 0 0 0 0 0 0 0 0 0 0 0 0 0 0 0 0 0 0 0 0 0 0 0 0 0 0 0 0 0 0 0 0 0 1.9499 1.939 1.936 1.9253 1.9145 1.904 0 0 0 0 0 0 0 0 0 0 0 0 0 0 0 0 1.769 1.7662 1.7702 1.7342 1.6995 1.7093 1.7455 1.8781 1.6948 1.7111 1.7083 1.712 1.7758 0 0 0 0 0 0 0 0 0 0 0 0 0 0 0 0 0.80461 0.79892 0.79324 0.79191 0.81401 0.81569 0.81279 0.81142 0.80702 0.80422 0.80135 0.80292 0.80608 0.8047 0.79882 0.79604 0.79318 0.78892 0.78756 0.78621 0.78344 0.78209 0.77786 0.77651 0.77516 0.77242 0.77246 0.77112 0.76838 0.76704 0.76431 0.76159 0.75888 0.75754 0.7562 0.75349 0.75216 0.7481 0.74412 0.74144 0.74275 0.74277 0.74009 0.73876 0.73482 0.73215 0.72823 0.72691 0.72433 0.72176 0.71787 0.71406 0.70901 0.70522 0.70393 0.70264 0.70011 0.70006 0.69753 0.69501 0.69372 0.69128 0.69 0.68871 0.68506
1.2903 1.2863 1.2899 1.291 1.2721 1.2658 1.2644 1.263 1.2615 1.2649 1.2834 1.292 1.2881 1.2916 1.3006 1.3043 1.3107 1.3146 1.3237 1.3304 1.3261 1.3219 1.3204 1.3216 1.3201 1.3186 1.3171 1.3347 1.3387 1.3541 1.3583 1.3597 1.361 1.3594 1.3607 1.3621 1.3605 1.3765 1.378 1.3824 1.3899 1.3943 1.3927 1.388 1.3834 1.3787 1.3771 1.3664 1.3648 1.3632 1.3646 1.375 1.3734 1.3808 1.4105 1.4121 1.4136 1.4151 1.42 1.4247 1.4264 1.4313 1.4263 1.4279 1.4262 1.4278 1.426 1.4243 1.4193 1.4077 1.4093 1.4141 1.4124 1.4107 1.4057 1.404 1.4088 1.4103 1.4054 1.4037 1.4019 1.4067 1.405 1.4066 1.4215 1.4368 1.4703 1.483 1.4812 1.4831 1.485 1.4868 1.4962 1.545 1.5471 1.5533 1.5513 1.5659 1.5681 1.5702 1.5768 1.5748 1.5602 1.5418 1.5317 1.546 1.5523 1.5586 1.5609 0 0 0 0 0 0 0 0 0 0 0 0 0 0 0 0 0 0 0 0 0 0 0 0 0 0 0 0 0 0 0 0 0 0 0 0 0 0 0 0 0 0 0 0 0 0 0 0 0 0 0 0 0 0 0 0 0 0 0 0 1.8784 1.8758 1.8732 2.0985 2.0874 2.0845 2.0816 2.0869 2.0677 2.0489 2.062 2.0834 2.1396 2.1366 2.1423 2.1393 0 0 0 0 0 0 0 0 0 0 0 0 0 0 0 0 0 0 0 0 0 0 0 0 0 0 0 0 0 0 0 0 0 0 0 0 0 0 0 0 0 0 0 0 0 0 0 0 0 0 0 0 0 0 0 0 0 0 0 1.9195 1.932 1.9212 1.9183 1.9077 1.9123 0 0 0 0 0 0 0 0 0 0 0 0 0 0 0 0 1.7697 1.7669 1.7709 1.7414 1.7065 1.7037 1.7137 1.7368 1.721 1.7182 1.7349 1.7322 1.7228 1.7946 1.7847 1.7679 1.7582 0 0 0 0 0 0 0 0 0 0 0 0 0.8035 0.79926 0.79358 0.78944 0.81139 0.81299 0.8101 0.80873 0.80737 0.80457 0.80321 0.80478 0.80793 0.80505 0.80368 0.79931 0.79503 0.79366 0.79081 0.78945 0.78519 0.78384 0.7796 0.77685 0.77551 0.77416 0.77281 0.77146 0.77011 0.76738 0.76604 0.76331 0.76059 0.75788 0.75654 0.7552 0.75113 0.74843 0.74446 0.74042 0.74444 0.74176 0.74178 0.7391 0.73516 0.73249 0.7299 0.72598 0.72467 0.72336 0.7182 0.71439 0.70934 0.7043 0.70426 0.70173 0.70044 0.69915 0.69662 0.69534 0.6929 0.69038 0.69032 0.68782 0.68539
1.2958 1.2892 1.2903 1.294 1.2724 1.2662 1.2648 1.2609 1.2595 1.2653 1.2838 1.2924 1.2859 1.292 1.2983 1.302 1.3111 1.3149 1.3215 1.3253 1.3211 1.3223 1.3208 1.3193 1.315 1.3082 1.3067 1.3214 1.3226 1.3237 1.3114 1.3098 1.3527 1.357 1.3554 1.3625 1.3609 1.374 1.3813 1.3797 1.3934 1.401 1.3993 1.3946 1.3899 1.3852 1.3805 1.3729 1.3652 1.3666 1.368 1.3724 1.3738 1.3783 1.4109 1.4125 1.4172 1.4123 1.4204 1.4319 1.4335 1.4318 1.4334 1.4316 1.4299 1.4315 1.4298 1.4314 1.423 1.4114 1.413 1.4179 1.4128 1.4111 1.4061 1.4044 1.4125 1.4108 1.4091 1.4073 1.4056 1.4138 1.412 1.4136 1.4253 1.4373 1.4708 1.4799 1.4817 1.4836 1.4854 1.4873 1.512 1.5295 1.5476 1.5497 1.5518 1.5622 1.5644 1.5707 1.5688 1.5668 1.5524 1.5423 1.5283 1.5224 1.5445 1.5385 1.5325 1.547 1.549 0 0 0 0 0 0 0 0 0 0 0 0 0 0 0 0 0 0 0 0 0 0 0 0 0 0 0 0 0 0 0 0 0 0 0 0 0 0 0 0 0 0 0 0 0 0 0 0 0 0 0 0 0 0 0 0 0 0 1.8791 1.8765 1.8739 2.0993 2.08 2.0611 2.0662 2.0713 2.0605 2.0418 2.0547 2.0842 2.1317 2.1374 2.1431 2.1401 2.0696 2.0667 0 0 0 0 0 0 0 0 0 0 0 0 0 0 0 0 0 0 0 0 0 0 0 0 0 0 0 0 0 0 0 0 0 0 0 0 0 0 0 0 0 0 0 0 0 0 0 0 0 0 0 0 0 0 0 0 0 1.9202 1.9249 1.9143 1.919 1.9238 1.9055 0 0 0 0 0 0 0 0 0 0 0 0 0 0 0 0 1.7439 1.7477 1.7449 1.7162 1.7009 1.6982 1.7208 1.731 1.7217 1.7189 1.7423 1.7329 1.7235 1.7472 1.7784 1.7686 1.7589 0 0 0 0 0 0 0 0 0 0 0 0 0.78118 0.78398 0.78548 0.78417 0.80723 0.80884 0.80901 0.80908 0.80628 0.80492 0.80204 0.80362 0.80678 0.8054 0.80403 0.80266 0.79829 0.79542 0.79406 0.79129 0.78843 0.78567 0.78283 0.78008 0.77872 0.7759 0.77454 0.77466 0.77046 0.76911 0.76776 0.76365 0.76094 0.75822 0.75688 0.75691 0.75284 0.75014 0.7448 0.74076 0.74342 0.74209 0.74212 0.73944 0.73415 0.73156 0.7289 0.72632 0.72375 0.72244 0.71728 0.71347 0.70842 0.70222 0.70093 0.70081 0.69836 0.69708 0.69456 0.69327 0.69084 0.68956 0.68828 0.687 0.68212
1.3063 1.2998 1.2932 1.2892 1.268 1.2641 1.2603 1.2613 1.2599 1.2682 1.2867 1.2903 1.2888 1.2924 1.2987 1.3024 1.3141 1.3153 1.3191 1.323 1.3188 1.3199 1.3184 1.3169 1.3128 1.3033 1.3018 1.3163 1.3175 1.3187 1.3145 1.3238 1.3445 1.3574 1.3558 1.357 1.3584 1.3744 1.3818 1.3801 1.3938 1.4076 1.4091 1.4043 1.4026 1.398 1.3901 1.3823 1.3777 1.3791 1.3775 1.3758 1.3772 1.3817 1.4146 1.4161 1.4144 1.4128 1.4175 1.4323 1.4372 1.4355 1.4338 1.4387 1.437 1.442 1.437 1.4352 1.4268 1.4184 1.4167 1.4216 1.4133 1.4116 1.4066 1.4049 1.4162 1.4179 1.4128 1.411 1.4093 1.4243 1.4293 1.431 1.4361 1.4447 1.4713 1.4804 1.4786 1.4841 1.4859 1.4915 1.524 1.5379 1.5521 1.5625 1.5605 1.5752 1.5691 1.5671 1.5693 1.5673 1.5529 1.5468 1.5368 1.5268 1.5492 1.539 1.5371 1.5351 1.5495 0 0 0 0 0 0 0 0 0 0 0 0 0 0 0 0 0 0 0 0 0 0 0 0 0 0 0 0 0 0 0 0 0 0 0 0 0 0 0 0 0 0 0 0 0 0 0 0 0 0 0 0 0 0 0 0 0 0 0 2.0495 2.0388 2.0596 2.0727 2.0618 2.0589 2.0721 2.0532 2.0346 2.0396 2.0768 2.1239 2.1381 2.1351 2.115 2.0785 2.0674 0 0 0 0 0 0 0 0 0 0 0 0 0 0 0 0 0 0 0 0 0 0 0 0 0 0 0 0 0 0 0 0 0 0 0 0 0 0 0 0 0 0 0 0 0 0 0 0 0 0 0 0 0 0 0 0 0 1.921 1.9257 1.9227 1.9121 1.9402 1.9293 0 0 0 0 0 0 0 0 0 0 0 0 0 0 0 0 1.7446 1.7418 1.7391 1.7106 1.7016 1.7114 1.7215 1.7252 1.7289 1.7392 1.7497 1.7469 1.7243 1.7479 1.7792 1.7763 1.7597 0 0 0 0 0 0 0 0 0 0 0 0 0.78152 0.7885 0.78863 0.79293 0.80613 0.80775 0.80783 0.80943 0.80663 0.80375 0.80239 0.80397 0.80713 0.80726 0.80588 0.80451 0.80163 0.79876 0.79889 0.79602 0.79316 0.79031 0.78606 0.7833 0.78194 0.77772 0.77636 0.7764 0.77365 0.77084 0.76949 0.76538 0.76265 0.76131 0.7586 0.75726 0.75591 0.75184 0.74514 0.74245 0.74376 0.74243 0.74381 0.74113 0.73583 0.7319 0.72923 0.72666 0.72408 0.72403 0.71887 0.71506 0.7075 0.70254 0.70126 0.69998 0.69985 0.69741 0.69488 0.6936 0.68993 0.68865 0.6886 0.68732 0.68245
1.3067 1.3001 1.2911 1.2771 1.2659 1.2621 1.2607 1.2592 1.2578 1.266 1.2845 1.2881 1.2841 1.2902 1.2965 1.3028 1.3118 1.313 1.3115 1.318 1.3192 1.315 1.3188 1.3147 1.3104 1.3037 1.2995 1.3087 1.3152 1.3164 1.3176 1.3215 1.3145 1.313 1.3088 1.3574 1.3588 1.3719 1.3792 1.3776 1.3972 1.4112 1.4159 1.411 1.4094 1.4014 1.3967 1.392 1.3873 1.3918 1.3779 1.3793 1.3807 1.3882 1.415 1.4133 1.4149 1.41 1.418 1.4327 1.4377 1.436 1.4342 1.4325 1.4341 1.4459 1.4407 1.4357 1.4272 1.4189 1.4172 1.4187 1.4137 1.4087 1.4037 1.4053 1.4167 1.4149 1.4132 1.4115 1.4098 1.4214 1.4297 1.4314 1.433 1.4415 1.468 1.4772 1.479 1.4846 1.4864 1.492 1.5285 1.5384 1.5526 1.563 1.561 1.5716 1.5737 1.5676 1.5657 1.5678 1.5493 1.5473 1.5413 1.5517 1.5579 1.5314 1.5295 1.5275 1.5137 0 0 0 0 0 0 0 0 0 0 0 0 0 0 0 0 0 0 0 0 0 0 0 0 0 0 0 0 0 0 0 0 0 0 0 0 0 0 0 0 0 0 0 0 0 0 0 0 0 0 0 0 0 0 0 0 0 0 0 2.0269 2.0318 2.0445 2.0575 2.0467 2.0518 2.0728 2.054 2.0354 2.0404 2.0613 2.1162 2.1389 2.1273 2.1073 2.0793 2.0764 0 0 0 0 0 0 0 0 0 0 0 0 0 0 0 0 0 0 0 0 0 0 0 0 0 0 0 0 0 0 0 0 0 0 0 0 0 0 0 0 0 0 0 0 0 0 0 0 0 0 0 0 0 0 0 0 0 0 0 0 0 0 0 0 0 0 0 0 0 0 0 0 0 0 0 0 0 0 1.6728 1.6701 1.7426 1.7398 1.7176 1.7023 1.7121 1.7287 1.7259 1.7296 1.7533 1.7707 1.7543 1.7315 1.7486 1.7799 1.784 1.7811 0 0 0 0 0 0 0 0 0 0 0 0 0.80453 0.79738 0.7946 0.79616 0.80648 0.8081 0.80674 0.80682 0.80402 0.8041 0.80273 0.80432 0.80748 0.8061 0.80624 0.80636 0.80198 0.80061 0.79924 0.79787 0.79202 0.79066 0.78789 0.78653 0.78369 0.77945 0.7781 0.77674 0.77539 0.77265 0.76983 0.76572 0.763 0.76165 0.75894 0.7576 0.75626 0.75355 0.74676 0.74279 0.7441 0.74277 0.74415 0.74282 0.73617 0.7335 0.72957 0.72699 0.72568 0.72436 0.72046 0.71664 0.70908 0.70287 0.70159 0.7003 0.69902 0.69773 0.69521 0.69277 0.69149 0.68898 0.6877 0.68765 0.68277
1.2994 1.3005 1.2914 1.275 1.2614 1.26 1.2586 1.2572 1.2582 1.264 1.2824 1.2885 1.2845 1.2881 1.2943 1.298 1.3096 1.3107 1.3092 1.3157 1.3142 1.3127 1.3138 1.3151 1.3108 1.3014 1.2973 1.3063 1.3075 1.3113 1.3098 1.3137 1.3122 1.3107 1.3092 1.3492 1.3563 1.3693 1.3766 1.375 1.3824 1.4212 1.4196 1.4179 1.4162 1.4113 1.4065 1.3985 1.4 1.4015 1.3844 1.3858 1.3903 1.3949 1.4155 1.417 1.4153 1.4104 1.4152 1.4365 1.4381 1.4331 1.4347 1.4329 1.4345 1.4463 1.4411 1.4327 1.4277 1.4193 1.4176 1.4192 1.4109 1.4059 1.4075 1.4057 1.4106 1.4121 1.4137 1.4119 1.4102 1.4218 1.4302 1.4319 1.4266 1.4249 1.4097 1.474 1.4758 1.485 1.4905 1.4961 1.525 1.531 1.5451 1.5511 1.5492 1.5555 1.5617 1.5597 1.5537 1.5558 1.5539 1.5478 1.5459 1.5563 1.5626 1.536 1.5259 1.5162 1.5142 0 0 0 0 0 0 0 0 0 0 0 0 0 0 0 0 0 0 0 0 0 0 0 0 0 0 0 0 0 0 0 0 0 0 0 0 0 0 0 0 0 0 0 0 0 0 0 0 0 0 0 0 0 0 0 0 0 0 0 2.0276 2.088 2.0374 2.0424 2.0318 2.0368 2.0655 2.0547 2.0205 2.0255 2.0541 2.1084 2.1225 2.128 2.108 2.0883 2.0771 0 0 0 0 0 0 0 0 0 0 0 0 0 0 0 0 0 0 0 0 0 0 0 0 0 0 0 0 0 0 0 0 0 0 0 0 0 0 0 0 0 0 0 0 0 0 0 0 0 0 0 0 0 0 0 0 0 0 0 0 0 0 0 0 0 0 0 0 0 0 0 0 0 0 0 0 0 0 1.6735 1.6708 1.7238 1.7275 1.7248 1.7156 1.7193 1.7294 1.7138 1.7174 1.7743 1.7922 1.7618 1.7322 1.7427 1.7807 1.7848 1.7819 0 0 0 0 0 0 0 0 0 0 0 0 0.80487 0.80208 0.79784 0.79795 0.80827 0.80691 0.80556 0.8042 0.80437 0.80444 0.8046 0.80466 0.80934 0.80796 0.80659 0.80521 0.80384 0.80096 0.79959 0.79822 0.79386 0.79101 0.78824 0.78539 0.78403 0.7798 0.77705 0.77709 0.77435 0.77299 0.77018 0.76606 0.76334 0.76337 0.76065 0.75931 0.7566 0.75389 0.7471 0.74313 0.74444 0.74447 0.74449 0.74181 0.73651 0.73384 0.73125 0.72733 0.72601 0.7247 0.72079 0.71698 0.71066 0.7032 0.70192 0.70063 0.70051 0.69922 0.69554 0.69426 0.69182 0.69054 0.68925 0.68798 0.6831
1.2947 1.2958 1.2969 1.2878 1.2715 1.2652 1.2638 1.26 1.261 1.2668 1.2828 1.2889 1.2874 1.291 1.2972 1.3035 1.3126 1.3137 1.3176 1.3187 1.3092 1.3131 1.317 1.3155 1.3139 1.3071 1.3003 1.312 1.3079 1.3064 1.3075 1.3087 1.3126 1.3084 1.3095 1.3411 1.3654 1.3727 1.377 1.3784 1.4394 1.441 1.4426 1.4409 1.4459 1.4376 1.4359 1.4277 1.4196 1.4146 1.3972 1.405 1.4096 1.4176 1.4191 1.4174 1.419 1.4173 1.4222 1.4369 1.4386 1.4335 1.4318 1.4334 1.435 1.4536 1.4485 1.4399 1.4348 1.4198 1.418 1.4196 1.4146 1.4096 1.4079 1.4095 1.4077 1.4093 1.4141 1.4157 1.414 1.4223 1.4375 1.4323 1.4271 1.4186 1.4102 1.4892 1.4835 1.4892 1.491 1.5004 1.5216 1.5315 1.5456 1.5436 1.5457 1.5519 1.5622 1.5521 1.5542 1.5482 1.5503 1.5524 1.5505 1.5609 1.5758 1.5781 1.5761 0 0 0 0 0 0 0 0 0 0 0 0 0 0 0 0 0 0 0 0 0 0 0 0 0 0 0 0 0 0 0 0 0 0 0 0 0 0 0 0 0 0 0 0 0 0 0 0 0 0 0 0 0 0 0 0 0 0 0 0 0 0 2.1134 2.046 2.0353 2.0325 2.0375 2.0663 2.0554 2.029 2.0107 2.0871 2.1262 2.1318 2.1374 2.1258 2.1228 2.1113 0 0 0 0 0 0 0 0 0 0 0 0 0 0 0 0 0 0 0 0 0 0 0 0 0 0 0 0 0 0 0 0 0 0 0 0 0 0 0 0 0 0 0 0 0 0 0 0 0 0 0 0 0 0 0 0 0 0 0 0 0 0 0 0 0 0 0 0 0 0 0 0 0 0 0 0 0 0 0 1.7209 1.7182 1.7154 1.7127 1.7621 1.7526 1.7564 0 1.7643 1.7614 1.8288 1.7227 1.7199 1.7367 1.7608 1.7925 1.7826 0 0 0 0 0 0 0 0 0 0 0 0 0.80667 0.80387 0.79818 0.80119 0.81015 0.80726 0.80446 0.80311 0.80319 0.80479 0.80495 0.80501 0.80818 0.80982 0.80844 0.80857 0.80719 0.80281 0.80144 0.79857 0.7957 0.79284 0.78859 0.78722 0.78438 0.78015 0.7774 0.77743 0.77608 0.77334 0.77052 0.76779 0.76644 0.76372 0.76237 0.7624 0.75968 0.75697 0.75153 0.74883 0.7475 0.74616 0.74483 0.74215 0.73684 0.73417 0.73159 0.72893 0.72761 0.72503 0.72246 0.71982 0.7135 0.70845 0.70715 0.70711 0.70332 0.70203 0.6995 0.69821 0.69569 0.69325 0.69196 0.69068 0.6858
1.2825 1.2911 1.2973 1.2907 1.2792 1.2728 1.2714 1.2676 1.2661 1.272 1.2907 1.2968 1.2928 1.2991 1.3029 1.3065 1.3183 1.3141 1.3234 1.3219 1.3124 1.3135 1.3173 1.3158 1.3169 1.3101 1.306 1.3124 1.3109 1.3068 1.3079 1.3064 1.3103 1.3033 1.294 1.2899 1.3399 1.3497 1.3655 1.4351 1.4399 1.4382 1.4431 1.4414 1.4397 1.438 1.433 1.4313 1.42 1.4151 1.4007 1.4055 1.41 1.4147 1.4163 1.4179 1.4162 1.4177 1.4226 1.4374 1.4423 1.4306 1.4322 1.4338 1.4387 1.4541 1.4523 1.4403 1.4386 1.4235 1.4251 1.4233 1.4183 1.4133 1.4116 1.4132 1.4082 1.413 1.4179 1.4162 1.4177 1.4261 1.4414 1.4328 1.4242 1.4191 1.4106 1.4896 1.4878 1.4896 1.4953 1.5009 1.5182 1.532 1.5419 1.5441 1.5422 1.5482 1.5586 1.5485 1.5424 1.5405 1.5426 1.5529 1.5428 1.5656 1.5763 1.5786 1.5766 1.5961 1.5985 0 0 0 0 0 0 0 0 0 0 0 0 0 0 0 0 0 0 0 0 0 0 0 0 0 0 0 0 0 0 0 0 0 0 0 0 0 0 0 0 0 0 0 0 0 0 0 0 0 0 0 0 0 0 0 0 0 0 0 1.8286 1.8261 1.9859 2.036 2.0489 2.0619 2.0913 2.0966 2.0613 2.0664 2.1472 2.1355 2.1587 2.1646 2.1615 2.1585 2.2099 0 0 0 0 0 0 0 0 0 0 0 0 0 0 0 0 0 0 0 0 0 0 0 0 0 0 0 0 0 0 0 0 0 0 0 0 0 0 0 0 0 0 0 0 0 0 0 0 0 0 0 0 0 0 0 0 0 0 0 0 0 0 0 0 0 0 0 0 0 0 0 0 0 0 0 0 0 0 0 0 0 0 0 1.7764 1.7336 1.6989 0 1.7188 1.716 1.7593 1.6853 1.7014 1.705 1.671 1.7655 1.7694 0 0 0 0 0 0 0 0 0 0 0 0 0 0 0.81167 0.80588 0.80896 0.8076 0.80328 0.80345 0.8021 0.8037 0.80378 0.80393 0.80853 0.80866 0.8088 0.80892 0.80604 0.80466 0.80029 0.79892 0.79456 0.7917 0.78745 0.78609 0.78333 0.78049 0.77774 0.77778 0.77504 0.77221 0.77086 0.76675 0.76678 0.76543 0.76409 0.76137 0.75865 0.75594 0.75187 0.74917 0.74784 0.7465 0.74382 0.74248 0.73718 0.73451 0.73192 0.72926 0.72794 0.72663 0.72405 0.72015 0.71508 0.70878 0.70749 0.70619 0.7049 0.7036 0.69983 0.69854 0.69725 0.69358 0.69344 0.69101 0.6885
1.2731 1.2716 1.3078 1.3038 1.2922 1.2907 1.2918 1.2878 1.2864 1.2925 1.3038 1.3077 1.3035 1.3072 1.3163 1.3202 1.3268 1.3225 1.3319 1.3331 1.3207 1.3246 1.3286 1.3298 1.3228 1.3158 1.3143 1.3182 1.314 1.3098 1.3057 1.3041 1.2999 1.2958 1.2918 1.2928 1.3403 1.3387 1.3659 1.4355 1.437 1.4386 1.4208 1.4288 1.4271 1.4254 1.4238 1.4285 1.4301 1.4251 1.4075 1.4121 1.4168 1.4184 1.42 1.4215 1.4166 1.4149 1.4197 1.4311 1.4394 1.431 1.4293 1.4309 1.4359 1.4511 1.4493 1.4407 1.4357 1.4239 1.4288 1.4305 1.4288 1.4203 1.4186 1.4169 1.4184 1.4267 1.4385 1.4403 1.4283 1.4368 1.4487 1.4436 1.4383 1.4365 1.4111 1.4938 1.4845 1.4976 1.5032 1.5128 1.5186 1.5286 1.5384 1.5365 1.5307 1.5448 1.5591 1.5369 1.535 1.5331 1.5351 1.5618 1.5514 1.5661 1.5768 1.5748 1.5857 1.588 1.599 0 0 0 0 0 0 0 0 0 0 0 0 0 0 0 0 0 0 0 0 0 0 0 0 0 0 0 0 0 0 0 0 0 0 0 0 0 0 0 0 0 0 0 0 0 0 0 0 0 0 0 0 0 0 0 0 0 0 0 1.8293 1.8268 1.9866 1.9838 2.0735 2.12 2.1426 2.1483 2.1112 2.1082 2.1307 2.1714 2.1773 2.1833 2.1984 2.2046 2.2107 0 0 0 0 0 0 0 0 0 0 0 0 0 0 0 0 0 0 0 0 0 0 0 0 0 0 0 0 0 0 0 0 0 0 0 0 0 0 0 0 0 0 0 0 0 0 0 0 0 0 0 0 0 0 0 0 0 0 0 0 0 0 0 0 0 0 0 0 0 0 0 0 0 0 0 0 0 0 0 0 0 0 0 1.7771 1.6961 1.6997 0 1.7195 1.704 1.7269 1.686 1.6649 1.6683 1.7157 1.7458 1.7633 0 0 0 0 0 0 0 0 0 0 0 0 0 0 0.81356 0.80921 0.80632 0.80497 0.80362 0.80227 0.80092 0.80109 0.79974 0.80133 0.80737 0.80751 0.80764 0.80927 0.80639 0.80201 0.80064 0.79777 0.79491 0.79065 0.7878 0.78503 0.78368 0.78084 0.77948 0.7796 0.77538 0.77256 0.77121 0.76709 0.76713 0.7644 0.76443 0.76171 0.75762 0.75628 0.75221 0.74815 0.74818 0.74684 0.7428 0.7402 0.73752 0.73485 0.73226 0.7322 0.72962 0.7283 0.72565 0.72307 0.71792 0.71036 0.70906 0.70777 0.70398 0.70269 0.69892 0.69763 0.69758 0.6939 0.69377 0.69133 0.6912
1.3164 1.3149 1.3134 1.312 1.3002 1.2987 1.2973 1.2958 1.2944 1.298 1.3069 1.308 1.3066 1.3103 1.3167 1.3233 1.3325 1.331 1.3323 1.339 1.3237 1.3305 1.3372 1.3329 1.3259 1.3189 1.3174 1.3214 1.3171 1.3129 1.3086 1.3018 1.3003 1.2936 1.2921 1.2906 1.3379 1.3391 1.3606 1.3887 1.3871 1.4101 1.4116 1.4163 1.4179 1.4163 1.4178 1.4257 1.4305 1.4256 1.4142 1.4158 1.4205 1.4221 1.4269 1.422 1.4138 1.4089 1.4137 1.4316 1.4365 1.4281 1.4264 1.4281 1.4297 1.4447 1.4396 1.4379 1.4327 1.4244 1.4293 1.4309 1.4292 1.4275 1.419 1.4173 1.4256 1.434 1.4563 1.4545 1.4355 1.4441 1.4527 1.4474 1.4456 1.4544 1.4596 1.4868 1.4849 1.4981 1.5075 1.5172 1.523 1.529 1.5429 1.537 1.5312 1.5453 1.5596 1.5414 1.5355 1.5375 1.5436 1.5705 1.5603 1.5709 1.5773 1.5753 1.5819 1.5885 1.5821 1.5801 0 0 0 0 0 0 0 0 0 0 0 0 0 0 0 0 0 0 0 0 0 0 0 0 0 0 0 0 0 0 0 0 0 0 0 0 0 0 0 0 0 0 0 0 0 0 0 0 0 0 0 0 0 0 0 0 0 0 1.8299 1.8336 1.9727 1.9772 2.158 2.155 2.152 2.1578 2.1374 2.1345 2.1401 2.1722 2.1781 2.1751 2.1992 2.2054 2.2115 0 0 0 0 0 0 0 0 0 0 0 0 0 0 0 0 0 0 0 0 0 0 0 0 0 0 0 0 0 0 0 0 0 0 0 0 0 0 0 0 0 0 0 0 0 0 0 0 0 0 0 0 0 0 0 0 0 0 0 0 0 0 0 0 0 0 0 0 0 0 0 0 0 0 0 0 0 0 0 0 0 0 0 0 1.7031 1.7003 1.7166 1.6642 1.686 1.7211 1.6502 1.6535 1.6568 1.71 1.7332 1.7437 0 0 0 0 0 0 0 0 0 0 0 0.84427 0.84132 0.83829 0.81689 0.80956 0.80667 0.80532 0.80397 0.80262 0.80279 0.80144 0.80008 0.80168 0.8062 0.80786 0.80799 0.80963 0.80524 0.80386 0.80099 0.79962 0.79377 0.79099 0.78814 0.78538 0.78402 0.78118 0.78131 0.77847 0.77573 0.7729 0.77155 0.76882 0.76747 0.76475 0.7634 0.76205 0.7566 0.75389 0.75119 0.74713 0.7458 0.74447 0.74314 0.74054 0.73651 0.73518 0.73386 0.73254 0.72996 0.7299 0.72598 0.72341 0.71825 0.71069 0.70939 0.7081 0.70556 0.70302 0.69925 0.69796 0.69552 0.69423 0.69172 0.69166 0.69153
1.3141 1.3178 1.319 1.3149 1.3109 1.3067 1.3053 1.3038 1.3023 1.3035 1.3124 1.3136 1.3121 1.3133 1.3197 1.321 1.3329 1.3287 1.3327 1.3367 1.3269 1.3336 1.3376 1.3333 1.329 1.322 1.3178 1.3245 1.3175 1.3052 1.3011 1.2996 1.2981 1.294 1.2951 1.291 1.3383 1.3367 1.3638 1.3652 1.3785 1.3828 1.3873 1.401 1.4026 1.404 1.415 1.4229 1.431 1.4293 1.4179 1.4194 1.421 1.4225 1.4241 1.4224 1.4079 1.3999 1.4045 1.4222 1.4237 1.4188 1.4203 1.4218 1.4235 1.4317 1.43 1.4283 1.4265 1.4182 1.4264 1.4347 1.4329 1.4312 1.4228 1.421 1.4294 1.4378 1.4567 1.4586 1.4428 1.448 1.4532 1.4584 1.4531 1.4654 1.4781 1.4911 1.4854 1.4911 1.4892 1.491 1.5235 1.5295 1.5355 1.5336 1.5277 1.5417 1.556 1.5419 1.5399 1.542 1.5482 1.5711 1.5649 1.5756 1.5778 1.5801 1.5824 1.5847 1.5784 1.5721 0 0 0 0 0 0 0 0 0 0 0 0 0 0 0 0 0 0 0 0 0 0 0 0 0 0 0 0 0 0 0 0 0 0 0 0 0 0 0 0 0 0 0 0 0 0 0 0 0 0 0 0 0 0 0 0 0 0 1.8306 1.8342 1.9734 1.9779 2.1587 2.1645 2.1704 2.1762 2.1643 2.1525 2.1583 2.191 2.1879 2.194 2.2093 2.2342 2.2123 0 0 0 0 0 0 0 0 0 0 0 0 0 0 0 0 0 0 0 0 0 0 0 0 0 0 0 0 0 0 0 0 0 0 0 0 0 0 0 0 0 0 0 0 0 0 0 0 0 0 0 0 0 0 0 0 0 0 0 0 0 0 0 0 0 0 0 0 0 0 0 0 0 0 0 0 0 0 0 0 0 0 0 0 1.7038 1.701 1.7173 1.6589 1.6385 1.7615 1.5935 1.602 1.6164 1.637 1.7406 1.7445 0 0 0 0 0 0 0 0 0 0 0 0.84462 0.83378 0.82623 0.81869 0.8099 0.80701 0.80566 0.80431 0.80449 0.80314 0.80178 0.80043 0.80202 0.80361 0.80519 0.80683 0.80697 0.80409 0.80271 0.79984 0.79698 0.7927 0.79134 0.78998 0.78573 0.78289 0.78153 0.78165 0.77882 0.77607 0.77325 0.77051 0.76916 0.76782 0.76509 0.76237 0.76102 0.75694 0.7556 0.75153 0.74883 0.7475 0.74481 0.7422 0.74087 0.7382 0.73552 0.73293 0.73161 0.73029 0.72898 0.72766 0.725 0.71984 0.71352 0.71098 0.70843 0.70589 0.70335 0.69842 0.69713 0.697 0.69333 0.69204 0.69076 0.68948
1.3144 1.3156 1.3194 1.3206 1.3217 1.3202 1.3187 1.3147 1.3158 1.3143 1.3155 1.314 1.3152 1.3163 1.3175 1.316 1.3252 1.321 1.3275 1.3343 1.3273 1.3313 1.3325 1.331 1.3267 1.3224 1.3182 1.3303 1.3288 1.3109 1.3015 1.3026 1.3038 1.2996 1.3008 1.3046 1.3415 1.3456 1.3614 1.3656 1.3758 1.3742 1.3757 1.3892 1.3936 1.3982 1.409 1.4201 1.4281 1.4264 1.4215 1.4198 1.4214 1.4229 1.4213 1.4196 1.4114 1.4034 1.4081 1.4226 1.4242 1.4159 1.4175 1.4158 1.4206 1.4288 1.4271 1.4287 1.427 1.422 1.4268 1.4318 1.4334 1.4317 1.4232 1.4182 1.4298 1.4349 1.4503 1.452 1.4502 1.4554 1.4571 1.4624 1.4641 1.4731 1.486 1.4877 1.4859 1.4878 1.486 1.4915 1.5319 1.5379 1.5399 1.5341 1.5322 1.5462 1.5647 1.5505 1.5567 1.5588 1.5653 1.5843 1.578 1.5804 1.5826 1.5849 1.5872 1.5896 1.5746 1.5769 0 0 0 0 0 0 0 0 0 0 0 0 0 0 0 0 0 0 0 0 0 0 0 0 0 0 0 0 0 0 0 0 0 0 0 0 0 0 0 0 0 0 0 0 0 0 0 0 0 0 0 0 0 0 0 0 0 0 2.0319 2.0368 2.0654 2.1113 2.1509 2.1741 2.2255 2.2318 2.2101 2.1979 2.204 2.2287 2.2163 2.2132 2.2381 2.2737 2.3103 0 0 0 0 0 0 0 0 0 0 0 0 0 0 0 0 0 0 0 0 0 0 0 0 0 0 0 0 0 0 0 0 0 0 0 0 0 0 0 0 0 0 0 0 0 0 0 0 0 0 0 0 0 0 0 0 0 0 0 0 0 0 0 0 0 0 0 0 0 0 0 0 0 0 0 0 0 0 0 0 0 0 0 0 0 0 1.718 1.6418 1.6392 1.8037 1.5941 1.6027 1.6228 1.6377 1.7413 1.7452 0 0 0 0 0 0 0 0 0 0 0 0.84662 0.83105 0.83121 0.81605 0.8117 0.80889 0.80754 0.80619 0.80483 0.80492 0.80213 0.80077 0.80085 0.80539 0.80402 0.80417 0.80581 0.80444 0.80156 0.80019 0.79882 0.79305 0.79169 0.79033 0.78748 0.78323 0.78187 0.78052 0.77916 0.77642 0.77359 0.77224 0.77089 0.76816 0.76405 0.76409 0.76137 0.75728 0.75594 0.75323 0.75053 0.7492 0.74651 0.74254 0.74121 0.73718 0.73586 0.73454 0.73195 0.73189 0.72931 0.72665 0.72408 0.72151 0.71636 0.71506 0.70876 0.70746 0.70492 0.69991 0.69862 0.69857 0.69605 0.69476 0.69347 0.69218
1.3097 1.3133 1.3171 1.3183 1.3221 1.3206 1.3191 1.3151 1.3188 1.3147 1.3132 1.3144 1.3129 1.3167 1.3152 1.3137 1.3175 1.3134 1.3253 1.3292 1.3277 1.3261 1.3274 1.3259 1.3216 1.3201 1.3186 1.3307 1.3346 1.3195 1.3019 1.3004 1.3068 1.3027 1.3037 1.3104 1.3562 1.3489 1.3646 1.366 1.3733 1.3688 1.3672 1.3774 1.3849 1.3924 1.4063 1.4142 1.4285 1.4236 1.4252 1.4202 1.4218 1.4234 1.4217 1.42 1.4119 1.4038 1.4117 1.4197 1.4246 1.4131 1.4146 1.4129 1.4178 1.4293 1.4275 1.4258 1.4274 1.4158 1.424 1.4323 1.4305 1.4288 1.4237 1.4186 1.4236 1.4285 1.4472 1.4455 1.4437 1.4523 1.4576 1.4593 1.4611 1.4736 1.4827 1.4846 1.4864 1.4845 1.4865 1.4958 1.5403 1.5423 1.5444 1.5385 1.5366 1.5548 1.5694 1.5591 1.5613 1.5677 1.5698 1.5892 1.5829 1.5852 1.5874 1.5854 1.5877 1.5857 1.5794 1.5774 1.5712 1.5734 0 0 0 0 0 0 0 0 0 0 0 0 0 0 0 0 0 0 0 0 0 0 0 0 0 0 0 0 0 0 0 0 0 0 0 0 0 0 0 0 0 0 0 0 0 0 0 0 0 0 0 0 0 0 0 0 0 0 2.0582 2.112 2.1516 2.1838 2.2263 2.2419 2.2201 2.2078 2.214 2.2388 2.2357 2.2326 2.2485 2.2646 2.2713 0 0 0 0 0 0 0 0 0 0 0 0 0 0 0 0 0 0 0 0 0 0 0 0 0 0 0 0 0 0 0 0 0 0 0 0 0 0 0 0 0 0 0 0 0 0 0 0 0 0 0 0 0 0 0 0 0 0 0 0 0 0 0 0 0 0 0 0 0 0 0 0 0 0 0 0 0 0 0 0 0 0 0 0 0 0 0 0 0 1.7629 1.5838 1.5978 1.6178 1.6502 1.6718 1.6629 0 0 0 0 0 0 0 0 0 0 0 0 0 0 0.80895 0.81059 0.81069 0.80789 0.80653 0.80518 0.8023 0.80247 0.7996 0.8012 0.80431 0.80437 0.803 0.80465 0.80178 0.80041 0.79904 0.79767 0.79481 0.79204 0.79067 0.78642 0.78358 0.78222 0.78087 0.77951 0.77676 0.77541 0.77259 0.76985 0.76712 0.76577 0.76305 0.76171 0.75762 0.75491 0.75357 0.75087 0.74818 0.74548 0.74288 0.74155 0.73752 0.7362 0.73361 0.73229 0.73097 0.72831 0.72573 0.72316 0.72051 0.71795 0.71539 0.71034 0.70904 0.7065 0.70148 0.70019 0.70013 0.69761 0.69632 0.69503 0.69497
1.3049 1.3086 1.3149 1.316 1.3145 1.321 1.3169 1.3155 1.3165 1.3125 1.3136 1.3095 1.3106 1.3118 1.3129 1.3115 1.3126 1.3111 1.3203 1.3296 1.3253 1.3265 1.325 1.3235 1.322 1.3205 1.319 1.3311 1.3027 1.2984 1.2997 1.3034 1.3126 1.3138 1.3041 1.3108 1.3566 1.3579 1.365 1.3664 1.3708 1.3661 1.3676 1.3749 1.3823 1.3898 1.3974 1.4082 1.4226 1.4145 1.4159 1.4207 1.419 1.4173 1.4189 1.414 1.4123 1.4106 1.4154 1.4235 1.425 1.4168 1.4151 1.4167 1.4214 1.4264 1.428 1.4263 1.4279 1.4129 1.4178 1.4227 1.4276 1.4258 1.4208 1.4191 1.4141 1.4189 1.4374 1.4425 1.4442 1.4527 1.4546 1.4528 1.4616 1.4704 1.4869 1.4851 1.4868 1.4925 1.4943 1.5037 1.5368 1.5349 1.537 1.5351 1.537 1.5594 1.5699 1.568 1.566 1.5723 1.5745 1.5897 1.5877 1.5857 1.588 1.5859 1.5882 1.5906 1.5799 1.5779 1.5759 1.5697 0 0 0 0 0 0 0 0 0 0 0 0 0 0 0 0 0 0 0 0 0 0 0 0 0 0 0 0 0 0 0 0 0 0 0 0 0 0 0 0 0 0 0 0 0 0 0 0 0 0 0 0 0 0 0 1.9408 1.9381 1.9424 2.0589 2.0561 2.1875 2.2209 2.2365 2.2521 2.249 2.2271 2.2428 2.2685 2.275 2.2621 2.2686 2.2851 2.2721 0 0 0 0 0 0 0 0 0 0 0 0 0 0 0 0 0 0 0 0 0 0 0 0 0 0 0 0 0 0 0 0 0 0 0 0 0 0 0 0 0 0 0 0 0 0 0 0 0 0 0 0 0 0 0 0 0 0 0 0 0 0 0 0 0 0 0 0 0 0 0 0 0 0 0 0 0 0 0 0 0 0 0 0 0 0 1.6696 1.655 1.6523 1.6497 1.59 1.5984 1.6128 1.6332 1.6305 1.6163 1.6137 0 0 0 0 0 0 0 0 0 0 0.84733 0.83175 0.83191 0.81075 0.81239 0.81257 0.81121 0.80832 0.80552 0.80417 0.80282 0.80146 0.80155 0.80314 0.80329 0.80193 0.80349 0.80062 0.79926 0.79789 0.79653 0.79225 0.79089 0.78812 0.78528 0.78252 0.78117 0.78121 0.77985 0.77563 0.77428 0.77293 0.77019 0.76608 0.76474 0.76202 0.7593 0.75659 0.75388 0.75392 0.75121 0.74852 0.74582 0.74186 0.74053 0.73658 0.73526 0.73394 0.73001 0.72869 0.72738 0.72481 0.72349 0.72084 0.71828 0.71572 0.71067 0.70937 0.70807 0.70305 0.70176 0.7017 0.69917 0.69788 0.69782 0.69653
1.3053 1.3064 1.3126 1.3138 1.3149 1.3188 1.3173 1.3158 1.3144 1.3154 1.3114 1.3125 1.3136 1.3121 1.3133 1.3118 1.313 1.3141 1.3261 1.3327 1.3284 1.3324 1.3336 1.3321 1.3361 1.3345 1.3358 1.3454 1.3031 1.3068 1.308 1.3145 1.3377 1.3417 1.3458 1.3586 1.3628 1.37 1.3713 1.3728 1.3741 1.3696 1.3709 1.3813 1.3888 1.3932 1.3978 1.4086 1.4197 1.4149 1.4132 1.418 1.4194 1.4146 1.4161 1.4144 1.4096 1.411 1.419 1.4337 1.432 1.4205 1.4221 1.4236 1.4285 1.4335 1.4317 1.43 1.425 1.4133 1.4182 1.4198 1.4214 1.423 1.4212 1.413 1.4145 1.4193 1.4379 1.4499 1.4516 1.4603 1.455 1.4567 1.4691 1.4745 1.4948 1.4929 1.4911 1.5079 1.5215 1.5312 1.5373 1.5354 1.5335 1.5315 1.5375 1.564 1.5788 1.5768 1.5748 1.5728 1.5794 1.5988 1.5968 1.5905 1.5885 1.5908 1.5931 1.5911 1.5934 1.5871 1.5851 1.5702 0 0 0 0 0 0 0 0 0 0 0 0 0 0 0 0 0 0 0 0 0 0 0 0 0 0 0 0 0 0 0 0 0 0 0 0 0 0 0 0 0 0 0 0 0 0 0 0 0 0 0 0 0 0 0 1.9414 1.9388 1.9431 2.1164 2.1219 2.3416 2.2883 2.2851 2.3017 2.2985 2.2756 2.2921 2.3394 2.3569 2.3537 2.3504 2.3575 2.3863 0 0 0 0 0 0 0 0 0 0 0 0 0 0 0 0 0 0 0 0 0 0 0 0 0 0 0 0 0 0 0 0 0 0 0 0 0 0 0 0 0 0 0 0 0 0 0 0 0 0 0 0 0 0 0 0 0 0 0 0 0 0 0 0 0 0 0 0 0 0 0 0 0 0 0 0 0 0 0 0 0 0 0 0 0 0 1.6703 1.6557 1.6354 1.627 1.6129 1.6047 1.6135 1.6165 1.6139 1.6113 1.6143 0 0 0 0 0 0 0 0 0 0 0.84769 0.8321 0.82763 0.82009 0.81872 0.81591 0.81454 0.8102 0.80884 0.80596 0.8046 0.80181 0.80189 0.80348 0.80212 0.80227 0.80234 0.80097 0.7996 0.79682 0.79546 0.79409 0.79124 0.78847 0.78562 0.78287 0.78151 0.78016 0.7788 0.77598 0.77463 0.77328 0.76915 0.76781 0.76232 0.76236 0.75964 0.75693 0.75422 0.75289 0.75155 0.74886 0.74616 0.7422 0.74087 0.73819 0.7356 0.73293 0.73161 0.72903 0.72645 0.72514 0.72383 0.72252 0.71736 0.7148 0.71225 0.70845 0.7084 0.70462 0.70333 0.70203 0.70074 0.69944 0.69692 0.69931
1.3057 1.3094 1.313 1.3142 1.3153 1.3192 1.3177 1.3188 1.3173 1.3158 1.3143 1.3155 1.3167 1.3152 1.3137 1.3149 1.316 1.3172 1.3264 1.3331 1.3316 1.3356 1.3395 1.3408 1.3419 1.3433 1.3417 1.3514 1.3358 1.3152 1.311 1.3176 1.3409 1.3449 1.3462 1.3619 1.3662 1.3704 1.3717 1.3701 1.3716 1.3669 1.3684 1.3726 1.3861 1.3936 1.3982 1.4091 1.4201 1.4185 1.4168 1.4151 1.4167 1.415 1.4134 1.4117 1.4068 1.4083 1.4195 1.4342 1.4325 1.4242 1.4257 1.424 1.429 1.4339 1.4322 1.4271 1.4221 1.4138 1.4154 1.417 1.4185 1.4168 1.4151 1.4134 1.4117 1.4165 1.4417 1.4572 1.4554 1.4643 1.4625 1.4678 1.4768 1.486 1.4952 1.4971 1.4953 1.5084 1.522 1.5358 1.5378 1.5399 1.53 1.532 1.538 1.5646 1.5793 1.5773 1.5753 1.5775 1.5799 1.5993 1.5973 1.5953 1.5933 1.5913 1.5936 1.5959 1.5939 1.5962 1.5898 1.5965 0 0 0 0 0 0 0 0 0 0 0 0 0 0 0 0 0 0 0 0 0 0 0 0 0 0 0 0 0 0 0 0 0 0 0 0 0 0 0 0 0 0 0 0 0 0 0 0 0 0 0 0 0 0 0 0 0 0 2.241 2.2473 2.3221 2.3189 2.3258 2.3429 2.3193 2.2961 2.3129 2.3402 2.3369 2.3234 2.3201 2.3272 2.2935 0 0 0 0 0 0 0 0 0 0 0 0 0 0 0 0 0 0 0 0 0 0 0 0 0 0 0 0 0 0 0 0 0 0 0 0 0 0 0 0 0 0 0 0 0 0 0 0 0 0 0 0 0 0 0 0 0 0 0 0 0 0 0 0 0 0 0 0 0 0 0 0 0 0 0 0 0 0 0 0 0 0 0 0 0 0 1.653 1.5771 1.6019 1.5993 1.5968 1.5998 1.6084 1.6058 1.6089 1.595 1.5869 1.5954 1.5872 0 0 0 0 0 0 0 0 0 0.82936 0.82644 0.82044 0.81762 0.81625 0.81336 0.812 0.81063 0.80783 0.80351 0.80215 0.8008 0.8024 0.80104 0.80111 0.80126 0.7999 0.79853 0.79859 0.79581 0.79444 0.79159 0.78882 0.78597 0.78461 0.78186 0.7805 0.77915 0.77632 0.77497 0.77362 0.7695 0.76677 0.76266 0.76132 0.75998 0.75589 0.75456 0.7546 0.75053 0.74783 0.74522 0.74253 0.73985 0.73853 0.73594 0.73199 0.73068 0.7281 0.72679 0.72413 0.72282 0.72151 0.71644 0.71388 0.71008 0.70879 0.70749 0.70495 0.70366 0.70112 0.70107 0.69854 0.69725 0.69842
1.3061 1.3097 1.3134 1.3146 1.3131 1.3169 1.3181 1.3166 1.3203 1.3162 1.3174 1.3159 1.317 1.3156 1.3167 1.3179 1.319 1.3203 1.3268 1.328 1.3347 1.3387 1.3427 1.3467 1.3508 1.3493 1.3477 1.3491 1.3418 1.3238 1.3141 1.3261 1.3413 1.3425 1.3409 1.3537 1.3607 1.3708 1.3692 1.3705 1.366 1.3644 1.3599 1.3672 1.3774 1.3849 1.3863 1.394 1.4078 1.4062 1.4045 1.4029 1.4043 1.4091 1.4138 1.4089 1.4041 1.4055 1.4167 1.4346 1.4296 1.4246 1.4229 1.4244 1.4227 1.431 1.4293 1.4243 1.4192 1.411 1.4125 1.4141 1.4091 1.4107 1.4123 1.4073 1.4088 1.4104 1.432 1.4439 1.4455 1.4577 1.4594 1.4647 1.4772 1.4864 1.4919 1.4939 1.492 1.5051 1.5108 1.5167 1.5343 1.5363 1.5305 1.5325 1.5385 1.5734 1.5797 1.5737 1.5758 1.5738 1.5804 1.6042 1.5978 1.5958 1.5938 1.5875 1.5898 1.5921 1.5944 1.61 1.5991 1.5971 0 0 0 0 0 0 0 0 0 0 0 0 0 0 0 0 0 0 0 0 0 0 0 0 0 0 0 0 0 0 0 0 0 0 0 0 0 0 0 0 0 0 0 0 0 0 0 0 0 0 0 0 0 0 0 0 0 0 2.2418 2.2767 2.3029 2.3197 2.3368 2.3437 2.3303 2.3169 2.3238 2.3004 2.2774 2.2742 2.2809 2.2777 2.2647 2.3739 2.1833 2.1893 0 0 0 0 0 0 0 0 0 0 0 0 0 0 0 0 0 0 0 0 0 0 0 0 0 0 0 0 0 0 0 0 0 0 0 0 0 0 0 0 0 0 0 0 0 0 0 0 0 0 0 0 0 0 0 0 0 0 0 0 0 0 0 0 0 0 0 0 0 0 0 0 0 0 0 0 0 0 0 0 1.7107 1.7079 1.7052 1.6537 1.5941 1.5806 1.5835 1.5809 1.5948 1.5978 1.6008 1.5927 1.5956 1.5875 1.5904 1.5879 0 0 0 0 0 0 0 0 0 0.82971 0.82524 0.81933 0.81797 0.8166 0.8137 0.81234 0.80954 0.80818 0.80385 0.8025 0.80115 0.80123 0.79987 0.80003 0.8001 0.79731 0.79595 0.7946 0.79324 0.79329 0.79052 0.78916 0.78631 0.78356 0.7822 0.78085 0.7795 0.77527 0.77392 0.77258 0.76845 0.76572 0.76162 0.76028 0.75895 0.75486 0.75353 0.7522 0.74821 0.74552 0.74283 0.73887 0.73755 0.73368 0.73237 0.72844 0.72713 0.72709 0.72451 0.72194 0.72064 0.72059 0.71677 0.71422 0.71041 0.70787 0.70657 0.70279 0.7015 0.69897 0.69769 0.69763 0.69511 0.69505
1.3039 1.3075 1.3137 1.3123 1.3135 1.3146 1.3158 1.317 1.3207 1.3192 1.3204 1.3189 1.3201 1.3212 1.3224 1.3209 1.3302 1.3287 1.3298 1.3283 1.3351 1.3446 1.3487 1.3528 1.3568 1.3553 1.351 1.3466 1.3422 1.3269 1.3254 1.3293 1.3389 1.3401 1.3413 1.3511 1.3611 1.3712 1.3696 1.368 1.3664 1.3619 1.3632 1.3676 1.3778 1.3793 1.3807 1.3882 1.4051 1.4035 1.3986 1.4001 1.4016 1.4064 1.411 1.4062 1.4045 1.4092 1.4203 1.435 1.4333 1.4251 1.4266 1.4249 1.4265 1.4281 1.4264 1.4247 1.4197 1.4115 1.4129 1.4145 1.4063 1.4046 1.4094 1.4077 1.406 1.4076 1.429 1.4374 1.4426 1.4512 1.4564 1.4652 1.4741 1.4796 1.4962 1.4944 1.4962 1.5056 1.5075 1.5133 1.5348 1.5329 1.527 1.533 1.543 1.5739 1.5803 1.5783 1.5805 1.5785 1.5809 1.6003 1.5983 1.592 1.59 1.5923 1.586 1.5926 1.5949 1.6105 0 0 0 0 0 0 0 0 0 0 0 0 0 0 0 0 0 0 0 0 0 0 0 0 0 0 0 0 0 0 0 0 0 0 0 0 0 0 0 0 0 0 0 0 0 0 0 0 0 0 0 0 0 0 0 0 0 0 0 0 2.31 2.3169 2.3237 2.3306 2.3274 2.3344 2.3311 2.3077 2.3145 2.2913 2.2588 2.2557 2.2719 2.2786 2.2852 2.3748 2.1841 2.1901 0 0 0 0 0 0 0 0 0 0 0 0 0 0 0 0 0 0 0 0 0 0 0 0 0 0 0 0 0 0 0 0 0 0 0 0 0 0 0 0 0 0 0 0 0 0 0 0 0 0 0 0 0 0 0 0 0 0 0 0 0 0 0 0 0 0 0 0 0 0 0 0 0 0 0 0 0 0 0 0 1.7113 1.7086 1.6934 1.6723 1.6577 1.661 1.6643 1.6149 1.5955 1.5985 1.5959 1.5878 1.5963 1.5993 1.6024 1.5885 0 0 0 0 0 0 0 0 0 0.83006 0.82714 0.81968 0.81831 0.81994 0.81857 0.81422 0.81286 0.8115 0.80717 0.80428 0.80149 0.80014 0.80022 0.79886 0.80195 0.79908 0.7948 0.79344 0.79358 0.79223 0.79087 0.78951 0.78666 0.7839 0.78106 0.78119 0.77984 0.77562 0.77427 0.77153 0.7688 0.76607 0.76196 0.76062 0.75929 0.7552 0.75387 0.75254 0.74855 0.74586 0.74189 0.73792 0.73533 0.73266 0.73135 0.72877 0.72619 0.72489 0.72358 0.72101 0.72097 0.72092 0.71836 0.7158 0.71074 0.70945 0.7069 0.70312 0.70059 0.6993 0.69685 0.69673 0.69544 0.693
1.2991 1.3028 1.309 1.3101 1.3086 1.3124 1.3161 1.3174 1.3211 1.3196 1.3234 1.3219 1.3205 1.3216 1.3201 1.3213 1.3306 1.3291 1.333 1.3315 1.3355 1.3477 1.3491 1.3503 1.3601 1.3585 1.357 1.3526 1.3454 1.3327 1.3285 1.3324 1.3448 1.3433 1.3445 1.3544 1.3615 1.3716 1.37 1.3684 1.3698 1.3652 1.3636 1.368 1.3753 1.3797 1.3781 1.3886 1.3962 1.4007 1.3899 1.3974 1.3989 1.4035 1.4083 1.4002 1.3954 1.416 1.424 1.4321 1.4304 1.4287 1.427 1.4253 1.4269 1.4286 1.4268 1.4218 1.4201 1.4119 1.4134 1.4117 1.4068 1.4051 1.4098 1.4081 1.4097 1.408 1.4261 1.4311 1.4361 1.4516 1.4603 1.4656 1.4782 1.4836 1.4967 1.5061 1.5042 1.5098 1.5195 1.5215 1.5313 1.5294 1.5315 1.5375 1.5516 1.5744 1.5767 1.5788 1.581 1.5791 1.5814 1.6009 1.5988 1.5925 1.5905 1.5928 1.5908 1.5888 1.5954 1.6245 0 0 0 0 0 0 0 0 0 0 0 0 0 0 0 0 0 0 0 0 0 0 0 0 0 0 0 0 0 0 0 0 0 0 0 0 0 0 0 0 0 0 0 0 0 0 0 0 0 0 0 0 0 0 0 0 0 0 0 2.429 2.3514 2.3379 2.3347 2.3213 2.3081 2.3149 2.3117 2.2985 2.3153 2.2822 2.2596 2.2565 2.2727 2.2794 2.286 2.2249 2.2217 2.2093 0 0 0 0 0 0 0 0 0 0 0 0 0 0 0 0 0 0 0 0 0 0 0 0 0 0 0 0 0 0 0 0 0 0 0 0 0 0 0 0 0 0 0 0 0 0 0 0 0 0 0 0 0 0 0 0 0 0 0 0 0 0 0 0 0 0 0 0 0 0 0 0 0 0 0 0 0 0 1.6803 1.6777 1.7441 1.7284 1.7066 1.673 1.6643 1.6677 1.671 1.6213 1.5961 1.5992 1.5966 1.5884 1.597 1.6228 1.626 1.6651 0 0 0 0 0 0 0 0 0.83179 0.83196 0.82594 0.82303 0.82012 0.82029 0.81892 0.81602 0.81321 0.81329 0.80751 0.80615 0.80184 0.80048 0.79913 0.79921 0.80373 0.80094 0.79665 0.79378 0.79393 0.79257 0.79121 0.78986 0.7885 0.78425 0.78141 0.78006 0.77871 0.77596 0.77461 0.77187 0.76914 0.76641 0.76092 0.76096 0.75963 0.75554 0.75421 0.75425 0.74889 0.7462 0.74351 0.73826 0.73694 0.73435 0.73041 0.72783 0.72652 0.72522 0.72391 0.72135 0.72257 0.72126 0.72121 0.71739 0.71233 0.71103 0.70848 0.70345 0.70092 0.69963 0.69718 0.69466 0.69461 0.69333
1.2893 1.2929 1.3017 1.3002 1.3014 1.2999 1.3061 1.3124 1.3188 1.32 1.3212 1.3197 1.3182 1.3247 1.3259 1.3271 1.331 1.3295 1.328 1.3291 1.3331 1.3399 1.3411 1.3423 1.3549 1.3533 1.3518 1.3474 1.343 1.3358 1.3372 1.3412 1.348 1.3465 1.3478 1.3519 1.3619 1.3662 1.3675 1.3659 1.3732 1.3716 1.37 1.3743 1.3757 1.3801 1.3785 1.3829 1.3936 1.395 1.3903 1.401 1.4056 1.4103 1.4087 1.4006 1.3959 1.4261 1.431 1.4359 1.4342 1.4292 1.4308 1.4324 1.434 1.4323 1.4306 1.4322 1.4272 1.4155 1.4171 1.4187 1.4072 1.4055 1.407 1.4086 1.4101 1.4117 1.4232 1.4316 1.4298 1.4486 1.4608 1.4696 1.4823 1.4841 1.5008 1.514 1.5122 1.5181 1.5239 1.5297 1.5278 1.526 1.528 1.554 1.5602 1.5791 1.5772 1.5752 1.5815 1.5753 1.5776 1.5971 1.595 1.5887 1.5867 1.589 1.5957 1.598 1.6047 1.6251 0 0 0 0 0 0 0 0 0 0 0 0 0 0 0 0 0 0 0 0 0 0 0 0 0 0 0 0 0 0 0 0 0 0 0 0 0 0 0 0 0 0 0 0 0 0 0 0 0 0 0 0 0 0 0 0 0 0 0 2.4299 2.3625 2.3908 2.3769 2.3323 2.3189 2.3157 2.3125 2.3194 2.3263 2.3029 2.2799 2.2477 2.2638 2.2802 2.2288 2.2071 2.204 2.2101 0 0 0 0 0 0 0 0 0 0 0 0 0 0 0 0 0 0 0 0 0 0 0 0 0 0 0 0 0 0 0 0 0 0 0 0 0 0 0 0 0 0 0 0 0 0 0 0 0 0 0 0 0 0 0 0 0 0 0 0 0 0 0 0 0 0 0 0 0 0 0 0 0 0 0 0 0 0 1.681 1.6784 1.7514 1.7355 1.7135 1.6798 1.665 1.6744 1.684 1.5939 1.6136 1.5942 1.5862 1.6172 1.6203 1.6529 1.6623 1.6658 0 0 0 0 0 0 0 0 0.83214 0.83231 0.82939 0.82492 0.82355 0.82218 0.82081 0.8179 0.815 0.81364 0.8093 0.8065 0.80218 0.80083 0.80091 0.79955 0.80408 0.80129 0.79699 0.79413 0.79428 0.79292 0.79156 0.7902 0.78735 0.7831 0.78035 0.7776 0.77625 0.77491 0.77495 0.77221 0.76809 0.76675 0.76264 0.76131 0.75997 0.75863 0.7573 0.75733 0.75189 0.74919 0.74657 0.73988 0.73856 0.73469 0.73202 0.73071 0.72686 0.72555 0.72425 0.72294 0.72416 0.72285 0.72288 0.72023 0.71516 0.71261 0.71131 0.70627 0.70498 0.7012 0.69751 0.69499 0.69371 0.69127
1.2873 1.2933 1.2944 1.2955 1.2941 1.2952 1.3014 1.305 1.3192 1.3203 1.3215 1.3174 1.3186 1.3224 1.3235 1.3248 1.3314 1.3299 1.3256 1.3269 1.328 1.3347 1.336 1.3372 1.3468 1.348 1.3437 1.3393 1.3378 1.3362 1.3376 1.3387 1.3484 1.3469 1.3453 1.3495 1.3565 1.3637 1.365 1.3663 1.3736 1.375 1.3734 1.3747 1.3791 1.3805 1.3789 1.3833 1.394 1.3954 1.3937 1.4045 1.4124 1.4172 1.4122 1.4106 1.4058 1.4299 1.4315 1.4397 1.438 1.4329 1.4346 1.4395 1.4378 1.4394 1.4344 1.436 1.4343 1.4193 1.4176 1.4225 1.4076 1.4059 1.4074 1.4123 1.4073 1.4089 1.4237 1.432 1.4336 1.4455 1.4613 1.4737 1.4901 1.4883 1.505 1.5145 1.5127 1.5185 1.5205 1.5225 1.5322 1.5304 1.5246 1.5545 1.5607 1.5796 1.5776 1.5757 1.5778 1.5758 1.5781 1.5976 1.5956 1.5849 1.5872 1.5852 1.6005 1.5985 1.6052 1.6302 1.5968 1.5948 0 0 0 0 0 0 0 0 0 0 0 0 0 0 0 0 0 0 0 0 0 0 0 0 0 0 0 0 0 0 0 0 0 0 0 0 0 0 0 0 0 0 0 0 0 0 0 0 0 0 0 0 0 0 0 0 0 0 2.4607 2.4461 2.4207 2.3535 2.3401 2.3368 2.3336 2.3509 2.3476 2.3138 2.2906 2.2485 2.2646 2.2711 2.2202 2.1895 2.1864 2.1925 0 0 0 0 0 0 0 0 0 0 0 0 0 0 0 0 0 0 0 0 0 0 0 0 0 0 0 0 0 0 0 0 0 0 0 0 0 0 0 0 0 0 0 0 0 0 0 0 0 0 0 0 0 0 0 0 0 0 0 0 0 0 0 0 0 0 0 0 0 0 0 0 0 0 0 0 0 0 0 0 1.7197 1.7233 1.708 1.6804 1.6717 1.6812 1.6846 1.64 1.6257 1.5949 1.6148 1.6471 1.6444 1.6536 1.663 1.6664 0 0 0 0 0 0 0 0 0.83249 0.83266 0.83129 0.82682 0.8239 0.82253 0.82116 0.81825 0.81535 0.81398 0.81118 0.80685 0.80397 0.80261 0.79982 0.80141 0.80443 0.80163 0.79734 0.79305 0.79312 0.79326 0.79191 0.79055 0.7877 0.78345 0.77929 0.77794 0.7766 0.77525 0.7753 0.77256 0.76982 0.76709 0.76437 0.76303 0.76169 0.7576 0.75901 0.75767 0.7536 0.74953 0.74691 0.74286 0.7389 0.7363 0.73235 0.73104 0.72719 0.72589 0.72458 0.72201 0.72449 0.72318 0.72321 0.72057 0.71675 0.71544 0.71164 0.70909 0.70655 0.70401 0.69784 0.69532 0.69403 0.69159
1.2802 1.2836 1.2822 1.2784 1.2745 1.2731 1.262 1.2606 1.3195 1.3207 1.3272 1.3257 1.3269 1.3309 1.3348 1.3333 1.3344 1.3329 1.3288 1.3218 1.3284 1.3351 1.3364 1.3376 1.3472 1.3484 1.3441 1.3397 1.3382 1.3395 1.3379 1.3391 1.3433 1.3417 1.3373 1.3413 1.3511 1.3611 1.3654 1.3696 1.374 1.3783 1.3738 1.3782 1.3825 1.3809 1.3793 1.3777 1.3882 1.3928 1.3911 1.3987 1.4065 1.4143 1.4127 1.411 1.4093 1.4304 1.4287 1.4334 1.4351 1.43 1.4283 1.4333 1.4349 1.4432 1.4415 1.4397 1.438 1.4263 1.4246 1.4262 1.4146 1.4162 1.4177 1.416 1.4176 1.4159 1.4308 1.4392 1.4409 1.453 1.4688 1.4777 1.4906 1.4925 1.5055 1.515 1.517 1.519 1.521 1.523 1.5249 1.5308 1.5289 1.5632 1.5736 1.5842 1.5823 1.5803 1.5825 1.5806 1.5829 1.5981 1.5961 1.5855 1.5835 1.5857 1.5967 1.5903 1.597 1.6216 1.6062 1.5953 0 0 0 0 0 0 0 0 0 0 0 0 0 0 0 0 0 0 0 0 0 0 0 0 0 0 0 0 0 0 0 0 0 0 0 0 0 0 0 0 0 0 0 0 0 0 0 0 0 0 0 0 0 0 2.5692 2.5657 2.5743 2.5227 2.4729 2.447 2.3786 2.3238 2.3307 2.3377 2.3344 2.3414 2.3485 2.3045 2.262 2.2398 2.2461 2.2622 2.1934 2.1903 2.1872 2.1932 0 0 0 0 0 0 0 0 0 0 0 0 0 0 0 0 0 0 0 0 0 0 0 0 0 0 0 0 0 0 0 0 0 0 0 0 0 0 0 0 0 0 0 0 0 0 0 0 0 0 0 0 0 0 0 0 0 0 0 0 0 0 0 0 0 0 0 0 0 0 0 0 0 0 0 0 0 0 0 0 1.7204 1.7177 1.7213 1.7186 1.6724 1.6697 1.6731 1.6643 1.638 1.563 1.5241 1.5166 1.6451 1.6306 1.6222 1.6081 1.6829 0 0 0 0 0 0 0 0.83284 0.83612 0.83164 0.82871 0.82579 0.82442 0.82151 0.82014 0.81723 0.81433 0.81 0.80719 0.80287 0.80296 0.80312 0.80176 0.80477 0.80341 0.79769 0.79633 0.79347 0.79361 0.79225 0.7909 0.78804 0.78379 0.77963 0.77829 0.77554 0.77559 0.77564 0.77429 0.77017 0.76882 0.76471 0.76337 0.76203 0.75931 0.75798 0.75802 0.75394 0.74987 0.74725 0.7432 0.74059 0.73664 0.73404 0.7301 0.7288 0.72622 0.72365 0.72361 0.72483 0.72352 0.72355 0.72223 0.71833 0.71578 0.71447 0.70942 0.70688 0.70559 0.69933 0.69688 0.69436 0.68953
1.2781 1.2816 1.2826 1.2787 1.2724 1.2686 1.2648 1.2609 1.3199 1.3238 1.3357 1.3397 1.3436 1.3477 1.3489 1.3446 1.3431 1.3361 1.3291 1.3249 1.3288 1.3383 1.3395 1.3435 1.3503 1.3545 1.3472 1.343 1.3441 1.3455 1.3439 1.3424 1.3437 1.3393 1.3349 1.339 1.3458 1.3587 1.3687 1.37 1.3803 1.3818 1.3771 1.3786 1.3829 1.3813 1.3797 1.3781 1.3825 1.3932 1.3915 1.4022 1.4102 1.418 1.4163 1.4114 1.4098 1.4308 1.4323 1.4339 1.4355 1.4305 1.4321 1.4337 1.4354 1.4471 1.4487 1.4436 1.4452 1.4402 1.4417 1.4367 1.4216 1.4199 1.4281 1.4263 1.4313 1.433 1.4517 1.4604 1.4586 1.4675 1.4764 1.4891 1.5022 1.5041 1.5098 1.5155 1.5136 1.5195 1.5176 1.5195 1.5216 1.5313 1.5414 1.5803 1.5867 1.5933 1.5914 1.5894 1.5874 1.5896 1.5834 1.5986 1.5966 1.586 1.584 1.5949 1.6059 1.6083 1.6063 1.6176 1.6022 1.5958 0 0 0 0 0 0 0 0 0 0 0 0 0 0 0 0 0 0 0 0 0 0 0 0 0 0 0 0 0 0 0 0 0 0 0 0 0 0 0 0 0 0 0 0 0 0 0 0 0 0 0 0 0 0 2.5701 2.5666 2.5631 2.5354 2.4967 2.4367 2.3689 2.3246 2.3315 2.3283 2.3353 2.3422 2.3288 2.2954 2.2437 2.2126 2.2374 2.2631 2.2696 0 0 0 0 0 0 0 0 0 0 0 0 0 0 0 0 0 0 0 0 0 0 0 0 0 0 0 0 0 0 0 0 0 0 0 0 0 0 0 0 0 0 0 0 0 0 0 0 0 0 0 0 0 0 0 0 0 0 0 0 0 0 0 0 0 0 0 0 0 0 0 0 0 0 0 0 0 0 0 0 0 0 0 1.7211 1.7184 1.7156 1.7787 1.6791 1.6704 1.6677 1.665 1.6623 1.613 1.5247 1.5172 1.6517 1.6313 1.6171 1.626 1.6774 0 0 0 0 0 0 0 0.84097 0.83803 0.83509 0.83061 0.82769 0.82631 0.8234 0.82356 0.82065 0.81775 0.81332 0.81051 0.80466 0.8033 0.8049 0.80506 0.80664 0.80527 0.79946 0.79668 0.79532 0.79396 0.7926 0.79124 0.78698 0.78414 0.77997 0.77863 0.77728 0.77594 0.77599 0.77464 0.77329 0.77194 0.76644 0.76509 0.76375 0.76103 0.76107 0.75973 0.75565 0.75157 0.74759 0.74353 0.74093 0.73961 0.73693 0.73307 0.72913 0.72782 0.72525 0.72394 0.72516 0.72519 0.72388 0.72257 0.71992 0.71861 0.7173 0.71225 0.7097 0.70716 0.7009 0.69837 0.69592 0.69101
1.276 1.2819 1.283 1.2791 1.2679 1.2641 1.2651 1.2613 1.3203 1.3242 1.3388 1.3401 1.344 1.3564 1.3549 1.3506 1.3463 1.3392 1.3322 1.3253 1.3291 1.3387 1.3426 1.3439 1.3565 1.3577 1.3505 1.3461 1.3474 1.3459 1.3443 1.3428 1.3441 1.3397 1.3326 1.3366 1.3462 1.3561 1.3662 1.3704 1.3778 1.3822 1.3775 1.379 1.3834 1.3787 1.3801 1.3755 1.386 1.3904 1.392 1.4027 1.4106 1.4184 1.4168 1.4151 1.4102 1.4345 1.4328 1.4343 1.4326 1.4309 1.4325 1.4342 1.4358 1.4475 1.4458 1.4474 1.4457 1.4406 1.4456 1.4404 1.4287 1.4269 1.4252 1.4302 1.4352 1.4436 1.4592 1.468 1.4662 1.4715 1.4841 1.4896 1.5064 1.5046 1.514 1.5198 1.5179 1.516 1.5181 1.5123 1.5259 1.5318 1.5703 1.5892 1.5915 1.5938 1.5919 1.5941 1.5879 1.5901 1.5881 1.5948 1.5928 1.5908 1.5888 1.5998 1.6154 1.6222 1.6113 1.6048 1.6027 1.5963 0 0 0 0 0 0 0 0 0 0 0 0 0 0 0 0 0 0 0 0 0 0 0 0 0 0 0 0 0 0 0 0 0 0 0 0 0 0 0 0 0 0 0 0 0 0 0 0 0 0 0 0 0 0 2.571 2.5675 2.564 2.5363 2.4746 2.4376 2.3697 2.3154 2.3222 2.319 2.3259 2.3328 2.3194 2.2668 2.2258 2.1859 2.1739 0 0 0 0 0 0 0 0 0 0 0 0 0 0 0 0 0 0 0 0 0 0 0 0 0 0 0 0 0 0 0 0 0 0 0 0 0 0 0 0 0 0 0 0 0 0 0 0 0 0 0 0 0 0 0 0 0 0 0 0 0 0 0 0 0 0 0 0 0 0 0 0 0 0 0 0 0 0 0 0 0 0 0 0 0 0 0 0 0 0 0 0 1.5327 1.5303 1.6137 1.5253 1.5229 1.6464 1.632 1.6177 1.6267 1.6843 1.6753 1.6726 1.6761 0 0 0 0 0.84132 0.83993 0.83699 0.83251 0.82804 0.82666 0.82529 0.82391 0.82254 0.81963 0.81519 0.8123 0.805 0.80661 0.80677 0.80684 0.8085 0.80562 0.80131 0.79702 0.79416 0.79431 0.79295 0.79009 0.78874 0.78448 0.77891 0.77757 0.77623 0.77488 0.77773 0.77638 0.77503 0.77229 0.76816 0.76682 0.76548 0.76138 0.76141 0.76007 0.75736 0.75328 0.74921 0.74387 0.74127 0.74123 0.73727 0.73468 0.72946 0.72816 0.72558 0.72427 0.7255 0.72553 0.72547 0.7229 0.72159 0.72028 0.71764 0.71383 0.71128 0.70873 0.70247 0.6987 0.69625 0.69134
1.274 1.2799 1.2833 1.2794 1.2732 1.2645 1.2631 1.2616 1.3207 1.3272 1.3365 1.3405 1.3416 1.3512 1.3553 1.351 1.3467 1.3424 1.3325 1.3256 1.3323 1.3418 1.343 1.3499 1.3568 1.358 1.3509 1.3437 1.3449 1.3434 1.3391 1.3376 1.3388 1.3372 1.3274 1.3314 1.341 1.3507 1.3666 1.3679 1.3782 1.3826 1.3779 1.3823 1.3807 1.3821 1.3805 1.3789 1.3864 1.394 1.3954 1.4031 1.4141 1.4189 1.4236 1.4187 1.4139 1.4349 1.43 1.4315 1.4298 1.4281 1.4296 1.4313 1.4329 1.4412 1.4395 1.4478 1.4461 1.4444 1.4495 1.4443 1.4258 1.4241 1.4257 1.4306 1.4458 1.4475 1.4667 1.472 1.4738 1.4791 1.4919 1.5012 1.5069 1.505 1.5107 1.5164 1.5184 1.5127 1.5146 1.509 1.5148 1.5207 1.5226 1.5856 1.5836 1.5986 1.5966 1.5946 1.5926 1.5906 1.5886 1.5953 1.5933 1.587 1.5807 1.583 1.5939 1.5918 1.5898 1.5965 1.5989 1.5968 0 0 0 0 0 0 0 0 0 0 0 0 0 0 0 0 0 0 0 0 0 0 0 0 0 0 0 0 0 0 0 0 0 0 0 0 0 0 0 0 0 0 0 0 0 0 0 0 0 0 0 0 0 0 2.5719 2.5684 2.577 2.3804 2.3877 2.3634 2.3295 2.2963 2.2932 2.29 2.2966 2.3034 2.3002 2.239 2.1989 2.1777 2.1658 2.1717 2.1776 2.1836 2.1896 2.1774 0 0 0 0 0 0 0 0 0 0 0 0 0 0 0 0 0 0 0 0 0 0 0 0 0 0 0 0 0 0 0 0 0 0 0 0 0 0 0 0 0 0 0 0 0 0 0 0 0 0 0 0 0 0 0 0 0 0 0 0 0 0 0 0 0 0 0 0 0 0 0 0 0 0 0 0 0 0 0 0 0 0 0 0 0 0 0 1.5333 1.5309 1.6143 1.5259 1.5235 1.6471 1.6444 1.63 1.6391 1.685 1.676 1.6672 1.6645 0 0 0 0 0.84167 0.84029 0.83735 0.83441 0.82994 0.82701 0.82718 0.8258 0.82442 0.81998 0.81401 0.8112 0.80688 0.80552 0.80559 0.80719 0.80885 0.80597 0.80015 0.79737 0.79601 0.79315 0.79179 0.79193 0.78908 0.78482 0.78066 0.77791 0.77797 0.77662 0.77807 0.7782 0.77537 0.77549 0.76989 0.76855 0.7672 0.7631 0.76313 0.76179 0.7577 0.75362 0.74955 0.74421 0.74289 0.74156 0.74024 0.73501 0.73242 0.72849 0.72718 0.72587 0.72583 0.72586 0.72455 0.72324 0.72193 0.72061 0.71797 0.71541 0.71161 0.70906 0.7028 0.69903 0.69774 0.69167
1.2743 1.2802 1.2862 1.2872 1.2834 1.2819 1.3109 1.3146 1.3237 1.3276 1.3369 1.338 1.3393 1.3461 1.3501 1.343 1.3387 1.3372 1.3329 1.326 1.3273 1.3422 1.3434 1.3474 1.3573 1.3584 1.3513 1.3469 1.3453 1.3438 1.3395 1.3407 1.3392 1.3376 1.3305 1.3345 1.3414 1.3512 1.3641 1.3683 1.3786 1.383 1.3843 1.3827 1.3842 1.3856 1.384 1.3854 1.3961 1.4068 1.4083 1.4131 1.421 1.4224 1.4338 1.4289 1.4272 1.4353 1.4336 1.4287 1.427 1.4285 1.4301 1.4317 1.4333 1.4383 1.4399 1.4517 1.4569 1.4586 1.4568 1.4585 1.4329 1.4212 1.4395 1.448 1.4637 1.4619 1.4779 1.4832 1.4814 1.4906 1.4998 1.5092 1.5074 1.5092 1.5112 1.5169 1.5189 1.517 1.5151 1.5056 1.5114 1.5172 1.527 1.5734 1.5841 1.6078 1.6058 1.5995 1.6018 1.5998 1.5978 1.6001 1.5938 1.5875 1.5812 1.5878 1.5901 1.5881 1.5861 1.6014 1.6038 1.6017 0 0 0 0 0 0 0 0 0 0 0 0 0 0 0 0 0 0 0 0 0 0 0 0 0 0 0 0 0 0 0 0 0 0 0 0 0 0 0 0 0 0 0 0 0 0 0 0 0 0 0 0 0 0 0 0 0 2.3812 2.3779 2.3436 2.3102 2.2776 2.2842 2.281 2.2877 2.3042 2.2911 2.2304 2.1815 2.1785 2.1755 2.1724 2.1784 2.1844 2.1903 2.1782 0 0 0 0 0 0 0 0 0 0 0 0 0 0 0 0 0 0 0 0 0 0 0 0 0 0 0 0 0 0 0 0 0 0 0 0 0 0 0 0 0 0 0 0 0 0 0 0 0 0 0 0 0 0 0 0 0 0 0 0 0 0 0 0 0 0 0 0 0 0 0 0 0 0 0 0 0 0 0 0 0 0 0 0 0 0 0 1.7628 1.7667 1.6862 1.6897 1.6994 1.6842 1.6753 1.6665 1.6577 1.6857 1.6767 1.6618 1.659 0 0 0 0 0.84203 0.84064 0.8377 0.83476 0.83029 0.82737 0.82753 0.82615 0.82631 0.82186 0.81589 0.81155 0.80722 0.80586 0.80594 0.8061 0.81071 0.80783 0.8005 0.79771 0.79636 0.795 0.79506 0.79228 0.79092 0.78666 0.78382 0.78247 0.784 0.78265 0.78277 0.78281 0.78006 0.7787 0.77301 0.77028 0.76893 0.7662 0.76485 0.76351 0.75942 0.7567 0.754 0.74856 0.74723 0.74462 0.7433 0.73926 0.73531 0.73272 0.73013 0.72882 0.72751 0.72872 0.72741 0.72609 0.72352 0.72095 0.71964 0.717 0.71444 0.7094 0.70437 0.69935 0.69691 0.69199
1.2747 1.2781 1.2866 1.2876 1.2862 1.2923 1.3218 1.3177 1.3268 1.328 1.3346 1.3331 1.3343 1.3382 1.3394 1.3324 1.3309 1.3294 1.3226 1.3183 1.3223 1.3371 1.3383 1.3451 1.3604 1.3588 1.3545 1.3473 1.3486 1.3414 1.3426 1.3384 1.3424 1.338 1.3365 1.3378 1.3418 1.3516 1.3645 1.3659 1.379 1.3834 1.3848 1.3862 1.3846 1.386 1.3875 1.3828 1.3933 1.4041 1.4087 1.4167 1.4214 1.4294 1.4342 1.4293 1.4276 1.439 1.4341 1.4291 1.4307 1.429 1.4273 1.4321 1.4304 1.4421 1.4437 1.4625 1.4712 1.473 1.4677 1.4695 1.4435 1.4417 1.4855 1.4693 1.4819 1.4765 1.4818 1.4873 1.4891 1.4984 1.5078 1.5134 1.5116 1.5097 1.5117 1.5174 1.5155 1.5136 1.5118 1.5061 1.508 1.5139 1.5197 1.5907 1.593 1.6083 1.6107 1.6043 1.6066 1.609 1.6026 1.605 1.6029 1.5923 1.586 1.5926 1.5949 1.5929 1.5953 1.6019 1.6043 1.6111 0 0 0 0 0 0 0 0 0 0 0 0 0 0 0 0 0 0 0 0 0 0 0 0 0 0 0 0 0 0 0 0 0 0 0 0 0 0 0 0 0 0 0 0 0 0 0 0 0 0 0 0 0 0 0 0 0 2.3509 2.3683 2.3242 2.2815 2.2593 2.2656 2.2721 2.2787 2.2951 2.2821 2.2312 2.1823 2.1704 2.1673 2.1732 2.1791 2.1851 2.1911 2.179 0 0 0 0 0 0 0 0 0 0 0 0 0 0 0 0 0 0 0 0 0 0 0 0 0 0 0 0 0 0 0 0 0 0 0 0 0 0 0 0 0 0 0 0 0 0 0 0 0 0 0 0 0 0 0 0 0 0 0 0 0 0 0 0 0 0 0 0 0 0 0 0 0 0 0 0 0 0 0 0 0 0 0 0 0 0 0 0 0 0 0 1.7001 1.7037 0 1.6256 1.6464 1.6802 1.6713 1.6625 1.6659 0 0 0 0 0.84238 0.841 0.83961 0.83667 0.83219 0.82772 0.82788 0.8265 0.82513 0.82221 0.81624 0.81334 0.80901 0.80765 0.80781 0.80645 0.80955 0.80666 0.80085 0.79655 0.7967 0.79384 0.79399 0.79263 0.79127 0.78842 0.78565 0.7843 0.78435 0.78299 0.78452 0.78176 0.7818 0.77905 0.77483 0.77201 0.76927 0.76516 0.76382 0.76385 0.76113 0.75842 0.75434 0.75164 0.74894 0.74761 0.74491 0.74359 0.73827 0.73568 0.73301 0.73169 0.73038 0.72906 0.72908 0.72642 0.72511 0.72254 0.72122 0.71866 0.71602 0.71222 0.7047 0.70216 0.69723 0.69232
1.2751 1.2785 1.287 1.2905 1.2915 1.3003 1.3116 1.3233 1.3272 1.3283 1.3269 1.3254 1.3265 1.3305 1.329 1.3221 1.3206 1.3164 1.3096 1.3055 1.312 1.3265 1.325 1.3289 1.3412 1.3424 1.3464 1.3477 1.3461 1.3474 1.343 1.3443 1.3428 1.3413 1.3397 1.341 1.345 1.3491 1.362 1.3663 1.3765 1.3838 1.3852 1.3897 1.3881 1.3864 1.3879 1.3832 1.3937 1.4077 1.4123 1.4202 1.425 1.4298 1.4381 1.433 1.428 1.433 1.4313 1.4296 1.4311 1.4262 1.4211 1.4228 1.4243 1.4392 1.4441 1.463 1.4752 1.4805 1.4787 1.4769 1.4439 1.4422 1.4895 1.4913 1.4932 1.4877 1.4932 1.4951 1.497 1.5062 1.512 1.5177 1.512 1.5065 1.5122 1.5178 1.516 1.5141 1.5123 1.5066 1.5085 1.5144 1.5202 1.5912 1.5978 1.6132 1.6112 1.6092 1.6115 1.6095 1.6119 1.6099 1.6079 1.5971 1.5908 1.5931 1.6041 1.5978 1.6001 1.6068 1.6093 1.6116 0 0 0 0 0 0 0 0 0 0 0 0 0 0 0 0 0 0 0 0 0 0 0 0 0 0 0 0 0 0 0 0 0 0 0 0 0 0 0 0 0 0 0 0 0 0 0 0 0 0 0 0 0 0 0 0 0 2.3213 2.3182 2.2855 2.2537 2.2506 2.2569 2.2729 2.2795 2.2959 2.2927 2.27 2.1306 2.1623 2.1681 2.183 2.1709 2.1859 2.1919 2.1798 0 0 0 0 0 0 0 0 0 0 0 0 0 0 0 0 0 0 0 0 0 0 0 0 0 0 0 0 0 0 0 0 0 0 0 0 0 0 0 0 0 0 0 0 0 0 0 0 0 0 0 0 0 0 0 0 0 0 0 0 0 0 0 0 0 0 0 0 0 0 0 0 0 0 0 0 0 0 0 0 0 0 0 0 0 0 0 0 0 0 0 1.7008 1.6257 1.623 1.6034 1.6178 1.6444 1.6417 1.639 1.6246 0 0 0 0 0.84274 0.84299 0.83996 0.83702 0.83254 0.82961 0.82823 0.82686 0.82548 0.82103 0.81659 0.81225 0.80936 0.808 0.80663 0.8068 0.8099 0.8055 0.79976 0.7969 0.79554 0.79569 0.79575 0.79439 0.79162 0.78876 0.78741 0.78605 0.7847 0.78482 0.78347 0.78351 0.78214 0.77939 0.77517 0.77235 0.76962 0.7655 0.76416 0.76282 0.76148 0.76013 0.75742 0.75334 0.75201 0.74931 0.74797 0.748 0.74132 0.73864 0.73597 0.73338 0.73206 0.73074 0.72942 0.7281 0.72419 0.72287 0.72156 0.71899 0.71511 0.71255 0.70503 0.70249 0.69756 0.69264
