0.99259 0.99347 0.99611 0.99709 1.0013 1.0039 1.0066 1.0076 1.0069 1.0079 1.0022 1.0033 1.0026 0.99045 0.98815 0.98912 0.98846 0.99584 0.99518 0.98961 0.97776 0.96931 0.96865 0.97892 0.97675 1.0088 1.0098 1.0177 1.0187 1.0198 1.0243 1.0271 1.0282 1.0345 1.0357 1.0367 1.0378 1.0371 1.0382 1.0374 1.0367 1.0379 1.0372 1.0383 1.0412 1.0442 1.0435 1.0446 1.0457 1.0468 1.0461 1.0454 1.0428 1.0421 1.0414 1.0443 1.0473 1.0541 1.0571 1.0583 1.0653 1.0684 1.0736 1.0787 1.08 1.0753 1.0745 1.0698 1.071 1.0723 1.0715 1.0708 1.068 1.0673 1.0686 1.0678 1.0671 1.0663 1.0695 1.0726 1.0739 1.0732 1.0764 1.0777 1.0789 1.0863 1.0875 1.0909 1.0921 1.0934 1.1011 1.1066 1.108 1.1072 1.1064 1.1056 1.1069 1.1083 1.1076 1.1068 1.106 1.103 1.1022 1.1014 1.1092 1.1172 1.1342 1.1401 1.1348 1.134 1.1309 1.1324 1.1361 1.1376 1.1344 1.1336 1.1305 1.1275 1.1267 1.1304 1.1295 1.1287 1.1302 1.1294 1.1285 1.1277 1.1269 1.1284 1.1276 1.129 1.1282 1.1342 1.1334 1.1395 1.1505 1.1544 1.168 1.1746 1.1762 1.1804 1.177 1.1762 1.1803 1.1819 1.181 1.1877 1.1869 1.186 1.1877 1.1868 1.1989 1.198 1.1971 1.2014 1.2032 1.2156 1.2147 1.2138 1.2129 1.2093 1.2084 1.2102 1.2093 1.211 1.2129 1.2092 1.2164 1.2155 1.2229 1.233 1.2377 1.234 1.2359 1.2321 1.2312 1.2303 1.235 1.2398 1.2388 1.2379 1.2455 1.2474 1.2494 1.2514 1.2562 1.2672 1.2722 1.2834 1.3042 1.3065 1.3087 1.3109 1.3196 1.3186 1.3176 1.3133 1.3059 1.3081 1.3072 1.3093 1.3083 1.3106 1.3129 1.315 1.3239 1.3262 1.3186 1.3242 1.3298 1.3288 1.3277 1.3301 1.3325 1.3555 1.351 1.3569 1.3665 1.3798 1.3859 1.3812 1.3765 1.3938 1.3927 1.3953 1.3981 1.3932 1.3959 1.4099 1.4088 0 0 0 0 0 0 0 0 0 0 0 0 0 0 0 0 0 0 0 0 0 0 0 0 0 0 0 0 0 0 0 0 0 0 0 0 0 0 0 0 0 0 0 0 0 0 0 0 0 0 0 0 0 0 0 0 0 0 0 0 0 0 0 0 0 0 0 1.9698 1.9681 1.9665 1.9728 1.9712 1.8645 1.8991 1.9199 1.9258 1.9319 1.9302 1.921 1.9194 1.9178 1.9238 1.9222 1.9282 0 0 0 0 0 0 0 0 0 0 0 1.5363 1.535 1.6555 1.6541 1.8799 1.7165 1.7212 1.8751 1.8735 1.8719 1.8703 1.8985 1.9841 1.8582 1.8566 0 1.6415 1.6458 1.6443 1.6429 1.7319 1.6515 1.6501 1.6487 1.6531 1.7056 1.7041 1.7026 1.6709 1.7839 1.662 1.6665 1.7861 1.751 1.7236 1.7221
0.99161 0.9926 0.99348 0.99612 0.9971 0.99962 1.0022 1.0049 1.006 1.0019 1.0012 0.9989 0.99659 0.9862 0.98238 0.98336 0.98422 0.9852 0.98453 0.97909 0.97692 0.96997 0.97246 0.97645 0.97742 1.001 1.0037 1.0115 1.0142 1.0135 1.018 1.0208 1.0253 1.0353 1.0346 1.0338 1.035 1.036 1.0389 1.0382 1.0357 1.035 1.0343 1.0336 1.0401 1.0413 1.0424 1.0435 1.0428 1.0439 1.045 1.0461 1.0436 1.041 1.0403 1.0432 1.0463 1.0549 1.0579 1.0571 1.0641 1.0692 1.0743 1.0815 1.0807 1.078 1.0772 1.0725 1.0718 1.0731 1.0703 1.0695 1.0669 1.0641 1.0654 1.0646 1.0639 1.0651 1.0663 1.0734 1.0747 1.0759 1.0772 1.0784 1.0817 1.0871 1.0903 1.0937 1.095 1.0963 1.1061 1.1095 1.1109 1.1123 1.1093 1.1064 1.112 1.1112 1.1083 1.1076 1.1089 1.106 1.1052 1.1044 1.11 1.118 1.135 1.1387 1.1379 1.137 1.134 1.1354 1.1369 1.1384 1.1376 1.1344 1.1314 1.1305 1.1297 1.1312 1.1326 1.1318 1.131 1.1302 1.1294 1.1286 1.1278 1.1269 1.1306 1.1276 1.129 1.1328 1.1343 1.1357 1.1513 1.1552 1.1665 1.173 1.177 1.1788 1.1753 1.1745 1.1812 1.1828 1.1819 1.1862 1.1878 1.1869 1.186 1.1877 1.192 1.1937 1.1954 1.1971 1.2014 1.2111 1.2129 1.2147 1.2111 1.2102 1.2093 1.2111 1.2102 1.2093 1.2138 1.2129 1.2173 1.2192 1.2238 1.2368 1.2387 1.2349 1.2368 1.233 1.2321 1.2312 1.2359 1.2407 1.2398 1.2416 1.2435 1.2513 1.2533 1.2523 1.2572 1.2711 1.2762 1.2844 1.3022 1.3043 1.3033 1.3087 1.3174 1.3197 1.3187 1.3144 1.3069 1.3092 1.3082 1.3103 1.3126 1.3083 1.3106 1.3129 1.3184 1.3239 1.3196 1.3252 1.3308 1.3264 1.3254 1.3311 1.3301 1.3565 1.3485 1.358 1.3675 1.3772 1.3908 1.3823 1.3776 1.3986 1.3938 1.3927 1.3992 1.3981 1.397 1.4072 1.4099 0 0 0 0 0 0 0 0 0 0 0 0 0 0 0 0 0 0 0 0 0 0 0 0 0 0 0 0 0 0 0 0 0 0 0 0 0 0 0 0 0 0 0 0 0 0 0 0 0 0 0 0 0 0 0 0 0 0 0 0 0 0 0 0 0 0 0 1.9714 1.9698 1.9682 1.9745 1.9649 1.8732 1.8645 1.9065 1.9124 1.9183 1.9319 1.9303 1.9364 1.927 1.9331 1.9315 1.9299 0 0 0 0 0 0 0 0 0 0 0 1.5376 1.5363 1.6569 1.6555 1.8816 1.718 1.7165 1.8335 1.8605 1.8736 1.8646 1.9002 1.9858 1.8598 1.8582 0 1.6429 1.6472 1.6458 1.6501 1.6839 1.6706 1.6458 1.6444 1.5876 1.5809 1.6065 1.5997 1.6723 1.5342 1.5378 1.5941 1.7808 1.7658 1.738 1.7236
0.99393 0.99327 0.99261 0.99679 0.99778 1.0003 0.99963 1.0039 1.0049 1.0009 0.99696 0.99629 0.9941 0.98535 0.98153 0.98087 0.98174 0.98271 0.9789 0.97661 0.97595 0.97063 0.97312 0.97398 0.97809 0.99522 1.0078 1.0071 1.0133 1.0108 1.0153 1.0232 1.0226 1.036 1.0335 1.0328 1.0357 1.0386 1.0396 1.0389 1.0346 1.0322 1.0315 1.0325 1.0409 1.042 1.0413 1.0424 1.0417 1.0464 1.0475 1.0468 1.0461 1.0417 1.0429 1.0403 1.0451 1.0537 1.0568 1.0579 1.0649 1.0718 1.0751 1.0822 1.0815 1.0808 1.08 1.0753 1.0765 1.0777 1.071 1.0684 1.0676 1.0669 1.0661 1.0673 1.0666 1.0658 1.0671 1.0742 1.0775 1.0767 1.082 1.0832 1.0845 1.0898 1.0932 1.0944 1.0958 1.0992 1.1111 1.1147 1.1182 1.1174 1.1144 1.1115 1.1172 1.1163 1.1156 1.1127 1.1119 1.1154 1.1124 1.1138 1.1262 1.1321 1.1403 1.1441 1.141 1.1402 1.1371 1.1385 1.1377 1.1392 1.1407 1.1399 1.139 1.1359 1.1351 1.1343 1.1358 1.1327 1.1319 1.131 1.1302 1.1294 1.1286 1.13 1.1315 1.1307 1.1298 1.1359 1.142 1.1435 1.1522 1.1609 1.1698 1.1738 1.1779 1.1796 1.1812 1.1804 1.1821 1.1862 1.1879 1.1871 1.1886 1.1903 1.1894 1.1886 1.1903 1.192 1.1911 1.1928 1.1997 1.2094 1.2138 1.2103 1.2094 1.2085 1.2076 1.2093 1.2084 1.2103 1.2174 1.2192 1.221 1.2257 1.2302 1.2405 1.2396 1.2387 1.2377 1.2368 1.2331 1.2378 1.2426 1.2502 1.2463 1.2454 1.2503 1.2552 1.26 1.2591 1.2641 1.2751 1.2772 1.2854 1.3063 1.3085 1.3075 1.3097 1.3119 1.3207 1.3262 1.3187 1.3177 1.3134 1.3124 1.3147 1.3169 1.3126 1.3149 1.3139 1.3129 1.325 1.3207 1.3263 1.3285 1.3275 1.3298 1.3356 1.3414 1.3612 1.3635 1.3697 1.3794 1.3856 1.3919 1.3908 1.386 1.3997 1.3949 1.3938 1.4003 1.3954 1.4018 1.4122 1.4149 0 0 0 0 0 0 0 0 0 0 0 0 0 0 0 0 0 0 0 0 0 0 0 0 0 0 0 0 0 0 0 0 0 0 0 0 0 0 0 0 0 0 0 0 0 0 0 0 0 0 0 0 0 0 0 0 0 0 0 0 0 0 0 0 0 0 0 0 0 2.0958 2.1031 2.1013 2.0051 1.9953 1.9081 1.9065 1.905 1.9412 1.9473 1.938 2.2598 2.2579 1.9723 1.9707 0 0 0 0 0 0 0 0 0 0 0 0 1.6829 1.6815 1.9699 1.8832 1.7194 1.718 1.8422 1.8621 1.8752 1.8662 0 0 1.8911 1.8895 0 1.65 1.6429 1.6472 1.6458 1.6559 1.6544 1.6473 1.6345 1.589 1.593 1.6025 1.6011 1.7166 1.5355 1.5443 1.601 1.7892 1.7808 1.7861 1.7846
0.9946 0.99548 0.99482 0.99581 1.0001 0.99944 0.99877 1.0013 0.99897 0.99348 0.99118 0.98887 0.98821 0.97969 0.97903 0.97838 0.97924 0.97707 0.97477 0.9726 0.97347 0.96663 0.96598 0.96684 0.95548 0.97333 0.97116 0.97051 0.96823 0.98822 0.98593 0.95549 0.95635 1.035 1.0324 1.03 1.04 1.041 1.044 1.0414 1.0336 1.0311 1.0304 1.0315 1.0397 1.0427 1.042 1.0413 1.0406 1.0453 1.0483 1.0457 1.045 1.0406 1.0399 1.0392 1.0421 1.0526 1.0575 1.0568 1.0637 1.0687 1.0738 1.0791 1.0823 1.0795 1.0787 1.0761 1.0753 1.0785 1.0738 1.0731 1.0723 1.0696 1.0708 1.0701 1.0693 1.0705 1.0697 1.077 1.0802 1.0815 1.0827 1.084 1.0852 1.0926 1.096 1.0995 1.1008 1.1042 1.1119 1.1176 1.1168 1.116 1.1131 1.1123 1.1179 1.1172 1.1143 1.1156 1.1148 1.1162 1.1176 1.119 1.127 1.1329 1.1411 1.1426 1.1418 1.141 1.1379 1.1371 1.1409 1.14 1.1415 1.1407 1.1399 1.1368 1.1382 1.1351 1.1366 1.1335 1.1327 1.1341 1.1333 1.1302 1.1317 1.1309 1.1323 1.1315 1.1329 1.139 1.1428 1.1491 1.1578 1.1618 1.1731 1.1772 1.1788 1.1805 1.1797 1.1788 1.1829 1.1845 1.1863 1.1879 1.1871 1.1912 1.1903 1.1895 1.1938 1.1929 1.1921 1.1937 1.198 1.2103 1.2121 1.2085 1.2103 1.2067 1.2058 1.2076 1.2093 1.2112 1.221 1.2174 1.2247 1.2293 1.234 1.2443 1.2434 1.2424 1.2415 1.2406 1.2368 1.2415 1.2492 1.2512 1.2502 1.2493 1.2542 1.262 1.264 1.2631 1.268 1.2761 1.2781 1.2864 1.3073 1.3127 1.3053 1.3107 1.3129 1.3217 1.3207 1.3164 1.3122 1.3144 1.3102 1.3124 1.3114 1.3136 1.3127 1.3149 1.3139 1.3227 1.325 1.3273 1.3329 1.3319 1.3342 1.3435 1.3492 1.3692 1.3682 1.3779 1.3877 1.3978 1.4041 1.3993 1.3982 1.4084 1.4036 1.41 1.4089 1.404 1.4106 1.4171 1.4237 0 0 0 0 0 0 0 0 0 0 0 0 0 0 0 0 0 0 0 0 0 0 0 0 0 0 0 0 0 0 0 0 0 0 0 0 0 0 0 0 0 0 0 0 0 0 0 0 0 0 0 0 0 0 0 0 0 0 0 0 0 0 0 0 0 0 0 0 0 2.1717 2.1796 2.0003 2.0318 2.0556 2.0539 2.0608 2.1309 2.0837 2.005 2.0802 2.1808 2.1888 2.5147 2.5256 0 0 0 0 0 0 0 0 0 0 0 0 1.733 1.7315 1.7301 1.5448 1.5485 1.6656 1.91 1.8858 1.8916 1.9128 1.9111 1.9327 1.9002 1.8986 0 1.8368 1.8281 1.8126 1.6705 1.6631 1.6617 1.6545 1.653 1.5904 1.589 1.5984 1.5395 1.5432 1.5521 1.5559 1.597 1.7441 1.7689 1.7741 1.7395
0.99362 0.99296 0.98911 0.99648 1.0023 1.0001 0.9978 0.99548 0.99482 0.98933 0.97445 0.97379 0.97467 0.97097 0.97032 0.97119 0.96738 0.96521 0.96 0.96088 0.96327 0.95959 0.95742 0.95678 0.95917 0.96771 0.96404 0.96339 0.96889 0.9889 0.98661 0.95615 0.95701 1.0357 1.0296 1.0271 1.0407 1.0436 1.0466 1.0422 1.0325 1.0282 1.0258 1.0251 1.0332 1.0344 1.0354 1.0329 1.0304 1.0369 1.049 1.041 1.0421 1.0377 1.0352 1.0345 1.0374 1.0495 1.0544 1.0537 1.0586 1.0637 1.0668 1.0758 1.077 1.0783 1.0795 1.0748 1.0761 1.0772 1.0785 1.0778 1.077 1.0782 1.0795 1.0767 1.078 1.0752 1.0744 1.0797 1.081 1.0823 1.0855 1.0848 1.088 1.0955 1.0989 1.1023 1.1037 1.1072 1.1148 1.114 1.1155 1.1168 1.1139 1.1131 1.1187 1.118 1.1194 1.1164 1.1178 1.1192 1.1206 1.122 1.1278 1.1338 1.1398 1.1412 1.1403 1.1418 1.1387 1.1402 1.1417 1.1432 1.1401 1.1415 1.1407 1.1399 1.1391 1.1382 1.1397 1.1366 1.1358 1.1373 1.1364 1.1379 1.1348 1.134 1.1378 1.137 1.1384 1.1469 1.1508 1.1547 1.1659 1.17 1.174 1.1781 1.1797 1.1814 1.1805 1.1797 1.1813 1.1804 1.1846 1.1863 1.188 1.1895 1.1887 1.1904 1.192 1.1938 1.1929 1.1946 1.1989 1.2086 1.2103 1.2068 1.2085 1.205 1.2067 1.2085 1.2102 1.2121 1.2192 1.2183 1.2229 1.2275 1.2349 1.2481 1.2471 1.2434 1.2453 1.2444 1.2406 1.2511 1.253 1.258 1.257 1.2561 1.2639 1.2719 1.2709 1.27 1.272 1.2832 1.2853 1.2935 1.3083 1.3137 1.3127 1.3117 1.3172 1.3194 1.3184 1.3142 1.3132 1.3122 1.3112 1.3102 1.3124 1.3114 1.3137 1.3159 1.3181 1.327 1.3294 1.335 1.3373 1.3398 1.3489 1.3584 1.3714 1.3775 1.3764 1.3936 1.4036 1.4063 1.4205 1.4155 1.4144 1.421 1.4161 1.4188 1.4177 1.4166 1.4155 1.4221 1.4248 0 0 0 0 0 0 0 0 0 0 0 0 0 0 0 0 0 0 0 0 0 0 0 0 0 0 0 0 0 0 0 0 0 0 0 0 0 0 0 0 0 0 0 0 0 0 0 0 0 0 0 0 0 0 0 0 0 0 0 0 0 0 0 0 0 0 0 0 0 2.1735 2.1814 2.002 2.0251 2.066 2.0557 2.0713 2.1051 2.0944 2.0574 2.082 2.1826 2.1907 2.5168 2.5278 0 0 0 0 0 0 0 0 0 0 0 0 1.7345 1.733 1.7315 1.5462 1.5498 1.6671 1.9193 1.91 1.9161 1.9144 1.8976 1.9035 1.8944 1.9003 0 1.8383 1.8297 1.8211 1.672 1.6705 1.6691 1.6735 1.678 1.5918 1.5958 1.589 1.5409 1.5396 1.5484 1.5573 1.5984 1.7521 1.7441 1.7491 1.7411
0.99274 0.99209 0.98185 0.97647 0.96968 0.96903 0.98715 0.95112 0.95202 0.97576 0.97358 0.96975 0.97063 0.9654 0.96628 0.96716 0.96195 0.95826 0.95457 0.94949 0.96241 0.95872 0.95808 0.95744 0.95982 0.96069 0.95853 0.95637 0.95723 0.95508 0.92936 0.92873 0.96079 0.96014 1.0233 1.0243 1.0378 1.0425 1.0454 1.041 1.0315 1.0289 1.0248 1.0222 1.0287 1.0297 1.029 1.0283 1.024 1.0199 1.0351 1.038 1.041 1.0384 1.0341 1.0352 1.0363 1.0503 1.0533 1.0526 1.0576 1.0625 1.0656 1.0726 1.0758 1.077 1.0763 1.0776 1.0748 1.078 1.0793 1.0785 1.0817 1.081 1.0802 1.0795 1.0767 1.078 1.0772 1.0805 1.0818 1.083 1.0843 1.0855 1.0868 1.0983 1.0976 1.1053 1.1045 1.1079 1.1135 1.1148 1.1163 1.1176 1.1147 1.1117 1.1196 1.1188 1.1202 1.1194 1.1208 1.1222 1.1214 1.1228 1.1287 1.1323 1.1406 1.1398 1.139 1.1403 1.1395 1.1387 1.1425 1.1417 1.1409 1.1424 1.1415 1.1407 1.1399 1.1391 1.1405 1.1397 1.1389 1.1381 1.1373 1.1364 1.1379 1.1371 1.1409 1.1424 1.1439 1.1477 1.154 1.158 1.1667 1.1708 1.1773 1.1764 1.1805 1.1823 1.1814 1.1805 1.1797 1.1813 1.183 1.1871 1.1888 1.1904 1.1896 1.1912 1.1929 1.1947 1.1938 1.1929 1.1998 1.2068 1.2112 1.2103 1.2094 1.2086 1.2076 1.2121 1.2111 1.2156 1.2175 1.2166 1.2238 1.2256 1.2358 1.252 1.2481 1.2443 1.2492 1.2453 1.2444 1.252 1.2569 1.2589 1.258 1.2599 1.2679 1.2759 1.2749 1.2709 1.276 1.2872 1.2893 1.2945 1.3157 1.3179 1.3137 1.3159 1.3182 1.3204 1.3194 1.3184 1.3142 1.3132 1.3154 1.3112 1.3134 1.3124 1.3212 1.3201 1.3291 1.3347 1.3371 1.3394 1.3418 1.3408 1.3569 1.3699 1.3797 1.3821 1.3775 1.3946 1.4011 1.4074 1.4178 1.4166 1.4156 1.4183 1.4172 1.4238 1.4188 1.4177 1.4166 1.4155 1.4144 0 0 0 0 0 0 0 0 0 0 0 0 0 0 0 0 0 0 0 0 0 0 0 0 0 0 0 0 0 0 0 0 0 0 0 0 0 0 0 0 0 0 0 0 0 0 0 0 0 0 0 0 0 0 0 0 0 0 0 0 0 0 0 0 0 0 0 0 0 2.3407 2.3388 2.0037 2.0268 2.0591 2.0574 2.0643 2.089 2.0872 2.0506 2.0234 2.0999 2.0892 0 0 0 0 0 0 0 0 0 0 0 0 0 0 0 1.7283 1.733 1.5885 1.5924 1.6233 1.7718 1.7703 1.7688 1.8711 1.8842 1.8753 1.881 1.9019 2.1299 1.8329 1.8384 1.8297 1.6734 1.672 1.6706 1.6929 1.6976 1.6095 1.5918 1.5851 1.5322 1.5358 1.5446 1.5535 1.573 1.5769 1.5343 1.5329 1.7557
0.99341 0.99275 0.98405 0.98186 0.97967 0.98055 0.98628 0.95176 0.95266 0.96864 0.96953 0.96888 0.96823 0.963 0.96389 0.96477 0.95205 0.94695 0.95077 0.95013 0.96306 0.9609 0.96025 0.95961 0.96048 0.95832 0.95313 0.94946 0.94882 0.94527 0.93 0.92937 0.95078 0.94863 0.91335 0.91273 0.9135 1.0432 1.0425 1.04 1.0322 1.0262 1.0236 1.0212 1.0258 1.0287 1.0279 1.0272 1.0247 1.0294 1.034 1.0369 1.0417 1.0392 1.0385 1.0359 1.0425 1.0529 1.0559 1.0552 1.0601 1.0633 1.0664 1.0734 1.0766 1.0759 1.077 1.0763 1.0756 1.0768 1.078 1.0773 1.0785 1.0797 1.081 1.0802 1.0775 1.0767 1.078 1.0793 1.0805 1.0818 1.0851 1.0863 1.0876 1.0991 1.0983 1.1039 1.1074 1.1108 1.1164 1.1179 1.1171 1.1163 1.1133 1.1125 1.1204 1.1196 1.121 1.118 1.1172 1.1208 1.12 1.1214 1.1317 1.1309 1.1368 1.136 1.1352 1.139 1.1382 1.1396 1.1387 1.1425 1.1394 1.1432 1.1424 1.1439 1.1407 1.1422 1.1414 1.1406 1.142 1.1412 1.1404 1.1396 1.1387 1.1379 1.1395 1.1409 1.1424 1.1486 1.1525 1.1564 1.1652 1.1692 1.1782 1.1798 1.1789 1.1805 1.1797 1.1788 1.183 1.1797 1.1813 1.1855 1.1872 1.1913 1.1904 1.1896 1.1912 1.1904 1.1921 1.1964 1.2007 1.2104 1.2095 1.2112 1.213 1.2148 1.2139 1.2157 1.2175 1.2166 1.2238 1.2229 1.2247 1.2321 1.2395 1.25 1.2462 1.2481 1.2501 1.2462 1.2453 1.253 1.2579 1.2599 1.2619 1.2609 1.2718 1.2799 1.2789 1.278 1.283 1.2944 1.2965 1.3018 1.3167 1.3157 1.3147 1.3169 1.3193 1.3248 1.3204 1.3195 1.3184 1.3174 1.3164 1.3187 1.3177 1.32 1.3222 1.3278 1.3368 1.3391 1.3415 1.3439 1.3497 1.3521 1.358 1.3746 1.388 1.3869 1.3858 1.3995 1.4058 1.4123 1.4189 1.4216 1.4167 1.4194 1.4183 1.421 1.42 1.4112 1.4101 1.4166 1.4155 0 0 0 0 0 0 0 0 0 0 0 0 0 0 0 0 0 0 0 0 0 0 0 0 0 0 0 0 0 0 0 0 0 0 0 0 0 0 0 0 0 0 0 0 0 0 0 0 0 0 0 0 0 0 0 0 0 0 0 0 0 0 0 0 0 0 1.7561 1.7609 0 2.1772 2.185 2.0054 2.0119 2.0021 2.0591 2.1014 2.1087 2.0979 2.0609 2.042 2.0575 2.0558 0 0 0 0 0 0 0 0 0 0 0 0 0 0 1.789 1.7298 1.7345 1.5898 1.5938 1.6247 1.7734 1.6729 1.6715 1.6701 1.6687 1.8769 1.8679 1.859 1.925 1.7863 1.7982 1.8173 1.6749 1.6735 1.6779 1.6764 1.7052 1.6109 1.6095 1.5654 1.5538 1.5473 1.5562 1.56 1.5691 1.5782 1.5356 1.5343 1.6177
0.99562 0.99496 0.9943 0.99364 0.99464 0.99233 0.98848 0.95394 0.95331 0.96776 0.97171 0.97107 0.96889 0.96518 0.96301 0.96848 0.94671 0.95358 0.95587 0.95827 0.96992 0.96611 0.96394 0.96178 0.96265 0.95897 0.95529 0.95011 0.94807 0.94441 0.93645 0.93291 0.93808 0.95079 0.91398 0.92182 0.91274 1.0457 1.036 1.0372 1.0293 1.025 1.0226 1.0202 1.0265 1.0275 1.0304 1.028 1.0273 1.0318 1.0365 1.0376 1.0424 1.0435 1.0428 1.0439 1.0487 1.0593 1.0605 1.0616 1.0628 1.0659 1.0671 1.0741 1.0734 1.0746 1.0778 1.0751 1.0763 1.0756 1.0748 1.078 1.0754 1.0765 1.0817 1.079 1.0782 1.0775 1.0787 1.082 1.0833 1.0846 1.0858 1.0871 1.0903 1.0999 1.1034 1.109 1.1145 1.1138 1.1172 1.1187 1.1179 1.1192 1.1163 1.1133 1.1212 1.1204 1.1196 1.1167 1.118 1.1216 1.1231 1.1222 1.1303 1.1317 1.1331 1.1301 1.1338 1.1375 1.1367 1.1382 1.1396 1.141 1.1402 1.144 1.1432 1.147 1.1462 1.1453 1.1445 1.1461 1.1429 1.142 1.1436 1.1404 1.1396 1.1411 1.1403 1.1418 1.1479 1.1566 1.1605 1.162 1.1734 1.1749 1.1815 1.1831 1.1823 1.1814 1.1831 1.1848 1.1865 1.1856 1.1847 1.1889 1.1906 1.1922 1.1913 1.193 1.1947 1.1938 1.1956 1.1999 1.2068 1.2166 1.2184 1.2202 1.222 1.2265 1.2256 1.2274 1.2293 1.2284 1.2302 1.2321 1.2367 1.2414 1.2433 1.2567 1.25 1.249 1.2511 1.2472 1.2492 1.2539 1.2589 1.2608 1.2628 1.2648 1.2758 1.2809 1.2891 1.285 1.2933 1.3048 1.3101 1.3123 1.3177 1.3199 1.3157 1.3179 1.3203 1.3258 1.3281 1.3238 1.3261 1.3251 1.324 1.323 1.3252 1.3242 1.3332 1.3355 1.3514 1.3504 1.3529 1.3552 1.3611 1.3637 1.3767 1.3864 1.4001 1.4027 1.4054 1.4194 1.426 1.4249 1.4238 1.4266 1.4216 1.4205 1.4194 1.4222 1.4211 1.4161 1.4112 0 0 0 0 0 0 0 0 0 0 0 0 0 0 0 0 0 0 0 0 0 0 0 0 0 0 0 0 0 0 0 0 0 0 0 0 0 0 0 0 0 0 0 0 0 0 0 0 0 0 0 0 0 0 0 0 0 0 0 0 0 0 0 0 0 0 0 0 1.7575 1.7624 0 2.179 2.1869 2.0152 2.0054 2.0037 2.1991 2.1875 2.1761 2.1363 2.098 2.0696 2.0592 2.0575 0 0 0 0 0 0 0 0 0 0 0 0 0 0 1.7905 1.789 1.7809 0 1.667 1.6714 1.8865 1.6744 1.6729 1.6715 1.6701 1.8859 1.8622 1.8753 1.9036 1.7878 1.8066 1.8189 1.8384 1.888 1.741 1.7654 1.7906 1.8305 0 1.5668 1.5706 1.5851 1.5785 1.5718 1.5705 0 1.537 1.5508 1.5755
0.99795 0.99883 0.99983 0.99751 0.99685 0.99619 1.0022 1.0131 1.0124 1.0017 1.001 1.0053 1.003 1.0023 1.0033 0.9723 0.96849 0.96479 0.96414 0.97123 0.97526 0.96841 0.96776 0.96547 0.96482 0.96114 0.95595 0.95076 0.9472 0.94505 0.93709 0.93215 0.93873 0.941 0.93746 0.93242 0.9377 1.0181 1.0314 1.0343 1.0264 1.0223 1.0216 1.0209 1.0255 1.0282 1.0294 1.0304 1.0297 1.0326 1.0372 1.0402 1.0432 1.0443 1.0454 1.0465 1.0494 1.06 1.0612 1.0623 1.0635 1.0667 1.0679 1.0729 1.0741 1.0734 1.0766 1.0738 1.0731 1.0744 1.0756 1.0729 1.0741 1.0754 1.0786 1.0797 1.079 1.0763 1.0775 1.0848 1.0841 1.0874 1.0886 1.0899 1.0933 1.1007 1.102 1.1119 1.1153 1.1167 1.118 1.1172 1.1164 1.12 1.1171 1.1163 1.1199 1.1212 1.1204 1.1175 1.1188 1.1224 1.1239 1.1275 1.1289 1.1303 1.1295 1.1265 1.1301 1.1383 1.1375 1.1367 1.1404 1.1396 1.1411 1.1448 1.1463 1.1478 1.1494 1.1439 1.1453 1.1469 1.1437 1.1429 1.1444 1.1436 1.1428 1.142 1.1434 1.1473 1.1487 1.1622 1.1661 1.1702 1.1816 1.1808 1.1875 1.1891 1.1858 1.1874 1.1865 1.1882 1.1898 1.1915 1.1881 1.1898 1.1915 1.1957 1.1948 1.1965 1.1956 1.1974 1.1991 1.2034 1.2104 1.2202 1.2247 1.2238 1.2283 1.2302 1.2293 1.2284 1.2274 1.2293 1.234 1.2358 1.2432 1.248 1.2499 1.2548 1.2539 1.2529 1.252 1.2511 1.2501 1.2549 1.2598 1.2618 1.2638 1.2658 1.2737 1.2849 1.2869 1.2891 1.2943 1.3089 1.3143 1.3133 1.3187 1.321 1.3168 1.319 1.3245 1.3268 1.3291 1.3281 1.3271 1.3293 1.3251 1.3273 1.3262 1.3286 1.3376 1.3433 1.3525 1.355 1.3539 1.3597 1.3658 1.3682 1.3814 1.3986 1.4087 1.4039 1.4102 1.4205 1.4272 1.4261 1.4288 1.4277 1.4227 1.4217 1.4244 1.4233 1.4222 1.4211 1.4238 1.4424 1.4452 0 0 0 0 0 0 0 0 0 0 0 0 0 0 0 0 0 0 0 0 0 0 0 0 0 0 0 0 0 0 0 0 0 0 0 0 0 0 0 0 0 0 0 0 0 0 0 0 0 0 0 0 0 0 0 0 0 0 0 0 0 0 0 0 0 0 1.6987 1.6973 1.696 1.9797 1.9781 2.0087 2.0152 2.0054 2.1815 2.1894 2.1779 2.1664 2.1087 2.0801 2.061 2.0421 2.1767 2.1749 0 0 0 0 0 0 0 0 0 0 0 0 1.792 1.7972 1.8092 0 1.6742 1.6728 1.8881 1.6758 1.6744 1.673 1.6715 1.8654 1.8639 1.8769 1.9052 1.8029 1.8081 1.8275 1.8616 2.044 1.7425 1.7538 1.7588 1.7444 0 1.6 1.6041 0 0 0 0 0 0 1.5783 1.5876
1.0002 1.0012 1.0022 1.0015 1.0008 0.99852 1.0044 1.0087 1.0063 1.0008 1.0033 1.006 1.0037 1.003 1.004 0.97296 0.96914 0.97002 0.96632 0.9672 0.97909 0.97059 0.96994 0.96777 0.96712 0.96483 0.95963 0.95292 0.94937 0.94721 0.93342 0.93279 0.94379 0.94617 0.94402 0.93747 0.93834 1.0102 1.0216 1.0261 1.0202 1.0195 1.0171 1.0198 1.0279 1.0308 1.0318 1.0347 1.0322 1.0333 1.038 1.0409 1.0457 1.0468 1.0479 1.0472 1.0521 1.0608 1.062 1.0631 1.0643 1.0655 1.0686 1.0718 1.071 1.0722 1.0734 1.0727 1.07 1.0693 1.0724 1.0697 1.069 1.0722 1.0773 1.0765 1.0797 1.0771 1.0763 1.0836 1.0869 1.0881 1.0914 1.0927 1.0919 1.1015 1.1028 1.1105 1.114 1.1154 1.1167 1.1159 1.1151 1.1165 1.1157 1.1171 1.1228 1.1242 1.1212 1.1183 1.1175 1.1255 1.1247 1.1283 1.1297 1.1289 1.1281 1.1251 1.1287 1.1346 1.1338 1.133 1.139 1.1382 1.1396 1.1457 1.1449 1.1486 1.1502 1.147 1.1462 1.1454 1.1445 1.1437 1.1453 1.1421 1.1412 1.1428 1.1443 1.1457 1.152 1.1678 1.1719 1.176 1.1901 1.1866 1.1908 1.19 1.1917 1.1908 1.19 1.1891 1.1933 1.1924 1.1941 1.1907 1.1924 1.1966 1.1957 1.1974 1.1992 1.2008 1.2025 1.2069 1.2113 1.2239 1.2284 1.2275 1.2348 1.2366 1.2329 1.232 1.2311 1.233 1.2404 1.2395 1.247 1.2518 1.2537 1.2558 1.2577 1.2567 1.2558 1.252 1.2511 1.2588 1.2608 1.2657 1.2648 1.2667 1.2747 1.2828 1.2879 1.2869 1.2921 1.3099 1.3153 1.3143 1.3165 1.322 1.321 1.3168 1.3223 1.3245 1.3301 1.3258 1.3281 1.3303 1.3293 1.3283 1.3307 1.333 1.3386 1.3443 1.3501 1.3525 1.3515 1.3539 1.3563 1.3622 1.3825 1.3886 1.3949 1.3938 1.4039 1.4179 1.4205 1.4194 1.4222 1.4211 1.4162 1.4113 1.4178 1.4244 1.4233 1.4222 1.4327 1.4355 1.4344 0 0 0 0 0 0 0 0 0 0 0 0 0 0 0 0 0 0 0 0 0 0 0 0 0 0 0 0 0 0 0 0 0 0 0 0 0 0 0 0 0 0 0 0 0 0 0 0 0 0 0 0 0 0 0 0 0 0 0 0 0 0 0 0 0 0 1.7002 1.7046 1.6974 1.9814 2.0039 2.0186 2.0169 2.0071 2.0471 2.0454 2.096 2.0005 1.9988 2.0998 2.0714 2.1053 2.1593 2.1767 0 0 0 0 0 0 0 0 0 0 0 0 1.7936 1.7988 1.8108 0 1.6757 1.6742 1.8897 1.6772 1.6758 1.6744 1.673 1.867 1.8511 1.8424 1.93 1.8045 1.8029 1.8575 1.8632 2.0283 1.744 1.7426 1.741 1.746 0 1.6014 1.6055 0 1.545 1.5437 1.5423 1.6664 1.6709 1.5797 1.6053
1.0058 1.0068 1.0062 1.0038 1.0032 1.0025 1.0084 1.011 1.007 0.99985 1.004 1.0117 0 1.0256 1.0232 1.0208 1.0151 1.0144 1.0154 1.0113 0.98761 0.9743 0.97212 0.97147 0.9693 0.96549 0.96029 0.95357 0.95002 0.95229 0.95316 0.95706 0.95793 0.96193 0.96279 0.96516 0.97704 1.0127 1.0102 1.0268 1.0209 1.015 1.0143 1.0171 1.0411 1.0422 1.0434 1.0445 1.0438 1.0449 1.0442 1.0453 1.0501 1.0531 1.0543 1.0536 1.0565 1.0653 1.0646 1.0638 1.065 1.0662 1.0694 1.0725 1.0718 1.073 1.0722 1.0715 1.0707 1.07 1.0712 1.0724 1.0716 1.0729 1.078 1.0793 1.0786 1.0798 1.079 1.0864 1.0876 1.0909 1.0963 1.0976 1.0968 1.1022 1.1036 1.1092 1.1127 1.114 1.1154 1.1146 1.1138 1.1173 1.1165 1.1136 1.128 1.1272 1.1264 1.1234 1.1226 1.1307 1.1321 1.1335 1.1327 1.1297 1.1289 1.1259 1.1317 1.1354 1.1368 1.136 1.1375 1.139 1.1404 1.1442 1.1457 1.1472 1.1487 1.1455 1.147 1.1462 1.1431 1.1445 1.1437 1.1453 1.1421 1.1437 1.1474 1.149 1.1552 1.1761 1.1801 1.1867 1.196 1.1952 1.1968 1.1959 1.1951 1.1942 1.1933 1.195 1.1992 1.1959 1.195 1.1916 1.1933 1.2 1.2018 1.2009 1.2052 1.207 1.2087 1.2105 1.2149 1.222 1.2239 1.2256 1.2357 1.2404 1.2366 1.2357 1.2377 1.2368 1.247 1.2489 1.2508 1.2556 1.2576 1.2596 1.2615 1.2605 1.2625 1.2558 1.2549 1.2627 1.2647 1.2667 1.2657 1.2677 1.2756 1.2808 1.2828 1.2849 1.2901 1.3109 1.3195 1.3185 1.3208 1.323 1.322 1.3178 1.32 1.3255 1.3312 1.3268 1.3258 1.3313 1.3303 1.3327 1.335 1.334 1.3464 1.3453 1.3512 1.3502 1.3525 1.3515 1.3539 1.3598 1.3836 1.3897 1.3886 1.3876 1.3975 1.419 1.4179 1.4205 1.4195 1.4184 1.4097 1.4086 1.4151 1.4217 1.4167 1.4195 1.4339 1.4367 1.4356 0 0 0 0 0 0 0 0 0 0 0 0 0 0 0 0 0 0 0 0 0 0 0 0 0 0 0 0 0 0 0 0 0 0 0 0 0 0 0 0 0 0 0 0 0 0 0 0 0 0 0 0 0 0 0 0 0 0 0 0 0 0 0 0 0 0 1.7683 1.7119 1.7105 1.983 2.0137 2.037 2.0353 2.0336 2.0404 2.0472 2.0713 2.0438 2.0252 2.0926 2.0644 2.037 2.1803 2.1785 0 0 0 0 0 0 0 0 0 0 0 0 1.7951 1.7936 1.847 0 1.8945 1.8929 1.8988 1.7715 1.783 1.8016 1.8558 1.8686 1.8455 1.844 1.9879 1.8267 1.8322 1.9504 1.9487 2.0301 1.7848 1.7833 1.9744 1.9727 0 0 0 0 1.5463 1.545 1.5487 1.6679 1.6606 1.6475 1.6461
1.0082 1.0075 1.0084 1.0077 1.0038 1.0048 1.0107 1.0117 1.0093 1.0022 1.0064 1.0226 1.0253 1.0229 1.0239 1.0233 1.0226 1.0253 1.0212 1.0239 0.99967 0.96417 0.96974 0.96909 0.96844 0.96311 0.95942 0.9513 0.95066 0.95142 0.95381 0.9562 0.95858 0.96096 0.96194 0.96582 0.9683 0.97078 0.96862 0.97422 1.0029 1.0106 1.0115 1.0058 1.0455 1.0466 1.0459 1.0489 1.0463 1.0493 1.0504 1.0516 1.0527 1.0557 1.0569 1.058 1.0592 1.0642 1.0653 1.0646 1.0658 1.067 1.0701 1.0713 1.0725 1.0718 1.073 1.0703 1.0715 1.0727 1.0719 1.0731 1.0744 1.0737 1.0828 1.082 1.0833 1.0805 1.0818 1.0871 1.0904 1.0917 1.0971 1.0963 1.0976 1.103 1.1044 1.11 1.1135 1.1148 1.114 1.1111 1.1125 1.1138 1.1152 1.1144 1.1288 1.1303 1.1273 1.1242 1.1257 1.1337 1.1352 1.1366 1.138 1.1327 1.1319 1.1311 1.1325 1.1385 1.1377 1.1368 1.1407 1.1399 1.1412 1.1427 1.1442 1.1457 1.1472 1.1464 1.1456 1.1447 1.1439 1.1431 1.147 1.1437 1.1453 1.1445 1.1506 1.1521 1.1584 1.1794 1.1835 1.1876 1.1969 1.1961 1.1977 1.1994 1.1959 1.1951 1.1968 1.1959 1.195 1.1968 1.1933 1.195 1.1966 1.2009 1.2027 1.2044 1.2088 1.2131 1.2122 1.2167 1.2158 1.2229 1.222 1.2239 1.2311 1.2357 1.2348 1.2339 1.2357 1.2377 1.2479 1.2498 1.2575 1.2595 1.2614 1.2634 1.2654 1.2615 1.2665 1.2626 1.2587 1.2636 1.2656 1.2647 1.2637 1.2657 1.2706 1.2757 1.2777 1.2828 1.2879 1.3119 1.3205 1.3228 1.325 1.3273 1.323 1.322 1.321 1.3265 1.3289 1.3245 1.3269 1.3324 1.3348 1.3337 1.3327 1.335 1.3474 1.3498 1.3487 1.3477 1.3502 1.356 1.3515 1.3608 1.3883 1.3908 1.3861 1.3851 1.4023 1.4201 1.4228 1.4217 1.4206 1.4195 1.4108 1.4097 1.4124 1.4189 1.414 1.4206 1.4311 1.4378 1.4486 0 0 0 0 0 0 0 0 0 0 0 0 0 0 0 0 0 0 0 0 0 0 0 0 0 0 0 0 0 0 0 0 0 0 0 0 0 0 0 0 0 0 0 0 0 0 0 0 0 0 0 0 0 0 0 0 0 0 0 0 0 0 0 0 0 0 1.9896 1.988 1.9863 1.9927 2.0154 2.0387 2.0286 2.0269 2.017 2.0236 2.0644 2.0713 2.0783 2.0766 2.0489 1.919 1.9249 2.0697 2.0768 1.9052 1.911 2.0716 0 0 0 0 0 0 0 0 0 1.9236 1.9297 0 1.8962 1.902 1.9079 1.7795 1.778 1.8032 1.8574 1.8703 1.7149 1.7134 1.7182 1.7105 1.8338 1.8322 1.8377 1.8291 1.7999 1.7983 2.1076 2.1151 0 0 0 0 1.5477 1.5464 1.55 1.6518 1.6562 1.6489 1.6475
1.0088 1.0097 1.0107 1.0084 1.0077 1.0071 1.0148 1.0124 1.0084 1.0044 1.0103 1.0233 1.0242 1.0235 1.0246 1.0274 1.0319 1.0347 1.0271 1.0246 0.97169 0.96482 0.9657 0.96658 0.96289 0.9592 0.95552 0.95043 0.94979 0.95208 0.95295 0.95837 0.95924 0.96162 0.9626 0.96497 0.96897 0.96994 0.97079 0.97176 1.0035 1.0045 1.0071 1.0065 1.0462 1.0474 1.0503 1.0515 1.0508 1.0537 1.053 1.0541 1.0572 1.0602 1.0614 1.0607 1.0618 1.0649 1.068 1.0635 1.0646 1.0677 1.067 1.0682 1.0694 1.0687 1.0699 1.0691 1.0684 1.0715 1.0727 1.0759 1.0771 1.0784 1.0835 1.0848 1.0841 1.0833 1.0846 1.0879 1.0932 1.0945 1.0999 1.0971 1.0984 1.1059 1.1052 1.1086 1.1121 1.1114 1.1127 1.1077 1.109 1.1104 1.1117 1.1109 1.1319 1.1311 1.1303 1.1295 1.1287 1.1368 1.1382 1.1396 1.1388 1.1358 1.1328 1.132 1.1334 1.1393 1.1385 1.1377 1.1392 1.1407 1.1399 1.1436 1.1427 1.1442 1.1434 1.1426 1.1418 1.1387 1.1401 1.1439 1.1454 1.147 1.1438 1.1453 1.1491 1.1529 1.1617 1.1803 1.1868 1.1885 1.1978 1.1994 1.1986 1.2003 1.1994 1.196 1.1977 1.1968 1.1959 1.1951 1.1942 1.1959 1.1975 1.2045 1.2062 1.2079 1.2122 1.2167 1.2185 1.2176 1.2194 1.2212 1.2203 1.222 1.2293 1.2339 1.2329 1.2321 1.2339 1.2357 1.2432 1.2508 1.2614 1.2633 1.2624 1.2673 1.2663 1.2654 1.2674 1.2665 1.2626 1.2646 1.2636 1.2656 1.2617 1.2637 1.2657 1.2707 1.2727 1.2808 1.2859 1.3098 1.3183 1.3238 1.3326 1.3316 1.3208 1.3198 1.3188 1.3178 1.3299 1.3256 1.3213 1.3269 1.3324 1.3381 1.3371 1.3394 1.3484 1.3508 1.3533 1.3488 1.3546 1.3536 1.356 1.3619 1.3893 1.3919 1.3836 1.3861 1.3997 1.425 1.4239 1.4228 1.4179 1.4168 1.4119 1.4108 1.4135 1.4162 1.4114 1.414 1.4283 1.4272 1.4184 0 0 0 0 0 0 0 0 0 0 0 0 0 0 0 0 0 0 0 0 0 0 0 0 0 0 0 0 0 0 0 0 0 0 0 0 0 0 0 0 0 0 0 0 0 0 0 0 0 0 0 0 0 0 0 0 0 0 0 0 0 0 0 0 0 0 1.9912 1.9896 1.988 1.9944 2.0171 2.032 2.022 2.0203 1.9942 1.9926 1.9909 2.1086 2.0801 2.0438 1.836 1.8344 1.8329 2.0715 2.0785 1.9068 1.9126 2.0733 2.2959 2.294 2.3817 2.3797 0 0 0 0 0 1.9253 1.9313 1.9934 1.9052 1.9112 1.9172 1.7299 1.7284 1.8392 1.8519 1.8503 1.6686 1.6848 1.6894 1.6702 1.8354 1.6444 1.6487 1.8307 1.7946 1.7864 2.1094 2.117 0 0 0 0 1.549 1.5477 1.5514 1.6475 1.6518 1.6504 1.6489
1.0127 1.0121 1.0114 1.0107 1.0101 1.0111 1.0188 1.0165 1.0107 1.0084 1.0128 1.0239 1.0249 1.026 1.027 1.035 1.0432 1.0425 1.0365 1.034 0.97235 0.96548 0.96636 0.96571 0.96354 0.95833 0.95464 0.94956 0.94892 0.9498 0.9536 0.96054 0.96141 0.96391 0.96628 0.96877 0.96963 0.97211 0.97308 0.97242 1.0058 1.0052 1.0062 1.0072 1.0507 1.0518 1.0566 1.0577 1.0552 1.0581 1.0574 1.0605 1.0636 1.0647 1.0659 1.0652 1.0682 1.0695 1.0707 1.066 1.0653 1.0665 1.0658 1.0651 1.0663 1.0675 1.0667 1.066 1.0691 1.0723 1.0735 1.0786 1.0799 1.0811 1.0884 1.0897 1.093 1.0922 1.0894 1.0907 1.094 1.0973 1.1027 1.1041 1.1012 1.111 1.1102 1.1116 1.1108 1.1121 1.1114 1.1085 1.1077 1.109 1.1104 1.1268 1.1371 1.1341 1.1311 1.1303 1.1339 1.1444 1.1458 1.1427 1.1396 1.1388 1.1336 1.135 1.1387 1.1401 1.1416 1.1408 1.14 1.1415 1.1407 1.1421 1.1436 1.1451 1.1442 1.1434 1.1426 1.1418 1.141 1.1447 1.1462 1.1501 1.1493 1.1484 1.1499 1.1515 1.1625 1.1836 1.1902 1.1944 1.2012 1.2003 1.2046 1.2038 1.2054 1.202 1.2011 1.2003 1.1994 1.196 1.1977 1.1993 1.201 1.208 1.2096 1.214 1.2158 1.2176 1.2221 1.2239 1.223 1.2247 1.2238 1.2229 1.2329 1.2348 1.2339 1.233 1.2348 1.2367 1.2442 1.2489 1.2624 1.2643 1.2662 1.2682 1.2703 1.2693 1.2684 1.2674 1.2665 1.2655 1.2646 1.2636 1.2656 1.2647 1.2696 1.2747 1.2797 1.2878 1.2899 1.3108 1.3193 1.3248 1.3304 1.3326 1.3186 1.3143 1.3166 1.3156 1.3276 1.3234 1.3256 1.3279 1.3302 1.3391 1.3381 1.3404 1.3598 1.3623 1.3612 1.3567 1.3592 1.3685 1.364 1.37 1.394 1.3894 1.3847 1.3836 1.4311 1.4261 1.4212 1.4239 1.4228 1.4179 1.4168 1.4157 1.4146 1.4173 1.4086 1.4151 1.4179 1.4206 1.4195 0 0 0 0 0 0 0 0 0 0 0 0 0 0 0 0 0 0 0 0 0 0 0 0 0 0 0 0 0 0 0 0 0 0 0 0 0 0 0 0 0 0 0 0 0 0 0 0 0 0 0 0 0 0 0 0 0 0 0 0 0 0 0 0 0 0 1.9929 1.9993 2.0139 2.0041 2.0353 2.0421 2.032 2.022 2.004 1.9942 2.0253 2.0661 2.0644 2.0455 1.8375 1.836 1.8345 2.082 2.0803 1.9084 1.9143 2.0751 2.2978 2.3399 2.3837 2.3817 0 0 0 0 0 1.9502 1.9564 1.9788 1.9531 1.9437 1.942 1.7314 1.7299 1.855 1.8393 1.8307 1.6701 1.6687 1.6672 1.6717 1.9334 1.6458 1.6502 1.7977 1.7895 1.7812 0 0 0 0 0 0 0 0 0 1.6547 1.6475 1.6461 1.6504
1.0134 1.0144 1.0137 1.0147 1.0141 1.0134 1.0195 1.0172 1.013 1.0124 1.0151 1.0246 1.024 1.0249 1.0243 1.0288 1.0178 0 0 0 0.97301 0.96613 0.96549 0.96637 0.96267 0.95898 0.95529 0.94728 0.94512 0.94601 0.94094 0.96587 0.96207 0.96608 0.96695 0.96944 0.9703 0.97278 0.97375 0.97623 0.99981 1.0025 1.0036 0.99616 1.0551 1.0562 1.061 1.0603 1.0596 1.0608 1.0601 1.0612 1.0661 1.0674 1.0667 1.0659 1.069 1.0702 1.0714 1.065 1.068 1.0673 1.0665 1.0658 1.067 1.0663 1.0675 1.0667 1.0699 1.073 1.0761 1.0794 1.0786 1.0799 1.0891 1.0904 1.0917 1.091 1.0902 1.0935 1.0948 1.0981 1.1035 1.1049 1.1041 1.1096 1.1089 1.1124 1.1116 1.1129 1.1122 1.1114 1.1085 1.1098 1.109 1.1276 1.1357 1.1349 1.1341 1.1311 1.1347 1.1452 1.1489 1.1458 1.1428 1.1374 1.1366 1.1358 1.1372 1.1433 1.1401 1.1393 1.1408 1.14 1.1415 1.1429 1.1444 1.1436 1.1451 1.1443 1.1434 1.1426 1.1418 1.1456 1.1471 1.1509 1.1478 1.1493 1.1507 1.1523 1.161 1.1844 1.1886 1.1953 1.2047 1.2038 1.208 1.2071 1.2063 1.2029 1.2045 1.2012 1.2028 1.2019 1.201 1.2053 1.2045 1.2141 1.2158 1.2149 1.2248 1.2266 1.2284 1.2329 1.2293 1.2311 1.2275 1.2293 1.2422 1.2469 1.2376 1.2394 1.2385 1.2432 1.2479 1.2555 1.2633 1.2652 1.2672 1.2692 1.2712 1.2732 1.2723 1.2713 1.2704 1.2694 1.2685 1.2675 1.2666 1.2657 1.2706 1.2756 1.2807 1.2888 1.2909 1.3118 1.3203 1.3258 1.3346 1.3336 1.3228 1.3186 1.3176 1.3198 1.3286 1.3244 1.3266 1.3289 1.3312 1.3401 1.3391 1.3414 1.3608 1.3598 1.3623 1.3543 1.3602 1.3661 1.365 1.3711 1.3915 1.3904 1.3821 1.374 1.4361 1.4272 1.4223 1.4212 1.4201 1.419 1.4179 1.4168 1.4158 1.4147 1.4097 1.4125 1.4151 1.4218 1.4206 0 0 0 0 0 0 0 0 0 0 0 0 0 0 0 0 0 0 0 0 0 0 0 0 0 0 0 0 0 0 0 0 0 0 0 0 0 0 0 0 0 0 0 0 0 0 0 0 0 0 0 0 0 0 0 0 0 0 0 0 0 1.861 1.8595 1.858 1.8634 0 2.0107 2.009 2.0238 2.0221 2.054 2.0608 2.0421 2.0237 2.0139 1.9959 2.0187 2.0592 2.0575 2.0388 1.8391 1.8445 1.8927 2.0838 2.082 1.9175 1.9159 2.0768 2.2998 2.3419 2.3857 2.3837 0 0 0 0 0 1.9677 1.966 1.9724 1.9627 1.9453 1.9515 1.7329 1.7314 1.8495 1.8408 1.8322 1.6715 1.6701 1.6687 1.6673 1.9119 1.8023 1.7941 1.7926 1.791 1.7695 0 1.7471 1.7392 1.7442 1.7362 0 0 0 0 1.6504 1.6547 1.6591 1.6518
1.0109 1.0134 1.0128 1.0171 1.0182 1.0192 1.0235 1.0195 1.0155 1.0165 1.0175 1.0253 1.0247 1.024 1.0215 1.0208 1.0185 0 0 0 0.97367 0.96679 0.96614 0.9655 0.9618 0.96116 0.95301 0.94347 0.94577 0.94513 0.94158 0.96652 0.96588 0.96674 0.96912 0.97162 0.97259 0.97345 0.97442 0.9769 1.0005 0.99982 0.99915 0.99685 1.0614 1.0645 1.0656 1.063 1.0641 1.0634 1.0645 1.0658 1.065 1.0662 1.0674 1.0667 1.0697 1.0729 1.0722 1.0675 1.0668 1.068 1.0673 1.0646 1.0658 1.0651 1.0682 1.0675 1.0706 1.0738 1.0769 1.0782 1.0774 1.0807 1.0919 1.0932 1.0945 1.0938 1.093 1.0943 1.0955 1.0989 1.1043 1.1057 1.1069 1.1104 1.1118 1.1153 1.1166 1.118 1.1151 1.1122 1.1093 1.1106 1.1098 1.1263 1.1321 1.1357 1.1349 1.1341 1.1378 1.1506 1.1498 1.1466 1.1436 1.1404 1.1374 1.1388 1.138 1.1441 1.1433 1.1425 1.1417 1.1408 1.14 1.1437 1.1452 1.1444 1.1436 1.1428 1.1443 1.1435 1.1449 1.1487 1.1503 1.1518 1.1533 1.1524 1.154 1.1555 1.1642 1.1878 1.1919 1.1962 1.2055 1.2047 1.2064 1.2106 1.2098 1.2063 1.2054 1.2045 1.2063 1.208 1.2071 1.2115 1.2132 1.2203 1.2221 1.2266 1.2393 1.2411 1.243 1.2393 1.2384 1.2375 1.2311 1.2357 1.2515 1.2563 1.2442 1.246 1.2479 1.2526 1.2574 1.2593 1.27 1.272 1.2711 1.2731 1.2722 1.2712 1.2762 1.2752 1.2773 1.2733 1.2724 1.2715 1.2705 1.2637 1.2686 1.2706 1.2756 1.2837 1.2888 1.3159 1.3278 1.3268 1.3356 1.338 1.3271 1.3228 1.3251 1.3306 1.3329 1.3286 1.3276 1.3299 1.3322 1.3344 1.3334 1.3358 1.3516 1.3505 1.3529 1.3485 1.3475 1.3498 1.3488 1.3616 1.389 1.3842 1.3832 1.375 1.4372 1.4283 1.4195 1.4223 1.4212 1.4163 1.4152 1.4141 1.4206 1.4158 1.4108 1.4097 1.4086 1.4229 1.4218 0 0 0 0 0 0 0 0 0 0 0 0 0 0 0 0 0 0 0 0 0 0 0 0 0 0 0 0 0 0 0 0 0 0 0 0 0 0 0 0 0 0 0 0 0 0 0 0 0 0 0 0 0 0 0 0 0 0 0 0 0 1.8626 1.861 1.8595 1.8649 0 2.0124 2.0271 2.0676 2.0574 2.0815 2.1062 2.0608 2.0421 2.0237 2.0221 2.0287 2.0439 2.0422 2.0405 1.8406 1.8391 1.8943 2.0855 2.0838 1.9191 1.9175 2.0786 2.3017 2.2998 2.3877 2.3857 0 0 0 0 0 1.9693 1.9677 1.9741 1.9644 1.9548 1.9532 1.7343 1.7329 1.851 1.8495 1.8268 1.6729 1.6774 1.676 1.6687 1.8984 1.8457 1.7956 1.7941 1.766 1.7711 0 1.7487 1.7407 1.7457 1.7377 0 0 0 0 1.6576 1.6561 1.6665 1.6708
1.0115 1.0124 1.0118 1.0178 1.0205 1.0215 1.0242 1.0202 1.0162 1.0155 1.0182 1.026 1.0253 1.0263 1.0256 1.0215 1.0192 0 0 0 0 0 0 0 0 0 0 0.94857 0.94793 0.94578 0.94666 0.9687 0.96653 0.96892 0.97142 0.97391 0.97477 0.97411 0.97346 0.97757 1.0269 1.0279 1.0692 1.0666 1.0659 1.0652 1.0682 1.0656 1.0649 1.066 1.0672 1.0665 1.0676 1.0669 1.0681 1.0654 1.0686 1.0736 1.0729 1.0683 1.0695 1.0688 1.068 1.0653 1.0646 1.0639 1.067 1.0663 1.0694 1.0726 1.0757 1.0769 1.0782 1.0794 1.0948 1.094 1.0953 1.0966 1.0958 1.0971 1.0983 1.0996 1.1072 1.1064 1.1077 1.1112 1.1126 1.1161 1.1174 1.1188 1.118 1.1151 1.11 1.1114 1.1106 1.112 1.1329 1.1343 1.1358 1.1349 1.1386 1.1537 1.1506 1.1498 1.1444 1.1413 1.1382 1.1374 1.1412 1.1449 1.1464 1.1433 1.1425 1.1417 1.1408 1.1469 1.1461 1.1452 1.1467 1.1436 1.1474 1.1466 1.1481 1.1496 1.1557 1.1573 1.1565 1.1557 1.1571 1.1587 1.1651 1.1912 1.1928 1.1971 1.2064 1.2056 1.2073 1.2115 1.2081 1.2072 1.2063 1.2054 1.2071 1.2089 1.208 1.2124 1.2141 1.2239 1.2257 1.2302 1.2429 1.2476 1.2411 1.2402 1.2393 1.2357 1.232 1.2366 1.2497 1.2544 1.2451 1.2442 1.2488 1.2535 1.2612 1.2632 1.2709 1.273 1.272 1.2711 1.2731 1.2751 1.2772 1.2792 1.2812 1.2773 1.2793 1.2695 1.2656 1.2617 1.2637 1.2686 1.2736 1.2786 1.2868 1.3138 1.3321 1.3278 1.3334 1.339 1.3314 1.3271 1.3326 1.3383 1.334 1.3296 1.3319 1.3309 1.3333 1.3355 1.3344 1.3369 1.3459 1.3449 1.3472 1.3461 1.3384 1.3374 1.3364 1.3353 1.3863 1.3853 1.3806 1.3905 1.4344 1.4256 1.4206 1.4196 1.4261 1.4174 1.4125 1.4114 1.4217 1.413 1.4045 1.4071 1.4097 0 0 0 0 0 0 0 0 0 0 0 0 0 0 0 0 0 0 0 0 0 0 0 0 0 0 0 0 0 0 0 0 0 0 0 0 0 0 0 0 0 0 0 0 0 0 0 0 0 0 0 0 0 0 0 0 0 0 0 0 0 0 0 1.9362 1.9346 2.0606 2.0421 2.0488 2.0305 2.0288 2.0867 2.0762 2.1008 2.1261 2.0711 2.0608 2.0337 2.0321 2.0388 2.0371 2.0354 2.0171 1.8421 1.8476 1.8391 2.2916 2.2897 1.9207 1.9191 2.3164 2.3937 2.3917 0 0 0 0 0 0 0 1.9552 1.9614 1.9677 1.9661 1.9644 1.9548 1.9532 1.9515 1.8742 1.8726 1.9786 1.6744 1.6788 1.6716 1.676 1.9 1.8473 1.7972 1.7956 1.7482 1.7031 0 1.7502 1.7422 1.7408 1.7457 0 1.6125 1.6111 1.6153 1.6532 1.6634 1.6679 1.6723
1.0105 1.0099 1.0092 1.0086 1.0111 1.0138 1.0131 1.0091 1.0069 1.0062 1.0088 1.0182 1.0192 1.0185 1.0162 0.99561 0.99342 0.99594 0 0.93532 0.93469 0.93407 0.93203 0.98245 0.96922 0.96857 0.94386 0.94323 0.94858 0.94794 0.94731 0.96936 0.96719 0.96491 0.9736 0.97458 0.97544 0.97478 0.97412 0.97823 1.0276 1.0286 1.055 1.0561 1.0628 1.0639 1.0671 1.0663 1.0656 1.0667 1.068 1.0672 1.0703 1.0696 1.0669 1.0681 1.0694 1.0724 1.0717 1.0652 1.0664 1.0657 1.065 1.0623 1.0616 1.0609 1.0639 1.0651 1.0702 1.0733 1.0745 1.0776 1.0809 1.0822 1.0955 1.0968 1.0981 1.0973 1.0966 1.0999 1.1012 1.1025 1.108 1.1072 1.1085 1.112 1.1134 1.1169 1.1182 1.1196 1.1209 1.118 1.1108 1.1122 1.1114 1.117 1.1337 1.1351 1.141 1.138 1.1417 1.1499 1.1514 1.1483 1.1475 1.1421 1.139 1.1405 1.1442 1.1457 1.1472 1.1441 1.1433 1.1448 1.144 1.1477 1.1469 1.1461 1.1476 1.1467 1.1482 1.1474 1.1489 1.1528 1.1543 1.1582 1.1596 1.1588 1.1604 1.1596 1.1659 1.1846 1.1912 1.1979 1.2047 1.2064 1.2082 1.2098 1.2089 1.2081 1.2072 1.2063 1.208 1.2098 1.2089 1.2107 1.215 1.2248 1.2266 1.2338 1.2439 1.2457 1.2421 1.2385 1.2348 1.2312 1.2275 1.2321 1.2422 1.2469 1.2376 1.2394 1.247 1.2517 1.2622 1.2612 1.2719 1.271 1.273 1.275 1.2741 1.2761 1.2811 1.2831 1.2852 1.2843 1.2802 1.2734 1.2695 1.2626 1.2646 1.2696 1.2716 1.2766 1.2757 1.2776 1.3331 1.3321 1.3377 1.3434 1.3324 1.3281 1.3337 1.3393 1.3383 1.3373 1.333 1.3353 1.3343 1.3399 1.3355 1.3379 1.3402 1.3459 1.3415 1.3371 1.3262 1.3219 1.3176 1.3134 1.3124 1.3757 1.3746 1.3736 1.4316 1.4267 1.4143 1.4169 1.4272 1.4185 1.4024 1.4013 1.4114 1.4103 1.3981 1.397 1.3997 0 0 0 0 0 0 0 0 0 0 0 0 0 0 0 0 0 0 0 0 0 0 0 0 0 0 0 0 0 0 0 0 0 0 0 0 0 0 0 0 0 0 0 0 0 0 0 0 0 0 0 0 0 0 0 0 0 0 0 0 0 0 0 1.9378 1.9362 2.0623 2.0692 2.0589 2.0488 2.0305 2.1149 2.0954 2.1025 2.1279 2.0816 2.0626 2.0438 2.0338 2.0405 2.0388 2.0371 2.0188 1.8506 1.8422 1.8406 1.9407 2.2916 1.9223 1.9207 2.3184 2.3958 2.3938 0 0 0 0 0 0 0 1.9568 1.9631 1.9694 1.9678 1.9582 1.9565 1.9314 1.8995 1.8758 1.9189 1.9562 1.6758 1.6803 1.673 1.6774 1.9016 1.856 1.8123 1.8039 1.706 1.7046 1.7532 1.7263 1.7502 1.7551 1.6618 1.6604 1.6139 1.6125 1.6167 1.6604 1.6708 1.6752 1.6738
1.0095 1.0089 1.0066 1.0076 1.0102 1.0111 1.0104 1.0066 1.0026 1.0036 1.0062 1.0137 1.0165 1.0142 1.0068 1.0012 0.99409 0.99496 0 0.93595 0.93674 0.9347 0.93408 0.98311 0.96987 0.96312 0.94897 0.9454 0.95814 0.97437 0.97536 0.97786 0.97873 0 0.98057 0.98155 0 0 0 1.029 1.0389 1.0472 1.052 1.055 1.0617 1.0628 1.0659 1.0652 1.0663 1.0675 1.0687 1.068 1.0711 1.0723 1.0716 1.0727 1.0719 1.0751 1.0724 1.066 1.0672 1.0683 1.0657 1.0631 1.0643 1.0616 1.0628 1.0658 1.0729 1.0741 1.0772 1.0804 1.0856 1.0869 1.0963 1.0955 1.1009 1.1022 1.1014 1.1007 1.1019 1.1033 1.1066 1.108 1.1072 1.1128 1.1141 1.1177 1.119 1.1204 1.1217 1.1209 1.1159 1.1151 1.1165 1.1308 1.139 1.1404 1.1418 1.141 1.1425 1.1507 1.1522 1.1514 1.1483 1.1452 1.1444 1.1482 1.1474 1.1489 1.1503 1.1473 1.1464 1.1456 1.147 1.1508 1.1523 1.1492 1.1507 1.1499 1.1537 1.1529 1.1521 1.1559 1.1598 1.1613 1.1629 1.1621 1.1636 1.1652 1.1668 1.1855 1.192 1.1988 1.2056 1.2047 1.2091 1.2107 1.2124 1.2089 1.2081 1.2098 1.2115 1.2133 1.2098 1.2089 1.2159 1.2284 1.2302 1.2347 1.2448 1.2439 1.2403 1.2366 1.2357 1.2293 1.2284 1.2303 1.2403 1.2422 1.2357 1.2404 1.2479 1.2526 1.2631 1.2651 1.2728 1.2749 1.2769 1.279 1.281 1.28 1.2881 1.2901 1.2922 1.2913 1.2843 1.2803 1.2764 1.2725 1.2745 1.2795 1.2755 1.2776 1.2766 1.2786 1.3407 1.3397 1.342 1.3444 1.3301 1.3259 1.3314 1.3403 1.3393 1.3383 1.3405 1.3395 1.3385 1.3409 1.3399 1.3389 1.3412 1.3435 1.3459 1.3382 1.3338 1.3229 1.3219 1.3144 1.3134 1.3767 1.3722 1.3746 1.4366 1.4201 1.4154 1.418 1.4246 1.4158 1.4035 1.4062 1.4089 1.4078 1.3955 1.3944 1.397 0 0 0 0 0 0 0 0 0 0 0 0 0 0 0 0 0 0 0 0 0 0 0 0 0 0 0 0 0 0 0 0 0 0 0 0 0 0 0 0 0 0 0 0 0 0 0 0 0 0 0 0 0 0 0 0 0 0 0 0 0 0 0 1.9394 1.9378 2.0987 2.097 2.104 2.0675 2.0744 2.1721 2.1331 2.1314 2.1387 2.092 2.0729 2.0541 2.0439 2.0422 2.0405 2.0473 2.0372 2.0106 1.9532 1.9516 1.95 2.4176 0 0 0 0 0 0 0 0 0 0 0 0 1.9744 1.9727 1.9631 1.9615 1.952 1.9503 1.9178 1.8863 1.8847 1.9129 1.9266 1.7252 1.73 1.848 1.8536 1.9185 1.8363 1.8207 1.8123 1.8108 1.823 1.7547 1.7278 1.7452 1.7631 1.6632 1.6676 1.678 1.6884 1.816 1.6737 1.6841 1.6947 1.6932
1.0102 1.0095 1.0055 1.0049 1.0076 1.0102 1.0096 1.0056 1.0016 1.0009 1.0052 1.0111 1.0138 1.0081 1.0043 0.99861 0.99476 0.99563 0.9652 0.94083 0.9402 0.93675 0.93471 0.95905 0.96594 0.96377 0.94961 0.94604 0.94388 0.9877 0.98868 1.0077 1.0087 0 0 0 0 0 0 1.0548 1.0504 1.0534 1.0546 1.0557 1.0624 1.0636 1.0647 1.0678 1.0671 1.0682 1.0675 1.0687 1.0718 1.0711 1.0723 1.0734 1.0727 1.0759 1.0732 1.0687 1.0698 1.071 1.0665 1.0657 1.065 1.0643 1.0654 1.0666 1.0736 1.0768 1.076 1.0832 1.0864 1.0877 1.0971 1.0983 1.1017 1.103 1.1002 1.1035 1.1027 1.1041 1.1074 1.1088 1.1059 1.1136 1.1149 1.1163 1.1177 1.1212 1.1246 1.1217 1.1188 1.1159 1.1173 1.1339 1.1398 1.1412 1.1449 1.1441 1.1433 1.1539 1.153 1.1546 1.1514 1.1483 1.1453 1.149 1.1527 1.1519 1.1534 1.1503 1.1495 1.1487 1.1502 1.154 1.1532 1.1547 1.1539 1.1554 1.1569 1.1584 1.1553 1.1568 1.163 1.1646 1.1637 1.1629 1.1669 1.1661 1.17 1.1863 1.1929 1.1997 1.204 1.2031 1.21 1.2142 1.2133 1.2124 1.2116 1.2081 1.2151 1.2143 1.2107 1.2125 1.2168 1.232 1.2338 1.2384 1.243 1.2448 1.2384 1.2375 1.2339 1.233 1.2266 1.2312 1.2358 1.2375 1.2366 1.2385 1.2488 1.2535 1.264 1.266 1.2738 1.2758 1.2779 1.2769 1.279 1.281 1.2891 1.2911 1.2932 1.2922 1.2852 1.2843 1.2773 1.2793 1.2814 1.2834 1.2795 1.2786 1.2776 1.2767 1.3417 1.3407 1.3464 1.3486 1.3311 1.3236 1.3324 1.338 1.3404 1.3394 1.3383 1.3373 1.3363 1.3385 1.341 1.3399 1.3456 1.3445 1.3435 1.3392 1.3382 1.3304 1.3229 1.3219 1.3209 0 1.3558 1.3582 1.411 1.4212 1.4165 1.4191 1.4218 1.4169 1.4046 1.4073 1.4136 1.4013 1.3929 1.3882 1.3834 0 0 0 0 0 0 0 0 0 0 0 0 0 0 0 0 0 0 0 0 0 0 0 0 0 0 0 0 0 0 0 0 0 0 0 0 0 0 0 0 0 0 0 0 0 0 0 0 0 0 0 0 0 0 0 0 0 0 0 0 0 1.7917 1.7966 1.8481 1.8398 1.8451 1.8368 2.097 2.2975 2.1756 2.1739 2.1533 2.1516 2.1498 2.0938 2.066 2.0558 2.0288 2.0272 2.0422 2.0321 2.0389 1.8964 1.9471 1.9532 1.9516 0 0 0 0 0 0 0 0 0 0 0 0 1.9939 1.9841 1.9664 1.9569 1.9474 1.938 1.9441 1.9043 1.8733 1.8863 1.8996 1.8905 1.6787 1.6773 1.8496 1.8552 1.9513 1.8034 1.7951 1.7802 1.792 1.8108 1.7 1.7231 1.7404 1.7517 1.6532 1.669 1.6853 1.6959 1.8176 1.7052 1.7037 1.7023 1.7008
1.0092 1.0069 1.0062 1.0056 1.0082 1.0092 1.0086 1.0046 1.0023 1.0016 1.0043 1.0101 1.0111 1.0071 1.0033 0.99762 0.99543 0.9963 0.96585 0.93721 0.938 0.93738 0.93534 0.94049 0.93834 0.97054 0.94579 0.94515 0.94452 0.98837 0.98935 1.0084 1.0093 0 0 1.0584 1.0595 1.07 1.0693 1.0574 1.0567 1.0578 1.0571 1.0564 1.0613 1.0624 1.0636 1.0667 1.0659 1.0689 1.0682 1.0675 1.0706 1.0718 1.073 1.0742 1.0754 1.0747 1.0739 1.0732 1.0725 1.0717 1.071 1.0683 1.0676 1.0669 1.0661 1.0693 1.0763 1.0775 1.0787 1.086 1.0872 1.0904 1.0978 1.0991 1.1024 1.1037 1.103 1.1002 1.0994 1.1007 1.1061 1.1074 1.1088 1.1122 1.1136 1.1192 1.1206 1.122 1.1255 1.1225 1.1196 1.1167 1.1202 1.1215 1.1339 1.1331 1.1367 1.1404 1.1419 1.1478 1.1493 1.1531 1.1477 1.1469 1.1483 1.1522 1.1513 1.1551 1.1543 1.1535 1.1526 1.1541 1.1533 1.1571 1.1563 1.1578 1.1594 1.1586 1.1601 1.1616 1.1608 1.1623 1.1638 1.1703 1.1694 1.1686 1.1702 1.1717 1.1757 1.1872 1.1938 1.2006 1.2022 1.204 1.2082 1.21 1.2116 1.2133 1.2125 1.2116 1.216 1.2151 1.2115 1.2134 1.2177 1.2329 1.232 1.2338 1.2439 1.243 1.2393 1.2357 1.2348 1.2311 1.2275 1.2293 1.2367 1.2358 1.2321 1.234 1.2441 1.2545 1.2621 1.2669 1.2719 1.2738 1.2758 1.2809 1.2799 1.2819 1.29 1.292 1.2942 1.2932 1.2922 1.2882 1.2843 1.2863 1.2915 1.2905 1.2865 1.2825 1.2846 1.2806 1.3427 1.3451 1.3474 1.3497 1.3289 1.3214 1.3301 1.3391 1.3446 1.3404 1.336 1.3384 1.3307 1.333 1.3386 1.341 1.35 1.3456 1.3446 1.3402 1.3425 1.3349 1.3305 1.323 1.3219 0 1.3568 1.3593 1.4121 1.4148 1.4176 1.424 1.4229 1.418 1.4132 1.4084 1.4111 1.4024 1.3903 1.3893 1.3845 0 0 0 0 0 0 0 0 0 0 0 0 0 0 0 0 0 0 0 0 0 0 0 0 0 0 0 0 0 0 0 0 0 0 0 0 0 0 0 0 0 0 0 0 0 0 0 0 0 0 0 0 0 0 0 0 0 0 0 0 0 1.7931 1.8046 1.8227 1.8413 1.8466 1.8383 2.0987 2.2994 2.246 2.1947 2.1739 2.1627 2.1516 2.1043 2.0851 2.0575 1.9979 1.9962 2.019 2.0255 2.0406 1.9054 1.9411 1.9627 1.9533 0 0 0 0 0 0 0 0 0 0 0 0 1.9956 1.9939 1.9761 1.9664 1.9412 1.9319 1.938 1.8985 1.8677 1.8879 1.9012 1.8847 1.6801 1.6787 1.8441 1.8496 1.9451 1.8049 1.7833 1.7687 1.7869 1.7988 1.7014 1.7184 1.7419 1.7404 1.6778 1.6705 1.6868 1.6974 1.7917 1.7067 1.7237 1.716 1.7084
1.0082 1.0075 1.0069 1.0062 1.0089 1.0099 1.0109 1.0069 1.0063 1.0073 1.0083 1.0141 1.0151 1.0095 1.0071 1.0033 1.001 1.0019 0.9665 0.93784 0.94005 0.94238 0.94317 0.94113 0.9405 0 0 1.0001 1.0028 1.0021 0.99976 0 0 0 0 1.0591 1.0603 1.0633 1.0682 1.0637 1.0612 1.0604 1.0616 1.059 1.062 1.0613 1.0643 1.0654 1.0647 1.0678 1.069 1.0682 1.0713 1.0725 1.0738 1.0769 1.0781 1.0793 1.0766 1.0778 1.0771 1.0764 1.0756 1.0749 1.0742 1.0715 1.0727 1.0739 1.081 1.0821 1.0854 1.0926 1.0919 1.0953 1.1006 1.1019 1.1053 1.1025 1.1017 1.103 1.1022 1.1035 1.109 1.1103 1.1116 1.1173 1.1165 1.1222 1.1235 1.1227 1.1262 1.1233 1.1225 1.1196 1.121 1.1202 1.1303 1.1295 1.1376 1.139 1.1404 1.1463 1.1501 1.1493 1.1507 1.1499 1.1515 1.1552 1.1544 1.1582 1.1574 1.1566 1.1558 1.1573 1.1565 1.1603 1.1595 1.1587 1.1603 1.1618 1.1657 1.1696 1.1688 1.1679 1.1719 1.1784 1.1823 1.1815 1.1856 1.1898 1.1913 1.198 1.1997 1.2066 1.2057 1.2074 1.2091 1.2108 1.2125 1.2142 1.2133 1.2125 1.2169 1.216 1.2178 1.2169 1.2239 1.2311 1.2302 1.232 1.2448 1.2466 1.2402 1.2393 1.2357 1.2348 1.2285 1.233 1.2459 1.245 1.2358 1.2404 1.2479 1.2554 1.2659 1.2679 1.2757 1.2748 1.2738 1.2788 1.2809 1.2829 1.291 1.293 1.2951 1.2942 1.2932 1.2984 1.2974 1.2995 1.3173 1.3132 1.3091 1.3081 1.3071 1.303 1.3606 1.3562 1.3552 1.3542 1.317 1.316 1.3444 1.3434 1.3491 1.3481 1.3371 1.336 1.3285 1.334 1.343 1.3486 1.3717 1.3568 1.349 1.348 1.3369 1.3392 1.3517 1.3506 0 0 0 0 0 0 1.4378 1.4328 1.4317 1.4268 1.4218 1.4207 1.4235 1.4035 1.3988 1.4051 1.4041 0 0 0 0 0 0 0 0 0 0 0 0 0 0 0 0 0 0 0 0 0 0 0 0 0 0 0 0 0 0 0 0 0 0 0 0 0 0 0 0 0 0 0 0 0 0 0 0 0 0 0 0 0 0 0 0 0 0 0 0 0 1.801 1.7932 1.8511 1.8429 1.8481 1.8399 2.1546 2.3013 2.2682 2.2767 2.1852 2.1645 2.1441 2.1516 2.1592 2.0339 1.9835 1.9819 2.0043 2.019 2.0423 1.9143 1.9659 2.0042 2.0025 0 0 0 0 0 0 0 0 0 0 0 0 1.9972 2.0121 1.9939 1.9842 1.9665 1.9491 1.9397 1.9076 1.8838 1.9044 1.9488 1.9629 1.6816 1.6801 1.8457 1.8441 1.9467 1.8132 1.8186 1.8102 1.8086 1.7869 1.7592 1.7449 1.7434 1.7483 1.6911 1.6838 1.7003 1.7111 1.7933 1.7918 1.7835 1.782 1.7872
1.0106 1.0099 1.0076 1.0086 1.0113 1.0123 1.0148 1.0109 1.0118 1.0111 1.0122 1.0165 1.0176 1.0135 1.0095 1.0071 1.0065 1.0142 1.0202 0.95149 0.94648 0.94739 0.94522 0.9446 0.94691 0 0 1.0125 1.0085 1.0062 1.0121 0 0 0 0 1.0598 1.061 1.064 1.0671 1.0663 1.0637 1.0612 1.0623 1.0616 1.0609 1.062 1.0632 1.0643 1.0654 1.0686 1.0697 1.0709 1.0702 1.0713 1.0726 1.0796 1.0808 1.0801 1.0813 1.0786 1.0798 1.0771 1.0783 1.0756 1.0769 1.0742 1.0734 1.0766 1.0817 1.085 1.0862 1.0934 1.0947 1.094 1.1035 1.1027 1.106 1.1053 1.1066 1.1038 1.103 1.1043 1.1119 1.1111 1.1145 1.1159 1.1173 1.1251 1.1265 1.1257 1.127 1.1284 1.1233 1.1225 1.1239 1.1231 1.1267 1.1281 1.1384 1.1421 1.1413 1.1472 1.1486 1.1501 1.1516 1.1485 1.1523 1.156 1.1552 1.1591 1.1559 1.1574 1.1566 1.1581 1.1596 1.1611 1.1603 1.1595 1.1611 1.1626 1.1688 1.1729 1.1696 1.1688 1.1704 1.1792 1.1808 1.1799 1.189 1.1906 1.1947 1.1964 1.2032 1.2048 1.2066 1.2057 1.2126 1.2117 1.2109 1.2151 1.2142 1.2134 1.2204 1.2195 1.2187 1.2178 1.2248 1.232 1.2338 1.2356 1.2458 1.2476 1.2411 1.2402 1.2393 1.2384 1.2349 1.2421 1.2525 1.2516 1.2507 1.2525 1.2544 1.262 1.2698 1.2718 1.2767 1.2728 1.2748 1.2798 1.2818 1.2839 1.292 1.291 1.2961 1.2951 1.2973 1.3024 1.3015 1.3036 1.3215 1.3173 1.3101 1.3091 1.305 1.2978 1.3548 1.3572 1.3527 1.3451 1.2961 1.2951 1.3487 1.3444 1.3501 1.3457 1.3414 1.3337 1.3295 1.3351 1.3406 1.3497 1.3762 1.3544 1.34 1.3456 1.3413 1.3303 0 0 0 0 0 0 0 0 1.4312 1.4339 1.4328 1.4279 1.4191 1.4143 1.4885 1.4915 0 0 0 0 0 0 0 0 0 0 0 0 0 0 0 0 0 0 0 0 0 0 0 0 0 0 0 0 0 0 0 0 0 0 0 0 0 0 0 0 0 0 0 0 0 0 0 0 0 0 0 0 0 0 0 0 0 0 0 0 0 0 0 0 0 0 1.8459 1.8512 1.8497 1.8482 0 1.8183 1.8168 1.8153 2.1402 2.1476 2.1275 1.9588 1.9572 1.9948 1.9773 1.9835 1.9979 2.0043 2.019 1.9159 1.9676 2.0058 1.9961 0 0 0 0 0 0 0 0 0 0 0 0 2.0579 2.0138 2.0038 1.9939 1.9761 1.9665 1.9491 1.9167 1.9001 1.9135 1.9426 1.9566 1.8224 1.8209 1.8472 1.8457 1.9886 1.8784 1.8481 1.8537 1.8309 1.8019 1.7737 1.7592 1.7578 1.7563 1.7047 1.7032 1.714 1.7763 1.8085 1.8001 1.8122 2.0013 1.8587
1.0112 1.0106 1.0082 1.0092 1.0136 1.0145 1.0172 1.0148 1.0158 1.0168 1.0178 1.0206 1.0216 1.0176 1.0151 1.0128 1.0121 1.0149 1.0159 0.95367 0.95149 0.94944 0.9474 0.94677 0.94755 1.0494 1.045 1.0131 1.0261 1.0118 1.0111 1.0345 1.0338 1.0349 1.0377 1.037 1.0507 1.0591 1.0659 1.0652 1.0645 1.0638 1.063 1.0623 1.0616 1.0628 1.0639 1.065 1.0662 1.0674 1.0686 1.0697 1.0709 1.0721 1.0733 1.0803 1.0796 1.0808 1.082 1.0813 1.0825 1.0818 1.0771 1.0783 1.0776 1.0769 1.0761 1.0793 1.0824 1.0837 1.0869 1.0902 1.0915 1.0927 1.1022 1.1035 1.1089 1.1061 1.1073 1.1066 1.108 1.1051 1.1127 1.1139 1.1132 1.1189 1.1202 1.1238 1.1251 1.1265 1.1257 1.1271 1.1263 1.1255 1.1247 1.126 1.1253 1.1289 1.1369 1.1406 1.1421 1.1457 1.1472 1.1464 1.1501 1.1493 1.1531 1.1569 1.156 1.1576 1.1567 1.1583 1.1575 1.159 1.1605 1.162 1.1612 1.1628 1.1619 1.1634 1.1721 1.1737 1.1704 1.1696 1.1712 1.1776 1.1792 1.1808 1.1873 1.1915 1.1906 1.1947 1.1964 1.2032 1.2048 1.204 1.2109 1.21 1.2091 1.2134 1.2125 1.2116 1.2187 1.2204 1.2195 1.2187 1.2257 1.2329 1.232 1.2366 1.2439 1.2458 1.2421 1.2412 1.2431 1.2422 1.2385 1.2403 1.2562 1.2553 1.2544 1.2619 1.2639 1.2688 1.2737 1.2785 1.2776 1.2767 1.2787 1.2808 1.2798 1.2818 1.2898 1.292 1.294 1.293 1.2921 1.2973 1.2963 1.3015 1.3192 1.3089 1.3016 1.3038 1.2997 1.2926 1.3458 1.3448 1.3438 1.3395 1.2848 1.2838 1.3365 1.3421 1.3477 1.3467 1.3424 1.3348 1.3305 1.3295 1.3091 1.305 1.3669 1.3521 1.3376 1.3466 1.3323 1.3313 0 0 0 0 0 0 0 0 1.4132 1.4235 1.4262 1.4251 1.4127 1.4042 1.4897 1.4927 0 0 0 0 0 0 0 0 0 0 0 0 0 0 0 0 0 0 0 0 0 0 0 0 0 0 0 0 0 0 0 0 0 0 0 0 0 0 0 0 0 0 0 0 0 0 0 0 0 0 0 0 0 0 0 0 0 0 0 0 0 0 0 0 0 0 1.8542 1.8459 1.8512 1.8497 0 1.8198 1.8183 1.8168 2.0456 2.0866 2.0849 1.9604 1.9743 1.9806 1.9789 1.9773 1.9915 1.9979 2.0043 1.963 1.9614 1.9994 2.0059 0 0 0 0 0 0 0 0 0 0 0 0 2.0596 2.0239 2.0055 2.0038 2.0021 1.9923 1.9665 1.9259 1.9017 1.8927 1.8766 1.9743 1.824 1.8363 1.8347 1.8473 1.9821 1.8512 1.8785 1.8842 1.8681 1.8593 1.7623 1.7672 1.7788 1.7578 1.6362 1.6348 1.639 1.632 1.8169 1.7949 1.7866 2.0031 1.8603
1.0119 1.0112 1.0089 1.0099 1.0143 1.0152 1.0212 1.0223 1.0283 1.0311 1.0322 1.0315 1.0309 1.0267 1.026 1.0254 1.0247 1.0257 1.0233 1.0261 1.0323 1.035 1.045 1.0533 1.0526 1.0501 1.0475 1.0415 1.0355 1.0348 1.0341 1.0352 1.0345 1.0356 1.0367 1.0395 1.0459 1.0543 1.0666 1.0678 1.0652 1.0645 1.0638 1.0631 1.0623 1.0616 1.0646 1.0658 1.0669 1.0682 1.0693 1.0704 1.0735 1.0748 1.0779 1.083 1.0823 1.0835 1.0847 1.086 1.0872 1.0884 1.0818 1.0811 1.0803 1.0815 1.0788 1.082 1.0832 1.0825 1.0857 1.089 1.0902 1.0915 1.103 1.1042 1.1096 1.111 1.1103 1.1095 1.1108 1.1121 1.1135 1.1147 1.1183 1.1197 1.121 1.1245 1.1238 1.1251 1.1265 1.1279 1.1271 1.1307 1.132 1.1335 1.1327 1.1363 1.1422 1.1437 1.1451 1.1465 1.1458 1.1472 1.151 1.1502 1.1539 1.1555 1.1569 1.1607 1.1599 1.1591 1.1653 1.1669 1.1684 1.1699 1.1668 1.1707 1.1722 1.1738 1.1754 1.177 1.1737 1.1729 1.1721 1.1785 1.1801 1.1816 1.1882 1.1898 1.189 1.1931 1.1973 1.2014 1.2032 1.2049 1.2091 1.2109 1.21 1.2118 1.2134 1.2125 1.2169 1.2187 1.2178 1.2169 1.224 1.2366 1.2356 1.2375 1.2448 1.2439 1.243 1.2421 1.2412 1.2403 1.2367 1.2413 1.2514 1.2534 1.2525 1.2629 1.2648 1.2697 1.2775 1.2795 1.2815 1.2836 1.2827 1.2847 1.2867 1.2858 1.2908 1.2899 1.295 1.291 1.2901 1.2952 1.2942 1.2994 1.314 1.3036 1.2965 1.2986 1.2946 1.2936 1.3468 1.3425 1.3415 1.3472 1.2857 1.2848 1.3375 1.3398 1.3589 1.3579 1.3535 1.3358 1.3348 0 1.3101 1.306 1.3575 1.3464 1.3487 1.3511 1.3334 1.3356 0 0 0 0 0 0 0 0 1.4143 1.4133 1.4235 1.4224 1.4138 1.4053 0 0 0 0 0 0 0 0 0 0 0 0 0 0 0 0 0 0 0 0 0 0 0 0 0 0 0 0 0 0 0 0 0 0 0 0 0 0 0 0 0 0 0 0 0 0 0 0 0 0 0 0 0 0 0 0 0 0 0 0 0 0 0 0 0 0 0 0 0 0 0 0 0 0 0 0 2.0473 2.0625 2.0694 2.0763 2.066 2.0473 2.029 2.0191 2.0093 2.0158 2.006 2.0044 2.0273 2.0339 2.0323 0 0 0 0 0 0 0 0 0 0 0 0 2.1332 2.1222 2.1204 2.1279 2.0545 2.0442 1.9524 1.92 1.8886 1.887 1.8782 2.017 1.8256 1.8519 1.8647 1.8848 1.9838 1.86 1.8728 1.8933 1.8917 1.8681 1.8239 1.8155 1.8072 1.7658 1.6376 1.6362 1.6348 1.639 1.8185 1.7897 1.7882 2.0133 1.8693
1.0109 1.0119 1.008 1.0106 1.0133 1.0158 1.0202 1.023 1.0273 1.0318 1.0311 1.0339 1.0315 1.0291 1.0267 1.0261 1.027 1.0281 1.0257 1.0302 1.0348 1.0375 1.0457 1.0503 1.0515 1.0489 1.0465 1.0422 1.0362 1.0355 1.0366 1.0359 1.0352 1.0363 1.0374 1.0384 1.0466 1.0551 1.0674 1.0666 1.0659 1.0652 1.0645 1.0638 1.0631 1.0623 1.0654 1.0665 1.0658 1.0689 1.07 1.0712 1.0743 1.0755 1.0786 1.0838 1.085 1.0843 1.0855 1.0887 1.0899 1.0892 1.0845 1.0838 1.0869 1.0881 1.0854 1.0866 1.0899 1.0892 1.0905 1.0938 1.095 1.0962 1.1037 1.1071 1.1104 1.1118 1.1111 1.1103 1.1116 1.1108 1.1163 1.1177 1.1169 1.1226 1.1218 1.1253 1.1245 1.1238 1.1273 1.1265 1.13 1.1315 1.1351 1.1364 1.1379 1.1393 1.1475 1.149 1.1482 1.1496 1.151 1.1526 1.154 1.1532 1.1547 1.1563 1.1577 1.1592 1.1607 1.1623 1.1661 1.1677 1.1669 1.1707 1.1699 1.1715 1.173 1.1746 1.1787 1.1778 1.1746 1.1737 1.1753 1.1769 1.1785 1.1825 1.1866 1.1882 1.1899 1.1939 1.1981 1.1998 1.2066 1.2057 1.21 1.2118 1.2135 1.2127 1.2143 1.2134 1.2178 1.2196 1.2187 1.2178 1.2222 1.232 1.2338 1.233 1.2402 1.2421 1.2384 1.2375 1.2421 1.2412 1.2348 1.2422 1.2496 1.2514 1.2505 1.261 1.2658 1.2706 1.2814 1.2805 1.2855 1.2846 1.2836 1.2857 1.2877 1.2868 1.2918 1.2908 1.293 1.292 1.288 1.2931 1.2921 1.2973 1.3118 1.3015 1.2913 1.2904 1.2864 1.2794 1.306 1.324 1.3262 1.3317 1.2717 1.2708 1.2698 1.2689 1.3532 1.3522 1.3579 0 0 0 1.2801 1.2822 1.3724 1.3542 1.3497 1.3521 1.3544 1.3777 0 0 0 1.395 1.3939 1.3928 1.3955 1.3907 1.4154 1.4182 1.4246 1.4273 1.4149 1.4176 0 0 0 0 0 0 0 0 0 0 0 0 0 0 0 0 0 0 0 0 0 0 0 0 0 0 0 0 0 0 0 0 0 0 0 0 0 0 0 0 0 0 0 0 0 0 0 0 0 0 0 0 0 0 0 0 0 0 0 0 0 0 0 0 0 0 0 0 0 0 0 0 0 0 0 0 2.0079 2.0473 2.0625 2.0608 2.0507 2.0406 2.0307 2.029 2.0274 2.034 2.0323 2.0224 2.029 2.0356 1.9693 1.9755 1.9739 1.9644 2.0273 0 0 0 0 0 0 0 0 2.0631 2.0967 2.0596 2.2369 1.8965 1.9023 1.8934 1.9369 1.9276 1.989 2.0633 2.0882 1.9365 1.875 1.8735 1.8719 2.0885 1.8544 1.8817 1.8949 1.8933 1.8624 1.8255 1.8171 1.8019 1.7673 1.639 1.6376 1.6362 1.6405 1.8555 1.7913 1.7897 1.9333 1.8709
1.0116 1.0109 1.0087 1.0096 1.0123 1.015 1.0209 1.0219 1.0264 1.029 1.0301 1.0329 1.0322 1.0298 1.0291 1.0302 1.0312 1.0357 1.0333 1.0344 1.0354 1.0382 1.0428 1.0439 1.045 1.0443 1.0454 1.0447 1.0422 1.0398 1.0391 1.0384 1.0342 1.0352 1.0381 1.0409 1.0492 1.0539 1.0662 1.0655 1.0667 1.0659 1.0671 1.0645 1.0656 1.0649 1.0679 1.0691 1.0684 1.0696 1.0689 1.07 1.075 1.0762 1.0813 1.0845 1.0857 1.0889 1.0902 1.0934 1.0926 1.0919 1.0911 1.0924 1.0957 1.099 1.0962 1.0955 1.0987 1.098 1.0993 1.1006 1.0998 1.1011 1.1065 1.1079 1.1134 1.1126 1.1139 1.1111 1.1144 1.1136 1.1171 1.1163 1.1155 1.1212 1.1204 1.1261 1.1253 1.1267 1.1281 1.1294 1.1287 1.1367 1.138 1.144 1.1477 1.1491 1.1528 1.1543 1.1558 1.155 1.1565 1.158 1.1595 1.1564 1.1579 1.1571 1.1563 1.1601 1.1616 1.1608 1.1646 1.1661 1.1701 1.1716 1.1732 1.1747 1.1763 1.1779 1.1795 1.1787 1.1779 1.1746 1.1762 1.1778 1.1745 1.1737 1.1825 1.1841 1.1832 1.1924 1.1965 1.1982 1.2023 1.2066 1.2135 1.2153 1.2144 1.216 1.2178 1.2169 1.2187 1.2205 1.2169 1.216 1.2205 1.2249 1.2266 1.2284 1.233 1.2348 1.2366 1.2357 1.2375 1.2394 1.2357 1.2403 1.2477 1.2496 1.2544 1.2619 1.2667 1.2687 1.2853 1.2844 1.2895 1.2885 1.2906 1.2866 1.2887 1.2877 1.2927 1.2918 1.2878 1.2899 1.2889 1.2911 1.2901 1.2921 1.3065 1.2994 1.2832 1.2823 1.2813 1.2894 1.3007 1.3029 1.305 1.3072 1.2847 1.2807 1.2827 1.2698 1.3442 1.3532 1.3589 0 0 0 1.2811 1.2832 1.3947 1.3384 1.3407 1.3565 1.3589 1.3788 0 0 0 1.396 1.395 1.3976 1.4002 1.4139 1.4203 1.4193 1.4295 1.4323 1.4273 1.4187 0 0 0 0 0 0 0 0 0 0 0 0 0 0 0 0 0 0 0 0 0 0 0 0 0 0 0 0 0 0 0 0 0 0 0 0 0 0 0 0 0 0 0 0 0 0 0 0 0 0 0 0 0 0 0 0 0 0 0 0 0 0 0 0 0 0 0 0 0 0 0 0 0 0 0 0 2.0095 2.0079 2.0307 2.0373 2.0357 2.0257 2.0159 2.0224 2.0457 2.061 2.0593 2.0323 2.0307 2.0373 1.9788 1.9693 1.9755 1.9898 2.029 0 0 0 0 0 0 0 0 2.0648 2.029 2.0614 2.2388 1.8982 1.9039 1.895 1.9007 1.9843 1.9907 2.0222 2.0289 1.9382 1.8986 1.897 1.8735 2.0902 1.8632 1.8544 1.8965 1.8584 1.8569 1.8553 1.8187 1.8035 1.7819 1.6404 1.639 1.6376 1.6419 1.8571 1.7995 1.7913 1.9349 1.8799
1.0107 1.01 1.0077 1.0087 1.013 1.0156 1.0199 1.0209 1.027 1.0264 1.029 1.0336 1.0329 1.0322 1.0298 1.0326 1.0353 1.0364 1.0339 1.0368 1.0378 1.0389 1.0435 1.0446 1.0439 1.0432 1.0443 1.0454 1.0429 1.0422 1.0415 1.0409 1.0366 1.0377 1.0405 1.0434 1.0553 1.0565 1.0651 1.0662 1.0674 1.0667 1.0678 1.0671 1.0664 1.0675 1.0687 1.0718 1.0711 1.0704 1.0696 1.0689 1.0757 1.077 1.0801 1.0872 1.0845 1.0897 1.0909 1.0941 1.0974 1.0947 1.0939 1.0952 1.1005 1.0998 1.099 1.1002 1.0995 1.1008 1.1 1.1034 1.1027 1.104 1.1073 1.1107 1.112 1.1134 1.1147 1.1118 1.1152 1.1144 1.1179 1.1192 1.1185 1.1199 1.1212 1.1248 1.1261 1.1275 1.1289 1.1302 1.1316 1.1375 1.1388 1.1448 1.1508 1.15 1.1559 1.1575 1.1566 1.1604 1.162 1.1612 1.1626 1.1572 1.1587 1.1602 1.1594 1.1632 1.1624 1.1639 1.1655 1.1694 1.1709 1.1724 1.1716 1.1756 1.1772 1.1763 1.1804 1.1771 1.1763 1.1754 1.177 1.1762 1.1729 1.1745 1.1761 1.1801 1.1817 1.1882 1.1924 1.194 1.2007 1.205 1.2144 1.2162 1.2153 1.2169 1.2187 1.2178 1.2195 1.2187 1.2178 1.2196 1.2188 1.2284 1.2302 1.2293 1.2312 1.233 1.2348 1.2339 1.2384 1.2403 1.2366 1.2412 1.2486 1.2505 1.2553 1.2629 1.2676 1.2725 1.2863 1.2884 1.2904 1.2895 1.2885 1.2876 1.2896 1.2887 1.2968 1.2928 1.2888 1.2879 1.2899 1.292 1.2911 1.2962 1.3044 1.2973 1.2842 1.2803 1.2823 1.2904 1.2987 1.3007 1.3029 1.302 1.2917 1.2908 1.2959 1.2981 1.3452 1.3508 1.3599 0 0 0 1.2851 1.2842 1.3815 1.2732 1.2752 1.3242 1.3498 1.3487 1.404 1.3992 0 1.3971 1.396 1.3987 1.4086 1.4187 1.4214 1.4242 1.4306 1.4334 1.4324 1.4313 0 0 0 0 0 0 0 0 0 0 0 0 0 0 0 0 0 0 0 0 0 0 0 0 0 0 0 0 0 0 0 0 0 0 0 0 0 0 0 0 0 0 0 0 0 0 0 0 0 0 0 0 0 0 0 0 0 0 0 0 0 0 0 0 0 0 0 0 0 0 0 0 0 0 0 0 1.9487 2.0015 2.0242 2.0225 2.0291 2.0274 2.0014 2.0078 2.0307 2.0457 2.061 2.0424 2.0324 2.039 1.9726 1.9788 1.9693 1.9834 2.0307 0 0 0 0 0 0 0 0 1.9992 2.0057 1.9959 2.2407 2.1597 2.1579 2.1851 2.1931 2.2944 1.9683 1.9907 1.981 1.8441 1.871 1.8913 1.9196 1.9727 1.7758 1.7808 1.8264 1.8317 1.8656 1.8859 1.8271 1.8118 1.7968 1.7688 1.7673 1.8404 1.8318 1.8232 1.8011 1.7996 1.7913 1.7831
1.0097 1.009 1.0083 1.0094 1.0136 1.0146 1.0222 1.0216 1.0244 1.027 1.0264 1.0308 1.0318 1.0311 1.0305 1.0332 1.0343 1.0337 1.0346 1.0375 1.0403 1.0414 1.0442 1.0453 1.0446 1.0439 1.0468 1.0461 1.0454 1.0447 1.0422 1.0415 1.0391 1.0402 1.043 1.0459 1.056 1.0572 1.0639 1.0632 1.0662 1.0674 1.0685 1.0678 1.069 1.0683 1.0733 1.0725 1.0718 1.073 1.0704 1.0715 1.0746 1.0777 1.079 1.086 1.0872 1.0904 1.0936 1.0949 1.0982 1.0955 1.0967 1.098 1.1013 1.1025 1.1017 1.099 1.1023 1.1036 1.1008 1.1062 1.1055 1.1047 1.1101 1.1115 1.1149 1.1141 1.1134 1.1147 1.1139 1.1152 1.1186 1.1179 1.1193 1.1228 1.122 1.1256 1.1269 1.1283 1.1318 1.1332 1.1324 1.1404 1.1396 1.1456 1.1493 1.153 1.1545 1.1559 1.1575 1.1613 1.1651 1.162 1.1634 1.1626 1.1596 1.161 1.1602 1.1617 1.1632 1.1648 1.1663 1.1678 1.1718 1.1733 1.1749 1.1764 1.178 1.1772 1.1788 1.1779 1.1771 1.1738 1.1754 1.1746 1.1713 1.1729 1.1794 1.1785 1.1825 1.1891 1.1907 1.1924 1.199 1.2059 1.2127 1.2144 1.2135 1.2153 1.2169 1.2187 1.2204 1.2195 1.2187 1.2205 1.2223 1.2267 1.2284 1.2249 1.2294 1.2312 1.233 1.2321 1.2312 1.2357 1.2375 1.2394 1.2495 1.2514 1.2562 1.2666 1.2715 1.2706 1.2873 1.2863 1.2914 1.2904 1.2925 1.2885 1.2936 1.2896 1.2978 1.2937 1.2928 1.2918 1.2939 1.293 1.292 1.2971 1.3054 1.2983 1.2882 1.2842 1.2863 1.2945 1.2996 1.3049 1.307 1.3092 1.302 1.3041 1.3094 1.2991 1.3496 1.3553 1.361 0 0 0 1.2861 1.2851 1.3825 1.2363 1.2382 1.3253 1.3341 1.3739 1.3905 1.404 0 1.3982 1.3971 1.3961 1.3987 1.4086 1.4187 1.4253 1.4317 1.4384 1.4373 1.4324 0 0 0 0 0 0 0 0 0 0 0 0 0 0 0 0 0 0 0 0 0 0 0 0 0 0 0 0 0 0 0 0 0 0 0 0 0 0 0 0 0 0 0 0 0 0 0 0 0 0 0 0 0 0 0 0 0 0 0 0 0 0 0 0 0 0 0 0 0 0 0 0 0 0 0 0 1.9579 2.0032 2.0177 2.0161 2.0225 1.9653 1.9871 2.0176 2.0241 2.0225 2.0208 2.011 2.0175 2.0491 1.9742 1.9726 1.971 1.9693 2.0324 0 0 0 0 0 0 0 0 2.0009 1.9993 1.9976 2.2426 2.1241 2.1315 2.1391 2.1562 1.9877 1.9699 1.9763 1.9746 1.8457 1.8871 1.9003 1.9212 1.9664 1.7773 1.7955 1.821 1.8264 1.8318 1.8585 1.8427 1.8202 1.8118 1.7768 1.7753 1.8073 1.8263 1.8248 1.6252 1.6294 1.6224 1.6266
1.0103 1.0097 1.0074 1.01 1.0126 1.017 1.0212 1.0223 1.0232 1.0244 1.0271 1.0297 1.0308 1.0302 1.0312 1.0323 1.035 1.0326 1.0353 1.0382 1.041 1.0421 1.0449 1.0478 1.0453 1.0429 1.0457 1.0486 1.0461 1.0454 1.043 1.0422 1.0416 1.0409 1.0455 1.0484 1.055 1.0543 1.059 1.0602 1.0632 1.0681 1.0693 1.0704 1.0697 1.0709 1.0759 1.0751 1.0744 1.0756 1.073 1.0722 1.0772 1.0804 1.0816 1.0868 1.086 1.0932 1.0964 1.0977 1.101 1.1002 1.0995 1.1028 1.104 1.1074 1.1046 1.1038 1.1031 1.1044 1.1036 1.107 1.1062 1.1096 1.113 1.1143 1.1178 1.117 1.1162 1.1155 1.1167 1.1181 1.1216 1.1208 1.12 1.1236 1.1228 1.1285 1.1299 1.1313 1.1326 1.134 1.1355 1.1412 1.1427 1.1487 1.1524 1.1538 1.1599 1.1591 1.1629 1.1644 1.1683 1.1674 1.1643 1.1658 1.1626 1.1618 1.1634 1.1625 1.1641 1.1656 1.1671 1.1686 1.1726 1.1741 1.1733 1.1797 1.1813 1.1805 1.1796 1.1812 1.178 1.1747 1.1763 1.1755 1.1722 1.1738 1.1802 1.1818 1.181 1.1875 1.1891 1.1933 1.1974 1.2067 1.2135 1.2153 1.2144 1.2187 1.2178 1.2196 1.2213 1.2232 1.2223 1.2214 1.2258 1.2276 1.2293 1.2258 1.2275 1.2321 1.2339 1.2303 1.2321 1.2339 1.2357 1.2375 1.2505 1.2524 1.2571 1.2675 1.2695 1.2744 1.2882 1.2903 1.2923 1.2944 1.2934 1.2925 1.2945 1.2966 1.3048 1.3008 1.2968 1.2959 1.2949 1.294 1.296 1.3012 1.3127 1.2993 1.2892 1.2882 1.2933 1.3046 1.3068 1.3089 1.3174 1.326 1.325 1.3273 1.336 1.3416 1.3573 1.363 1.3758 0 0 0 1.3822 1.3846 1.3836 1.2372 1.2391 1.323 1.3518 1.3508 1.4024 1.4051 0 1.3993 1.4056 1.4009 1.3961 1.395 1.4236 1.4339 1.4445 1.4473 1.4384 1.4373 0 0 0 0 0 0 0 0 0 0 0 0 0 0 0 0 0 0 0 0 0 0 0 0 0 0 0 0 0 0 0 0 0 0 0 0 0 0 0 0 0 0 0 0 0 0 0 0 0 0 0 0 0 0 0 0 0 0 0 0 0 0 0 0 0 0 0 0 0 0 0 0 0 0 0 0 2.0145 2.0129 2.0112 2.0177 0 1.9669 1.9888 2.0275 2.0258 2.0242 2.0143 0 0 0 1.9758 1.9742 1.9805 1.971 0 0 0 0 0 0 0 0 0 2.0026 1.9847 1.9993 2.3078 2.1258 2.1241 2.1409 2.158 1.9893 1.9958 1.9941 2.1797 1.9354 1.9338 1.9245 1.9229 2.0172 1.8188 1.797 1.8295 1.8142 1.8333 1.8458 1.8443 1.8287 1.8134 1.7719 1.7639 1.8295 1.835 1.8264 1.6266 1.6308 1.6238 1.628
1.011 1.0088 1.0081 1.0123 1.015 1.0177 1.0219 1.0212 1.0239 1.0251 1.0261 1.0304 1.0315 1.0291 1.0302 1.0312 1.0339 1.0333 1.0344 1.0389 1.0399 1.041 1.0456 1.0467 1.0443 1.0453 1.0447 1.0493 1.0486 1.0461 1.0454 1.043 1.0405 1.0433 1.0462 1.0474 1.0502 1.0514 1.0561 1.0554 1.0602 1.0651 1.0681 1.0693 1.0704 1.0716 1.0747 1.0759 1.0751 1.0763 1.0737 1.0748 1.0799 1.083 1.0843 1.0875 1.0887 1.0919 1.0951 1.0984 1.1018 1.101 1.1022 1.1036 1.1068 1.1082 1.1074 1.1067 1.1059 1.1052 1.1065 1.1078 1.1112 1.1104 1.118 1.1172 1.1185 1.1198 1.117 1.1183 1.1197 1.1189 1.1224 1.1216 1.123 1.1222 1.1258 1.1293 1.1307 1.132 1.1356 1.1348 1.1363 1.1466 1.1458 1.1517 1.1555 1.1547 1.1607 1.1622 1.1637 1.1675 1.1691 1.1683 1.1674 1.1666 1.1658 1.1626 1.1642 1.1634 1.1649 1.1664 1.168 1.1695 1.1734 1.1749 1.1741 1.1781 1.1821 1.1813 1.1829 1.1821 1.1788 1.178 1.1771 1.1739 1.173 1.1746 1.1762 1.1754 1.1794 1.1834 1.185 1.1891 1.1982 1.205 1.2144 1.2135 1.2153 1.2171 1.2213 1.2205 1.2249 1.2213 1.2232 1.2223 1.224 1.2285 1.2276 1.2267 1.2284 1.2303 1.2294 1.2339 1.233 1.2348 1.2366 1.2413 1.2486 1.2533 1.2581 1.2714 1.2734 1.2725 1.2922 1.2912 1.2963 1.2984 1.2974 1.2965 1.2955 1.2946 1.3089 1.3048 1.2947 1.2937 1.2928 1.2949 1.294 1.3022 1.3105 1.3002 1.2871 1.2861 1.2912 1.2995 1.3047 1.3069 1.3184 1.3238 1.3293 1.3315 1.3402 1.3459 1.3583 1.3641 1.363 0 0 0 1.2582 1.2573 0 0 0 0 0 0 0 0 0 1.4225 1.4177 1.4204 1.4618 1.4568 1.4361 1.435 1.4574 1.4563 1.4592 0 0 0 0 0 0 0 0 0 0 0 0 0 0 0 0 0 0 0 0 0 0 0 0 0 0 0 0 0 0 0 0 0 0 0 0 0 0 0 0 0 0 0 0 0 0 0 0 0 0 0 0 0 0 0 0 0 0 0 0 0 0 0 0 0 0 0 0 0 0 0 0 0 0 0 0 0 0 0 0 0 0 2 2.0064 2.0291 2.0275 2.0341 2.0491 2.073 2.0713 0 0 0 0 0 0 0 0 0 0 0 0 0 0 2.0043 1.9626 1.9378 2.3098 2.1276 2.1259 2.1334 2.1223 1.991 2.0057 2.0375 2.1815 1.7944 1.7994 1.9261 1.9322 2.0189 1.7545 1.7723 1.8105 1.8023 1.8211 1.8403 1.8318 1.8234 1.8218 1.7604 1.7273 1.7136 1.6589 1.6575 1.6336 1.6266 1.6308 1.6239
1.0084 1.0077 1.0071 1.0114 1.0156 1.0183 1.0226 1.0219 1.0246 1.0239 1.0251 1.0294 1.0288 1.0281 1.0274 1.0318 1.033 1.0323 1.0333 1.0378 1.0406 1.0417 1.0463 1.0456 1.045 1.0443 1.0454 1.0482 1.0493 1.0468 1.0461 1.0437 1.043 1.044 1.0451 1.0481 1.0509 1.0502 1.0531 1.0543 1.059 1.0658 1.0689 1.07 1.0712 1.0723 1.0773 1.0766 1.0777 1.077 1.0763 1.0776 1.0826 1.0838 1.087 1.0882 1.0875 1.0947 1.0959 1.0971 1.1045 1.1037 1.103 1.1063 1.1076 1.1089 1.1103 1.1074 1.1067 1.108 1.1072 1.1085 1.1099 1.1132 1.1188 1.1201 1.1214 1.1206 1.1198 1.1212 1.1225 1.1218 1.1232 1.1224 1.1216 1.123 1.1244 1.1301 1.1315 1.1328 1.1386 1.1378 1.1392 1.1496 1.1488 1.1548 1.1563 1.16 1.1616 1.1654 1.1669 1.1707 1.1699 1.1691 1.1659 1.1651 1.1643 1.1635 1.165 1.1642 1.1634 1.1649 1.1664 1.168 1.1719 1.1735 1.1726 1.1789 1.183 1.1846 1.1838 1.1854 1.1821 1.1812 1.1804 1.1771 1.1763 1.173 1.1746 1.1738 1.173 1.1794 1.181 1.1826 1.1942 1.2008 1.2153 1.2144 1.2162 1.218 1.2196 1.2213 1.2231 1.2222 1.2241 1.2232 1.2275 1.2294 1.2285 1.2276 1.2293 1.2285 1.2303 1.2321 1.2339 1.2357 1.2349 1.2394 1.2468 1.2514 1.2561 1.2666 1.2657 1.2676 1.2871 1.2862 1.2942 1.2963 1.2984 1.3004 1.2965 1.2955 1.3037 1.2997 1.2957 1.2917 1.2938 1.2928 1.2919 1.294 1.2991 1.2921 1.2851 1.2841 1.2861 1.2974 1.3026 1.3047 1.3194 1.3313 1.3303 1.3357 1.3413 1.3604 1.3661 1.3686 1.3641 1.3909 1.3353 1.3343 1.2592 1.2582 0 0 0 0 0 0 1.4194 1.4183 1.4135 1.4051 1.4114 1.4215 1.4318 1.4345 1.4258 1.4286 1.4506 1.4495 1.4524 0 0 0 0 0 0 0 0 0 0 0 0 0 0 0 0 0 0 0 0 0 0 0 0 0 0 0 0 0 0 0 0 0 0 0 0 0 0 0 0 0 0 0 0 0 0 0 0 0 0 0 0 0 0 0 0 0 0 0 0 0 0 0 0 0 0 0 0 0 0 0 0 0 0 0 0 0 0 0 0 0 0 2.0096 2 2.0391 2.0292 2.0358 2.0508 2.0662 2.073 0 0 0 0 0 0 0 0 0 0 0 0 0 0 1.6952 1.6938 1.6983 2.3117 1.8145 1.8197 2.0546 2.0529 2.009 2.0157 2.0392 2.1833 1.7959 1.801 1.9277 1.9415 1.9875 1.7187 1.7234 1.8053 1.7971 1.7824 1.7941 1.7347 1.752 1.7506 1.6998 1.7043 1.7029 1.6604 1.6589 1.6239 1.628 1.6322 1.6253
1.0075 1.0069 1.0078 1.012 1.0163 1.0173 1.0216 1.0243 1.0253 1.0281 1.0274 1.0284 1.0278 1.0271 1.0281 1.0325 1.0336 1.0346 1.0357 1.0367 1.0396 1.0424 1.047 1.0481 1.0457 1.0468 1.0478 1.0507 1.05 1.0493 1.0486 1.0461 1.0454 1.0465 1.0476 1.0488 1.0516 1.0528 1.0575 1.0587 1.0597 1.0684 1.0715 1.0726 1.0738 1.0731 1.0799 1.0792 1.0805 1.0836 1.0829 1.0821 1.0892 1.0885 1.0917 1.091 1.0922 1.0954 1.1007 1.1019 1.1052 1.1066 1.1078 1.1071 1.1084 1.1118 1.1131 1.1123 1.1095 1.1108 1.108 1.1114 1.1127 1.1161 1.1237 1.1229 1.1243 1.1256 1.1228 1.1241 1.1255 1.1269 1.1261 1.1232 1.1224 1.1281 1.1273 1.133 1.1322 1.1336 1.1439 1.1431 1.1444 1.1595 1.1587 1.1648 1.1686 1.1702 1.1694 1.1686 1.17 1.1739 1.1707 1.1699 1.1691 1.1683 1.1651 1.1643 1.1635 1.1674 1.1642 1.1634 1.1696 1.1711 1.1728 1.1766 1.1758 1.1822 1.1863 1.1879 1.1895 1.1911 1.1903 1.1919 1.1886 1.1853 1.1845 1.1812 1.1779 1.1746 1.1738 1.1778 1.1794 1.1834 1.19 1.2017 1.2136 1.2153 1.2171 1.2188 1.2231 1.2222 1.224 1.2259 1.2276 1.2267 1.2312 1.2329 1.232 1.2285 1.2303 1.2294 1.2312 1.2357 1.2348 1.2394 1.2385 1.2403 1.2477 1.2551 1.257 1.2675 1.2666 1.2685 1.2851 1.2842 1.2922 1.2973 1.2963 1.3014 1.3004 1.2995 1.3016 1.3007 1.2966 1.2957 1.2947 1.2938 1.2928 1.295 1.297 1.29 1.286 1.2851 1.2841 1.2984 1.3005 1.3026 1.3203 1.3323 1.341 1.3467 1.3557 1.3785 1.3845 1.3764 1.3859 1.3885 1.3363 1.3353 1.2749 1.274 0 0 0 0 0 0 1.4204 1.4194 1.4146 1.4099 1.4088 1.4263 1.4329 1.428 1.4231 1.4297 1.4478 1.4467 1.4535 0 0 0 0 0 0 0 0 0 0 0 0 0 0 0 0 0 0 0 0 0 0 0 0 0 0 0 0 0 0 0 0 0 0 0 0 0 0 0 0 0 0 0 0 0 0 0 0 0 0 0 0 0 0 0 0 0 0 0 0 0 0 0 0 0 0 0 0 0 0 0 0 0 0 0 0 0 0 0 0 0 0 2.1771 2.1848 2.1831 2.0643 2.0627 2.061 2.0765 2.0834 0 0 0 0 0 0 0 0 0 0 0 0 0 0 1.6966 1.6952 1.6997 0 1.816 1.8213 2.0564 2.0547 2.0444 2.0512 2.0495 0 2.004 2.0024 2.009 1.9909 1.9892 1.7202 1.7248 1.8204 1.792 1.7709 1.7824 1.7424 1.7409 1.7395 1.7133 1.7058 1.6924 1.6909 1.8241 1.6253 1.6294 1.9689 1.9754
1.0082 1.0075 1.0084 1.011 1.0153 1.018 1.0206 1.0216 1.026 1.0271 1.0264 1.0274 1.0284 1.0261 1.0288 1.0316 1.0343 1.0353 1.0347 1.0392 1.0403 1.0413 1.0477 1.0471 1.0464 1.0457 1.0485 1.0514 1.0525 1.05 1.0511 1.0486 1.0461 1.0472 1.0502 1.053 1.0523 1.0535 1.0582 1.0594 1.0623 1.0673 1.0722 1.0733 1.0745 1.0756 1.0788 1.0819 1.0831 1.0843 1.0836 1.0849 1.09 1.0912 1.0924 1.0937 1.093 1.1001 1.1015 1.1048 1.106 1.1073 1.1086 1.1099 1.1112 1.1125 1.1118 1.111 1.1103 1.1095 1.1088 1.1121 1.1135 1.1168 1.1224 1.1237 1.1229 1.1243 1.1236 1.1249 1.1263 1.1277 1.1269 1.1239 1.1232 1.1267 1.1303 1.1317 1.1352 1.1366 1.1424 1.1439 1.1475 1.1558 1.1572 1.1656 1.1694 1.171 1.1702 1.1716 1.1732 1.1747 1.1739 1.1731 1.1699 1.1691 1.1683 1.1675 1.1667 1.1682 1.1674 1.1666 1.1704 1.1744 1.176 1.1799 1.1791 1.1855 1.1896 1.1887 1.1928 1.192 1.1936 1.1952 1.1943 1.1886 1.1878 1.182 1.1788 1.1779 1.1771 1.1787 1.1803 1.1819 1.1933 1.2025 1.2171 1.2162 1.2153 1.2223 1.2214 1.2258 1.2249 1.2267 1.2285 1.2276 1.2321 1.2338 1.2329 1.2294 1.2311 1.2303 1.2321 1.2366 1.2412 1.243 1.2421 1.244 1.257 1.2589 1.2637 1.2685 1.2676 1.2694 1.2861 1.2852 1.2901 1.2952 1.2943 1.3023 1.3014 1.3036 1.3026 1.3047 1.2976 1.2966 1.2988 1.2947 1.2938 1.2959 1.298 1.2909 1.284 1.2831 1.2851 1.2962 1.3014 1.3066 1.3213 1.3333 1.3453 1.351 1.3635 1.3901 1.3961 1.381 1.387 1.3895 1.3373 1.3363 1.3353 1.3343 0 0 0 0 0 0 1.4328 1.4205 1.412 1.4146 1.4173 1.4274 1.434 1.4329 1.428 1.4308 1.4489 1.4518 1.4507 1.4694 0 0 0 0 0 0 0 0 0 0 0 0 0 0 0 0 0 0 0 0 0 0 0 0 0 0 0 0 0 0 0 0 0 0 0 0 0 0 0 0 0 0 0 0 0 0 0 0 0 0 0 0 0 0 0 0 0 0 0 0 0 0 0 0 0 0 0 0 0 0 0 0 0 0 0 0 0 0 0 0 0 0 0 0 0 0 0 0 0 0 0 0 0 0 0 0 0 0 0 0 0 0 0 1.6981 1.6967 1.7012 0 0 0 0 0 0 0 0 0 1.7474 1.7523 1.7445 1.7493 1.9667 1.6976 1.7021 1.8016 1.787 1.7724 1.7644 1.7694 1.7679 1.7535 1.727 1.7072 1.6999 1.6924 0 1.6266 1.6308 1.9707 1.8476
1.0088 1.0082 1.0075 1.0134 1.016 1.017 1.0213 1.0223 1.025 1.026 1.0253 1.0281 1.0258 1.0251 1.0278 1.0305 1.035 1.036 1.0353 1.0381 1.041 1.042 1.0449 1.046 1.0435 1.0428 1.0457 1.0521 1.0532 1.0507 1.0518 1.0511 1.0469 1.0479 1.0527 1.0556 1.0567 1.056 1.0572 1.0601 1.0612 1.0699 1.0729 1.0741 1.0752 1.0764 1.0795 1.0827 1.0838 1.0871 1.0843 1.0856 1.0907 1.09 1.0912 1.0925 1.0917 1.1009 1.1042 1.1035 1.1068 1.106 1.1074 1.1086 1.112 1.1133 1.1126 1.1097 1.109 1.1103 1.1095 1.1108 1.1122 1.1156 1.1189 1.1182 1.1216 1.1229 1.1222 1.1236 1.1271 1.1284 1.1298 1.1247 1.124 1.1297 1.1311 1.1325 1.136 1.1395 1.1455 1.1468 1.1483 1.1589 1.1603 1.1641 1.1656 1.1695 1.171 1.1725 1.174 1.1756 1.1748 1.1716 1.1731 1.1699 1.1715 1.1683 1.1699 1.169 1.1682 1.1698 1.1713 1.1753 1.1768 1.1783 1.1775 1.1839 1.188 1.192 1.1912 1.1928 1.192 1.1986 1.1952 1.1919 1.1935 1.1853 1.1821 1.1788 1.1779 1.182 1.1811 1.1827 1.1917 1.2009 1.2179 1.2145 1.2162 1.2231 1.2223 1.2267 1.2285 1.2276 1.2294 1.2285 1.2276 1.2347 1.2312 1.2303 1.2321 1.2339 1.2357 1.2375 1.2448 1.2467 1.243 1.2505 1.2636 1.2655 1.2674 1.2694 1.2713 1.2704 1.287 1.2861 1.2881 1.2932 1.2922 1.3003 1.3024 1.3045 1.3066 1.3026 1.3017 1.3007 1.2998 1.2988 1.2978 1.2999 1.2989 1.2889 1.285 1.2811 1.2801 1.2972 1.3055 1.3045 1.3223 1.3343 1.3463 1.3554 1.3713 1.3982 1.4081 1.3856 1.3916 1.3976 1.3383 1.3373 1.3363 1.3353 0 0 0 0 0 0 1.4339 1.4216 1.4131 1.4157 1.4221 1.4285 1.4389 1.4378 1.4291 1.4319 1.4461 1.449 1.4557 1.4706 0 0 0 0 0 0 0 0 0 0 0 0 0 0 0 0 0 0 0 0 0 0 0 0 0 0 0 0 0 0 0 0 0 0 0 0 0 0 0 0 0 0 0 0 0 0 0 0 0 0 0 0 0 0 0 0 0 0 0 0 0 0 0 0 0 0 0 0 0 0 0 0 0 0 0 0 0 0 0 0 0 0 0 0 0 0 0 0 0 0 0 0 0 0 0 0 0 0 0 0 0 0 0 1.6995 1.704 1.7026 0 0 0 0 0 0 0 0 0 1.7489 1.7537 1.746 1.7508 1.9684 1.6991 1.7035 1.7834 1.7819 1.7739 1.7531 1.7644 1.7825 1.7679 1.6688 1.6675 1.6952 1.6938 1.8273 1.628 1.6322 1.9723 1.8563
1.0143 1.0137 1.0147 1.0224 1.0267 1.0293 1.0305 1.0315 1.0359 1.0352 1.0345 1.0322 1.0298 1.0291 1.0318 1.0329 1.0374 1.0367 1.0378 1.0388 1.0417 1.0427 1.0456 1.0467 1.0442 1.0435 1.0464 1.0528 1.0539 1.0532 1.0544 1.0537 1.053 1.0558 1.0588 1.0618 1.0611 1.0604 1.0633 1.0645 1.0675 1.0725 1.0736 1.0748 1.076 1.0771 1.0821 1.0834 1.0865 1.0858 1.0871 1.0863 1.0915 1.0907 1.0939 1.0932 1.0925 1.0997 1.103 1.1042 1.1075 1.1089 1.1101 1.1114 1.1127 1.112 1.1133 1.1126 1.1118 1.1131 1.1124 1.1137 1.115 1.1163 1.1197 1.1189 1.1224 1.1237 1.1229 1.1264 1.1257 1.1271 1.1328 1.1299 1.1291 1.1326 1.134 1.1398 1.1411 1.1426 1.1507 1.1522 1.1514 1.1619 1.1611 1.1649 1.1664 1.1679 1.1695 1.1733 1.1725 1.174 1.1732 1.1724 1.1716 1.1708 1.1723 1.1715 1.1707 1.1699 1.1714 1.1706 1.1745 1.1761 1.18 1.1768 1.1783 1.1823 1.1888 1.1904 1.1921 1.1937 1.1928 1.1944 1.1936 1.1927 1.1943 1.1911 1.1902 1.1869 1.1861 1.1901 1.1893 1.1934 1.2026 1.212 1.2188 1.2154 1.2171 1.2267 1.2258 1.2249 1.2294 1.2285 1.2303 1.2294 1.2285 1.2356 1.2347 1.2312 1.2303 1.2321 1.2366 1.2412 1.2512 1.2644 1.2634 1.2683 1.2759 1.2779 1.2741 1.2732 1.2752 1.2772 1.288 1.29 1.292 1.2941 1.2932 1.3043 1.3095 1.3147 1.3138 1.3066 1.3026 1.3047 1.3037 1.3059 1.3018 1.3071 1.3186 1.302 1.2889 1.288 1.287 1.2861 1.319 1.3149 1.3139 1.3483 1.3473 1.3598 1.3758 1.4065 1.42 1.4153 1.407 1.406 1.3906 1.393 1.3991 1.4054 0 0 0 0 0 0 1.4543 1.4339 1.4291 1.4318 1.4384 1.4527 1.4556 1.4584 1.4494 1.4523 1.4591 1.458 1.4608 1.4717 0 0 0 0 0 0 0 0 0 0 0 0 0 0 0 0 0 0 0 0 0 0 0 0 0 0 0 0 0 0 0 0 0 0 0 0 0 0 0 0 0 0 0 0 0 0 0 0 0 0 0 0 0 0 0 0 0 0 0 0 0 0 0 0 0 0 0 0 0 0 0 0 0 0 0 0 0 0 0 0 0 0 0 0 0 0 0 0 0 0 0 0 0 0 0 0 0 0 0 0 0 0 0 1.7615 1.7538 1.7586 0 0 0 0 0 0 0 0 0 2.0342 2.0242 1.9976 1.9717 1.9622 1.9526 1.813 1.8115 1.81 1.8152 1.7804 1.7724 1.7774 1.7694 1.6703 1.6689 1.7978 1.803 1.8288 1.8273 1.8327 0 1.9172
1.0167 1.016 1.0186 1.0314 1.0325 1.0352 1.0345 1.0372 1.04 1.0394 1.0352 1.0345 1.0322 1.0315 1.0325 1.0336 1.0364 1.0374 1.0385 1.0413 1.0424 1.0434 1.0463 1.0474 1.0449 1.0442 1.0471 1.0535 1.0565 1.0539 1.0551 1.0544 1.0537 1.0584 1.0614 1.0644 1.0637 1.063 1.0659 1.069 1.0701 1.0751 1.0744 1.0755 1.0748 1.0778 1.081 1.0821 1.0853 1.0865 1.0878 1.089 1.0902 1.0915 1.0927 1.0939 1.0952 1.0984 1.0997 1.1009 1.1063 1.1075 1.1089 1.1101 1.1135 1.1148 1.112 1.1113 1.1147 1.1139 1.1131 1.1124 1.1158 1.1171 1.1205 1.1219 1.1232 1.1245 1.1237 1.1251 1.1286 1.13 1.1292 1.1285 1.1277 1.1334 1.1326 1.1384 1.1398 1.1434 1.1471 1.1507 1.1522 1.1605 1.1597 1.1634 1.1649 1.1665 1.1703 1.1719 1.1733 1.1749 1.1717 1.1709 1.1724 1.1716 1.1731 1.1723 1.1715 1.173 1.1722 1.1738 1.1753 1.1793 1.1808 1.18 1.1792 1.1831 1.1872 1.1888 1.1905 1.1921 1.1912 1.1953 1.192 1.1911 1.1927 1.1944 1.1886 1.1878 1.1869 1.1885 1.1927 1.1943 1.2034 1.2128 1.2197 1.2163 1.218 1.2249 1.2267 1.2258 1.2303 1.2321 1.2312 1.2277 1.232 1.2365 1.2356 1.2321 1.2338 1.2357 1.2348 1.2421 1.2494 1.2653 1.2673 1.2692 1.274 1.2789 1.275 1.2741 1.2761 1.2781 1.286 1.288 1.293 1.2921 1.2941 1.3053 1.3104 1.3157 1.3116 1.3076 1.3066 1.3056 1.3017 1.3007 1.2998 1.3049 1.3196 1.3061 1.2899 1.2919 1.297 1.321 1.3457 1.3253 1.3404 1.3661 1.355 1.3641 1.3733 1.4039 1.4138 1.4018 1.4008 1.4033 1.3987 1.4013 1.4075 1.4211 1.4201 0 0 0 1.5188 1.5176 1.4633 1.4389 1.4378 1.4406 1.4511 1.4578 1.4567 1.4556 1.4545 1.4534 1.4641 1.4591 1.458 0 0 0 0 0 0 0 0 0 0 0 0 0 0 0 0 0 0 0 0 0 0 0 0 0 0 0 0 0 0 0 0 0 0 0 0 0 0 0 0 0 0 0 0 0 0 0 0 0 0 0 0 0 0 0 0 0 0 0 0 0 0 0 0 0 0 0 0 0 0 0 0 0 0 0 0 0 0 0 0 0 0 0 0 0 0 0 0 0 0 0 0 0 0 0 0 0 0 0 0 0 0 0 0 0 0 0 0 0 0 0 0 0 0 0 0 1.9945 2.0091 1.9993 1.9655 1.9404 1.9388 1.9372 1.9203 1.9262 1.9323 1.7819 1.7805 1.9275 2.0743 2.0726 0 1.7665 1.765 2.2074 2.2055 2.2037 0 1.4722
1.0257 1.0266 1.0193 1.0459 1.0434 1.0428 1.0456 1.0467 1.0495 1.0488 1.0394 1.037 1.0363 1.0357 1.0367 1.0378 1.0371 1.0381 1.0374 1.0402 1.0413 1.0441 1.0488 1.0481 1.0456 1.0467 1.0496 1.0542 1.0553 1.0546 1.0576 1.0569 1.058 1.0646 1.0658 1.0688 1.0699 1.0692 1.0704 1.0735 1.0765 1.0758 1.0751 1.0744 1.0736 1.0748 1.0778 1.0791 1.0822 1.0873 1.0885 1.0897 1.0949 1.0942 1.0954 1.0987 1.0959 1.0992 1.0984 1.0997 1.1071 1.1063 1.1075 1.1089 1.1122 1.1135 1.1149 1.1141 1.1154 1.1147 1.116 1.1152 1.1165 1.1179 1.1234 1.1227 1.126 1.1275 1.1288 1.128 1.1316 1.1308 1.1322 1.1293 1.1285 1.1342 1.1313 1.137 1.1362 1.1398 1.1412 1.1448 1.1463 1.159 1.1582 1.1597 1.1634 1.1604 1.1687 1.1703 1.1695 1.1733 1.1702 1.1717 1.1709 1.1724 1.1763 1.1755 1.1747 1.1762 1.1754 1.1746 1.1761 1.1778 1.1793 1.1808 1.18 1.1816 1.1831 1.1872 1.1864 1.188 1.1872 1.1912 1.1904 1.1945 1.1961 1.1978 1.1944 1.1911 1.1927 1.1944 1.201 1.2026 1.2094 1.2163 1.2206 1.2197 1.2215 1.2258 1.2249 1.2293 1.2312 1.2329 1.2294 1.2312 1.2357 1.2429 1.2447 1.2384 1.2402 1.2393 1.2411 1.243 1.2531 1.272 1.2739 1.2759 1.2807 1.2828 1.2818 1.278 1.2829 1.282 1.2839 1.286 1.2909 1.29 1.2921 1.3002 1.3053 1.3104 1.3126 1.3116 1.3107 1.3128 1.3027 1.3017 1.3037 1.3059 1.3236 1.3164 1.3061 1.2899 1.3229 1.3412 1.35 1.3557 1.3614 1.3638 1.3527 1.355 1.3743 1.3943 1.4003 1.3922 1.3948 1.3972 1.3998 1.406 1.4195 1.4222 1.4211 0 0 0 1.5199 1.4937 1.4763 1.4476 1.4465 1.4533 1.46 1.4629 1.4618 1.4527 1.4556 1.4545 1.4613 1.4602 1.463 0 0 0 0 0 0 0 0 0 0 0 0 0 0 0 0 0 0 0 0 0 0 0 0 0 0 0 0 0 0 0 0 0 0 0 0 0 0 0 0 0 0 0 0 0 0 0 0 0 0 0 0 0 0 0 0 0 0 0 0 0 0 0 0 0 0 0 0 0 0 0 0 0 0 0 0 0 0 0 0 0 0 0 0 0 0 0 0 0 0 0 0 0 0 0 0 0 0 0 0 0 0 0 0 0 0 0 0 0 0 0 0 0 0 0 0 1.9962 2.0026 2.001 1.9437 1.9042 1.9176 1.9235 1.9219 1.9279 1.934 1.7835 1.782 1.9291 2.0761 2.0743 0 1.768 1.7665 2.2093 2.2805 2.2056 0 1.4735
1.0297 1.0341 1.0369 1.0501 1.0476 1.047 1.0498 1.0509 1.0537 1.0513 1.0419 1.0394 1.037 1.0364 1.0373 1.0385 1.0395 1.0388 1.0381 1.0427 1.042 1.0431 1.0495 1.047 1.0463 1.0474 1.0503 1.0567 1.0579 1.0572 1.0583 1.0594 1.0624 1.0653 1.0683 1.0714 1.0725 1.0699 1.0749 1.078 1.0791 1.0765 1.0758 1.0732 1.0763 1.0756 1.0767 1.0799 1.081 1.088 1.0912 1.0904 1.0977 1.0969 1.0982 1.1014 1.1007 1.0999 1.0992 1.1024 1.1057 1.1071 1.1083 1.1076 1.1109 1.1143 1.1135 1.1149 1.1141 1.1154 1.1147 1.1181 1.1173 1.1207 1.1242 1.1255 1.129 1.1282 1.1295 1.1309 1.1324 1.1338 1.133 1.1322 1.1314 1.135 1.1342 1.1335 1.137 1.1362 1.1398 1.1434 1.1471 1.1576 1.159 1.1628 1.162 1.1612 1.1673 1.1711 1.1703 1.1719 1.1711 1.1725 1.1694 1.1709 1.1772 1.1764 1.1755 1.1747 1.1739 1.1754 1.177 1.1762 1.1778 1.1817 1.1785 1.18 1.1817 1.1832 1.1872 1.1864 1.1856 1.1921 1.1912 1.1978 1.1969 1.2011 1.2002 1.1944 1.1961 1.2002 1.2044 1.2086 1.2155 1.2223 1.2215 1.2206 1.2224 1.2267 1.2258 1.2276 1.2321 1.2312 1.233 1.2321 1.2366 1.2465 1.2456 1.2393 1.2438 1.2429 1.2448 1.2466 1.2568 1.2787 1.2806 1.2797 1.2875 1.2895 1.2857 1.2848 1.2868 1.2858 1.2879 1.287 1.289 1.291 1.293 1.3011 1.3062 1.3114 1.3167 1.3126 1.3148 1.3169 1.3036 1.3057 1.3078 1.3069 1.3183 1.3205 1.3196 1.3217 1.3432 1.3487 1.3543 1.36 1.3727 1.3681 1.3503 1.3527 1.372 1.3989 1.4014 1.4004 1.4029 1.4019 1.3938 1.4034 1.4205 1.4458 1.4882 1.4993 1.4982 1.4808 1.4797 1.4786 1.4735 1.4487 1.4439 1.4504 1.4611 1.464 1.4629 1.4578 1.4567 1.4556 1.4585 1.4574 1.4563 0 0 0 0 0 0 0 0 0 0 0 0 0 0 0 0 0 0 0 0 0 0 0 0 0 0 0 0 0 0 0 0 0 0 0 0 0 0 0 0 0 0 0 0 0 0 0 0 0 0 0 0 0 0 0 0 0 0 0 0 0 0 0 0 0 0 0 0 0 0 0 0 0 0 0 0 0 0 0 0 0 0 0 0 0 0 0 0 0 0 0 0 0 0 0 0 0 0 0 0 0 0 0 0 0 0 0 0 0 0 0 0 0 1.9244 1.9304 1.9288 1.9272 1.9962 1.9945 1.9376 1.9132 1.9116 1.9176 1.9235 1.9295 1.9356 1.8389 1.8374 1.9619 2.1516 2.1498 0 0 0 2.3742 2.3605 2.3819 0 1.4748
1.0337 1.0383 1.0427 1.0508 1.0483 1.0476 1.0488 1.0498 1.0527 1.052 1.0442 1.0419 1.0394 1.037 1.0415 1.0408 1.0402 1.0395 1.0406 1.0416 1.0427 1.0438 1.0484 1.0459 1.0452 1.0463 1.0492 1.0556 1.0567 1.0579 1.0608 1.062 1.0631 1.0697 1.0709 1.074 1.0752 1.0744 1.0775 1.0806 1.0799 1.0792 1.0784 1.0758 1.0751 1.0763 1.0793 1.0786 1.0817 1.0849 1.088 1.0893 1.0944 1.0937 1.0949 1.0982 1.0955 1.1007 1.1019 1.1032 1.1065 1.1057 1.1071 1.1104 1.1116 1.1151 1.1143 1.1156 1.1149 1.1162 1.1175 1.1168 1.1202 1.1194 1.125 1.1263 1.1298 1.1311 1.1303 1.1339 1.1353 1.1345 1.1338 1.133 1.13 1.1336 1.1328 1.1342 1.1356 1.137 1.1384 1.142 1.1435 1.1561 1.1553 1.159 1.1605 1.162 1.1657 1.1696 1.1711 1.1703 1.1719 1.1711 1.1725 1.1717 1.1733 1.1772 1.1764 1.1755 1.1747 1.1739 1.1754 1.177 1.1762 1.1802 1.1793 1.1808 1.1825 1.184 1.1856 1.1848 1.1864 1.1929 1.197 1.2012 1.2028 1.207 1.2036 1.2002 1.1994 1.2061 1.2078 1.212 1.2189 1.2232 1.225 1.2215 1.2259 1.2276 1.2293 1.2311 1.2356 1.2374 1.2338 1.2356 1.2401 1.2502 1.2493 1.2429 1.2448 1.2466 1.2457 1.2475 1.2605 1.2825 1.2845 1.2865 1.2885 1.2905 1.2896 1.2886 1.2877 1.2898 1.2918 1.2879 1.2928 1.2919 1.294 1.3021 1.3072 1.3124 1.3177 1.3167 1.3189 1.3179 1.3107 1.3098 1.3088 1.314 1.3162 1.3246 1.3301 1.3355 1.3409 1.3531 1.3554 1.3645 1.3737 1.3659 1.3383 1.3276 1.3939 1.4 1.4024 1.3872 1.3933 1.3958 1.3983 1.4117 1.4179 1.4133 1.4233 1.4222 1.4249 1.4659 1.4728 1.4717 1.4666 1.446 1.4487 1.4555 1.4662 1.4651 1.464 1.4589 1.4618 1.4607 1.4596 1.4545 1.4417 1.4446 1.4021 1.3973 1.4184 0 0 0 0 0 0 0 0 0 0 0 0 0 0 0 0 0 0 0 0 0 0 0 0 0 0 0 0 0 0 0 0 0 0 0 0 0 0 0 0 0 0 0 0 0 0 0 0 0 0 0 0 0 0 0 0 0 0 0 0 0 0 0 0 0 0 0 0 0 0 0 0 0 0 0 0 0 0 0 0 0 0 0 0 0 0 0 0 0 0 0 0 0 0 0 0 0 0 0 0 0 0 0 1.9508 1.9492 1.9476 1.9772 1.9836 1.974 1.926 1.932 1.9304 1.944 2.0142 2.0126 1.909 1.9148 1.9058 1.9117 1.9251 1.9235 1.9372 1.8405 1.839 1.8874 1.8858 1.8915 0 0 0 2.388 2.3742 2.3839 0 1.476
1.043 1.0458 1.0487 1.0515 1.049 1.0467 1.0495 1.0523 1.0534 1.0527 1.0467 1.0442 1.0436 1.0429 1.0457 1.045 1.0461 1.0436 1.0448 1.0441 1.0469 1.048 1.0491 1.0466 1.0477 1.0488 1.0517 1.06 1.0611 1.0622 1.0652 1.0664 1.0712 1.0761 1.0773 1.0804 1.0797 1.0809 1.0839 1.0851 1.0844 1.0837 1.081 1.0784 1.0777 1.077 1.08 1.0813 1.0825 1.0856 1.0888 1.09 1.0932 1.0944 1.0937 1.0989 1.0962 1.0975 1.0987 1.1019 1.1053 1.1045 1.1058 1.1112 1.1145 1.1158 1.1172 1.1164 1.1198 1.1191 1.1183 1.1196 1.1189 1.1223 1.1236 1.125 1.1306 1.1319 1.1333 1.1325 1.1361 1.1353 1.1346 1.1316 1.1308 1.1344 1.1336 1.135 1.1364 1.1357 1.1392 1.1428 1.1442 1.1546 1.1538 1.1576 1.1591 1.1605 1.1665 1.1728 1.172 1.1735 1.1727 1.1742 1.1733 1.1725 1.1765 1.178 1.1772 1.1764 1.1779 1.1771 1.1763 1.1803 1.1795 1.181 1.1802 1.1842 1.1857 1.1848 1.1889 1.1881 1.1873 1.1938 1.2003 1.2121 1.2138 1.2155 1.2121 1.2112 1.2103 1.2171 1.2163 1.2181 1.2172 1.2215 1.2285 1.225 1.2293 1.2337 1.2356 1.2374 1.2391 1.2437 1.2428 1.2446 1.2492 1.2594 1.2557 1.2493 1.2511 1.253 1.2493 1.254 1.2671 1.2893 1.2913 1.2933 1.2924 1.2945 1.2965 1.2926 1.2917 1.2937 1.2927 1.2918 1.2968 1.2959 1.2949 1.3031 1.3082 1.3134 1.3187 1.3177 1.3198 1.322 1.3179 1.317 1.316 1.315 1.3235 1.332 1.3439 1.3527 1.3584 1.3641 1.3631 1.3689 1.3815 1.3737 1.3263 1.3287 1.3985 1.401 1.4035 1.3848 1.3908 1.4004 1.4065 1.4276 1.4265 1.4254 1.4244 1.4233 1.4526 1.4631 1.4739 1.4728 1.4637 1.4509 1.4577 1.4605 1.4713 1.4662 1.4691 1.468 1.4669 1.4658 1.4607 1.4636 1.4428 1.4303 1.4179 1.4094 1.4195 0 0 0 0 0 0 0 0 0 0 0 0 0 0 0 0 0 0 0 0 0 0 0 0 0 0 0 0 0 0 0 0 0 0 0 0 0 0 0 0 0 0 0 0 0 0 0 0 0 0 0 0 0 0 0 0 0 0 0 0 0 0 0 0 0 0 0 0 0 0 0 0 0 0 0 0 0 0 0 0 0 0 0 0 0 0 0 0 0 0 0 0 0 0 0 0 0 0 0 0 0 0 0 1.9524 1.9508 1.9805 1.9789 1.9772 1.9677 1.9428 1.9412 1.9473 1.9691 2.0496 2.0479 2.0463 0 0 0 0 0 0 0 1.8906 1.889 1.8874 1.8931 0 0 0 0 0 0 0 1.4956
