-0.093863 -0.09316 -0.092422 -0.091684 -0.091019 -0.090389 -0.088494 -0.087908 -0.087389 -0.0868 -0.085596 -0.084976 -0.084288 -0.083534 -0.082881 -0.082195 -0.081574 -0.08105 -0.080268 -0.079614 -0.078961 -0.078308 -0.079017 -0.078352 -0.077596 -0.076932 -0.076089 -0.075396 -0.074028 -0.073314 -0.072659 -0.071889 -0.071263 -0.070608 -0.069981 -0.069382 -0.068808 -0.06891 -0.06838 -0.067875 -0.066683 -0.066048 -0.065979 -0.065184 -0.064417 -0.063752 -0.062963 -0.062226 -0.06166 -0.061211 -0.060521 -0.059785 -0.059073 -0.058317 -0.057585 -0.056967 -0.056348 -0.05564 -0.054869 -0.054121 -0.053439 -0.052528 -0.05187 -0.051416 -0.050916 -0.050253 -0.049591 -0.049024 -0.048361 -0.047828 -0.04707 -0.046406 -0.045777 -0.045077 -0.044395 -0.043646 -0.04256 -0.041938 0 0 0 0 0 0 0 0 0 0 0 0 0 0 0 0 0 0 0 0 -0.017189 -0.016788 -0.016387 -0.015955 -0.015555 -0.015155 -0.014764 -0.014354 -0.013926 -0.013456 -0.012888 -0.012495 -0.012087 -0.011664 -0.011259 -0.010854 -0.010443 -0.010048 -0.0095881 -0.009134 -0.0087512 -0.0083626 -0.0079583 -0.0075717 -0.0071757 -0.0067766 -0.0063927 -0.0060012 -0.0056228 -0.0052119 -0.0048358 -0.0044536 -0.0040752 -0.0036974 -0.0033178 -0.0029412 -0.0025527 -0.0021806 -0.0018084 -0.0014343 -0.0010619 -0.00069008 -0.00031854 5.1998e-05 0.00042202 0.00079095 0.0011597 0.0015268 0.0018942 0.0022611 0.0026237 0.0029891 0.0033539 0.0037155 0.004079 0.0044451 0.0048079 0.0051738 0.0055357 0.0058971 0.0062625 0.0066231 0.0069882 0.0073533 0.0077129 0.008072 0.0084365 0.0088011 0.0091657 0.0095235 0.0098807 0.010238 0.010586 0.010934 0.011288 0.011642 0.011996 0.012358 0.012711 0.013073 0.013434 0.013796 0.014147 0.014509 0.01486 0.015221 0.015571 0.015932 0.016293 0.016654 0.017014 0.017375 0.017724 0.018097 0.018458 0.018833 0.019194 0.019555 0.019916 0.020278 0.020639 0.021 0.021361 0.021722 0.022099 0.022445 0.022806 0.023167 0.023528 0.02389 0.024251 0.024612 0.024991 0.025353 0.025714 0.026169 0.026513 0 0 0 0 0 0 0.025145 0.025459 0 0 0 0 0 0 0 0.027202 0.027508 0.027837 0.028142 0.028447 0.028655 0.028959 0.029263 0.029517 0.029795 0.030125 0.030429 0.030733 0.030983 0.031287 0.031617 0.03214 0.032418 0.032723 0.033029 0.033334 0.03364 0.033945 0.03425 0.034526 0.034832 0.035137 0.035472 0.035777 0.036083 0.036419 0.036725 0.036999 0.037305 0.037867 0.038207 0.038514 0.038855 0.039262 0.039605 0.039947 0.040257 0.040566 0.040876 0.041185 0 0 0 0 0.056591 0.057001 0.057484 0.057967 0.058378 0 0 0 0.098677 0.099428 0.099795 0.10055 0.10122 0.099926 0.10063 0.10149 0.10215 0.10293 0.10327 0.10393 0.10459 0.10542 0.10613 0.10691 0.10741 0.10812 0.10809 0.10828 0.10898 0.10915 0.10967 0.11033 0.11098 0.11163 0.1126 0.1147 0.1154 0.11588 0.11664 0.11785 0.11857 0.11923 0.1199 0.12047 0.12123 0.12189 0.12169 0.1224 0.12311 0.12382 0.12473 0.12539 0.12601 0.12672 0.12733 0.12795 0.12866 0.12937 0.13014 0.13065 0.1311 0.13166 0.13227 0.13246 0.13291 0.13293 0.13358 0.13531 0.13586 0.13646 0.13718 0.13756 0.13839 0.13904 0.13976 0.14058 0.13985 0.1405 0.14228 0.14243 0.14331
-0.093799 -0.09306 -0.092322 -0.091549 -0.090885 -0.090362 -0.088467 -0.087811 -0.087259 -0.086636 -0.085638 -0.084915 -0.084228 -0.083507 -0.082821 -0.082135 -0.081547 -0.081023 -0.080241 -0.079556 -0.078934 -0.078281 -0.078928 -0.078264 -0.077599 -0.076875 -0.076031 -0.075369 -0.074001 -0.0732 -0.072545 -0.071833 -0.071179 -0.070581 -0.069899 -0.069272 -0.068754 -0.06891 -0.068219 -0.067901 -0.066656 -0.06602 -0.065951 -0.06508 -0.064289 -0.0636 -0.062961 -0.062174 -0.061512 -0.06116 -0.060494 -0.05964 -0.059046 -0.058198 -0.057558 -0.056895 -0.056387 -0.055678 -0.054841 -0.05403 -0.053412 -0.052501 -0.051843 -0.051388 -0.050888 -0.050226 -0.049563 -0.048997 -0.048333 -0.047801 -0.047043 -0.04636 -0.045714 -0.044944 -0.044264 -0.043601 -0.042534 -0.041911 0 0 0 0 0 0 0 0 0 0 0 0 0 0 0 0 0 0 0 0 -0.017173 -0.016772 -0.016371 -0.015939 -0.015538 -0.015158 -0.014767 -0.014366 -0.013964 0 -0.012872 -0.012488 -0.012079 -0.011648 -0.011243 -0.010838 -0.010434 -0.010039 -0.0095722 -0.0091183 -0.0087295 -0.0083413 -0.0079427 -0.007556 -0.0071502 -0.006761 -0.0063772 -0.0059856 -0.0056111 -0.0051964 -0.004817 -0.0044382 -0.0040627 -0.003682 -0.0033047 -0.0029279 -0.0025374 -0.0021668 -0.0017932 -0.00142 -0.0010474 -0.00067532 -0.00030333 6.7197e-05 0.0004372 0.00080612 0.0011748 0.0015419 0.0019093 0.0022746 0.0026388 0.0030041 0.0033689 0.0037305 0.004094 0.004457 0.0048229 0.0051888 0.0055507 0.0059121 0.0062775 0.0066381 0.0070032 0.0073683 0.0077279 0.0080869 0.0084515 0.0088161 0.0091741 0.0095384 0.0098886 0.010252 0.010593 0.010948 0.011303 0.011657 0.012011 0.012373 0.012735 0.013097 0.013449 0.013811 0.014172 0.014524 0.014875 0.015236 0.015586 0.015946 0.016307 0.016668 0.017029 0.01739 0.017751 0.018112 0.018473 0.018848 0.019209 0.01957 0.019931 0.020292 0.020654 0.021015 0.021376 0.021737 0.022114 0.022476 0.022837 0.023199 0.02356 0.023921 0.024283 0.024644 0.025024 0.025404 0.025803 0.026184 0.026528 0 0 0 0 0 0 0 0 0 0 0 0 0 0 0 0.027215 0.02752 0.027825 0.028154 0.028436 0.028692 0.028947 0.029251 0.029555 0.029833 0.030111 0.030441 0.030719 0.030996 0.031299 0.031629 0.032152 0.03243 0.03268 0.032985 0.033347 0.033652 0.033958 0.034263 0.034539 0.034844 0.035149 0.035485 0.03579 0.036096 0.036432 0.036738 0.037012 0.037317 0.037847 0.038187 0.038494 0.038868 0.039275 0.039584 0.039926 0.040236 0.040579 0.040854 0.041197 0 0 0 0 0.056608 0.057054 0.057501 0.057947 0.058395 0 0 0 0 0 0.099862 0.1005 0.10125 0.099953 0.10065 0.10151 0.10218 0.10296 0.1033 0.10396 0.10462 0.10545 0.10615 0.10694 0.10744 0.10814 0.10812 0.1083 0.10866 0.10918 0.10975 0.11035 0.11105 0.11175 0.11263 0.11472 0.11543 0.11591 0.11667 0.11783 0.11859 0.11912 0.11988 0.12045 0.12111 0.12192 0.12163 0.12238 0.12309 0.1237 0.12451 0.12527 0.12594 0.1266 0.12716 0.12777 0.12848 0.1293 0.13016 0.13067 0.13103 0.13169 0.13219 0.13228 0.13262 0.13301 0.13361 0.13523 0.13583 0.13622 0.13688 0.13748 0.13825 0.13913 0.13973 0.14061 0.13987 0.14053 0.14231 0.14251 0.14289
-0.093661 -0.09296 -0.09215 -0.091342 -0.090679 -0.089981 -0.088194 -0.087679 -0.087128 -0.086437 -0.085543 -0.084787 -0.084201 -0.083414 -0.082761 -0.082043 -0.08087 -0.080222 -0.080182 -0.079529 -0.078907 -0.078223 -0.077662 -0.077101 -0.076446 -0.075912 -0.075286 -0.07466 -0.073739 -0.073115 -0.07246 -0.071806 -0.071152 -0.070498 -0.069844 -0.06919 -0.068563 -0.068369 -0.067683 -0.066945 -0.066208 -0.065551 -0.065023 -0.06439 -0.064211 -0.063448 -0.062118 -0.061487 -0.060759 -0.060152 -0.059993 -0.05945 -0.058787 -0.057439 -0.056785 -0.056331 -0.05563 -0.055018 -0.05462 -0.053982 -0.0533 -0.052183 -0.051529 -0.050875 -0.050281 -0.049626 -0.049029 -0.048355 -0.047699 -0.047212 -0.046591 -0.045897 -0.045418 -0.044828 -0.044167 -0.043471 -0.042388 -0.041751 0 0 0 0 0 0 0 0 0 0 0 0 0 0 0 0 0 0 0 0 0 -0.01656 -0.016163 -0.015808 -0.015421 -0.015073 -0.014693 -0.014265 -0.013867 -0.013424 -0.01289 -0.012488 -0.012071 -0.011632 -0.011227 -0.010822 -0.010426 -0.010029 -0.0095693 -0.0091088 -0.0087198 -0.0083256 -0.007927 -0.0075455 -0.0071248 -0.0067454 -0.0063616 -0.0059783 -0.0055917 -0.005181 -0.0048016 -0.0044228 -0.0040472 -0.0036666 -0.003287 -0.0029125 -0.0025292 -0.0021545 -0.0017791 -0.0014058 -0.0010322 -0.00066008 -0.00028812 8.2336e-05 0.00045239 0.00082071 0.00119 0.0015559 0.0019244 0.0022897 0.0026539 0.0030192 0.003384 0.0037456 0.0041091 0.004472 0.0048345 0.0052001 0.0055657 0.0059271 0.0062925 0.0066531 0.0070182 0.0073833 0.0077428 0.0081077 0.0084665 0.0088311 0.0091891 0.0095534 0.0099035 0.010253 0.010616 0.010963 0.011318 0.011672 0.012034 0.012388 0.01275 0.013112 0.013474 0.013826 0.014187 0.014539 0.014889 0.015251 0.0156 0.015961 0.016322 0.016683 0.017044 0.017405 0.017766 0.01814 0.018488 0.018862 0.019224 0.019585 0.019946 0.020307 0.020668 0.02103 0.021391 0.021752 0.022129 0.022491 0.022852 0.023214 0.023575 0.023936 0.024315 0.024677 0.025057 0.025437 0.025818 0.026199 0.026581 0 0 0 0 0 0 0 0 0 0 0 0 0 0 0 0.027204 0.027533 0.027838 0.028143 0.028424 0.028704 0.028959 0.029263 0.029542 0.02982 0.030124 0.030454 0.030731 0.031008 0.031311 0.031642 0.031946 0.032249 0.032664 0.032969 0.033132 0.033435 0.033738 0.034042 0.034345 0.034618 0.034982 0.035225 0.035528 0.036016 0.036289 0.036594 0.036929 0.037521 0.03786 0.038167 0.038507 0.038848 0.039222 0.039597 0.039906 0.040248 0.040557 0.040866 0.041175 0 0 0 0 0.056625 0.057071 0.057517 0.057964 0.058412 0.058822 0.059233 0 0 0 0 0.09788 0.098575 0.09998 0.09961 0.1003 0.10092 0.10161 0.10198 0.10264 0.10329 0.10415 0.10476 0.10541 0.10573 0.10647 0.10703 0.10777 0.10847 0.10916 0.10973 0.11042 0.11108 0.11177 0.11252 0.11335 0.11401 0.11484 0.11554 0.11625 0.11825 0.11891 0.11939 0.11859 0.11929 0.1199 0.1205 0.12111 0.12268 0.12354 0.12444 0.12515 0.12576 0.12638 0.12704 0.1277 0.12836 0.12912 0.12999 0.12952 0.12935 0.13005 0.13092 0.13157 0.13228 0.13293 0.13342 0.13418 0.13516 0.13592 0.13663 0.1374 0.13795 0.13783 0.13854 0.14047 0.13945 0.14016 0.14109 0.14175 0.14251
-0.090737 -0.090529 -0.089881 -0.091243 -0.089405 -0.088786 -0.088097 -0.087478 -0.086859 -0.08617 -0.085311 -0.084557 -0.083906 -0.083154 -0.08247 -0.081688 -0.080909 -0.080195 -0.079675 -0.07928 -0.078629 -0.077946 -0.077295 -0.076736 -0.076176 -0.075614 -0.07505 -0.074307 -0.073595 -0.072913 -0.072261 -0.071637 -0.070984 -0.070387 -0.069706 -0.069081 -0.0684 -0.067855 -0.067281 -0.066626 -0.065971 -0.065291 -0.06461 -0.063701 -0.0631 -0.062398 -0.061499 -0.06085 -0.05979 -0.059025 -0.058382 -0.057739 -0.057072 -0.057001 -0.056351 -0.056059 -0.055405 -0.054685 -0.054011 -0.053379 -0.052726 -0.052011 -0.051379 -0.050747 -0.050134 -0.049481 -0.048905 -0.048212 -0.047596 -0.046961 -0.046306 -0.045615 -0.044961 -0.044307 -0.043653 -0.04305 -0.042362 -0.041707 0 0 0 0 0 0 0 0 0 0 0 0 0 0 0 0 0 0 0 0 0 -0.016532 -0.016168 -0.015782 -0.015415 -0.015066 -0.014667 -0.014258 -0.013841 -0.013425 -0.012873 -0.012472 -0.012055 -0.011616 -0.011203 -0.010806 -0.01041 -0.010013 -0.0095341 -0.0090807 -0.0086981 -0.0083042 -0.0079006 -0.0075093 -0.0071093 -0.0067252 -0.0063417 -0.0059587 -0.0055762 -0.0051655 -0.0047862 -0.0044073 -0.0040318 -0.0036512 -0.0032739 -0.0028972 -0.0025157 -0.0021407 -0.0017651 -0.0013905 -0.0010176 -0.00064484 -0.00027291 9.7528e-05 0.00046725 0.00083587 0.0012034 0.0015711 0.0019368 0.0023032 0.002669 0.0030343 0.003399 0.0037606 0.0041241 0.004487 0.0048495 0.0052188 0.0055807 0.0059421 0.0063075 0.0066681 0.0070332 0.0073983 0.0077578 0.0081169 0.0084814 0.0088397 0.009204 0.0095615 0.0099113 0.010268 0.010623 0.010978 0.011333 0.011687 0.012041 0.012403 0.012764 0.013126 0.013479 0.013831 0.014192 0.014553 0.014904 0.015265 0.015604 0.015965 0.016325 0.016686 0.017059 0.01742 0.017781 0.018142 0.018503 0.018877 0.019238 0.0196 0.019961 0.020322 0.020683 0.021044 0.021406 0.021767 0.022144 0.022505 0.022867 0.023228 0.02359 0.023951 0.02433 0.024692 0.025072 0.025452 0.025851 0.026214 0.026596 0 0 0 0 0 0 0 0 0 0 0 0 0 0.026607 0.026912 0.027147 0.027498 0.027827 0.028132 0.028461 0.028643 0.028922 0.029226 0.029504 0.029807 0.030111 0.030414 0.030691 0.030994 0.031297 0.031627 0.031958 0.032206 0.032509 0.032841 0.033115 0.033419 0.033722 0.033995 0.034298 0.034601 0.034904 0.035207 0.03551 0.035874 0.036177 0.036481 0.03691 0.037279 0.037583 0.038147 0.038454 0.038827 0.039168 0.039509 0.039817 0.040125 0.040433 0.040879 0.041188 0 0 0 0 0.056642 0.057051 0.057498 0.057944 0.058429 0.058839 0.05925 0 0 0 0.095899 0.096584 0.097662 0.098549 0.0992 0.10013 0.10074 0.10136 0.10197 0.10258 0.10332 0.10393 0.10462 0.10523 0.10584 0.10637 0.10698 0.10771 0.10836 0.10902 0.10962 0.11032 0.11097 0.11171 0.11237 0.11306 0.11371 0.11437 0.11497 0.11549 0.11614 0.11679 0.11758 0.11786 0.1187 0.1194 0.1201 0.1207 0.12271 0.12342 0.12403 0.12291 0.12356 0.12421 0.12656 0.12732 0.12793 0.12828 0.12761 0.12836 0.12922 0.13008 0.13073 0.13144 0.13204 0.13264 0.13324 0.13394 0.1347 0.13541 0.13617 0.13666 0.13726 0.13769 0.13823 0.13894 0.13943 0.14008 0.14073 0.14144 0.14209
-0.09082 -0.09032 -0.089854 0 -0.089378 -0.08876 -0.088105 -0.087347 -0.086694 -0.08604 -0.085148 -0.084463 -0.083778 -0.082994 -0.082311 -0.081596 -0.080817 -0.080104 -0.079553 -0.079095 -0.078445 -0.077732 -0.077114 -0.076525 -0.076058 -0.075557 -0.075023 -0.07434 -0.073539 -0.072741 -0.072118 -0.071467 -0.070844 -0.070332 -0.069679 -0.068971 -0.068373 -0.067855 -0.067174 -0.066546 -0.065866 -0.065238 -0.064455 -0.063674 -0.063073 -0.062371 -0.061472 -0.060823 -0.059763 -0.058999 -0.058332 -0.057689 -0.057069 -0.056974 -0.056324 -0.055965 -0.055312 -0.054659 -0.053984 -0.053331 -0.052657 -0.051943 -0.051291 -0.05068 -0.050087 -0.049434 -0.048839 -0.048147 -0.047475 -0.046878 -0.046242 -0.045588 -0.044934 -0.04428 -0.043626 -0.043023 -0.042335 -0.04168 0 0 0 0 0 0 0 0 0 0 0 0 0 0 0 0 0 0 0 0 0 -0.016516 -0.016162 -0.015776 -0.015398 -0.01504 -0.01465 -0.014242 -0.013834 -0.013418 -0.012857 -0.012464 -0.012023 -0.011585 -0.011195 -0.01079 -0.010401 -0.010011 -0.0095183 -0.009065 -0.0086765 -0.0082829 -0.0078849 -0.0074937 -0.0071034 -0.0067142 -0.0063261 -0.0059431 -0.0055606 -0.0051501 -0.0047708 -0.0043919 -0.0040164 -0.0036358 -0.0032585 -0.0028818 -0.0025003 -0.0021254 -0.0017498 -0.0013752 -0.0010024 -0.00063005 -0.0002577 0.00011279 0.00048243 0.00085042 0.0012186 0.0015851 0.0019519 0.0023182 0.0026841 0.0030515 0.0034165 0.0037783 0.0041421 0.0045053 0.0048679 0.0052338 0.0055957 0.0059571 0.0063225 0.006683 0.0070481 0.0074132 0.0077728 0.0081318 0.0084964 0.0088547 0.009219 0.0095764 0.0099263 0.010282 0.010638 0.010993 0.011348 0.011702 0.012055 0.012417 0.012779 0.013132 0.013494 0.013845 0.014207 0.014568 0.014919 0.01528 0.015619 0.015979 0.01634 0.016701 0.017074 0.017435 0.017809 0.01817 0.018531 0.018892 0.019253 0.019629 0.01999 0.020352 0.020698 0.021059 0.021436 0.021797 0.022159 0.02252 0.022882 0.023243 0.023605 0.023983 0.024345 0.024724 0.025105 0.025467 0.025866 0.026248 0.026611 0 0 0 0 0 0 0 0 0 0 0 0 0 0.02662 0.026924 0.027206 0.027487 0.027815 0.02812 0.028473 0.028656 0.028934 0.029213 0.029516 0.029794 0.030097 0.0304 0.030703 0.03098 0.031309 0.03164 0.031943 0.032219 0.032522 0.032825 0.033128 0.033402 0.033705 0.034008 0.034281 0.034613 0.034886 0.035189 0.035522 0.035856 0.036159 0.036493 0.036923 0.037291 0.037596 0.03816 0.038467 0.03884 0.039147 0.039522 0.03983 0.040138 0.040446 0.040926 0.041236 0 0 0 0 0.056659 0.057105 0.057514 0.057998 0.058445 0 0 0 0 0 0.095925 0.096611 0.097689 0.098575 0.099147 0.10004 0.10069 0.10134 0.10187 0.10261 0.10326 0.10391 0.10456 0.10513 0.10578 0.10635 0.107 0.1077 0.10835 0.10904 0.10961 0.11026 0.11095 0.11156 0.1123 0.11304 0.11356 0.11407 0.11472 0.11551 0.11617 0.11682 0.11761 0.11788 0.11853 0.11933 0.12008 0.12073 0.12279 0.1234 0.12405 0.12294 0.12359 0.12424 0.12664 0.12725 0.12796 0.12831 0.12764 0.12839 0.12925 0.12985 0.13071 0.13136 0.13201 0.13251 0.13305 0.13381 0.13462 0.13533 0.13604 0.13658 0.13718 0.13767 0.13815 0.1388 0.13934 0.13994 0.14058 0.14141 0.14205
-0.090684 -0.090112 -0.089394 0 -0.088568 -0.087884 -0.087833 -0.087216 -0.086632 -0.085945 -0.085054 -0.084369 -0.083651 -0.082868 -0.082153 -0.081471 -0.08066 -0.080013 -0.079462 -0.078909 -0.078261 -0.077581 -0.076933 -0.076376 -0.075545 -0.074927 -0.074728 -0.073632 -0.07316 -0.07251 -0.071947 -0.071297 -0.070619 -0.069772 -0.069319 -0.068779 -0.067992 -0.067207 -0.066532 -0.065884 -0.065419 -0.064769 -0.063965 -0.062986 -0.062366 -0.061721 -0.061051 -0.060406 -0.059616 -0.058949 -0.058282 -0.057639 -0.056973 -0.056353 -0.055733 -0.055201 -0.054469 -0.053847 -0.053957 -0.053283 -0.052547 -0.051833 -0.051202 -0.050551 -0.049461 -0.048816 -0.048618 -0.047295 -0.046653 -0.045992 -0.04535 -0.044672 -0.044031 -0.043389 -0.042748 -0.042107 -0.041331 -0.040691 0 0 0 0 0 0 0 0 0 0 0 0 0 0 0 0 0 0 0 -0.017292 -0.016896 -0.016532 -0.016146 -0.015759 -0.015382 -0.015033 -0.014644 -0.014235 -0.013826 -0.013401 -0.012858 -0.012464 -0.012039 -0.0116 -0.011208 -0.010738 -0.010308 -0.0099214 -0.009464 -0.0090493 -0.0086608 -0.0082729 -0.0078747 -0.0074832 -0.0070976 -0.0066987 -0.0063149 -0.0059235 -0.0055489 -0.0051382 -0.0047586 -0.0043765 -0.004001 -0.0036204 -0.0032432 -0.0028664 -0.0024798 -0.0021086 -0.0017345 -0.0013599 -0.00098779 -0.00061479 -0.00024249 0.00012799 0.00049761 0.00086557 0.0012337 0.0016013 0.0019684 0.0023333 0.0026991 0.0030666 0.0034316 0.0037934 0.0041601 0.0045235 0.0048864 0.0052488 0.0056147 0.0059721 0.0063374 0.006698 0.0070631 0.0074282 0.0077878 0.0081526 0.0085114 0.0088696 0.0092339 0.0095982 0.0099412 0.010297 0.010661 0.011008 0.011363 0.011717 0.01207 0.012432 0.012785 0.013147 0.013499 0.01386 0.014222 0.014583 0.014934 0.015306 0.015634 0.015994 0.016355 0.016716 0.017101 0.017462 0.017823 0.018184 0.018546 0.01892 0.019282 0.019643 0.020019 0.020366 0.020728 0.021089 0.021451 0.021812 0.02219 0.022535 0.022913 0.023275 0.023619 0.023998 0.024377 0.024739 0.025119 0.0255 0.0259 0.026263 0.026626 0 0 0 0 0 0 0 0 0 0 0 0 0 0.026655 0.026937 0.027242 0.0275 0.027804 0.028108 0.028388 0.028643 0.028922 0.029226 0.029503 0.029806 0.03011 0.030387 0.030689 0.030992 0.031295 0.031625 0.031955 0.032203 0.032506 0.032837 0.033112 0.033415 0.033717 0.033991 0.034294 0.034596 0.034899 0.035171 0.035443 0.035837 0.03614 0.036443 0.036746 0.037176 0.03748 0.03814 0.03848 0.038819 0.03916 0.039501 0.039809 0.04015 0.040459 0.040766 0.041074 0.041593 0 0 0 0 0 0 0 0 0 0.092763 0.093443 0.094315 0.094921 0.095681 0.096482 0.09701 0.098168 0.099055 0.099945 0.10068 0.10133 0.1019 0.10251 0.10329 0.10394 0.10451 0.10516 0.10577 0.10638 0.10699 0.10772 0.10837 0.10903 0.10959 0.1102 0.11085 0.1115 0.11197 0.11185 0.1125 0.11383 0.11438 0.11475 0.11531 0.11539 0.11604 0.11659 0.11718 0.11773 0.11856 0.11921 0.12009 0.12074 0.12138 0.12183 0.12237 0.12302 0.12396 0.12455 0.12571 0.1261 0.12685 0.12754 0.1286 0.12972 0.13058 0.13018 0.13083 0.13158 0.13265 0.13394 0.1346 0.13536 0.13601 0.13546 0.13611 0.13692 0.1379 0.13855 0.13926 0.13985 0.14056 0.14126 0.14197
-0.090291 -0.089758 -0.088176 -0.08754 -0.088328 -0.087752 -0.087455 -0.086841 -0.086294 -0.085746 -0.084823 -0.084072 -0.083423 -0.082675 -0.081994 -0.081281 -0.080439 -0.079729 -0.079116 -0.078471 -0.077763 -0.076713 -0.076102 -0.075461 -0.074819 -0.074509 -0.073894 -0.073279 -0.07284 -0.072164 -0.071575 -0.070985 -0.070281 -0.06969 -0.069098 -0.06845 -0.067801 -0.067153 -0.066452 -0.065804 -0.065183 -0.064561 -0.063887 -0.06301 -0.06234 -0.061669 -0.061 -0.060306 -0.059614 -0.058827 -0.058138 -0.057473 -0.056831 -0.056167 -0.055571 -0.054974 -0.054332 -0.053624 -0.052983 -0.052852 -0.051974 -0.051329 -0.050705 -0.050039 -0.049275 -0.048592 -0.04795 -0.047249 -0.046589 -0.045947 -0.045305 -0.044628 -0.043986 -0.043345 -0.042687 -0.042046 -0.041102 -0.04045 0 0 0 0 0 0 0 0 0 0 0 0 0 0 0 0 0 0 0 -0.017276 -0.01688 -0.016494 -0.01613 -0.015753 -0.015356 -0.015027 -0.014627 -0.014228 -0.013819 -0.013367 -0.012808 -0.012424 -0.011991 -0.011545 -0.011155 -0.010722 -0.010285 -0.0098988 -0.009429 -0.0090397 -0.0086451 -0.0082572 -0.007859 -0.0074726 -0.007082 -0.0066877 -0.0063037 -0.005912 -0.0055334 -0.0051228 -0.0047432 -0.0043641 -0.0039856 -0.003605 -0.00323 -0.0028531 -0.0024662 -0.0020933 -0.0017192 -0.0013446 -0.00097252 -0.00059954 -0.00022744 0.00014319 0.00051279 0.00088071 0.0012488 0.0016164 0.0019821 0.0023484 0.0027142 0.0030817 0.0034467 0.0038111 0.0041751 0.0045418 0.0049015 0.0052638 0.0056257 0.0059871 0.0063479 0.006713 0.0070731 0.0074326 0.0077916 0.0081618 0.0085263 0.0088846 0.0092423 0.0096063 0.009949 0.010305 0.010668 0.011015 0.011361 0.011723 0.012085 0.012447 0.0128 0.013162 0.013523 0.013875 0.014236 0.014598 0.014959 0.015321 0.01566 0.016021 0.016382 0.016743 0.017116 0.017477 0.017838 0.018212 0.018574 0.018935 0.019297 0.019672 0.020034 0.020396 0.020743 0.021104 0.021465 0.021827 0.022188 0.02255 0.022911 0.023273 0.023634 0.024013 0.024375 0.024754 0.025134 0.025515 0.025915 0.026278 0.026641 0 0 0 0 0 0 0 0 0 0 0 0 0.026407 0.026622 0.026949 0.027231 0.027512 0.027817 0.028073 0.028352 0.028631 0.02891 0.029213 0.02949 0.029793 0.030096 0.030373 0.030649 0.030925 0.031253 0.031583 0.031913 0.032216 0.032491 0.032822 0.033096 0.033398 0.033672 0.033974 0.034277 0.034579 0.034851 0.035123 0.035455 0.035788 0.036121 0.036455 0.03679 0.037125 0.037492 0.037893 0.038198 0.038832 0.039173 0.03948 0.039788 0.040129 0.040471 0.040779 0.041087 0.04157 0 0 0 0 0 0 0 0 0 0.092789 0.093469 0.094112 0.09487 0.095592 0.096158 0.096684 0.097642 0.098287 0.098892 0.1005 0.10103 0.1016 0.10229 0.10319 0.10388 0.10445 0.10506 0.10567 0.10615 0.1068 0.10749 0.10819 0.10884 0.10922 0.10978 0.11039 0.1109 0.11128 0.11161 0.11034 0.11102 0.11138 0.11201 0.11259 0.11435 0.11503 0.116 0.11678 0.11757 0.1183 0.11899 0.11978 0.12042 0.12092 0.12161 0.1221 0.12279 0.12348 0.12372 0.12441 0.12475 0.12549 0.12664 0.12754 0.12819 0.12893 0.12926 0.12996 0.13033 0.13103 0.13162 0.13209 0.13257 0.13327 0.13369 0.134 0.13452 0.13516 0.1358 0.13571 0.13634 0.13697 0.13942 0.14006
-0.090008 -0.089622 -0.08815 -0.087513 -0.088301 -0.087654 -0.087288 -0.086709 -0.085991 -0.085685 -0.08466 -0.084012 -0.08333 -0.082548 -0.081901 -0.081156 -0.080315 -0.079638 -0.078994 -0.078349 -0.077548 -0.076686 -0.076076 -0.075434 -0.074793 -0.074482 -0.073868 -0.073253 -0.072725 -0.072021 -0.071462 -0.070816 -0.070197 -0.069579 -0.06896 -0.068313 -0.067748 -0.066992 -0.066372 -0.065725 -0.06513 -0.064482 -0.063783 -0.063035 -0.062313 -0.061593 -0.060949 -0.060231 -0.059563 -0.058753 -0.058064 -0.057399 -0.056712 -0.056027 -0.055409 -0.054858 -0.05424 -0.053576 -0.052957 -0.052826 -0.051947 -0.051282 -0.050637 -0.049973 -0.049249 -0.048566 -0.047865 -0.047204 -0.046543 -0.045883 -0.045242 -0.044601 -0.04396 -0.043301 -0.042626 -0.041969 -0.041076 -0.040424 0 0 0 0 0 0 0 0 0 0 0 0 0 0 0 0 0 0 0 -0.01726 -0.016864 -0.016511 -0.016113 -0.015747 -0.015349 -0.015049 -0.014649 -0.014248 -0.013848 -0.013403 -0.012792 -0.012399 -0.011991 -0.011529 -0.011139 -0.010706 -0.010269 -0.0098829 -0.0094132 -0.0090179 -0.0086294 -0.0082415 -0.0078434 -0.007457 -0.0070712 -0.0066721 -0.0062881 -0.0059006 -0.0055216 -0.0051074 -0.0047278 -0.0043487 -0.0039729 -0.0035896 -0.0032146 -0.0028377 -0.0024595 -0.0020824 -0.0017063 -0.0013303 -0.00095724 -0.00058429 -0.00021222 0.0001585 0.00052834 0.00089649 0.0012649 0.0016316 0.0019986 0.0023652 0.0027293 0.0030968 0.0034617 0.0038262 0.0041931 0.0045568 0.0049165 0.0052789 0.0056407 0.0060021 0.0063629 0.006728 0.007088 0.0074422 0.0078066 0.0081709 0.0085352 0.0088932 0.0092506 0.0096144 0.0099639 0.01032 0.010683 0.01103 0.011376 0.011738 0.0121 0.012462 0.012824 0.013186 0.013538 0.01389 0.014251 0.014613 0.014974 0.015336 0.015686 0.016047 0.016408 0.016769 0.017143 0.017504 0.017866 0.01824 0.018602 0.018964 0.019326 0.019702 0.020049 0.020396 0.020758 0.021119 0.02148 0.021842 0.022203 0.022565 0.022926 0.023304 0.023649 0.024028 0.024407 0.024769 0.025149 0.02553 0.02593 0.026292 0.026655 0 0 0 0 0 0 0 0 0 0 0 0 0.02642 0.026634 0.026939 0.027244 0.027525 0.027805 0.028061 0.028365 0.028644 0.028922 0.0292 0.029503 0.029806 0.030083 0.030359 0.030635 0.03091 0.031239 0.031595 0.031898 0.0322 0.032503 0.032806 0.03308 0.033382 0.033684 0.033987 0.034289 0.034561 0.034833 0.035135 0.035437 0.0358 0.036103 0.036436 0.03677 0.037201 0.037505 0.037906 0.038211 0.038812 0.039185 0.039493 0.0398 0.040108 0.040449 0.040792 0.0411 0.041583 0 0 0 0 0 0 0 0 0 0.092853 0.093458 0.094101 0.094782 0.095502 0.096029 0.096789 0.09759 0.098274 0.098919 0.10053 0.10118 0.10142 0.10211 0.10313 0.10391 0.10444 0.10509 0.10544 0.10601 0.10674 0.10739 0.10808 0.10877 0.10907 0.10963 0.11019 0.11066 0.1113 0.11163 0.11037 0.111 0.11145 0.11199 0.11267 0.11437 0.11506 0.11603 0.11662 0.11731 0.11828 0.11892 0.11956 0.12021 0.1208 0.12144 0.12208 0.12257 0.12331 0.12375 0.12444 0.12477 0.12552 0.12667 0.12757 0.12821 0.12896 0.12929 0.12982 0.13036 0.131 0.13154 0.13212 0.13265 0.13318 0.13382 0.13408 0.13455 0.13519 0.13538 0.13579 0.13631 0.137 0.13945 0.14014
-0.089359 -0.088687 -0.087979 -0.087308 -0.086567 -0.085932 -0.085298 -0.084525 -0.08372 -0.083088 -0.082592 -0.081993 -0.083035 -0.082489 -0.081743 -0.079756 -0.07912 -0.078485 -0.077818 -0.077183 -0.076548 -0.075819 -0.075185 -0.074642 -0.073734 -0.073101 -0.072409 -0.071747 -0.07264 -0.071994 -0.071406 -0.070789 -0.070143 -0.069496 -0.068906 -0.068259 -0.067585 -0.065454 -0.064876 -0.064243 -0.064946 -0.064352 -0.063705 -0.062957 -0.062261 -0.061492 -0.060824 -0.060131 -0.059416 -0.058655 -0.057943 -0.057257 -0.056594 -0.055886 -0.055293 -0.054698 -0.054081 -0.053441 -0.052758 -0.05214 -0.051522 -0.05111 -0.050488 -0.049825 -0.049122 -0.048421 -0.047761 -0.047082 -0.046404 -0.045764 -0.045143 -0.044503 -0.043862 -0.043205 -0.04253 -0.041874 -0.040899 -0.040281 -0.039631 -0.038997 -0.038474 0 0 0 0 0 0 0 0 0 0 0 0 0 0 0 0 -0.017255 -0.016858 -0.016549 -0.01615 -0.015783 -0.015383 -0.015023 -0.014632 -0.014102 -0.013714 -0.013317 -0.012793 -0.012391 -0.011982 -0.011521 -0.011131 -0.010712 -0.010254 -0.0098671 -0.0094423 -0.0090022 -0.0086196 -0.0082258 -0.0078277 -0.0074414 -0.0070507 -0.0066611 -0.0062725 -0.005885 -0.0055099 -0.0050954 -0.0047123 -0.0043333 -0.0039547 -0.0035743 -0.0031992 -0.0028223 -0.0024424 -0.002067 -0.001691 -0.001315 -0.00094197 -0.00056943 -0.000197 0.00017371 0.00054314 0.00091165 0.0012791 0.0016467 0.0020123 0.0023786 0.0027444 0.0031118 0.0034768 0.0038413 0.0042052 0.0045719 0.0049315 0.0052939 0.0056557 0.0060171 0.0063779 0.006743 0.007103 0.0074572 0.0078215 0.0081858 0.0085501 0.0089081 0.0092655 0.0096293 0.0099788 0.010335 0.010698 0.011053 0.011399 0.011753 0.012115 0.012477 0.012839 0.013191 0.013553 0.013905 0.014266 0.014628 0.014989 0.01535 0.015701 0.016062 0.016423 0.016784 0.017158 0.017519 0.017894 0.018255 0.018617 0.018979 0.01934 0.019716 0.020078 0.020426 0.020772 0.021134 0.021495 0.021857 0.022218 0.02258 0.022941 0.023303 0.023664 0.024043 0.024422 0.024784 0.025164 0.025545 0.025944 0.026326 0.02669 0.027053 0 0 0 0 0 0 0 0 0 0.025931 0.026238 0.026432 0.026647 0.026951 0.027233 0.027513 0.027794 0.028074 0.028353 0.028632 0.02891 0.029187 0.02949 0.029792 0.030069 0.030371 0.030621 0.030923 0.031251 0.031581 0.031883 0.032185 0.032488 0.03279 0.033092 0.033366 0.033668 0.03397 0.034272 0.034574 0.034846 0.035147 0.035449 0.035782 0.036115 0.036417 0.03672 0.037086 0.037389 0.037724 0.038027 0.038363 0.038799 0.039104 0.039509 0.039814 0.04012 0.040356 0.040695 0.041 0 0 0 0 0 0.058387 0.05884 0 0 0 0 0.094012 0.09477 0.095412 0.095938 0.096698 0.097498 0.098221 0.098745 0.09955 0.10019 0.10084 0.10144 0.10209 0.10273 0.10296 0.1036 0.10479 0.10578 0.10651 0.10716 0.10789 0.10858 0.10892 0.10948 0.10999 0.11055 0.11102 0.10958 0.11021 0.11089 0.11148 0.11206 0.11283 0.11374 0.11442 0.11529 0.11636 0.11666 0.11792 0.11875 0.11949 0.12013 0.12068 0.12132 0.12191 0.1225 0.12314 0.12262 0.12325 0.12409 0.12472 0.12562 0.12599 0.12663 0.12867 0.12921 0.12959 0.13017 0.13081 0.13145 0.13199 0.13246 0.13299 0.13352 0.13389 0.13441 0.13499 0.13518 0.1357 0.13634 0.13697 0.13766 0.13829
-0.089113 -0.088479 -0.087773 -0.087103 -0.086363 -0.08573 -0.085027 -0.084325 -0.083694 -0.083062 -0.082566 -0.081967 -0.083008 -0.082363 -0.081716 -0.07973 -0.078932 -0.078459 -0.077792 -0.077157 -0.076522 -0.075793 -0.075159 -0.074616 -0.073708 -0.073075 -0.072383 -0.071721 -0.072555 -0.071968 -0.071322 -0.070734 -0.070088 -0.069386 -0.068824 -0.06815 -0.067558 -0.065428 -0.06485 -0.064217 -0.06492 -0.064274 -0.063551 -0.06288 -0.06226 -0.061366 -0.06065 -0.060032 -0.059293 -0.058462 -0.057681 -0.057044 -0.05636 -0.055723 -0.055041 -0.054383 -0.053747 -0.053132 -0.052732 -0.052114 -0.051496 -0.050897 -0.050318 -0.049697 -0.049016 -0.048277 -0.047482 -0.046826 -0.04617 -0.045533 -0.044896 -0.044277 -0.04364 -0.042985 -0.042313 -0.041643 -0.040856 -0.040222 -0.039589 -0.038971 -0.038448 0 0 0 0 0 0 0 0 0 0 0 0 0 0 0 0 -0.017238 -0.016842 -0.016532 -0.016165 -0.015776 -0.015387 -0.015007 -0.014587 -0.014086 -0.013698 -0.013301 -0.012777 -0.012383 -0.01199 -0.011505 -0.011115 -0.010696 -0.010238 -0.0098512 -0.0094265 -0.0089865 -0.0086098 -0.0082045 -0.0078174 -0.0074308 -0.0070399 -0.0066455 -0.0062613 -0.0058735 -0.0054943 -0.00508 -0.0046969 -0.0043209 -0.0039448 -0.0035589 -0.0031816 -0.002805 -0.0024271 -0.0020517 -0.0016768 -0.0012997 -0.00092669 -0.00055417 -0.00018178 0.00018892 0.00055871 0.0009268 0.0012942 0.0016618 0.0020289 0.0023954 0.0027614 0.0031269 0.0034944 0.0038563 0.0042203 0.0045869 0.0049465 0.0053089 0.0056707 0.0060321 0.0063974 0.0067628 0.007118 0.0074721 0.0078365 0.0082008 0.0085651 0.0089166 0.0092738 0.0096373 0.0099937 0.01035 0.010713 0.011076 0.01143 0.011768 0.01213 0.012492 0.012854 0.013216 0.013578 0.013929 0.014291 0.014653 0.015015 0.015376 0.015727 0.016088 0.01645 0.016811 0.017185 0.017547 0.017908 0.01827 0.018632 0.018993 0.019369 0.019731 0.020093 0.02044 0.020787 0.021149 0.02151 0.021871 0.022233 0.022594 0.022956 0.023317 0.023679 0.024057 0.024419 0.024781 0.025179 0.025559 0.025941 0.026322 0.026704 0.027068 0 0 0 0 0 0 0 0 0 0.025944 0.02625 0.026445 0.026659 0.026941 0.027222 0.027479 0.027758 0.028014 0.028317 0.028595 0.028897 0.029175 0.029451 0.029728 0.03003 0.030332 0.030633 0.030935 0.031237 0.031539 0.03184 0.032142 0.032444 0.032746 0.033047 0.033349 0.033651 0.033953 0.034255 0.034556 0.034828 0.03513 0.035431 0.035763 0.036065 0.036367 0.036732 0.037034 0.037369 0.037671 0.038007 0.038375 0.038812 0.039116 0.039522 0.039827 0.040132 0.040368 0.040708 0.041013 0 0 0 0 0 0.058404 0.058857 0 0 0 0 0.094039 0.094604 0.095245 0.095614 0.096489 0.097485 0.098128 0.098772 0.099576 0.10022 0.10074 0.10131 0.10211 0.10276 0.10298 0.10362 0.10482 0.10542 0.10628 0.10684 0.10744 0.10848 0.10869 0.10938 0.10984 0.1104 0.11104 0.10961 0.1101 0.11078 0.11145 0.11209 0.11281 0.11358 0.11445 0.11523 0.11586 0.11669 0.11795 0.1183 0.11898 0.11962 0.12026 0.12085 0.12144 0.12237 0.12301 0.12264 0.12323 0.12386 0.12454 0.12538 0.12591 0.12665 0.12839 0.12876 0.12919 0.12983 0.13057 0.13121 0.13174 0.13217 0.13237 0.13284 0.13342 0.13389 0.13435 0.13465 0.13517 0.13597 0.13671 0.1374 0.13809
-0.088941 -0.088308 -0.087638 -0.086898 -0.086159 -0.085492 -0.084826 -0.084091 -0.08315 -0.082522 -0.081962 -0.081267 -0.080639 -0.080144 -0.079548 -0.079311 -0.078744 -0.078175 -0.077064 -0.076403 -0.075773 -0.075144 -0.074454 -0.073825 -0.073166 -0.072538 -0.07179 -0.071163 -0.070536 -0.070054 -0.069396 -0.068796 -0.06814 -0.067427 -0.066827 -0.065925 -0.0653 -0.064809 -0.064183 -0.063556 -0.062904 -0.062226 -0.061549 -0.060974 -0.060374 -0.059847 -0.059294 -0.058642 -0.058135 -0.057482 -0.057514 -0.056901 -0.056265 -0.055606 -0.054925 -0.054245 -0.05361 -0.052997 -0.052341 -0.051642 -0.050966 -0.050333 -0.04972 -0.049066 -0.048532 -0.047936 -0.047301 -0.046685 -0.04603 -0.045414 -0.044778 -0.044124 -0.043471 -0.042854 -0.042183 -0.041515 -0.040863 -0.040163 -0.03953 -0.038913 -0.038375 0 0 0 0 0 0 0 0 0 0 0 0 0 0 0 0 0 0 -0.01657 -0.01617 -0.01577 -0.015371 -0.014981 -0.014561 -0.014088 -0.013691 -0.013215 -0.01276 -0.012367 -0.011974 -0.011519 -0.011128 -0.010658 -0.010229 -0.009842 -0.0094234 -0.0090074 -0.0086292 -0.0081945 -0.0078071 -0.0074152 -0.0070291 -0.0066299 -0.0062457 -0.0058579 -0.0054788 -0.0050891 -0.0046912 -0.0043114 -0.0039294 -0.0035459 -0.0031663 -0.0027896 -0.0024101 -0.0020349 -0.0016603 -0.0012844 -0.00091142 -0.00053891 -0.00016667 0.00020413 0.0005739 0.00094196 0.0013094 0.0016769 0.002044 0.0024105 0.0027765 0.003142 0.0035094 0.0038714 0.0042383 0.004602 0.0049616 0.0053239 0.0056858 0.0060514 0.0064124 0.0067778 0.007133 0.0074871 0.0078514 0.0082157 0.0085739 0.0089316 0.0092887 0.0096523 0.010009 0.010365 0.010727 0.01109 0.011445 0.011791 0.012145 0.012516 0.012868 0.01323 0.013593 0.013954 0.014316 0.014678 0.01504 0.015402 0.015753 0.016115 0.016476 0.016838 0.017212 0.017574 0.017923 0.018272 0.018647 0.019008 0.01937 0.019746 0.020108 0.020455 0.020802 0.021163 0.021525 0.021886 0.022232 0.022609 0.022971 0.023332 0.023694 0.024055 0.024417 0.024796 0.025176 0.025556 0.025956 0.026337 0.0267 0.027083 0 0 0 0 0 0 0 0 0 0.025956 0.026263 0.026457 0.026626 0.02693 0.027234 0.027491 0.027747 0.028026 0.028304 0.028607 0.028885 0.029162 0.029438 0.029715 0.030016 0.030318 0.030619 0.030921 0.031222 0.031524 0.031825 0.032127 0.032428 0.03273 0.033031 0.033333 0.033634 0.033936 0.034237 0.034539 0.03484 0.035142 0.035443 0.035745 0.036046 0.036379 0.036713 0.037047 0.037349 0.037651 0.037986 0.038289 0.038592 0.038894 0.03923 0.039465 0.039767 0.040243 0.040581 0.040885 0.041153 0.041457 0 0 0 0 0 0 0 0 0 0.093836 0.094553 0.095194 0.095367 0.095966 0.097196 0.096962 0.097638 0.097267 0.097937 0.10069 0.10125 0.099991 0.10066 0.10142 0.10205 0.10285 0.10353 0.1042 0.1032 0.10386 0.10444 0.10524 0.10587 0.1068 0.10752 0.10815 0.10927 0.10995 0.11076 0.11139 0.11207 0.11279 0.11352 0.11438 0.11506 0.11575 0.11638 0.1174 0.11803 0.11867 0.11936 0.11994 0.12063 0.12116 0.12175 0.12204 0.12257 0.12315 0.12378 0.12442 0.12515 0.12579 0.126 0.12658 0.12837 0.12917 0.1298 0.13049 0.13113 0.13177 0.13122 0.13201 0.13259 0.13311 0.13364 0.13416 0.1344 0.13492 0.13571 0.13657 0.1372 0.13789
-0.08811 -0.087519 -0.086999 -0.086371 -0.085635 -0.084937 -0.084275 -0.08337 -0.082745 -0.082257 -0.081665 -0.081038 -0.080446 -0.079819 -0.079193 -0.078664 -0.078005 -0.077442 -0.076719 -0.076124 -0.075497 -0.07487 -0.074212 -0.073524 -0.072928 -0.072271 -0.071645 -0.070989 -0.070393 -0.069824 -0.069198 -0.0686 -0.067916 -0.06729 -0.066635 -0.065899 -0.06522 -0.064622 -0.064077 -0.063478 -0.062826 -0.062148 -0.061523 -0.060898 -0.060273 -0.059772 -0.059121 -0.058446 -0.057892 -0.057266 -0.057464 -0.056782 -0.056147 -0.055443 -0.054786 -0.054108 -0.053452 -0.052841 -0.052164 -0.051446 -0.050752 -0.050079 -0.049489 -0.048656 -0.048028 -0.04738 -0.046771 -0.046487 -0.045853 -0.045201 -0.04455 -0.043881 -0.043249 -0.042652 -0.042019 -0.041386 -0.04077 -0.040137 -0.039114 -0.038487 -0.038254 0 0 0 0 0 0 0 0 0 0 0 0 0 0 0 0 0 0 -0.016553 -0.016154 -0.015754 -0.015354 -0.014954 -0.014536 -0.014081 -0.013665 -0.013199 -0.012744 -0.012368 -0.011966 -0.01145 -0.011068 -0.010614 -0.01022 -0.0098261 -0.0093885 -0.0089795 -0.0085959 -0.0081843 -0.0077914 -0.0073995 -0.0070087 -0.0066143 -0.0062301 -0.0058464 -0.0054594 -0.005077 -0.004679 -0.0042989 -0.0039166 -0.0035305 -0.0031509 -0.0027742 -0.0023964 -0.0020196 -0.001645 -0.0012692 -0.00089614 -0.00052328 -0.00015144 0.0002195 0.0005895 0.00095779 0.0013254 0.0016921 0.0020591 0.0024256 0.0027916 0.0031571 0.0035245 0.0038865 0.0042534 0.004617 0.0049766 0.0053389 0.0057048 0.0060664 0.006432 0.0067928 0.0071582 0.0074967 0.0078607 0.0082248 0.0085827 0.0089337 0.009297 0.0096603 0.010016 0.010379 0.010742 0.011097 0.01146 0.011806 0.012168 0.01253 0.012893 0.013245 0.013607 0.013969 0.014331 0.014693 0.015066 0.015428 0.015779 0.016141 0.016503 0.016877 0.01724 0.017589 0.017938 0.018287 0.018662 0.019023 0.019385 0.019747 0.020108 0.020455 0.020802 0.021163 0.021524 0.021885 0.022247 0.022608 0.022985 0.023347 0.023708 0.02407 0.024449 0.024811 0.025209 0.025571 0.02597 0.026352 0.026715 0.027098 0 0 0 0 0 0 0 0 0 0.025969 0.026276 0.02647 0.026616 0.02692 0.027224 0.027362 0.027664 0.02799 0.028293 0.028595 0.028872 0.029149 0.029426 0.029701 0.029977 0.030278 0.030605 0.030933 0.031208 0.031509 0.031838 0.032139 0.032441 0.032742 0.032987 0.033287 0.033589 0.03389 0.03422 0.034521 0.034823 0.035093 0.035425 0.035757 0.036059 0.03636 0.036693 0.037027 0.037329 0.037631 0.037933 0.038268 0.038537 0.038839 0.039209 0.039512 0.03978 0.04022 0.040524 0.040827 0.04113 0.041398 0.041773 0 0 0 0 0 0 0 0 0.093862 0.091926 0.092587 0.093171 0.093794 0.094338 0.09496 0.095583 0.096285 0.096908 0.097694 0.098277 0.098942 0.099857 0.10048 0.1009 0.10152 0.10219 0.10277 0.10318 0.10376 0.10438 0.10505 0.10572 0.10638 0.1071 0.10772 0.10862 0.10924 0.11019 0.11086 0.11149 0.11212 0.11228 0.11286 0.11499 0.11539 0.11621 0.11694 0.11758 0.11831 0.11894 0.11948 0.12026 0.12079 0.12123 0.12186 0.12194 0.12252 0.1231 0.12337 0.12399 0.1239 0.12452 0.12509 0.12598 0.12666 0.12771 0.12945 0.13009 0.13002 0.13054 0.13122 0.13196 0.13248 0.133 0.13302 0.13326 0.13388 0.13574 0.13642 0.13706 0.13649
-0.088084 -0.087493 -0.086973 -0.08613 -0.085503 -0.08477 -0.084074 -0.083309 -0.08265 -0.08206 -0.081503 -0.080878 -0.08032 -0.079694 -0.079068 -0.078475 -0.077882 -0.077288 -0.076661 -0.076003 -0.075408 -0.074751 -0.074094 -0.073376 -0.072751 -0.072125 -0.0715 -0.070846 -0.07025 -0.069683 -0.069086 -0.068488 -0.067834 -0.06718 -0.066554 -0.065846 -0.06514 -0.064542 -0.063971 -0.063426 -0.062748 -0.062097 -0.061446 -0.060847 -0.060222 -0.059696 -0.058997 -0.058347 -0.057746 -0.05724 -0.057438 -0.056756 -0.056051 -0.055349 -0.05467 -0.054015 -0.053382 -0.052771 -0.052074 -0.051378 -0.0506 -0.04995 -0.04932 -0.048631 -0.047942 -0.047295 -0.046745 -0.046461 -0.045827 -0.045175 -0.044487 -0.043837 -0.043223 -0.042626 -0.041993 -0.04136 -0.040744 -0.040111 -0.039088 -0.038462 -0.038228 0 0 0 0 0 0 0 0 0 0 0 0 0 0 0 0 0 0 -0.016537 -0.016137 -0.015738 -0.015338 -0.014948 -0.01451 -0.014065 -0.013649 -0.013234 -0.01277 -0.01236 -0.011958 -0.011434 -0.011052 -0.010598 -0.010197 -0.0098102 -0.0093727 -0.0089698 -0.0085743 -0.0081798 -0.0077811 -0.007394 -0.0069787 -0.0066032 -0.0062188 -0.0058308 -0.0054476 -0.0050615 -0.0046699 -0.0042864 -0.0039039 -0.0035176 -0.0031377 -0.0027608 -0.0023827 -0.0020071 -0.0016308 -0.0012539 -0.00088087 -0.00050838 -0.00013631 0.00023488 0.00060512 0.00097365 0.0013415 0.0017084 0.0020757 0.0024424 0.0028067 0.0031722 0.0035396 0.0039015 0.0042684 0.0046321 0.0049952 0.0053578 0.0057239 0.0060857 0.0064516 0.0068126 0.0071783 0.0075116 0.0078813 0.0082397 0.0085976 0.008955 0.0093119 0.0096752 0.010031 0.010394 0.010757 0.01112 0.011475 0.011829 0.012183 0.012554 0.012908 0.01327 0.013632 0.013994 0.014367 0.014729 0.015103 0.015465 0.015817 0.016191 0.016554 0.016916 0.017267 0.017617 0.017953 0.018315 0.018676 0.019038 0.0194 0.019762 0.020109 0.02047 0.020817 0.021178 0.021539 0.021884 0.022245 0.022623 0.023 0.023362 0.023723 0.024102 0.024464 0.024843 0.025223 0.025604 0.026004 0.026386 0.026749 0.027113 0 0 0 0 0 0 0 0 0 0 0 0 0.026628 0.026932 0.027213 0.027374 0.027653 0.027978 0.028281 0.028583 0.028885 0.029187 0.029438 0.029688 0.030015 0.03029 0.030617 0.030945 0.031193 0.031494 0.03185 0.032151 0.032425 0.032726 0.032999 0.0333 0.033601 0.033902 0.034232 0.034534 0.034805 0.035106 0.035407 0.035739 0.036071 0.036373 0.036706 0.037008 0.037342 0.037644 0.037946 0.038248 0.03855 0.038852 0.039188 0.039524 0.039861 0.040198 0.040536 0.040804 0.041107 0.041411 0.041785 0 0 0 0 0 0 0 0 0 0.091951 0.092458 0.093041 0.093663 0.094324 0.094906 0.095608 0.09623 0.096934 0.097679 0.098262 0.098926 0.0998 0.10043 0.10092 0.10151 0.10213 0.10262 0.10316 0.1037 0.10441 0.10503 0.10557 0.10637 0.10699 0.10784 0.10851 0.10927 0.11008 0.1107 0.11133 0.11191 0.11244 0.11288 0.11455 0.11523 0.11619 0.11692 0.11755 0.11819 0.11877 0.11945 0.12023 0.12072 0.12135 0.12179 0.12191 0.12254 0.12302 0.12339 0.12402 0.12392 0.12434 0.12501 0.12574 0.12663 0.12773 0.12948 0.13011 0.13004 0.13057 0.1312 0.13193 0.13245 0.13303 0.13304 0.13328 0.1339 0.13582 0.13639 0.13708 0.13657
0 0 -0.086407 -0.085961 -0.085335 -0.084603 -0.083908 -0.083179 -0.082521 -0.081932 -0.081376 -0.080785 -0.08016 -0.079502 -0.078845 -0.078221 -0.077662 -0.077165 -0.076572 -0.075914 -0.075226 -0.074601 -0.073914 -0.073228 -0.072604 -0.07201 -0.071415 -0.070731 -0.070136 -0.069541 -0.068916 -0.06832 -0.067695 -0.067042 -0.066445 -0.065766 -0.065114 -0.06449 -0.063919 -0.063347 -0.062696 -0.062045 -0.061395 -0.06077 -0.060146 -0.059596 -0.058922 -0.058273 -0.057648 -0.056953 -0.056305 -0.055822 -0.05522 -0.055209 -0.054554 -0.053878 -0.053269 -0.052658 -0.052027 -0.051246 -0.05047 -0.0498 -0.049172 -0.048504 -0.047837 -0.047249 -0.046467 -0.045823 -0.045311 -0.044666 -0.043948 -0.043305 -0.042716 -0.042091 -0.041466 -0.040943 -0.040316 -0.039689 -0.039063 -0.038436 -0.038186 0 0 0 0 0 0 0 0 0 0 0 0 0 0 0 0 0 0 0 0 -0.015834 -0.015381 -0.01498 -0.014493 -0.014048 -0.013633 -0.013227 -0.01272 -0.012335 -0.011933 -0.011418 -0.011036 -0.010582 -0.010174 -0.0097812 -0.0093569 -0.008954 -0.0085585 -0.0081641 -0.0077654 -0.0073783 -0.006987 -0.0065922 -0.0062074 -0.0058192 -0.0054321 -0.0050494 -0.0046544 -0.0042709 -0.0038884 -0.0035022 -0.0031245 -0.0027473 -0.0023673 -0.0019903 -0.0016155 -0.0012386 -0.0008662 -0.00049312 -0.00012098 0.00025012 0.00062033 0.00098883 0.0013577 0.0017235 0.0020908 0.0024576 0.0028218 0.0031872 0.0035547 0.0039166 0.0042804 0.0046471 0.0050102 0.0053728 0.0057389 0.0061008 0.006462 0.0068228 0.0071881 0.0075319 0.0078963 0.0082547 0.0086126 0.0089699 0.0093268 0.0096901 0.010053 0.010409 0.010772 0.011135 0.011498 0.011844 0.012207 0.012569 0.012932 0.013294 0.013657 0.014019 0.014392 0.014755 0.015128 0.015491 0.015843 0.016206 0.016568 0.016931 0.017294 0.017631 0.017968 0.018329 0.018691 0.019053 0.019429 0.019776 0.020124 0.020485 0.020831 0.021193 0.021554 0.021899 0.022276 0.022637 0.023015 0.023377 0.023738 0.024117 0.024479 0.024858 0.025257 0.025638 0.026019 0.026401 0.026764 0.027127 0 0 0 0 0 0 0 0 0 0 0 0 0 0 0.027061 0.02734 0.027665 0.027967 0.028269 0.02857 0.028872 0.029174 0.029221 0.029495 0.029794 0.030171 0.030444 0.030744 0.031016 0.031315 0.031614 0.032108 0.032409 0.03271 0.032983 0.033283 0.033584 0.033914 0.034245 0.034546 0.034817 0.035118 0.035419 0.035751 0.036084 0.036385 0.036687 0.03702 0.037322 0.037624 0.037958 0.03826 0.038562 0.038864 0.0392 0.039536 0.039873 0.040211 0.040514 0.040852 0.04112 0.041423 0 0 0 0 0 0 0 0 0 0.090857 0.091553 0.092328 0.09291 0.093492 0.09427 0.094892 0.095594 0.096256 0.096878 0.097582 0.098246 0.098869 0.099742 0.10037 0.10091 0.10149 0.10207 0.10261 0.10319 0.10368 0.1043 0.10492 0.10555 0.10635 0.10697 0.10773 0.10844 0.10916 0.10992 0.11055 0.11117 0.1117 0.11228 0.11291 0.11443 0.11497 0.1155 0.11565 0.11627 0.11802 0.11875 0.11938 0.11991 0.11896 0.11953 0.12015 0.12053 0.12115 0.12177 0.12219 0.12276 0.12343 0.12405 0.12473 0.12545 0.12597 0.12664 0.12748 0.1281 0.12862 0.12918 0.12981 0.13065 0.13127 0.132 0.13246 0.13314 0.13354 0.13444 0.13506 0.1358 0.13643
0 0 -0.084976 -0.084397 -0.084066 -0.08426 -0.083568 -0.082876 -0.082185 -0.081632 -0.081146 -0.080625 -0.080001 -0.079311 -0.078523 -0.077836 -0.077247 -0.076786 -0.076227 -0.075541 -0.074824 -0.07414 -0.073241 -0.072744 -0.072123 -0.071383 -0.070913 -0.069761 -0.069145 -0.068935 -0.068316 -0.067924 -0.067387 -0.066849 -0.066198 -0.065493 -0.064898 -0.064357 -0.063813 -0.063216 -0.062592 -0.061942 -0.061318 -0.060669 -0.06002 -0.059372 -0.058724 -0.05798 -0.057334 -0.056618 -0.055903 -0.055191 -0.054596 -0.054251 -0.054304 -0.053719 -0.053089 -0.052199 -0.051593 -0.050691 -0.050046 -0.049526 -0.048983 -0.047934 -0.047314 -0.046674 -0.046074 -0.045511 -0.044928 -0.044325 -0.043666 -0.043099 -0.042424 -0.04175 -0.041008 -0.04039 -0.039888 -0.039268 -0.038647 -0.038171 -0.037563 0 0 0 0 0 0 0 0 0 0 0 0 0 0 0 0 0 0 -0.016709 -0.016304 -0.015817 -0.015385 -0.014963 -0.01443 -0.014032 -0.013617 -0.013211 -0.012704 -0.012319 -0.011925 -0.011402 -0.01102 -0.010566 -0.010152 -0.0097587 -0.0093601 -0.0089262 -0.0085486 -0.0081373 -0.0077497 -0.0073626 -0.0069713 -0.0065765 -0.0061876 -0.0057996 -0.0054128 -0.0050304 -0.0046389 -0.0042555 -0.003873 -0.0034867 -0.0031091 -0.0027319 -0.002352 -0.001975 -0.0015991 -0.0012233 -0.00085032 -0.00047785 -0.00010575 0.00026497 0.0006351 0.001004 0.0013719 0.0017387 0.0021059 0.0024709 0.0028369 0.0032023 0.0035698 0.0039288 0.0042955 0.0046588 0.0050217 0.0053878 0.005754 0.0061114 0.0064724 0.0068378 0.007198 0.0075523 0.0079112 0.0082755 0.0086337 0.0089913 0.0093484 0.0097119 0.010068 0.010431 0.010795 0.01115 0.011513 0.011868 0.012222 0.012593 0.012947 0.013309 0.013672 0.014034 0.014407 0.01477 0.015143 0.015506 0.015858 0.016209 0.016583 0.016934 0.017296 0.017634 0.017983 0.018331 0.018693 0.019054 0.019415 0.019763 0.020124 0.02047 0.020816 0.021177 0.021538 0.021898 0.022259 0.022636 0.023013 0.023375 0.023753 0.024114 0.024494 0.024873 0.02529 0.025652 0.026052 0.026435 0.026779 0.027142 0.027506 0.027869 0 0 0 0 0 0 0 0 0 0 0 0 0.027074 0.027139 0.027438 0.027786 0.028086 0.028435 0.028735 0.029035 0.029208 0.029507 0.029832 0.030131 0.03043 0.030756 0.031028 0.031328 0.031627 0.031926 0.032253 0.032496 0.032795 0.033123 0.033451 0.03375 0.03405 0.034349 0.034649 0.035009 0.035431 0.035733 0.036034 0.036334 0.036636 0.036936 0.037237 0.037603 0.037905 0.03824 0.038541 0.038843 0.039179 0.039481 0.039817 0.040189 0.040526 0.040829 0.041132 0.041436 0.041774 0 0 0 0 0 0 0 0 0.090882 0.091194 0.091928 0.092546 0.093242 0.09394 0.094599 0.095299 0.095999 0.09666 0.097322 0.097943 0.098564 0.099102 0.099387 0.10001 0.10067 0.1015 0.10216 0.10278 0.1034 0.10407 0.10477 0.10544 0.10611 0.10677 0.10766 0.10842 0.10909 0.10981 0.11039 0.11096 0.11159 0.11221 0.11279 0.11375 0.11404 0.11423 0.11485 0.11451 0.11513 0.11667 0.1167 0.11737 0.11898 0.11961 0.12018 0.11949 0.11991 0.12052 0.12114 0.12175 0.12289 0.12356 0.12412 0.12416 0.12457 0.12513 0.12585 0.12652 0.12735 0.12818 0.1288 0.12942 0.12998 0.13087 0.13193 0.13266 0.13312 0.13312 0.13306 0.13367 0.13525
0 0 -0.08495 -0.084372 -0.084006 -0.084235 -0.083647 -0.082746 -0.082022 -0.08147 -0.081189 -0.080498 -0.079908 -0.079252 -0.078399 -0.07768 -0.077092 -0.076568 -0.075979 -0.075357 -0.074579 -0.073928 -0.073215 -0.072535 -0.071886 -0.071358 -0.070887 -0.069736 -0.06912 -0.06891 -0.06829 -0.067785 -0.067418 -0.066739 -0.066117 -0.065358 -0.064737 -0.064331 -0.063708 -0.06319 -0.062514 -0.06189 -0.061292 -0.060592 -0.059944 -0.059321 -0.058576 -0.057954 -0.057212 -0.05645 -0.055878 -0.055166 -0.054571 -0.054225 -0.0543 -0.053648 -0.053019 -0.052173 -0.051567 -0.050665 -0.050021 -0.049397 -0.048978 -0.047909 -0.047289 -0.046649 -0.046048 -0.045485 -0.044902 -0.044299 -0.043641 -0.043019 -0.042398 -0.041724 -0.040966 -0.040364 -0.039863 -0.039242 -0.038622 -0.038145 -0.037538 0 0 0 0 0 0 0 0 0 0 0 0 0 0 0 0 0 0 -0.016692 -0.016266 -0.015831 -0.015368 -0.014966 -0.014413 -0.013997 -0.0136 -0.013194 -0.012713 -0.012327 -0.011925 -0.011393 -0.011004 -0.010572 -0.010136 -0.0097495 -0.0093569 -0.0089528 -0.0085619 -0.0081216 -0.0077287 -0.0073469 -0.0069461 -0.0065564 -0.006172 -0.0057841 -0.0053972 -0.0050149 -0.0046234 -0.00424 -0.0038575 -0.0034689 -0.0030915 -0.0027146 -0.002335 -0.0019583 -0.0015826 -0.001208 -0.00083505 -0.00046227 -9.0454e-05 0.00028018 0.0006503 0.0010192 0.001388 0.0017538 0.0021211 0.0024878 0.002852 0.0032174 0.0035849 0.0039467 0.0043105 0.0046739 0.0050367 0.0054029 0.0057649 0.0061308 0.0064874 0.0068528 0.007213 0.0075727 0.0079319 0.0082964 0.008661 0.0090127 0.0093767 0.0097408 0.010098 0.010454 0.010818 0.011173 0.011536 0.011891 0.012245 0.012608 0.012971 0.013333 0.013696 0.014059 0.014432 0.014795 0.015158 0.015521 0.015873 0.016236 0.016586 0.016949 0.017299 0.017649 0.017985 0.018333 0.018694 0.019069 0.01943 0.019777 0.020124 0.02047 0.020831 0.021192 0.021552 0.021913 0.022274 0.022651 0.023028 0.023389 0.023768 0.024147 0.024526 0.024888 0.025305 0.025686 0.026067 0.02645 0.026794 0.027157 0.02752 0.027884 0 0 0 0 0 0 0 0 0 0 0 0 0 0.027151 0.027475 0.027774 0.028098 0.028447 0.028722 0.029047 0.02922 0.029519 0.029818 0.030117 0.030442 0.030742 0.031041 0.03134 0.031639 0.031938 0.032209 0.032508 0.032807 0.033135 0.033434 0.033733 0.034062 0.034362 0.034661 0.035021 0.035444 0.035714 0.036015 0.036315 0.036616 0.036917 0.037218 0.037551 0.037885 0.038219 0.03852 0.038822 0.039157 0.039493 0.039795 0.040166 0.040504 0.040807 0.041109 0.041412 0.041787 0 0 0 0 0 0 0 0 0 0.091219 0.091837 0.092454 0.093111 0.093886 0.094505 0.095204 0.095823 0.096483 0.097307 0.097886 0.098465 0.099127 0.099413 0.099947 0.10061 0.10131 0.10197 0.10259 0.10317 0.10387 0.1048 0.10542 0.10609 0.1068 0.10742 0.1084 0.10907 0.10979 0.11041 0.11099 0.11157 0.11219 0.11286 0.11377 0.11406 0.1145 0.11488 0.11453 0.11515 0.1167 0.11673 0.1174 0.11901 0.11958 0.12021 0.11952 0.11993 0.1205 0.12111 0.12198 0.1227 0.12332 0.12389 0.12419 0.12459 0.12521 0.12582 0.12649 0.12732 0.1281 0.12871 0.12939 0.13 0.13084 0.13196 0.13252 0.13314 0.13314 0.13308 0.1337 0.13534
-0.0863 -0.085721 -0.084925 -0.084347 -0.084016 -0.083575 -0.082957 -0.082339 -0.081824 -0.081102 -0.080722 -0.08027 -0.079783 -0.07916 -0.078308 -0.077524 -0.077002 -0.076382 -0.075794 -0.074858 -0.074366 -0.073716 -0.073005 -0.072357 -0.071709 -0.070912 -0.070267 -0.069592 -0.068978 -0.068421 -0.067834 -0.067219 -0.066519 -0.065904 -0.065372 -0.064949 -0.064304 -0.063794 -0.063309 -0.06269 -0.062044 -0.061322 -0.060704 -0.06001 -0.059217 -0.058626 -0.058035 -0.057394 -0.056947 -0.056305 -0.055547 -0.054397 -0.053787 -0.053177 -0.052769 -0.051868 -0.05126 -0.050651 -0.050064 -0.049899 -0.049285 -0.048649 -0.048015 -0.047421 -0.046846 -0.04631 -0.045636 -0.045021 -0.044463 -0.043865 -0.043249 -0.042687 -0.042088 -0.041436 -0.040854 -0.040152 -0.039519 -0.038871 -0.038256 -0.03737 -0.03654 -0.035933 0 0 0 0 0 0 0 0 0 0 0 0 0 0 0 0 0 -0.016675 -0.01626 -0.015825 -0.015312 -0.014911 -0.014359 -0.013981 -0.013575 -0.013169 -0.012731 -0.012319 -0.011909 -0.011492 -0.011098 -0.010556 -0.010113 -0.0097336 -0.0093411 -0.008937 -0.0085461 -0.0081556 -0.0076867 -0.0073113 -0.0069115 -0.0065363 -0.0061522 -0.0057685 -0.0053817 -0.0049993 -0.0046079 -0.0042245 -0.0038421 -0.0034535 -0.003074 -0.0026955 -0.0023116 -0.0019403 -0.0015662 -0.0011919 -0.0008192 -0.00044701 -7.5232e-05 0.00029539 0.0006655 0.0010344 0.0014032 0.0017689 0.0021362 0.0025029 0.0028671 0.0032348 0.0035999 0.0039617 0.0043256 0.0046856 0.0050517 0.0054179 0.005784 0.0061414 0.0065071 0.0068678 0.0072331 0.0075931 0.0079525 0.0083114 0.008676 0.0090341 0.0093984 0.0097558 0.010113 0.010476 0.010832 0.011196 0.011551 0.011906 0.01226 0.012623 0.012986 0.013348 0.013711 0.014074 0.014447 0.01481 0.015173 0.015536 0.015888 0.016251 0.016613 0.016952 0.017314 0.017663 0.017986 0.018348 0.018709 0.01907 0.019431 0.019792 0.020139 0.020485 0.020831 0.021191 0.021552 0.021928 0.022288 0.022666 0.023043 0.023404 0.023765 0.024161 0.024541 0.024903 0.025319 0.025701 0.026082 0.026446 0.02679 0.027153 0.027516 0.027879 0 0 0 0 0 0 0 0 0 0 0 0 0.026958 0.027164 0.027463 0.027786 0.02811 0.028435 0.028734 0.028984 0.029233 0.029531 0.02983 0.030129 0.030428 0.0307 0.031026 0.031297 0.031624 0.031923 0.032193 0.032492 0.032791 0.033118 0.033417 0.033745 0.034045 0.034344 0.034673 0.034973 0.035426 0.035726 0.036027 0.036328 0.036629 0.036929 0.03723 0.037563 0.037864 0.038198 0.038499 0.038801 0.039136 0.039471 0.039773 0.040179 0.040481 0.040819 0.041086 0.041389 0 0 0 0 0 0 0 0 0 0.090245 0.090898 0.091668 0.092362 0.093018 0.093793 0.094411 0.095069 0.095687 0.096346 0.096842 0.096801 0.097374 0.098237 0.099019 0.099803 0.10046 0.10112 0.10178 0.1024 0.10297 0.10337 0.10416 0.10461 0.10522 0.10593 0.10645 0.10725 0.10914 0.10981 0.11039 0.11102 0.11159 0.11222 0.11157 0.11224 0.11409 0.11452 0.11491 0.11403 0.11469 0.11545 0.11601 0.11668 0.1166 0.11726 0.11787 0.11914 0.11986 0.12047 0.12108 0.12165 0.12237 0.12298 0.1236 0.12411 0.12456 0.12518 0.12579 0.12641 0.12729 0.12796 0.12858 0.12914 0.1297 0.13004 0.13148 0.13121 0.13182 0.13199 0.1326 0.1335 0.13388
-0.085399 -0.084825 -0.084072 -0.083499 -0.082961 -0.082176 -0.081603 -0.081654 -0.081075 -0.08053 -0.080323 -0.079706 -0.07939 -0.078903 -0.077559 -0.076977 -0.076265 -0.075233 -0.074622 -0.074012 -0.073432 -0.072728 -0.072087 -0.071599 -0.071048 -0.070617 -0.070033 -0.069449 -0.068865 -0.06828 -0.067665 -0.066994 -0.066352 -0.065739 -0.06496 -0.064238 -0.063627 -0.063016 -0.061926 -0.06132 -0.060714 -0.060935 -0.060448 -0.059807 -0.05859 -0.058006 -0.057396 -0.056762 -0.056393 -0.05552 -0.054746 -0.054348 -0.05367 -0.053106 -0.05252 -0.051844 -0.051235 -0.050626 -0.050039 -0.049662 -0.049071 -0.048438 -0.047806 -0.047034 -0.046444 -0.045834 -0.045031 -0.044424 -0.043986 -0.043376 -0.042877 -0.042139 -0.041512 -0.041113 -0.040294 -0.039668 -0.039043 -0.038368 -0.037761 -0.037106 -0.036405 -0.0358 -0.035073 -0.03447 0 0 0 0 0 0 0 0 0 0 0 0 0 0 0 -0.016659 -0.016254 -0.015808 -0.015295 -0.014895 -0.014343 -0.013946 -0.01355 -0.013144 -0.012723 -0.012311 -0.0119 -0.011483 -0.011082 -0.01054 -0.010097 -0.0097112 -0.0093253 -0.0089272 -0.0085303 -0.0081398 -0.0076711 -0.0072956 -0.006896 -0.0065207 -0.0061366 -0.005749 -0.0053661 -0.0049803 -0.0045924 -0.004209 -0.0038266 -0.0034357 -0.0030565 -0.0026783 -0.0022979 -0.0019236 -0.0015499 -0.0011766 -0.00080394 -0.00043176 -6.0014e-05 0.0003106 0.0006807 0.0010495 0.0014183 0.0017853 0.0021513 0.002518 0.0028842 0.0032499 0.003615 0.0039768 0.0043406 0.004704 0.0050668 0.0054329 0.0057991 0.0061564 0.006522 0.0068828 0.0072481 0.0076081 0.0079675 0.0083264 0.0086909 0.009049 0.0094134 0.0097777 0.010135 0.010491 0.010847 0.011211 0.011566 0.011921 0.012275 0.012638 0.012991 0.013354 0.013716 0.014089 0.014452 0.014825 0.015188 0.015551 0.015903 0.016254 0.016616 0.016966 0.017316 0.017666 0.018001 0.018349 0.01871 0.019071 0.019418 0.019793 0.020154 0.0205 0.020845 0.021206 0.021582 0.021943 0.022303 0.02268 0.023058 0.023419 0.023797 0.024194 0.024556 0.024936 0.025334 0.025715 0.026079 0.026441 0.026766 0.027128 0.027511 0.027874 0.028236 0 0 0 0 0 0 0 0 0 0 0 0.026924 0.0272 0.027499 0.027799 0.028098 0.028397 0.028697 0.028946 0.029219 0.029492 0.029791 0.030089 0.030361 0.030659 0.030957 0.031255 0.031581 0.031907 0.032178 0.032448 0.032774 0.033102 0.0334 0.033699 0.034027 0.034326 0.034625 0.034924 0.035192 0.035522 0.035821 0.03612 0.036419 0.036749 0.037049 0.03738 0.037778 0.038144 0.038445 0.03878 0.03908 0.039416 0.039751 0.040018 0.040319 0.040621 0.040922 0.041402 0 0 0 0 0 0 0 0 0 0.090193 0.090885 0.091538 0.092153 0.092768 0.093502 0.094158 0.094092 0.094704 0.0956 0.096172 0.096703 0.097357 0.098012 0.098751 0.099449 0.10006 0.10072 0.10138 0.10204 0.10261 0.10322 0.10384 0.10441 0.10494 0.10555 0.10589 0.1066 0.10634 0.10695 0.10825 0.109 0.10957 0.10999 0.11061 0.11117 0.11078 0.11124 0.1119 0.1126 0.11311 0.11371 0.11407 0.11468 0.11538 0.11603 0.11699 0.1177 0.11831 0.11927 0.1205 0.12131 0.12187 0.12259 0.1232 0.12382 0.12438 0.12494 0.12561 0.12622 0.12699 0.12766 0.12817 0.12867 0.12901 0.12929 0.13018 0.13079 0.13151 0.13123 0.13183 0.13295 0.13356
-0.085374 -0.084764 -0.084047 -0.083474 -0.082936 -0.082151 -0.081578 -0.081629 -0.08105 -0.080505 -0.080298 -0.079681 -0.079164 -0.078745 -0.077534 -0.076919 -0.076272 -0.075208 -0.074597 -0.073986 -0.073313 -0.072703 -0.072092 -0.071574 -0.070993 -0.070381 -0.069859 -0.069247 -0.068723 -0.068197 -0.067554 -0.066884 -0.066186 -0.065518 -0.064907 -0.064213 -0.063602 -0.062991 -0.061901 -0.061295 -0.060689 -0.060909 -0.06032 -0.05968 -0.058565 -0.057956 -0.057346 -0.056761 -0.056368 -0.055495 -0.054792 -0.054114 -0.05353 -0.052991 -0.052382 -0.051774 -0.051188 -0.050601 -0.050035 -0.04951 -0.048921 -0.04831 -0.047679 -0.047029 -0.046399 -0.04579 -0.045064 -0.044456 -0.043904 -0.043351 -0.042815 -0.042168 -0.041594 -0.041071 -0.040269 -0.039626 -0.039018 -0.038343 -0.037704 -0.037097 -0.036396 -0.035759 -0.035094 -0.034446 0 0 0 0 0 0 0 0 0 0 0 0 0 0 0 -0.016717 -0.016311 -0.015792 -0.015279 -0.014888 -0.014336 -0.013939 -0.013551 -0.013137 -0.012698 -0.012303 -0.011869 -0.011459 -0.011066 -0.010552 -0.010102 -0.009715 -0.0093157 -0.0089114 -0.0085202 -0.0081296 -0.0076765 -0.0072999 -0.0069134 -0.0065275 -0.0061294 -0.0057334 -0.0053506 -0.0049648 -0.0045769 -0.0041935 -0.0038112 -0.0034227 -0.0030453 -0.0026629 -0.0022842 -0.0019096 -0.0015356 -0.0011614 -0.00078868 -0.00041651 -4.4823e-05 0.00032604 0.00069589 0.0010655 0.0014345 0.0018005 0.002168 0.0025349 0.0029014 0.0032673 0.0036301 0.0039919 0.0043557 0.004719 0.0050818 0.0054479 0.00581 0.0061758 0.0065371 0.0068978 0.0072631 0.007623 0.0079881 0.0083473 0.0087121 0.0090705 0.0094351 0.0097926 0.01015 0.010514 0.01087 0.011226 0.011589 0.011936 0.01229 0.012644 0.012997 0.013359 0.013731 0.014104 0.014466 0.014829 0.015192 0.015555 0.015906 0.016257 0.016619 0.016981 0.017331 0.01768 0.018003 0.018351 0.018711 0.019072 0.019447 0.019808 0.020169 0.020515 0.020875 0.021236 0.021597 0.021957 0.022334 0.022711 0.023089 0.023451 0.023829 0.024226 0.024606 0.024986 0.025367 0.02573 0.026093 0.026456 0.026762 0.027143 0.027526 0.027888 0.028251 0 0 0 0 0 0 0 0 0 0 0 0.026936 0.027212 0.027488 0.027787 0.028086 0.028385 0.028684 0.028933 0.029206 0.029504 0.029777 0.030075 0.030346 0.030644 0.030942 0.03124 0.031566 0.031892 0.03219 0.03246 0.032758 0.033085 0.033383 0.033682 0.03401 0.034308 0.034607 0.034936 0.035204 0.035534 0.035833 0.036132 0.036431 0.03673 0.037061 0.037393 0.03779 0.038124 0.038424 0.038758 0.039093 0.039394 0.039729 0.04003 0.040332 0.040633 0.040934 0 0 0 0 0 0 0 0 0 0 0.090219 0.090871 0.091525 0.092139 0.092794 0.093409 0.094103 0.094398 0.094729 0.095503 0.096157 0.096728 0.097175 0.09787 0.098608 0.099348 0.099961 0.10057 0.10132 0.10193 0.10246 0.10307 0.10373 0.10421 0.10487 0.10531 0.10592 0.10662 0.10637 0.10698 0.10828 0.10898 0.10959 0.11002 0.11063 0.1112 0.11081 0.11127 0.11192 0.11257 0.11313 0.11374 0.1142 0.11475 0.1154 0.11616 0.11702 0.11767 0.11833 0.11929 0.12052 0.12123 0.12185 0.12246 0.12313 0.12374 0.12419 0.12491 0.12542 0.12614 0.12691 0.12758 0.12814 0.12842 0.12876 0.12932 0.1302 0.13081 0.13154 0.13125 0.13186 0.13264 0.1333
-0.084655 -0.08463 -0.08395 -0.082628 -0.082025 -0.081316 -0.08068 -0.080113 -0.08044 -0.079865 -0.079154 -0.078546 -0.078204 -0.077925 -0.077246 -0.076796 -0.076085 -0.075023 -0.074477 -0.073835 -0.073194 -0.072554 -0.071975 -0.071396 -0.070816 -0.070236 -0.069626 -0.069075 -0.068259 -0.067969 -0.067328 -0.06666 -0.06602 -0.065354 -0.064716 -0.064078 -0.063414 -0.062617 -0.061877 -0.06127 -0.060664 -0.060058 -0.059452 -0.058795 -0.058164 -0.057757 -0.057125 -0.056324 -0.055743 -0.055232 -0.054697 -0.054066 -0.053459 -0.052898 -0.05229 -0.051683 -0.051075 -0.050511 -0.049924 -0.04938 -0.048791 -0.048182 -0.047573 -0.046943 -0.046295 -0.045706 -0.044981 -0.044374 -0.043823 -0.043252 -0.042717 -0.042107 -0.041551 -0.041028 -0.040037 -0.039517 -0.038909 -0.038269 -0.037646 -0.037008 -0.036355 -0.035704 -0.035054 -0.034436 0 0 0 0 0 0 0 0 0 0 0 0 0 0 0 0 0 0 0 0 -0.014339 -0.013932 -0.013535 -0.013069 -0.012632 -0.012238 -0.011797 -0.011322 -0.010932 -0.010501 -0.0101 -0.0097057 -0.0093061 -0.0088956 -0.0085044 -0.0081192 -0.0077341 -0.0073042 -0.0068978 -0.0065207 -0.0061096 -0.0057179 -0.005335 -0.0049493 -0.0045614 -0.0041781 -0.0037957 -0.0034073 -0.0030321 -0.002642 -0.0022688 -0.0018943 -0.0015214 -0.0011461 -0.00077395 -0.00040125 -2.959e-05 0.00034126 0.00071159 0.0010807 0.0014497 0.0018156 0.0021831 0.00255 0.0029165 0.0032824 0.0036478 0.0040098 0.0043707 0.0047341 0.0050968 0.005463 0.005825 0.0061864 0.0065521 0.0069127 0.0072781 0.007638 0.0080031 0.0083682 0.0087271 0.0090855 0.00945 0.0098146 0.010165 0.010529 0.010885 0.011241 0.011604 0.011942 0.012305 0.012649 0.013012 0.013374 0.013746 0.014108 0.014481 0.014844 0.015207 0.01557 0.015921 0.016283 0.016634 0.016984 0.017346 0.017695 0.018031 0.018379 0.01874 0.019101 0.019462 0.019822 0.020183 0.020529 0.02089 0.021251 0.021612 0.021972 0.022333 0.02271 0.023104 0.023466 0.023844 0.024258 0.024639 0.025001 0.0254 0.025764 0.026108 0.026471 0.026796 0.027158 0.027541 0.027903 0.028266 0 0 0 0 0 0 0 0 0 0 0 0.026901 0.027201 0.0275 0.027799 0.028098 0.028373 0.028671 0.02892 0.029193 0.029491 0.029789 0.030087 0.030359 0.030656 0.030954 0.031252 0.031578 0.031904 0.032174 0.032444 0.032742 0.033068 0.033367 0.033694 0.033993 0.034321 0.034619 0.034918 0.035217 0.035515 0.035783 0.036113 0.036443 0.036742 0.037073 0.03734 0.037803 0.038103 0.038403 0.038737 0.039071 0.039406 0.039707 0.040008 0.040309 0.04061 0.040911 0 0 0 0 0 0 0 0 0 0 0.090244 0.090897 0.091511 0.092165 0.09274 0.093434 0.094089 0.094423 0.094794 0.095406 0.096059 0.096671 0.097118 0.097812 0.098591 0.099289 0.099944 0.1006 0.10117 0.10187 0.10096 0.10157 0.10235 0.10287 0.10347 0.10506 0.10446 0.10511 0.10639 0.107 0.1083 0.10891 0.10929 0.10939 0.10854 0.10923 0.10988 0.11043 0.11185 0.1125 0.11311 0.11367 0.11417 0.11473 0.11538 0.11608 0.11684 0.11755 0.1182 0.11881 0.11936 0.12002 0.12099 0.12186 0.12289 0.12355 0.12406 0.12467 0.12528 0.12418 0.12478 0.12495 0.1256 0.12686 0.12741 0.12807 0.12873 0.12934 0.13005 0.13066 0.1316 0.13226 0.13293
-0.08463 -0.084533 -0.083745 -0.082603 -0.081823 -0.081256 -0.080515 -0.080053 -0.080415 -0.07984 -0.079129 -0.07852 -0.078179 -0.077899 -0.07722 -0.076412 -0.075737 -0.074998 -0.074325 -0.073621 -0.072919 -0.07228 -0.071704 -0.071097 -0.070489 -0.070001 -0.069393 -0.068873 -0.068234 -0.067712 -0.067102 -0.066492 -0.065826 -0.065161 -0.064525 -0.063862 -0.0632 -0.062592 -0.061878 -0.061061 -0.060639 -0.060033 -0.059427 -0.05877 -0.058139 -0.057608 -0.056904 -0.056299 -0.055718 -0.055208 -0.054601 -0.053948 -0.053342 -0.052759 -0.052153 -0.051503 -0.050875 -0.05027 -0.049686 -0.049143 -0.048579 -0.047972 -0.047324 -0.046718 -0.046072 -0.045446 -0.044841 -0.044235 -0.043629 -0.043042 -0.042491 -0.041938 -0.041455 -0.040968 -0.040013 -0.039424 -0.038818 -0.038162 -0.037557 -0.036936 -0.036283 -0.035664 -0.035044 -0.034411 0 0 0 0 0 0 0 0 0 0 0 0 0 0 0 0 0 0 0 0 -0.014322 -0.013916 -0.013519 -0.013053 -0.012616 -0.012214 -0.011805 -0.011306 -0.010917 -0.010485 -0.010077 -0.0096767 -0.009284 -0.0088858 -0.0084943 -0.008098 -0.0077183 -0.0072885 -0.0068868 -0.006505 -0.006094 -0.0057023 -0.0053158 -0.0049337 -0.0045459 -0.0041626 -0.0037803 -0.0033943 -0.0030167 -0.0026267 -0.0022551 -0.0018803 -0.0015061 -0.0011316 -0.00075868 -0.00038627 -1.4361e-05 0.00035623 0.00072629 0.0010951 0.0014638 0.0018308 0.0021982 0.0025652 0.0029316 0.0032998 0.0036654 0.0040248 0.0043889 0.0047525 0.0051119 0.005478 0.0058441 0.0062014 0.0065624 0.0069277 0.0072931 0.0076585 0.0080181 0.0083832 0.0087483 0.0091069 0.0094718 0.0098296 0.010187 0.010544 0.0109 0.011264 0.011628 0.011966 0.01232 0.012673 0.013026 0.013389 0.013761 0.014123 0.014496 0.014859 0.015211 0.015573 0.015924 0.016275 0.016649 0.016999 0.017348 0.01771 0.018046 0.018407 0.018768 0.019129 0.01949 0.019852 0.020213 0.020559 0.020905 0.021266 0.021626 0.021987 0.022364 0.022741 0.023119 0.023481 0.023859 0.024273 0.024653 0.025052 0.025434 0.025779 0.026142 0.026505 0.02683 0.027193 0.027556 0.027918 0.028281 0 0 0 0 0 0 0 0 0 0 0 0.026914 0.027189 0.027488 0.027787 0.028086 0.02836 0.028659 0.028932 0.029205 0.029503 0.029775 0.030073 0.030344 0.030642 0.030967 0.031265 0.031562 0.03186 0.032158 0.032428 0.032725 0.033023 0.03332 0.033618 0.033945 0.034243 0.034541 0.0349 0.035229 0.035528 0.035733 0.036062 0.036424 0.036722 0.037021 0.037352 0.037815 0.038082 0.038382 0.038749 0.039016 0.039419 0.039685 0.039951 0.040252 0.040587 0.040924 0 0 0 0 0 0 0 0 0 0 0.090269 0.090883 0.091536 0.092112 0.092726 0.09338 0.094114 0.094168 0.09482 0.095391 0.096002 0.096573 0.097018 0.09767 0.098617 0.099271 0.099885 0.10054 0.10115 0.1019 0.10099 0.10159 0.10237 0.10289 0.1035 0.10509 0.10448 0.10513 0.10642 0.10703 0.10833 0.10871 0.10932 0.10941 0.10856 0.10906 0.10976 0.11045 0.11163 0.11229 0.11294 0.11349 0.114 0.1146 0.11525 0.11586 0.11646 0.11717 0.11782 0.11863 0.11924 0.11984 0.12081 0.12147 0.1225 0.12342 0.12398 0.12454 0.12504 0.1242 0.1248 0.12497 0.12563 0.12689 0.12744 0.12782 0.12848 0.12908 0.13002 0.13068 0.13123 0.13189 0.13255
-0.084678 -0.08411 -0.082857 -0.082257 -0.081727 -0.081161 -0.080281 -0.079578 -0.078911 -0.078279 -0.077749 -0.07705 -0.076486 -0.075855 -0.075258 -0.076192 -0.075582 -0.074844 -0.074236 -0.073501 -0.0728 -0.072193 -0.071587 -0.07095 -0.070343 -0.068838 -0.068239 -0.06767 -0.067071 -0.066559 -0.065873 -0.065274 -0.064732 -0.064328 -0.063754 -0.06359 -0.062551 -0.061976 -0.061481 -0.060852 -0.060197 -0.059466 -0.058764 -0.058164 -0.057689 -0.057089 -0.056488 -0.055862 -0.055286 -0.054732 -0.054154 -0.053854 -0.053272 -0.052689 -0.052106 -0.051411 -0.050785 -0.05018 -0.049575 -0.049097 -0.048512 -0.047885 -0.047238 -0.046613 -0.045968 -0.045324 -0.044719 -0.044134 -0.043529 -0.042943 -0.042393 -0.041823 -0.041235 -0.040733 -0.040074 -0.039433 -0.038776 -0.038137 -0.037516 -0.036895 -0.036274 -0.035639 -0.03502 -0.034386 0 0 0 0 0 0 0 0 0 0 0 0 0 0 0 -0.01671 -0.016302 -0.015895 -0.015368 -0.014974 -0.014428 -0.013881 -0.013494 -0.013054 -0.012608 -0.012206 -0.011796 -0.011313 -0.010922 -0.010469 -0.010054 -0.0096544 -0.0092619 -0.00887 -0.0084728 -0.0080767 -0.0076816 -0.0072777 -0.0068759 -0.0064938 -0.0060784 -0.0056867 -0.0053003 -0.0049182 -0.0045304 -0.0041471 -0.0037648 -0.0033789 -0.0030033 -0.0026223 -0.0022413 -0.001865 -0.0014908 -0.0011163 -0.0007434 -0.00037101 8.7172e-07 0.00037144 0.00074097 0.0011095 0.001478 0.0018446 0.0022134 0.0025803 0.0029467 0.0033149 0.0036805 0.0040428 0.0044071 0.0047709 0.0051305 0.005493 0.0058592 0.0062165 0.0065821 0.0069428 0.0073081 0.0076735 0.0080388 0.0084042 0.0087633 0.0091284 0.0094935 0.0098516 0.010209 0.010566 0.010915 0.011279 0.011642 0.01198 0.012335 0.012688 0.013041 0.013404 0.013776 0.014138 0.014511 0.014874 0.015215 0.015577 0.015928 0.01629 0.016652 0.017001 0.017351 0.017712 0.018073 0.018422 0.018783 0.019144 0.019505 0.019866 0.020228 0.020589 0.020935 0.021281 0.021641 0.022002 0.022379 0.02274 0.023134 0.023495 0.023874 0.024288 0.024686 0.025067 0.025448 0.025812 0.026157 0.02652 0.026864 0.027208 0.02759 0.027933 0.028296 0 0 0 0 0 0 0 0 0 0 0 0.026926 0.027225 0.0275 0.027799 0.028098 0.028372 0.028646 0.028919 0.029217 0.029515 0.029787 0.030085 0.030357 0.030654 0.030979 0.031277 0.031575 0.031872 0.032142 0.032411 0.032709 0.033006 0.033303 0.033601 0.033898 0.034225 0.034523 0.034851 0.035118 0.035416 0.035714 0.036043 0.036436 0.036735 0.037033 0.037332 0.037663 0.037929 0.038261 0.038594 0.038893 0.039226 0.039525 0.039929 0.040229 0.040565 0.0409 0.041201 0.041502 0 0 0 0 0 0 0 0 0 0.090523 0.091134 0.090339 0.090587 0.091187 0.091707 0.092306 0.092946 0.093749 0.094309 0.095445 0.096173 0.096778 0.097677 0.098283 0.099018 0.097616 0.098254 0.099066 0.099924 0.10052 0.10117 0.10181 0.10241 0.10305 0.10356 0.1042 0.1048 0.10503 0.10563 0.10627 0.10682 0.10742 0.10816 0.10895 0.10969 0.11034 0.11161 0.11231 0.11282 0.11342 0.11392 0.11443 0.11513 0.11578 0.11639 0.11704 0.11769 0.1185 0.11905 0.11971 0.12068 0.12134 0.12194 0.12239 0.12284 0.1235 0.12378 0.12326 0.12386 0.12429 0.12489 0.12587 0.12686 0.12757 0.12828 0.12883 0.12937 0.12885 0.12945 0.13004 0.13047
-0.084471 -0.083867 -0.082833 -0.082125 -0.08149 -0.080891 -0.080152 -0.079484 -0.078886 -0.078152 -0.077521 -0.076857 -0.076095 -0.0755 -0.07484 -0.074246 -0.07349 -0.072897 -0.073988 -0.072562 -0.071962 -0.071486 -0.071132 -0.070498 -0.069442 -0.068783 -0.068214 -0.067616 -0.067046 -0.066476 -0.065849 -0.06525 -0.064707 -0.064108 -0.063536 -0.063073 -0.062472 -0.061898 -0.061244 -0.060538 -0.059912 -0.059287 -0.058637 -0.058038 -0.05749 -0.056965 -0.056414 -0.055814 -0.055261 -0.054707 -0.054153 -0.05376 -0.053155 -0.052528 -0.0517 -0.051054 -0.050431 -0.049809 -0.048867 -0.04825 -0.047529 -0.046914 -0.046746 -0.046166 -0.045606 -0.045006 -0.044463 -0.043881 -0.043298 -0.042715 -0.042113 -0.041493 -0.040874 -0.040639 -0.039877 -0.039239 -0.038618 -0.038014 -0.037426 -0.036822 -0.036234 -0.03563 -0.03501 -0.034361 0 0 0 0 0 0 0 0 0 0 0 0 0 0 0 -0.016693 -0.016296 -0.015878 -0.015352 -0.014957 -0.014412 -0.013801 -0.013406 -0.01302 -0.012583 -0.012182 -0.01178 -0.011296 -0.010906 -0.010453 -0.010045 -0.009645 -0.0092523 -0.0088541 -0.008457 -0.0080664 -0.0076555 -0.007262 -0.0068555 -0.0064737 -0.0060545 -0.0056673 -0.0052811 -0.0048993 -0.0045118 -0.0041288 -0.0037468 -0.0033634 -0.0029838 -0.0026069 -0.002226 -0.0018497 -0.0014745 -0.0011003 -0.00072762 -0.0003555 1.6101e-05 0.00038665 0.00075616 0.0011246 0.0014931 0.0018611 0.0022285 0.0025954 0.0029618 0.00333 0.0036957 0.0040608 0.0044222 0.004786 0.0051456 0.005508 0.0058742 0.0062315 0.0065924 0.0069577 0.0073231 0.0076885 0.0080538 0.0084192 0.0087846 0.0091434 0.0095085 0.0098736 0.010224 0.010589 0.010938 0.011302 0.011657 0.011995 0.012349 0.012712 0.013056 0.013428 0.013791 0.014153 0.014526 0.014878 0.01523 0.015581 0.015931 0.016305 0.016667 0.017016 0.017365 0.017727 0.018088 0.01845 0.018811 0.019159 0.01952 0.019881 0.020243 0.020604 0.020965 0.021311 0.021672 0.022033 0.022394 0.022771 0.023149 0.023527 0.023906 0.024303 0.024701 0.025082 0.025464 0.025827 0.026172 0.026516 0.026879 0.027242 0.027585 0.027908 0.02827 0 0 0 0 0 0 0 0 0 0 0 0.026915 0.027214 0.027489 0.027787 0.028086 0.02836 0.028658 0.028931 0.029204 0.029502 0.0298 0.030097 0.030342 0.030666 0.030964 0.031262 0.031559 0.031857 0.032126 0.032395 0.032692 0.032989 0.033286 0.033554 0.033851 0.034148 0.034445 0.034772 0.035069 0.035366 0.035726 0.036023 0.036416 0.036747 0.037045 0.037344 0.037676 0.037975 0.038273 0.038572 0.038905 0.039204 0.039503 0.039837 0.040172 0.040436 0.040736 0.041071 0.04137 0 0 0 0 0 0 0 0 0 0.088426 0.089062 0.089816 0.090415 0.090974 0.091492 0.09205 0.092647 0.093286 0.093843 0.094399 0.094996 0.095552 0.096149 0.096619 0.097215 0.097641 0.098365 0.099047 0.099688 0.10033 0.10097 0.10157 0.10207 0.10263 0.10322 0.10386 0.10442 0.10483 0.10533 0.10588 0.10634 0.10684 0.10733 0.10793 0.10885 0.10945 0.11135 0.1119 0.1125 0.11325 0.1137 0.11411 0.11471 0.11531 0.11601 0.11681 0.11752 0.11832 0.11887 0.11953 0.1206 0.12121 0.11987 0.12052 0.12154 0.12219 0.12258 0.12296 0.12361 0.12421 0.12486 0.12562 0.12639 0.1271 0.12769 0.12813 0.12867 0.12882 0.1293 0.12984 0.13032
-0.084446 -0.083843 -0.082808 -0.082065 -0.081324 -0.08069 -0.080057 -0.07939 -0.078724 -0.078059 -0.077395 -0.076732 -0.075937 -0.07531 -0.074717 -0.074254 -0.073466 -0.072873 -0.073964 -0.072538 -0.071875 -0.071338 -0.070861 -0.070504 -0.069417 -0.068729 -0.068131 -0.067532 -0.066934 -0.066452 -0.065824 -0.065254 -0.064655 -0.064139 -0.063511 -0.063049 -0.062421 -0.061793 -0.061139 -0.060487 -0.059862 -0.059237 -0.058587 -0.057963 -0.057415 -0.056916 -0.05634 -0.05574 -0.055188 -0.054635 -0.054081 -0.053688 -0.053107 -0.05239 -0.051698 -0.05103 -0.050407 -0.049785 -0.048843 -0.048225 -0.047504 -0.046889 -0.046721 -0.046142 -0.045582 -0.045001 -0.044381 -0.043799 -0.043217 -0.042616 -0.042015 -0.041397 -0.040867 -0.040492 -0.039835 -0.039231 -0.038593 -0.037973 -0.037385 -0.036813 -0.036193 -0.03562 -0.035 -0.034396 0 0 0 0 0 0 0 0 0 0 0 0 0 0 0 -0.016687 -0.016279 -0.015871 -0.015434 -0.015008 -0.014395 -0.013785 -0.013399 -0.012995 -0.012576 -0.012174 -0.011772 -0.011363 -0.01097 -0.010437 -0.010036 -0.0096357 -0.0092365 -0.0088264 -0.0084298 -0.0080397 -0.0076397 -0.0072462 -0.0068398 -0.006458 -0.0060389 -0.0056517 -0.0052655 -0.0048838 -0.0044963 -0.0041133 -0.0037313 -0.003348 -0.0029684 -0.0025898 -0.0022091 -0.0018331 -0.0014592 -0.001085 -0.00071236 -0.00034025 3.1333e-05 0.00040186 0.00077135 0.0011406 0.0015093 0.0018775 0.0022436 0.0026105 0.002979 0.0033475 0.0037134 0.0040758 0.0044404 0.0048044 0.0051606 0.0055231 0.0058892 0.0062509 0.0066121 0.0069727 0.0073381 0.0077035 0.0080688 0.0084342 0.0087995 0.0091649 0.0095235 0.0098886 0.010246 0.010604 0.010953 0.011317 0.011672 0.01201 0.012364 0.012727 0.013071 0.013433 0.013806 0.014178 0.014541 0.014904 0.015244 0.015584 0.015946 0.016319 0.016681 0.017019 0.01738 0.017742 0.018103 0.018465 0.018826 0.019188 0.019535 0.019911 0.020272 0.020633 0.020995 0.021341 0.021702 0.022063 0.022441 0.022818 0.023197 0.023576 0.023938 0.024353 0.024734 0.025097 0.025478 0.025823 0.026187 0.026531 0.026894 0.027237 0.0276 0.027903 0.028285 0 0 0 0 0 0 0 0 0 0 0 0.026927 0.027202 0.027501 0.0278 0.028074 0.028372 0.028645 0.028918 0.029191 0.029488 0.029786 0.030083 0.030354 0.030652 0.030976 0.031246 0.031544 0.031841 0.03211 0.032407 0.032704 0.033002 0.033269 0.033566 0.033863 0.03416 0.034457 0.034753 0.03505 0.035378 0.035707 0.036035 0.036397 0.036727 0.037058 0.037356 0.037655 0.037987 0.038286 0.038585 0.038884 0.039182 0.039516 0.039815 0.040149 0.040448 0.040748 0.041083 0.041383 0 0 0 0 0 0 0 0 0 0.088451 0.089087 0.089841 0.0904 0.09084 0.091437 0.091954 0.092632 0.09327 0.093867 0.094423 0.095021 0.095576 0.096173 0.096644 0.097112 0.097665 0.098303 0.099029 0.099625 0.10031 0.10091 0.10146 0.10197 0.10252 0.10316 0.10375 0.1043 0.10467 0.10517 0.10572 0.10613 0.10667 0.10722 0.10795 0.10888 0.10947 0.11147 0.11178 0.11243 0.11337 0.11343 0.11388 0.11458 0.11513 0.11578 0.11689 0.11744 0.1183 0.1189 0.1195 0.12057 0.12123 0.1199 0.12055 0.12157 0.12211 0.12255 0.12299 0.12358 0.12418 0.12483 0.12554 0.12624 0.12695 0.12772 0.12804 0.12869 0.12884 0.12927 0.12992 0.13029
-0.082818 -0.082226 -0.082137 -0.081576 -0.081122 -0.080525 -0.079858 -0.079262 -0.078631 -0.077898 -0.077235 -0.076573 -0.075779 -0.075121 -0.074561 -0.073936 -0.073086 -0.072496 -0.071906 -0.072356 -0.071788 -0.07122 -0.070683 -0.070113 -0.069302 -0.068644 -0.068047 -0.067449 -0.066764 -0.066023 -0.06517 -0.064576 -0.06404 -0.063502 -0.06288 -0.062969 -0.062315 -0.061688 -0.061062 -0.060436 -0.059811 -0.059186 -0.058511 -0.057888 -0.057341 -0.056841 -0.056267 -0.055667 -0.055116 -0.054563 -0.054033 -0.053594 -0.053037 -0.052365 -0.051673 -0.050253 -0.049464 -0.048896 -0.048349 -0.047779 -0.047105 -0.046536 -0.045946 -0.045596 -0.045003 -0.044859 -0.044279 -0.043718 -0.043118 -0.042499 -0.041882 -0.041264 -0.040577 -0.039979 -0.039484 -0.038885 -0.038319 -0.037194 -0.036603 -0.035884 -0.035295 -0.034859 0 0 0 0 0 0 0 0 0 0 0 0 0 0 0 0 0 -0.01667 -0.016262 -0.015845 -0.015417 -0.014991 0 -0.013769 -0.013374 -0.012979 -0.012559 -0.012157 -0.011756 -0.011355 -0.010954 -0.010519 -0.0099863 -0.0096068 -0.0092144 -0.0087807 -0.0084026 -0.008013 -0.0076188 -0.0072256 -0.0068381 -0.0064468 -0.0060275 -0.0056362 -0.00525 -0.0048683 -0.0044808 -0.0040978 -0.0037133 -0.0033326 -0.002953 -0.0025726 -0.0021877 -0.0018153 -0.0014429 -0.0010697 -0.0006971 -0.00032499 4.6566e-05 0.00041707 0.00078654 0.001155 0.0015245 0.0018927 0.0022588 0.0026257 0.0029942 0.0033626 0.0037285 0.0040938 0.0044586 0.0048195 0.0051793 0.005542 0.0059042 0.0062659 0.0066271 0.0069877 0.0073531 0.0077185 0.0080838 0.0084492 0.0088146 0.0091799 0.0095385 0.0099036 0.010254 0.010619 0.010967 0.011323 0.011687 0.012025 0.012379 0.012733 0.013086 0.013448 0.01382 0.014193 0.014556 0.014908 0.015259 0.015599 0.015961 0.016334 0.016696 0.017034 0.017395 0.017757 0.018118 0.018479 0.018841 0.019202 0.019564 0.019911 0.020287 0.020633 0.020994 0.021356 0.021701 0.022062 0.022455 0.022833 0.023228 0.023591 0.023987 0.024368 0.024748 0.025112 0.025493 0.025838 0.026183 0.026546 0.026909 0.027252 0.027575 0.027918 0.028239 0 0 0 0 0 0 0 0 0 0 0 0.026892 0.027167 0.027441 0.02769 0.027988 0.028285 0.028583 0.028905 0.029177 0.029475 0.029772 0.030043 0.03034 0.030637 0.030961 0.031259 0.031556 0.031825 0.03201 0.032306 0.032717 0.032985 0.033252 0.03346 0.033756 0.034052 0.034348 0.034735 0.035063 0.035359 0.035687 0.036016 0.036409 0.036739 0.037038 0.037369 0.037667 0.037966 0.038298 0.038597 0.038896 0.039195 0.039494 0.039827 0.040161 0.040461 0.040796 0.041095 0.041359 0 0 0 0 0 0 0 0 0 0.08778 0.088373 0.088965 0.090031 0.090745 0.091422 0.091858 0.092373 0.092602 0.092991 0.093624 0.094589 0.094683 0.095274 0.096203 0.096924 0.097561 0.098199 0.098967 0.099606 0.10025 0.10084 0.10144 0.1019 0.10245 0.10309 0.10364 0.10419 0.10451 0.10506 0.10556 0.10596 0.10646 0.10701 0.10741 0.108 0.10868 0.10927 0.11117 0.11182 0.11246 0.11311 0.11376 0.11451 0.11506 0.1155 0.11595 0.1165 0.11704 0.11759 0.11818 0.11894 0.12 0.11798 0.11862 0.12159 0.12208 0.12257 0.12296 0.12355 0.1242 0.12475 0.12545 0.12616 0.12676 0.12713 0.12689 0.12748 0.12813 0.1285 0.12909 0.12923
-0.082247 -0.081695 -0.08143 -0.080946 -0.080354 -0.079763 -0.079136 -0.07858 -0.078125 -0.077635 -0.077008 -0.076381 -0.075622 -0.074997 -0.074406 -0.073749 -0.073094 -0.07244 -0.071818 -0.07126 -0.070671 -0.070607 -0.070013 -0.069419 -0.068795 -0.068261 -0.067666 -0.067042 -0.066098 -0.065507 -0.064945 -0.06441 -0.063819 -0.063255 -0.062525 -0.061907 -0.061343 -0.060725 -0.060984 -0.060333 -0.059682 -0.059033 -0.05841 -0.057813 -0.057216 -0.056619 -0.055509 -0.054796 -0.05423 -0.054397 -0.053845 -0.053407 -0.052783 -0.050915 -0.050329 -0.049742 -0.049156 -0.04857 -0.048218 -0.04765 -0.046998 -0.046368 -0.045719 -0.045192 -0.044603 -0.044113 -0.043562 -0.042972 -0.042475 -0.041903 -0.041639 -0.04106 -0.040499 -0.039902 -0.039322 -0.038776 -0.038194 -0.036957 -0.036401 -0.035797 -0.035224 -0.03462 0 0 0 0 0 0 0 0 0 0 0 0 0 0 0 0 0 -0.016654 -0.016246 -0.015828 -0.015381 -0.014974 0 -0.013753 -0.013358 -0.012963 -0.012543 -0.012141 -0.01174 -0.011339 -0.010938 -0.010531 -0.0099637 -0.009578 -0.0091861 -0.008765 -0.0083811 -0.0079918 -0.0075979 -0.0072099 -0.0068224 -0.0064311 -0.0060119 -0.0056206 -0.0052381 -0.0048528 -0.0044654 -0.0040824 -0.0036978 -0.0033172 -0.0029396 -0.0025537 -0.0021724 -0.0018 -0.0014276 -0.0010544 -0.00068183 -0.00030995 6.1795e-05 0.00043228 0.00080229 0.001171 0.0015397 0.0019078 0.0022755 0.0026408 0.0030093 0.0033778 0.0037463 0.0041089 0.0044769 0.004838 0.0051981 0.005561 0.0059235 0.0062854 0.0066421 0.0070077 0.0073734 0.0077335 0.0081046 0.0084702 0.0088358 0.0091949 0.0095603 0.0099186 0.010262 0.010618 0.010967 0.011322 0.011694 0.012031 0.012385 0.012739 0.013091 0.013463 0.013815 0.014188 0.01455 0.014901 0.015252 0.015603 0.015964 0.016326 0.016687 0.017049 0.01741 0.017771 0.018133 0.018494 0.018856 0.019217 0.019579 0.01994 0.020302 0.020648 0.021009 0.021371 0.021732 0.022077 0.02247 0.022848 0.023227 0.023606 0.023985 0.024383 0.024763 0.025127 0.02549 0.025853 0.026198 0.026561 0.026904 0.027248 0.02757 0.027912 0.028254 0 0 0 0 0 0 0 0 0 0 0 0.026858 0.027132 0.027405 0.027678 0.027976 0.028273 0.02857 0.028867 0.029138 0.029435 0.029654 0.02995 0.030219 0.030515 0.030811 0.031052 0.031319 0.031642 0.031909 0.032233 0.032499 0.032794 0.033089 0.033384 0.033709 0.034004 0.034299 0.034625 0.035044 0.035372 0.035668 0.036091 0.036421 0.036687 0.037018 0.037348 0.037647 0.037945 0.038277 0.038575 0.038874 0.039173 0.039471 0.039805 0.040139 0.040438 0.040772 0.041072 0.041335 0 0 0 0 0 0 0 0 0 0.087418 0.088086 0.088559 0.08911 0.089699 0.090448 0.091079 0.09175 0.092383 0.092974 0.093566 0.094157 0.094707 0.095256 0.095847 0.096523 0.097158 0.097793 0.098601 0.099282 0.099963 0.1006 0.1012 0.10166 0.10225 0.10285 0.10339 0.1039 0.10417 0.10471 0.10526 0.10566 0.1062 0.10679 0.10734 0.10797 0.10861 0.1093 0.10964 0.11028 0.11234 0.11294 0.11359 0.11428 0.11483 0.11321 0.11385 0.11449 0.11507 0.11566 0.11547 0.11606 0.11711 0.11764 0.11838 0.1187 0.11886 0.1195 0.12244 0.12315 0.1238 0.12439 0.12498 0.12563 0.12617 0.12666 0.12636 0.12712 0.12771 0.12813 0.1286 0.12908
-0.082223 -0.081671 -0.081405 -0.080921 -0.08033 -0.079703 -0.079112 -0.078555 -0.078032 -0.077508 -0.076882 -0.076256 -0.075597 -0.074973 -0.074349 -0.07366 -0.07307 -0.072352 -0.071762 -0.071173 -0.070646 -0.07049 -0.069927 -0.069334 -0.06874 -0.068116 -0.067493 -0.066871 -0.066103 -0.065483 -0.064921 -0.064301 -0.06371 -0.063119 -0.0625 -0.061855 -0.061292 -0.060701 -0.060959 -0.060256 -0.059658 -0.058931 -0.05836 -0.057763 -0.057192 -0.056595 -0.055484 -0.054772 -0.054205 -0.054396 -0.053773 -0.053336 -0.052644 -0.050891 -0.050305 -0.049718 -0.049132 -0.048545 -0.048194 -0.047604 -0.046953 -0.046262 -0.045695 -0.045167 -0.044579 -0.044089 -0.043538 -0.042948 -0.042451 -0.041878 -0.041523 -0.041018 -0.040439 -0.03986 -0.039263 -0.038684 -0.038136 -0.036949 -0.036313 -0.035757 -0.035184 -0.034596 0 0 0 0 0 0 0 0 0 0 0 0 0 0 0 0 0 0 0 0 0 0 0 -0.013736 -0.01335 -0.012955 -0.012519 -0.012117 -0.011723 -0.011322 -0.010929 -0.010536 -0.0099479 -0.0095622 -0.0091703 -0.0087492 -0.0083597 -0.0079707 -0.0075822 -0.0071893 -0.0068067 -0.0064198 -0.0059963 -0.0056051 -0.0052226 -0.0048406 -0.0044529 -0.0040725 -0.0036824 -0.0033041 -0.0029283 -0.0025507 -0.0021571 -0.0017847 -0.0014123 -0.0010392 -0.00066704 -0.0002949 7.7028e-05 0.00044781 0.00081807 0.001187 0.0015559 0.0019244 0.0022923 0.0026597 0.0030265 0.0033953 0.0037614 0.0041269 0.0044952 0.00486 0.0052205 0.005584 0.0059512 0.0063139 0.0066713 0.0070327 0.0073989 0.0077595 0.0081254 0.0084973 0.0088572 0.0092165 0.0095753 0.0099335 0.010269 0.010626 0.010974 0.011337 0.0117 0.012046 0.0124 0.012753 0.013106 0.013468 0.01383 0.014202 0.014554 0.014916 0.015256 0.015617 0.015979 0.01634 0.016702 0.017063 0.017437 0.017799 0.018161 0.018523 0.018884 0.019232 0.019593 0.019955 0.020316 0.020678 0.021039 0.021401 0.021762 0.022108 0.022501 0.022863 0.023258 0.02362 0.024 0.024397 0.024778 0.025142 0.025505 0.025868 0.026213 0.026576 0.026939 0.027302 0.027546 0.027927 0.028268 0 0 0 0 0 0 0 0 0 0 0 0.02687 0.027144 0.027418 0.027691 0.027988 0.028285 0.028582 0.028854 0.02915 0.029421 0.029692 0.029962 0.030231 0.030527 0.030823 0.031064 0.031331 0.031626 0.031921 0.032245 0.032511 0.032806 0.033101 0.033396 0.033691 0.034016 0.034312 0.034637 0.035056 0.035353 0.035681 0.036167 0.036433 0.0367 0.036997 0.037328 0.037626 0.037957 0.038256 0.038554 0.038852 0.039185 0.039484 0.039817 0.040151 0.04045 0.040785 0.041048 0.041348 0 0 0 0 0 0 0 0 0 0.087443 0.087955 0.088544 0.089134 0.089763 0.090432 0.091063 0.091694 0.092325 0.092835 0.093425 0.094016 0.094606 0.095155 0.095787 0.096378 0.097011 0.097688 0.098452 0.099132 0.099812 0.10058 0.10113 0.10164 0.10219 0.10282 0.10333 0.10374 0.1041 0.10465 0.10514 0.10559 0.10613 0.10668 0.10726 0.1079 0.10849 0.10932 0.10967 0.11031 0.11232 0.11292 0.11351 0.11426 0.11475 0.11324 0.11377 0.11436 0.115 0.11558 0.1155 0.11618 0.11697 0.11761 0.1182 0.11873 0.11899 0.11952 0.12247 0.12306 0.12366 0.12425 0.1249 0.12549 0.12603 0.12668 0.12638 0.12697 0.12756 0.12798 0.12863 0.12905
-0.08147 -0.080923 -0.080412 -0.080826 -0.08027 -0.079644 -0.079018 -0.078496 -0.077939 -0.077416 -0.076824 -0.076232 -0.075507 -0.074883 -0.074226 -0.073571 -0.072917 -0.072263 -0.07158 -0.07096 -0.070217 -0.07028 -0.06975 -0.069188 -0.068625 -0.068032 -0.06738 -0.066758 -0.06605 -0.06543 -0.064839 -0.064248 -0.06363 -0.063067 -0.062393 -0.061776 -0.061186 -0.06049 -0.059742 -0.059155 -0.058567 -0.05798 -0.057087 -0.056503 -0.055894 -0.055237 -0.054654 -0.054022 -0.05344 -0.052858 -0.052205 -0.051623 -0.050927 -0.050324 -0.049834 -0.049274 -0.048715 -0.048176 -0.047743 -0.047138 -0.046492 -0.045889 -0.045306 -0.044783 -0.04418 -0.043597 -0.043014 -0.04243 -0.041903 -0.041504 -0.040917 -0.040438 -0.039585 -0.039001 -0.038416 -0.037832 -0.037464 -0.036827 -0.036224 -0.035574 -0.034911 -0.034311 -0.033501 -0.032936 0 0 0 0 0 0 0 0 0 0 0 0 0 0 0 0 0 0 -0.015151 -0.014749 -0.014348 -0.013784 -0.013361 -0.012948 -0.012494 -0.012101 -0.0117 -0.011306 -0.010906 -0.010506 -0.009932 -0.0095464 -0.0091545 -0.0087157 -0.0083383 -0.0079495 -0.0075561 -0.0071736 -0.0067864 -0.0063954 -0.0059725 -0.0055895 -0.005207 -0.004825 -0.0044374 -0.0040598 -0.0036645 -0.0032887 -0.0029108 -0.0025353 -0.0021478 -0.0017719 -0.001398 -0.0010246 -0.00065176 -0.00027962 9.2324e-05 0.00046303 0.00083327 0.0012022 0.0015711 0.0019395 0.0023074 0.0026748 0.0030417 0.0034104 0.0037765 0.0041421 0.0045071 0.0048716 0.0052356 0.0055991 0.0059663 0.006329 0.0066911 0.0070478 0.0074139 0.0077801 0.0081404 0.0085124 0.0088722 0.0092315 0.0095903 0.0099485 0.010284 0.010633 0.010989 0.011344 0.011707 0.012061 0.012415 0.012768 0.01313 0.013493 0.013855 0.014217 0.01458 0.014942 0.015282 0.015632 0.015994 0.016355 0.016717 0.017078 0.017465 0.017827 0.018189 0.018551 0.018913 0.019275 0.019637 0.019999 0.020346 0.020708 0.021054 0.021416 0.021777 0.022138 0.022516 0.022878 0.023273 0.023635 0.024015 0.024412 0.024793 0.025156 0.02552 0.025883 0.026228 0.02659 0.026953 0.027336 0.02762 0.027962 0.028344 0 0 0 0 0 0 0 0 0 0 0 0.026882 0.027156 0.02743 0.027703 0.028 0.028297 0.028594 0.028866 0.029163 0.029434 0.029678 0.029947 0.030243 0.030512 0.030808 0.031076 0.031343 0.03161 0.031905 0.032171 0.032408 0.032702 0.033055 0.033261 0.033555 0.033968 0.034293 0.034619 0.035068 0.035365 0.035661 0.03599 0.036286 0.036647 0.036977 0.037307 0.037605 0.037903 0.038234 0.038533 0.038831 0.039129 0.039461 0.03969 0.040163 0.040462 0.040797 0 0 0 0 0 0 0 0 0 0.086096 0.086723 0.087235 0.087901 0.08849 0.089119 0.089708 0.090337 0.090967 0.091597 0.092187 0.092695 0.093243 0.093832 0.094463 0.095137 0.095685 0.096317 0.09695 0.09754 0.098303 0.098895 0.099661 0.10056 0.10111 0.10166 0.10225 0.10285 0.10326 0.10362 0.10403 0.10458 0.10512 0.10552 0.10607 0.10661 0.10715 0.10773 0.10827 0.10814 0.10877 0.10931 0.10994 0.11003 0.11066 0.11124 0.11192 0.11256 0.11349 0.11418 0.11476 0.11509 0.11521 0.11605 0.11674 0.11737 0.11806 0.11859 0.11886 0.11922 0.11948 0.12012 0.12086 0.12177 0.12235 0.12227 0.1229 0.12348 0.1244 0.12492 0.12578 0.1262 0.12678 0.12776
-0.08141 -0.080827 -0.08028 -0.079626 -0.078937 -0.078356 -0.077809 -0.077192 -0.076645 -0.076063 -0.076664 -0.075369 -0.074817 -0.074264 -0.073678 -0.072897 -0.07228 -0.071632 -0.07108 -0.07037 -0.069787 -0.069235 -0.068713 -0.068129 -0.06848 -0.067888 -0.067237 -0.066587 -0.065967 -0.065319 -0.064672 -0.064054 -0.063521 -0.062931 -0.062287 -0.061643 -0.061027 -0.060332 -0.059479 -0.058973 -0.058413 -0.057828 -0.056834 -0.056328 -0.055771 -0.055163 -0.054557 -0.05395 -0.053368 -0.052739 -0.052134 -0.051507 -0.050881 -0.0503 -0.04981 -0.049251 -0.048669 -0.048109 -0.047613 -0.047051 -0.046448 -0.045885 -0.045302 -0.044719 -0.044117 -0.043554 -0.042951 -0.042369 -0.041767 -0.041258 -0.040693 -0.040199 -0.039508 -0.038959 -0.038358 -0.037808 -0.03729 -0.036721 -0.036088 -0.035487 -0.034902 -0.03418 -0.033508 -0.032898 -0.032622 0 0 0 0 0 0 0 0 0 0 0 0 0 0 0 0 -0.015536 -0.015075 -0.014694 -0.014294 -0.013767 -0.013362 -0.012957 -0.012478 -0.012085 -0.011683 -0.011275 -0.010883 -0.010392 -0.0099229 -0.0095305 -0.0090954 -0.0087 -0.0083169 -0.0079284 -0.0075404 -0.007153 -0.0067615 -0.006371 -0.005957 -0.0055701 -0.0051879 -0.0048062 -0.0044036 -0.0040276 -0.003644 -0.003271 -0.0028934 -0.0025182 -0.0021325 -0.001759 -0.0013837 -0.0010093 -0.00063693 -0.00026435 0.00010757 0.00047825 0.00084848 0.0012174 0.0015874 0.0019561 0.0023226 0.00269 0.0030568 0.0034256 0.0037916 0.0041542 0.0045222 0.0048867 0.005247 0.0056102 0.0059771 0.006344 0.0067062 0.0070678 0.0074289 0.0077951 0.0081612 0.0085213 0.0088872 0.0092399 0.0095984 0.0099564 0.010292 0.010648 0.010996 0.01135 0.011722 0.012076 0.012439 0.012792 0.013145 0.013508 0.01388 0.014232 0.014594 0.014957 0.015297 0.015647 0.015997 0.016358 0.016732 0.017093 0.01748 0.017842 0.018204 0.018579 0.018941 0.01929 0.019651 0.020014 0.020375 0.020737 0.021084 0.021446 0.021808 0.022169 0.022531 0.022893 0.023271 0.02365 0.02403 0.02441 0.02479 0.025153 0.025516 0.025879 0.026242 0.026624 0.026968 0.027312 0.027655 0.027977 0.028318 0.02866 0.029021 0 0 0 0 0 0 0 0 0 0.026894 0.027168 0.027466 0.027593 0.027889 0.028259 0.028556 0.028726 0.029021 0.029316 0.029638 0.029933 0.030229 0.030497 0.030793 0.030978 0.0313 0.031567 0.031861 0.032127 0.03242 0.032685 0.033008 0.033302 0.033626 0.03398 0.034275 0.0346 0.034988 0.035315 0.035642 0.035938 0.036299 0.036628 0.036925 0.037254 0.037552 0.037849 0.03818 0.038477 0.038775 0.039073 0.03937 0.039633 0.040141 0.040475 0.040774 0.041073 0.041372 0 0 0 0 0 0 0 0.08612 0.086748 0.087027 0.087731 0.088358 0.088985 0.089534 0.090041 0.090669 0.091297 0.091844 0.09194 0.092813 0.0934 0.093819 0.094404 0.095328 0.096043 0.096631 0.09722 0.097894 0.098439 0.097668 0.098293 0.098829 0.099186 0.099765 0.10016 0.10074 0.10132 0.10204 0.10257 0.10496 0.10545 0.10595 0.10644 0.10693 0.10752 0.10811 0.10768 0.1085 0.10894 0.10942 0.10991 0.11039 0.11102 0.1116 0.11223 0.11306 0.11364 0.11428 0.11476 0.11529 0.11582 0.1164 0.11703 0.11766 0.11814 0.11851 0.11904 0.11951 0.12009 0.12083 0.12146 0.12193 0.12229 0.12293 0.12356 0.12425 0.12495 0.12553 0.12605 0.12629 0.12687
-0.08135 -0.080803 -0.080256 -0.079602 -0.078914 -0.078297 -0.07775 -0.077203 -0.076587 -0.076039 -0.07664 -0.075345 -0.074793 -0.07424 -0.073654 -0.072938 -0.072256 -0.07164 -0.070992 -0.070346 -0.069763 -0.069242 -0.068689 -0.068105 -0.068426 -0.067804 -0.067183 -0.066534 -0.065914 -0.065324 -0.064533 -0.063973 -0.063441 -0.062852 -0.062235 -0.061591 -0.060949 -0.060281 -0.059455 -0.058844 -0.058259 -0.057701 -0.05681 -0.056229 -0.055697 -0.05509 -0.054484 -0.053902 -0.053273 -0.052668 -0.052087 -0.051437 -0.050834 -0.050254 -0.049786 -0.049205 -0.048667 -0.048064 -0.047546 -0.047006 -0.046424 -0.045841 -0.045258 -0.044675 -0.044073 -0.043471 -0.042889 -0.042307 -0.041743 -0.041235 -0.040669 -0.040175 -0.039484 -0.038901 -0.038334 -0.03775 -0.037167 -0.036599 -0.036015 -0.035431 -0.034847 -0.034263 -0.033664 -0.03308 -0.032598 0 0 0 0 0 0 0 0 0 0 0 0 0 0 0 0 -0.015519 -0.015069 -0.014649 -0.01425 -0.01376 -0.013363 -0.012958 -0.012545 -0.012141 -0.011745 -0.011259 -0.010866 -0.010376 -0.0099071 -0.0095211 -0.0090797 -0.0086961 -0.0083068 -0.0079181 -0.0075247 -0.0071422 -0.0067458 -0.0063553 -0.0059659 -0.0055546 -0.0051724 -0.0047907 -0.0043882 -0.0040094 -0.0036311 -0.0032533 -0.002878 -0.002501 -0.0021231 -0.0017461 -0.0013703 -0.00099473 -0.00062208 -0.00024907 0.00012289 0.00049417 0.00086491 0.0012351 0.001606 0.0019726 0.002341 0.0027051 0.0030741 0.0034407 0.0038067 0.0041693 0.0045373 0.0048983 0.005262 0.0056252 0.0059922 0.0063546 0.0067212 0.0070829 0.0074493 0.0078157 0.0081763 0.0085363 0.0089022 0.0092549 0.0096134 0.0099714 0.010314 0.010663 0.011003 0.011365 0.011728 0.012091 0.012454 0.012807 0.01316 0.013532 0.013895 0.014247 0.014609 0.014971 0.015312 0.015651 0.016012 0.016373 0.016734 0.017108 0.017494 0.017857 0.018218 0.018594 0.018956 0.019318 0.019666 0.020028 0.02039 0.020752 0.021099 0.021476 0.021823 0.022184 0.022562 0.022924 0.023303 0.023665 0.024045 0.024425 0.024805 0.025168 0.025513 0.025876 0.026257 0.026639 0.026983 0.027327 0.02767 0.027972 0.028313 0.028674 0.029036 0 0 0 0 0 0 0 0 0 0.026906 0.027181 0.027478 0.027606 0.027901 0.028247 0.028543 0.028738 0.029033 0.029329 0.029624 0.029919 0.030214 0.030509 0.030805 0.031018 0.031284 0.031579 0.031845 0.032139 0.032404 0.032697 0.032991 0.033314 0.033668 0.033962 0.034287 0.034643 0.034969 0.035296 0.035623 0.035982 0.036279 0.036608 0.036904 0.037234 0.037531 0.037828 0.038159 0.038456 0.038753 0.039051 0.039348 0.039645 0.040153 0.040452 0.040786 0.041085 0.041384 0 0 0 0 0 0 0 0 0 0.08709 0.087638 0.088303 0.08893 0.089399 0.089986 0.090532 0.09116 0.091746 0.091964 0.092549 0.093175 0.093801 0.094428 0.095352 0.095897 0.096527 0.097114 0.097745 0.098246 0.097692 0.098317 0.098853 0.099255 0.099744 0.10023 0.10076 0.10134 0.10201 0.10259 0.10498 0.10539 0.10597 0.10637 0.10691 0.10745 0.10808 0.1077 0.10828 0.10872 0.1092 0.10978 0.11031 0.11084 0.11142 0.11205 0.11283 0.11352 0.11399 0.11457 0.11521 0.11574 0.11632 0.1169 0.11758 0.118 0.11837 0.11895 0.11953 0.12011 0.1208 0.12138 0.12185 0.12232 0.1229 0.12359 0.12422 0.1248 0.12544 0.12596 0.12637 0.12689
-0.08078 -0.079948 -0.079372 -0.078795 -0.078218 -0.078203 -0.077622 -0.077076 -0.07646 -0.075709 -0.075197 -0.07465 -0.074037 -0.074117 -0.073597 -0.072881 -0.072167 -0.071552 -0.070937 -0.070259 -0.069645 -0.068878 -0.067561 -0.066987 -0.066413 -0.065838 -0.065264 -0.066304 -0.065803 -0.06504 -0.064224 -0.063836 -0.063304 -0.062744 -0.062128 -0.061513 -0.060898 -0.060283 -0.059272 -0.058741 -0.058158 -0.057548 -0.056481 -0.055903 -0.055225 -0.054647 -0.054387 -0.053806 -0.053177 -0.052597 -0.051993 -0.051367 -0.050764 -0.05023 -0.049717 -0.049159 -0.0486 -0.048019 -0.04748 -0.04694 -0.046358 -0.045755 -0.045194 -0.044592 -0.04397 -0.043369 -0.042769 -0.042169 -0.041477 -0.040714 -0.040119 -0.039811 -0.039019 -0.038443 -0.038019 -0.03744 -0.03706 -0.036494 -0.035927 -0.035376 -0.034808 -0.034224 -0.03364 -0.033042 0 0 0 0 0 0 0 0 0 0 0 0 0 0 0 0 0 -0.015503 -0.015052 -0.014633 -0.014243 -0.013735 -0.013347 -0.012941 -0.012528 -0.012124 -0.011721 -0.01128 -0.010886 0 -0.0098846 -0.0094989 -0.0090639 -0.0086803 -0.0082911 -0.0079024 -0.007509 -0.0071265 -0.0067301 -0.006344 -0.0059299 -0.0055429 -0.0051568 -0.0047752 -0.0043667 -0.0039912 -0.0036132 -0.0032379 -0.0028606 -0.0024856 -0.0021062 -0.0017296 -0.001354 -0.00097944 -0.00060636 -0.0002338 0.00013814 0.00050941 0.00088015 0.0012512 0.0016223 0.0019906 0.0023645 0.0027222 0.0030893 0.0034558 0.0038219 0.0041845 0.0045492 0.0049134 0.0052734 0.0056363 0.0060029 0.0063696 0.0067363 0.0070979 0.0074643 0.0078307 0.0081913 0.0085513 0.0089172 0.0092699 0.0096215 0.0099792 0.010322 0.010678 0.011026 0.01138 0.011743 0.012115 0.012469 0.012831 0.013185 0.013547 0.01391 0.014272 0.014624 0.014986 0.015326 0.015666 0.016027 0.016388 0.016761 0.017123 0.017509 0.017871 0.018233 0.018609 0.018971 0.019319 0.019681 0.020043 0.020405 0.020767 0.021129 0.021491 0.021853 0.022215 0.022577 0.022939 0.023318 0.02368 0.024042 0.024422 0.024802 0.025165 0.025528 0.025891 0.026272 0.026635 0.026998 0.027342 0.027665 0.027987 0.028328 0.028689 0.028967 0.029327 0 0 0 0 0 0 0 0 0 0.027169 0.027466 0.027569 0.027864 0.028234 0.02853 0.028725 0.029045 0.029341 0.02961 0.029905 0.0302 0.030495 0.03079 0.03103 0.031296 0.031591 0.031857 0.032122 0.032416 0.032681 0.033003 0.033327 0.03368 0.033975 0.034299 0.034655 0.034951 0.035277 0.035541 0.035805 0.0361 0.036459 0.036884 0.037213 0.037543 0.03784 0.038137 0.038434 0.038732 0.039063 0.03936 0.039657 0.04013 0.040464 0.040798 0.041098 0.041361 0 0 0 0 0 0 0 0 0 0.086496 0.087117 0.088171 0.088757 0.088867 0.08977 0.090355 0.090617 0.090915 0.091496 0.092366 0.09295 0.093115 0.093696 0.094234 0.094772 0.09548 0.095975 0.096555 0.097092 0.097541 0.098208 0.098788 0.099278 0.099858 0.10039 0.10088 0.10146 0.10208 0.10262 0.10333 0.10391 0.10449 0.10517 0.1056 0.10623 0.10671 0.10729 0.10816 0.10865 0.10913 0.10971 0.11024 0.11077 0.11134 0.11197 0.11275 0.11339 0.11386 0.11444 0.11507 0.11565 0.11624 0.11682 0.11739 0.11787 0.11829 0.11887 0.11939 0.11997 0.12066 0.12129 0.12171 0.12218 0.12275 0.1235 0.12419 0.12477 0.12535 0.12587 0.12634 0.12691
