-0.47222 -0.47228 -0.47305 -0.47418 -0.47495 -0.47656 -0.47769 -0.47965 -0.47971 -0.48048 -0.48054 -0.48096 -0.4803 -0.48036 -0.48041 -0.48047 -0.4797 -0.47904 -0.47874 -0.47844 -0.4785 -0.47892 -0.47897 -0.47975 -0.48017 -0.4807 -0.48076 -0.48082 -0.48195 -0.48392 -0.48469 -0.48511 -0.48553 -0.48487 -0.48493 -0.48535 -0.48505 -0.4851 -0.48516 -0.48558 -0.48564 -0.48606 -0.48659 -0.48701 -0.48707 -0.48749 -0.48755 -0.48796 -0.4885 -0.48808 -0.48814 -0.48868 -0.48874 -0.48916 -0.48958 -0.49035 -0.49041 -0.49095 -0.49053 -0.49143 -0.49269 -0.49275 -0.49317 -0.49286 -0.49328 -0.49334 -0.49412 -0.49502 -0.49508 -0.4955 -0.4964 -0.49646 -0.49652 -0.49658 -0.49664 -0.49634 -0.49676 -0.49682 -0.49652 -0.49658 -0.497 -0.4979 -0.49832 -0.49874 -0.49928 -0.4997 -0.5006 -0.50139 -0.50193 -0.50199 -0.50241 -0.50331 -0.50337 -0.50343 -0.50349 -0.50428 -0.50361 -0.50319 -0.50374 -0.50416 -0.50506 -0.50512 -0.50518 -0.50524 -0.50567 -0.50621 -0.50627 -0.50717 -0.5076 -0.50802 -0.50856 -0.50898 -0.50953 -0.50959 -0.51085 -0.51092 -0.51062 -0.51068 -0.51074 -0.51116 -0.51086 -0.51044 -0.51014 -0.5102 -0.50978 -0.51032 -0.51075 -0.51129 -0.51292 -0.51298 -0.51353 -0.51359 -0.51534 -0.51794 -0.51764 -0.5177 -0.51777 -0.51783 -0.51741 -0.51747 -0.51753 -0.51759 -0.51717 -0.51687 -0.51778 -0.51833 -0.51875 -0.52014 -0.52021 -0.52063 -0.52069 -0.52124 -0.52215 -0.52221 -0.52228 -0.52185 -0.52155 -0.52077 -0.52034 -0.52004 -0.51877 -0.51799 -0.50519 -0.50077 -0.50119 -0.50089 -0.49937 -0.49821 -0.49512 -0.4936 -0.49026 -0.48583 -0.48431 -0.48327 -0.48224 -0.48157 -0.48126 -0.47986 -0.47882 -0.47815 -0.47711 -0.47644 -0.4765 -0.47582 -0.47588 -0.47448 -0.47417 -0.47386 -0.47355 -0.47325 -0.4733 -0.47311 -0.47317 -0.47286 -0.47219 -0.47188 -0.47193 -0.47163 -0.47168 -0.47101 -0.4707 -0.47039 -0.4702 -0.4705 -0.47092 -0.47098 -0.47176 -0.47219 -0.47297 -0.4734 -0.47419 -0.47595 -0.47637 -0.47643 -0.47648 -0.47654 -0.47696 -0.47702 -0.47671 -0.47677 -0.47609 -0.47578 -0.47547 -0.47589 -0.47668 -0.47711 -0.47716 -0.47759 -0.47728 -0.47807 -0.47959 -0.48001 -0.48044 -0.48159 -0.48165 -0.48171 -0.48213 -0.48219 -0.48225 -0.48267 -0.48346 -0.48389 -0.48395 -0.484 -0.48443 -0.48448 -0.48454 -0.48533 -0.48429 -0.48435 -0.4844 -0.48446 -0.48525 -0.48568 -0.4861 -0.48653 -0.48732 -0.48848 -0.48964 -0.49007 -0.49013 -0.49056 -0.49147 -0.49227 -0.49269 -0.49312 -0.49318 -0.49323 -0.49366 -0.49372 -0.49415 -0.49457 -0.49512 -0.49469 -0.49635 -0.4964 -0.49609 -0.49578 -0.49658 -0.49824 -0.4983 -0.49872 -0.50026 -0.50081 -0.50087 -0.5013 -0.50136 -0.50142 -0.50147 -0.50153 -0.50196 -0.50202 -0.50208 -0.503 -0.50417 -0.50583 -0.50589 -0.50595 -0.50724 -0.5073 -0.50736 -0.50779 -0.50822 -0.50828 -0.50834 -0.50679 -0.50574 -0.5058 -0.50586 -0.50629 -0.50672 -0.50715 -0.50931 -0.50813 -0.50733 -0.51233 -0.51325 -0.51578 -0.51584 -0.51628 -0.5172 -0.51726 -0.51609 -0.51528 -0.51497 -0.51417 -0.51423 -0.51429 -0.51472 -0.51527 -0.51533 -0.51577 -0.5162 -0.51626 -0.51755 -0.51762 -0.51854 -0.51823 -0.51829 -0.51835 -0.51879
-0.47264 -0.47269 -0.47347 -0.47424 -0.47465 -0.47578 -0.47667 -0.47852 -0.47929 -0.47982 -0.48024 -0.4803 -0.48 -0.48006 -0.47964 -0.4797 -0.48023 -0.47981 -0.47915 -0.47886 -0.47891 -0.47969 -0.47975 -0.48064 -0.48177 -0.48255 -0.4826 -0.48302 -0.48391 -0.48469 -0.48475 -0.48517 -0.48606 -0.48528 -0.48498 -0.4854 -0.48546 -0.4848 -0.48486 -0.48528 -0.48605 -0.48611 -0.48617 -0.48707 -0.48713 -0.48719 -0.48724 -0.48766 -0.48808 -0.48814 -0.48784 -0.48874 -0.48916 -0.48921 -0.48999 -0.49089 -0.49131 -0.49101 -0.49143 -0.49184 -0.49274 -0.4928 -0.49322 -0.49292 -0.49334 -0.49376 -0.49418 -0.49508 -0.4955 -0.49604 -0.49682 -0.49688 -0.49694 -0.49748 -0.49754 -0.4976 -0.49766 -0.49808 -0.49814 -0.49784 -0.4979 -0.49868 -0.49922 -0.49964 -0.50006 -0.49976 -0.50018 -0.50072 -0.50114 -0.5012 -0.50162 -0.50253 -0.50295 -0.50229 -0.50271 -0.50397 -0.50367 -0.50325 -0.50379 -0.50385 -0.50512 -0.50518 -0.50524 -0.5053 -0.50572 -0.50627 -0.50717 -0.50723 -0.50801 -0.50856 -0.50862 -0.50904 -0.5091 -0.50965 -0.51007 -0.51013 -0.51019 -0.51025 -0.51031 -0.51086 -0.51092 -0.51014 -0.5102 -0.50978 -0.50984 -0.51038 -0.5108 -0.51135 -0.51262 -0.51304 -0.51359 -0.51365 -0.51456 -0.51764 -0.5177 -0.51728 -0.51734 -0.51692 -0.51698 -0.51668 -0.51711 -0.51681 -0.51687 -0.51645 -0.51735 -0.5179 -0.51845 -0.51936 -0.51978 -0.52033 -0.52075 -0.52082 -0.52173 -0.52179 -0.52234 -0.52191 -0.52198 -0.52119 -0.5204 -0.51962 -0.51834 -0.51804 -0.50525 -0.50082 -0.50209 -0.50131 -0.49906 -0.49791 -0.49445 -0.49293 -0.49104 -0.48588 -0.48363 -0.48223 -0.48156 -0.48125 -0.48058 -0.47918 -0.47851 -0.47784 -0.47717 -0.47649 -0.47655 -0.47515 -0.47521 -0.47417 -0.47422 -0.47428 -0.47361 -0.47366 -0.47336 -0.47341 -0.47322 -0.47292 -0.47151 -0.47157 -0.47126 -0.47131 -0.47101 -0.47009 -0.46978 -0.46983 -0.46989 -0.47031 -0.47097 -0.4714 -0.47182 -0.47224 -0.47339 -0.47382 -0.47448 -0.47637 -0.47679 -0.47685 -0.4769 -0.47659 -0.47702 -0.47707 -0.47713 -0.47719 -0.47651 -0.47547 -0.47552 -0.47631 -0.4771 -0.47789 -0.47758 -0.47801 -0.4777 -0.47812 -0.47928 -0.48007 -0.48086 -0.48092 -0.48134 -0.48176 -0.48182 -0.48224 -0.48267 -0.48309 -0.48352 -0.48431 -0.48437 -0.48406 -0.48448 -0.48454 -0.48533 -0.48576 -0.48508 -0.48477 -0.48519 -0.48562 -0.48604 -0.4861 -0.48616 -0.48732 -0.48811 -0.48927 -0.49007 -0.49049 -0.49104 -0.4911 -0.49153 -0.49269 -0.49275 -0.49317 -0.49323 -0.49292 -0.49335 -0.49304 -0.49346 -0.49352 -0.49358 -0.49364 -0.4948 -0.49535 -0.49541 -0.49498 -0.4959 -0.49829 -0.49909 -0.49915 -0.50031 -0.50087 -0.50092 -0.50135 -0.50141 -0.50184 -0.5019 -0.50196 -0.50239 -0.50245 -0.50337 -0.50417 -0.50509 -0.50626 -0.50631 -0.50638 -0.5073 -0.50736 -0.50705 -0.50785 -0.50828 -0.50833 -0.5084 -0.50771 -0.50654 -0.5066 -0.50666 -0.50758 -0.50764 -0.50844 -0.50974 -0.50893 -0.50825 -0.51202 -0.51282 -0.51535 -0.5159 -0.51596 -0.51763 -0.51806 -0.51614 -0.51534 -0.51577 -0.51546 -0.51552 -0.51558 -0.51601 -0.51607 -0.51613 -0.51619 -0.51675 -0.51718 -0.51848 -0.51854 -0.5186 -0.51866 -0.51835 -0.51878 -0.51884
-0.47269 -0.47275 -0.47352 -0.47393 -0.47471 -0.47512 -0.47589 -0.47821 -0.47863 -0.4794 -0.47994 -0.48035 -0.47958 -0.47963 -0.47934 -0.47939 -0.47981 -0.47987 -0.47921 -0.47927 -0.47933 -0.47974 -0.48016 -0.48069 -0.48254 -0.48296 -0.48385 -0.48427 -0.48469 -0.4851 -0.48516 -0.48558 -0.48612 -0.48534 -0.4854 -0.4851 -0.48516 -0.48522 -0.48528 -0.48569 -0.48575 -0.48581 -0.48623 -0.48677 -0.48718 -0.48724 -0.4873 -0.48736 -0.48778 -0.48784 -0.48754 -0.48831 -0.48921 -0.48927 -0.49041 -0.49095 -0.49136 -0.49142 -0.49112 -0.4919 -0.49232 -0.49238 -0.49328 -0.49298 -0.4934 -0.49382 -0.49424 -0.49514 -0.49556 -0.49645 -0.49688 -0.49694 -0.497 -0.49754 -0.4976 -0.49766 -0.49808 -0.4985 -0.4982 -0.49826 -0.49832 -0.49874 -0.49964 -0.50006 -0.50012 -0.49982 -0.49988 -0.5003 -0.50036 -0.5009 -0.50132 -0.50174 -0.50265 -0.50235 -0.50241 -0.50403 -0.50325 -0.50331 -0.50337 -0.50391 -0.5047 -0.50524 -0.5053 -0.50536 -0.50578 -0.50632 -0.50675 -0.50729 -0.50807 -0.50862 -0.50868 -0.50874 -0.50916 -0.50922 -0.50977 -0.50983 -0.50989 -0.50995 -0.51037 -0.51043 -0.5105 -0.51019 -0.51026 -0.50984 -0.5099 -0.5108 -0.51086 -0.51177 -0.51268 -0.5131 -0.51365 -0.51371 -0.51498 -0.51673 -0.51728 -0.51734 -0.5174 -0.51698 -0.51704 -0.51674 -0.51717 -0.51723 -0.51644 -0.5165 -0.51705 -0.51796 -0.51851 -0.51893 -0.51948 -0.5199 -0.52081 -0.52088 -0.52179 -0.52233 -0.52191 -0.52246 -0.52204 -0.52125 -0.52046 -0.52016 -0.51841 -0.51762 -0.5081 -0.50331 -0.503 -0.50185 -0.49912 -0.49869 -0.49487 -0.49335 -0.49146 -0.484 -0.48332 -0.48229 -0.48125 -0.48095 -0.48027 -0.47924 -0.47857 -0.47826 -0.47686 -0.47655 -0.47624 -0.47557 -0.4749 -0.47422 -0.47391 -0.47434 -0.4733 -0.47372 -0.47341 -0.47322 -0.47328 -0.47224 -0.47157 -0.47162 -0.47131 -0.47137 -0.47069 -0.46977 -0.46946 -0.46989 -0.46994 -0.47036 -0.47066 -0.47182 -0.47187 -0.47229 -0.47345 -0.47387 -0.47454 -0.47642 -0.47648 -0.4769 -0.47659 -0.47702 -0.47707 -0.47713 -0.47719 -0.47724 -0.4773 -0.47552 -0.47558 -0.47674 -0.47752 -0.47795 -0.47837 -0.47806 -0.47775 -0.47818 -0.47933 -0.48012 -0.48091 -0.48134 -0.48139 -0.48182 -0.48224 -0.48193 -0.48272 -0.48351 -0.48394 -0.48436 -0.48442 -0.48448 -0.48454 -0.48459 -0.48539 -0.48618 -0.4855 -0.48556 -0.48562 -0.48604 -0.48647 -0.48652 -0.48621 -0.48737 -0.48854 -0.4897 -0.49012 -0.49055 -0.4911 -0.49116 -0.49158 -0.49274 -0.4928 -0.49323 -0.49329 -0.49298 -0.49267 -0.49309 -0.49315 -0.49321 -0.49327 -0.49296 -0.49486 -0.49492 -0.49498 -0.49504 -0.49595 -0.49872 -0.49915 -0.49994 -0.50037 -0.50043 -0.50098 -0.50141 -0.50147 -0.50227 -0.50196 -0.50238 -0.50331 -0.50373 -0.50416 -0.50509 -0.50551 -0.5068 -0.50687 -0.50729 -0.50735 -0.50704 -0.50747 -0.5079 -0.50796 -0.50889 -0.50845 -0.50814 -0.50746 -0.50752 -0.50758 -0.50838 -0.50844 -0.50887 -0.51016 -0.50985 -0.51115 -0.51207 -0.51287 -0.51541 -0.51547 -0.51639 -0.51732 -0.51775 -0.51694 -0.51626 -0.51632 -0.51589 -0.51595 -0.51564 -0.51657 -0.51663 -0.51669 -0.51675 -0.51718 -0.51724 -0.51891 -0.51897 -0.51866 -0.51872 -0.51841 -0.51847 -0.5189
-0.4731 -0.4728 -0.47358 -0.47435 -0.47512 -0.47553 -0.47678 -0.47863 -0.47904 -0.47946 -0.47999 -0.48005 -0.47963 -0.47933 -0.47939 -0.47945 -0.48034 -0.47992 -0.47927 -0.47897 -0.47938 -0.4798 -0.48022 -0.48111 -0.4826 -0.48349 -0.48391 -0.48468 -0.4851 -0.48516 -0.48522 -0.48564 -0.48569 -0.4854 -0.48546 -0.48516 -0.48557 -0.48563 -0.48569 -0.48575 -0.48664 -0.48623 -0.48676 -0.48682 -0.48724 -0.4873 -0.48736 -0.48742 -0.48748 -0.48789 -0.48723 -0.48765 -0.48843 -0.48897 -0.48975 -0.49052 -0.49106 -0.49064 -0.4907 -0.49196 -0.49238 -0.49292 -0.49334 -0.4934 -0.49382 -0.49423 -0.49513 -0.49555 -0.49609 -0.49687 -0.49693 -0.49699 -0.49705 -0.49711 -0.49765 -0.49807 -0.49777 -0.49819 -0.49825 -0.49831 -0.49801 -0.49879 -0.4997 -0.49819 -0.49861 -0.49867 -0.49958 -0.50036 -0.50042 -0.50132 -0.50138 -0.50228 -0.5027 -0.50276 -0.50319 -0.50373 -0.50379 -0.50337 -0.50391 -0.50397 -0.50475 -0.5053 -0.50536 -0.50542 -0.50584 -0.50638 -0.5068 -0.50687 -0.50693 -0.50747 -0.50753 -0.50711 -0.50717 -0.50771 -0.50898 -0.5094 -0.50946 -0.50953 -0.51007 -0.51013 -0.51019 -0.51025 -0.51031 -0.50989 -0.50996 -0.51086 -0.51092 -0.51147 -0.5131 -0.5128 -0.51286 -0.51256 -0.51335 -0.5151 -0.51564 -0.51571 -0.51528 -0.51498 -0.51504 -0.51595 -0.51638 -0.51692 -0.5165 -0.51656 -0.51711 -0.51753 -0.51808 -0.51899 -0.5199 -0.52045 -0.52087 -0.52094 -0.52148 -0.52191 -0.52197 -0.52252 -0.52209 -0.52094 -0.52052 -0.52022 -0.5181 -0.51768 -0.50779 -0.50579 -0.50342 -0.50227 -0.49954 -0.49875 -0.49492 -0.4934 -0.49116 -0.48369 -0.48265 -0.48198 -0.48058 -0.48027 -0.47996 -0.47893 -0.47862 -0.47831 -0.47728 -0.47697 -0.47666 -0.47562 -0.47531 -0.47428 -0.47397 -0.47402 -0.47335 -0.4728 -0.47285 -0.47218 -0.47224 -0.47193 -0.47089 -0.47131 -0.47136 -0.47142 -0.47075 -0.46983 -0.46988 -0.46994 -0.47036 -0.47066 -0.47145 -0.47187 -0.47193 -0.47235 -0.47387 -0.47429 -0.47496 -0.47648 -0.47653 -0.47696 -0.47701 -0.47707 -0.47749 -0.47755 -0.47797 -0.4773 -0.47735 -0.47631 -0.476 -0.47716 -0.47758 -0.47837 -0.47843 -0.47812 -0.47817 -0.47823 -0.47975 -0.48054 -0.48097 -0.48176 -0.48145 -0.48151 -0.48193 -0.48199 -0.48204 -0.48284 -0.48326 -0.48368 -0.48411 -0.48417 -0.48459 -0.48502 -0.48544 -0.4866 -0.48629 -0.48635 -0.48677 -0.48683 -0.48762 -0.48768 -0.48774 -0.48817 -0.48896 -0.49012 -0.49018 -0.49024 -0.49115 -0.49121 -0.49164 -0.4928 -0.49286 -0.49292 -0.49334 -0.4934 -0.49309 -0.49315 -0.49358 -0.49363 -0.49369 -0.49338 -0.49578 -0.49584 -0.49552 -0.49595 -0.49638 -0.49878 -0.49957 -0.5 -0.50043 -0.50049 -0.50104 -0.50147 -0.50152 -0.50195 -0.50201 -0.50244 -0.50373 -0.50416 -0.50459 -0.50588 -0.50594 -0.50686 -0.50692 -0.50698 -0.50741 -0.50747 -0.50716 -0.50796 -0.50839 -0.50845 -0.50851 -0.5082 -0.50826 -0.50795 -0.50838 -0.50881 -0.50936 -0.50979 -0.51022 -0.51028 -0.50997 -0.51164 -0.51133 -0.51262 -0.51355 -0.51435 -0.51614 -0.51657 -0.51663 -0.51632 -0.51638 -0.51595 -0.5165 -0.51607 -0.51699 -0.51705 -0.51711 -0.51718 -0.51761 -0.51767 -0.51946 -0.51903 -0.51872 -0.51841 -0.51847 -0.5189 -0.51933
-0.47387 -0.47357 -0.47399 -0.47512 -0.47589 -0.47642 -0.47755 -0.47868 -0.4791 -0.47916 -0.48005 -0.48011 -0.47969 -0.47975 -0.47909 -0.47915 -0.47992 -0.47998 -0.47932 -0.47938 -0.47944 -0.47985 -0.48075 -0.48152 -0.48301 -0.48355 -0.48361 -0.4851 -0.48516 -0.48557 -0.48563 -0.48569 -0.48623 -0.48545 -0.48551 -0.48557 -0.48563 -0.48569 -0.48575 -0.48616 -0.48706 -0.48676 -0.48718 -0.48724 -0.48766 -0.48771 -0.48777 -0.48783 -0.48789 -0.48795 -0.48765 -0.48807 -0.48896 -0.48938 -0.49016 -0.49106 -0.49064 -0.4907 -0.49076 -0.49202 -0.49244 -0.49297 -0.49339 -0.49345 -0.49387 -0.49549 -0.49603 -0.49681 -0.49651 -0.49693 -0.49747 -0.49705 -0.49711 -0.49765 -0.49771 -0.49813 -0.49819 -0.49825 -0.49831 -0.49801 -0.49807 -0.49885 -0.49939 -0.49861 -0.49831 -0.49873 -0.49963 -0.5009 -0.50096 -0.50174 -0.50228 -0.50234 -0.50312 -0.50318 -0.50372 -0.50415 -0.50421 -0.50391 -0.50469 -0.50475 -0.50481 -0.50535 -0.50541 -0.50584 -0.50638 -0.5068 -0.50686 -0.50692 -0.50699 -0.50753 -0.50759 -0.50717 -0.50723 -0.50729 -0.50904 -0.5091 -0.50952 -0.50958 -0.51013 -0.51019 -0.51025 -0.51067 -0.51122 -0.5108 -0.51086 -0.5114 -0.51146 -0.51237 -0.51364 -0.5137 -0.51328 -0.51334 -0.51389 -0.5148 -0.5157 -0.51577 -0.51534 -0.51504 -0.51426 -0.51553 -0.51644 -0.51735 -0.51704 -0.51711 -0.51802 -0.51808 -0.51863 -0.52038 -0.52081 -0.52087 -0.52142 -0.52148 -0.5219 -0.52197 -0.52251 -0.52306 -0.52264 -0.52137 -0.52022 -0.51943 -0.51731 -0.51774 -0.50785 -0.5067 -0.50469 -0.50354 -0.50032 -0.49966 -0.49498 -0.4954 -0.49048 -0.48374 -0.48343 -0.4824 -0.481 -0.48106 -0.48038 -0.47971 -0.4794 -0.47873 -0.47769 -0.47739 -0.47708 -0.47604 -0.47537 -0.47433 -0.47402 -0.47371 -0.4728 -0.47249 -0.47218 -0.47187 -0.47192 -0.47162 -0.47094 -0.47136 -0.47178 -0.47184 -0.47117 -0.47086 -0.47055 -0.4706 -0.47102 -0.47108 -0.47187 -0.47229 -0.47235 -0.4724 -0.47392 -0.47434 -0.47464 -0.47653 -0.47659 -0.47664 -0.47743 -0.47749 -0.47791 -0.47834 -0.47803 -0.47808 -0.47777 -0.47746 -0.47752 -0.47794 -0.47837 -0.47879 -0.47885 -0.4789 -0.47859 -0.47902 -0.48017 -0.4806 -0.48102 -0.48181 -0.48114 -0.48193 -0.48198 -0.48204 -0.48247 -0.48289 -0.48331 -0.48411 -0.48453 -0.48459 -0.48465 -0.48507 -0.48623 -0.48702 -0.48745 -0.48788 -0.4883 -0.48873 -0.48952 -0.48921 -0.48963 -0.48969 -0.49012 -0.49018 -0.49023 -0.49029 -0.49121 -0.49127 -0.49169 -0.49249 -0.49291 -0.4926 -0.49303 -0.49309 -0.49352 -0.49357 -0.494 -0.4948 -0.49449 -0.49455 -0.49657 -0.49663 -0.49632 -0.49638 -0.49754 -0.4992 -0.5 -0.50043 -0.50048 -0.50104 -0.5006 -0.50115 -0.50158 -0.50201 -0.50207 -0.5025 -0.50379 -0.50459 -0.50514 -0.50594 -0.506 -0.50692 -0.50649 -0.50655 -0.5071 -0.50716 -0.50759 -0.50802 -0.50845 -0.509 -0.50857 -0.50912 -0.50955 -0.50961 -0.50967 -0.5101 -0.51065 -0.51071 -0.51077 -0.51083 -0.51089 -0.51219 -0.51225 -0.51268 -0.51311 -0.51404 -0.5157 -0.51663 -0.51632 -0.51675 -0.51644 -0.5165 -0.51656 -0.51662 -0.51742 -0.51748 -0.51804 -0.5181 -0.51853 -0.51859 -0.51989 -0.51958 -0.51964 -0.51921 -0.51927 -0.51896 -0.51939
-0.47428 -0.47398 -0.47476 -0.47553 -0.47594 -0.47719 -0.47796 -0.47909 -0.47915 -0.47921 -0.47963 -0.47968 -0.47974 -0.4798 -0.47914 -0.47885 -0.47998 -0.47968 -0.47902 -0.47908 -0.47914 -0.48027 -0.48116 -0.48158 -0.48307 -0.48361 -0.48366 -0.48516 -0.48521 -0.48563 -0.48569 -0.48623 -0.48629 -0.48635 -0.48485 -0.48527 -0.48533 -0.4861 -0.4858 -0.48586 -0.48712 -0.48718 -0.48688 -0.48729 -0.48771 -0.48813 -0.48819 -0.48825 -0.48831 -0.48837 -0.48807 -0.48896 -0.48938 -0.4898 -0.49058 -0.49064 -0.49118 -0.49076 -0.49082 -0.49207 -0.49297 -0.49303 -0.49345 -0.49351 -0.49393 -0.49555 -0.49645 -0.49651 -0.49657 -0.49747 -0.49705 -0.49711 -0.49717 -0.49723 -0.49777 -0.49783 -0.49789 -0.49795 -0.49801 -0.49759 -0.49765 -0.49855 -0.49945 -0.49831 -0.49837 -0.49879 -0.49969 -0.50095 -0.50138 -0.50228 -0.50234 -0.50276 -0.50366 -0.50372 -0.50378 -0.50421 -0.50427 -0.50433 -0.50439 -0.50481 -0.50487 -0.50541 -0.50547 -0.50638 -0.50644 -0.5065 -0.5074 -0.50698 -0.50704 -0.50759 -0.50765 -0.50723 -0.50692 -0.50735 -0.50862 -0.50916 -0.50922 -0.50964 -0.5097 -0.51025 -0.51067 -0.51073 -0.51164 -0.51134 -0.5114 -0.51182 -0.51237 -0.51243 -0.51455 -0.51412 -0.51382 -0.5134 -0.51395 -0.51485 -0.51576 -0.51619 -0.51589 -0.5151 -0.51468 -0.51474 -0.51565 -0.51704 -0.51747 -0.51753 -0.51759 -0.51862 -0.51905 -0.52044 -0.52087 -0.52141 -0.52148 -0.5219 -0.52197 -0.52251 -0.52306 -0.52349 -0.52319 -0.52106 -0.51979 -0.51901 -0.51652 -0.51452 -0.50997 -0.50748 -0.50597 -0.50445 -0.50087 -0.49971 -0.49941 0 0 -0.48416 -0.48385 -0.48282 -0.48215 -0.48147 -0.48153 -0.48013 -0.47982 -0.47915 -0.47811 -0.47781 -0.47713 -0.47573 -0.47506 -0.47438 -0.47371 -0.4734 -0.47248 -0.47218 -0.47187 -0.47156 -0.47161 -0.4713 -0.47136 -0.47142 -0.47147 -0.47189 -0.47158 -0.47091 -0.47133 -0.47102 -0.47108 -0.47186 -0.47229 -0.47234 -0.4724 -0.47282 -0.47361 -0.47403 -0.47445 -0.47622 -0.47628 -0.4767 -0.47749 -0.47754 -0.47833 -0.47802 -0.47845 -0.47814 -0.47783 -0.47788 -0.47794 -0.47836 -0.47879 -0.47921 -0.47927 -0.47969 -0.47938 -0.47944 -0.4806 -0.48065 -0.48144 -0.4815 -0.48119 -0.48198 -0.48204 -0.4821 -0.48252 -0.48331 -0.48337 -0.48453 -0.48459 -0.48501 -0.48507 -0.48513 -0.48665 -0.48781 -0.48787 -0.4883 -0.48872 -0.48915 -0.48994 -0.49 -0.49006 -0.49012 -0.49017 -0.4906 -0.49029 -0.49035 -0.49127 -0.49132 -0.49175 -0.49217 -0.49223 -0.49266 -0.49272 -0.49278 -0.4932 -0.49326 -0.49369 -0.49485 -0.49454 -0.49423 -0.49626 -0.49632 -0.49637 -0.4968 -0.49723 -0.49926 -0.50005 -0.50048 -0.50054 -0.5006 -0.50066 -0.50121 -0.50127 -0.50207 -0.50213 -0.50255 -0.50348 -0.5039 -0.5047 -0.50562 -0.50568 -0.50648 -0.50654 -0.50623 -0.50716 -0.50721 -0.50727 -0.50844 -0.5085 -0.50906 -0.50912 -0.50918 -0.50998 -0.50967 -0.50973 -0.51016 -0.51071 -0.51114 -0.51157 -0.51126 -0.51169 -0.51224 -0.51231 -0.51274 -0.51366 -0.51409 -0.51539 -0.51582 -0.51638 -0.51681 -0.51687 -0.51656 -0.51662 -0.51705 -0.51798 -0.51841 -0.5181 -0.51853 -0.51896 -0.51902 -0.51995 -0.52001 -0.5192 -0.51926 -0.51933 -0.51902 -0.51908
-0.47398 -0.47404 -0.47481 -0.47558 -0.47564 -0.4757 -0.47659 -0.47772 -0.47849 -0.47748 -0.47825 -0.47867 -0.47908 -0.47879 -0.47884 -0.47926 -0.47968 -0.47973 -0.47943 -0.47949 -0.47991 -0.47997 -0.48086 -0.48128 -0.48313 -0.48318 -0.48372 -0.48557 -0.48527 -0.48569 -0.48575 -0.48628 -0.48634 -0.48592 -0.48455 -0.48461 -0.48502 -0.4858 -0.48586 -0.48592 -0.48634 -0.48723 -0.48693 -0.48735 -0.48777 -0.48819 -0.48824 -0.48795 -0.48836 -0.4889 -0.48848 -0.48902 -0.48944 -0.48986 -0.49063 -0.49117 -0.49123 -0.49129 -0.49135 -0.49213 -0.49255 -0.49309 -0.49315 -0.49357 -0.49435 -0.49561 -0.49615 -0.49693 -0.49699 -0.49752 -0.49758 -0.49717 -0.49687 -0.49777 -0.49783 -0.49789 -0.49795 -0.498 -0.49806 -0.49765 -0.49771 -0.49825 -0.49867 -0.49837 -0.49879 -0.49969 -0.50011 -0.50101 -0.50179 -0.50233 -0.50276 -0.50282 -0.50408 -0.50414 -0.5042 -0.50426 -0.50432 -0.50474 -0.50445 -0.50451 -0.50493 -0.50547 -0.50553 -0.50595 -0.5065 -0.50692 -0.50698 -0.50704 -0.50758 -0.50765 -0.50771 -0.50728 -0.50735 -0.50741 -0.50867 -0.50922 -0.50928 -0.5097 -0.51025 -0.51031 -0.51121 -0.51128 -0.5117 -0.5114 -0.51182 -0.51188 -0.51243 -0.51285 -0.5146 -0.51467 -0.51388 -0.51394 -0.51401 -0.51528 -0.51582 -0.51625 -0.51594 -0.51552 -0.51438 -0.51528 -0.51619 -0.5171 -0.51753 -0.51807 -0.51814 -0.51868 -0.51959 -0.5205 -0.52093 -0.52147 -0.52154 -0.52196 -0.52251 -0.52306 -0.52312 -0.52403 -0.52361 -0.52112 -0.51985 -0.51906 -0.51609 -0.51409 -0.51209 -0.50026 -0.50153 -0.50159 -0.49971 -0.49819 -0.49048 -0.4909 -0.48865 -0.48422 -0.48391 -0.48287 -0.4822 -0.48189 -0.48159 -0.48055 -0.47988 -0.47957 -0.47853 -0.47786 -0.47682 -0.47542 -0.47475 -0.47407 -0.47376 -0.47346 -0.47254 -0.47223 -0.47192 -0.47125 -0.4713 -0.47172 -0.47141 -0.47147 -0.47189 -0.47195 -0.47127 -0.47133 -0.47175 -0.47181 -0.47186 -0.47192 -0.47234 -0.4724 -0.47245 -0.47251 -0.47366 -0.47372 -0.47414 -0.47627 -0.4767 -0.47675 -0.47681 -0.47723 -0.47839 -0.47844 -0.4785 -0.47819 -0.47788 -0.47757 -0.47873 -0.47842 -0.47921 -0.47926 -0.47969 -0.47975 -0.4798 -0.47986 -0.48065 -0.48107 -0.48113 -0.48119 -0.48124 -0.4813 -0.48209 -0.48178 -0.48221 -0.48263 -0.48342 -0.48422 -0.48464 -0.4847 -0.48549 -0.48555 -0.48671 -0.48787 -0.48829 -0.48872 -0.48878 -0.48957 -0.49 -0.49006 -0.49048 -0.49017 -0.49023 -0.49066 -0.49034 -0.4904 -0.49083 -0.49089 -0.49144 -0.49223 -0.49229 -0.49272 -0.4924 -0.49283 -0.49326 -0.49368 -0.49411 -0.49491 -0.4946 -0.49466 -0.49594 -0.49674 -0.4968 -0.49723 -0.49765 -0.50005 -0.50048 -0.50054 -0.50109 -0.50115 -0.50071 -0.50127 -0.50169 -0.50212 -0.50255 -0.50261 -0.50267 -0.50322 -0.50328 -0.50568 -0.50574 -0.5058 -0.50586 -0.50592 -0.50672 -0.50678 -0.50733 -0.50813 -0.50819 -0.50751 -0.50708 -0.50714 -0.50806 -0.50849 -0.50855 -0.50947 -0.51027 -0.51033 -0.51126 -0.51169 -0.51224 -0.51267 -0.51236 -0.51242 -0.51248 -0.51291 -0.51545 -0.51588 -0.51643 -0.51687 -0.51692 -0.51699 -0.51705 -0.51748 -0.51803 -0.51847 -0.51853 -0.51896 -0.51902 -0.51908 -0.52001 -0.52007 -0.51976 -0.51982 -0.51988 -0.51945 -0.5195
-0.47368 -0.47445 -0.47522 -0.476 -0.4757 -0.47611 -0.47665 -0.47742 -0.47748 -0.47754 -0.47795 -0.47837 -0.47878 -0.47884 -0.4789 -0.47931 -0.47937 -0.47979 -0.47985 -0.48026 -0.47996 -0.48086 -0.48127 -0.48205 -0.48402 -0.48408 -0.48413 -0.48563 -0.48568 -0.48574 -0.4858 -0.48634 -0.4864 -0.48562 -0.48496 -0.48466 -0.48544 -0.48586 -0.48556 -0.48597 -0.48639 -0.48693 -0.48699 -0.48705 -0.48746 -0.48788 -0.48914 -0.48884 -0.48842 -0.48896 -0.48938 -0.48979 -0.49021 -0.49063 -0.49189 -0.49123 -0.49165 -0.49135 -0.49213 -0.49255 -0.49261 -0.49351 -0.49392 -0.49434 -0.49488 -0.49614 -0.49656 -0.49698 -0.49704 -0.49758 -0.498 -0.4977 -0.49776 -0.49782 -0.49824 -0.49794 -0.498 -0.49842 -0.49848 -0.49818 -0.49776 -0.4983 -0.49872 -0.49878 -0.49969 -0.50047 -0.50137 -0.50179 -0.50233 -0.50311 -0.50366 -0.50408 -0.5045 -0.50504 -0.50462 -0.50468 -0.50438 -0.5048 -0.5045 -0.50456 -0.50547 -0.50589 -0.50595 -0.50649 -0.50692 -0.50698 -0.50752 -0.50758 -0.50764 -0.50806 -0.50813 -0.50782 -0.50789 -0.50831 -0.50873 -0.50928 -0.5097 -0.51024 -0.51067 -0.51121 -0.51127 -0.51218 -0.51224 -0.5123 -0.51273 -0.51243 -0.51285 -0.51291 -0.51503 -0.51473 -0.51479 -0.51436 -0.51443 -0.51582 -0.51588 -0.51631 -0.516 -0.51558 -0.51564 -0.51619 -0.5171 -0.51849 -0.51807 -0.51862 -0.51904 -0.5191 -0.52001 -0.52092 -0.52147 -0.52153 -0.52196 -0.52251 -0.52305 -0.52348 -0.52354 -0.52409 -0.52367 -0.52118 -0.51991 -0.51912 -0.51664 -0.515 -0.5096 -0.50032 -0.50086 -0.50092 -0.50135 -0.49788 -0.49053 -0.4895 -0.48834 -0.48573 -0.48433 -0.48329 -0.48262 -0.48231 -0.48201 -0.48061 -0.4803 -0.47999 -0.47859 -0.47791 -0.47688 -0.47547 -0.47517 -0.47449 -0.47418 -0.47387 -0.47332 -0.47301 -0.47307 -0.4724 -0.47209 -0.47214 -0.47183 -0.47189 -0.47195 -0.47237 -0.47169 -0.47175 -0.47217 -0.47223 -0.47228 -0.4727 -0.47276 -0.47245 -0.47251 -0.47293 -0.47335 -0.47377 -0.47419 -0.47596 -0.47638 -0.47681 -0.47723 -0.47765 -0.47808 -0.4785 -0.47856 -0.47824 -0.47867 -0.47836 -0.47952 -0.47921 -0.48 -0.48005 -0.48048 -0.48053 -0.48059 -0.48065 -0.48107 -0.48113 -0.48118 -0.48124 -0.48093 -0.48136 -0.48178 -0.48184 -0.48226 -0.48269 -0.48311 -0.48427 -0.48433 -0.48475 -0.48555 -0.4856 -0.48713 -0.48792 -0.48835 -0.48878 -0.4892 -0.48963 -0.49042 -0.49048 -0.49054 -0.4906 -0.49065 -0.49034 -0.4904 -0.49083 -0.49088 -0.49143 -0.49149 -0.49339 -0.49308 -0.49314 -0.49283 -0.49326 -0.49331 -0.49374 -0.49454 -0.49546 -0.49551 -0.49557 -0.496 -0.49717 -0.49796 -0.49888 -0.49931 -0.50134 -0.5014 -0.50145 -0.50151 -0.50157 -0.502 -0.50206 -0.50298 -0.50304 -0.5031 -0.50267 -0.50236 -0.50279 -0.50334 -0.50574 -0.5058 -0.50623 -0.50592 -0.50635 -0.50678 -0.50733 -0.50776 -0.50819 -0.50825 -0.50707 -0.50676 -0.50682 -0.50775 -0.50818 -0.50823 -0.50904 -0.50996 -0.51089 -0.51131 -0.51175 -0.5123 -0.5131 -0.51242 -0.51248 -0.51291 -0.51334 -0.5155 -0.51643 -0.51686 -0.51816 -0.51822 -0.51828 -0.51871 -0.51877 -0.51933 -0.51939 -0.51945 -0.51988 -0.51994 -0.51963 -0.52056 -0.52062 -0.52106 -0.52074 -0.5208 -0.52124 -0.5213
-0.47445 -0.47486 -0.47599 -0.47653 -0.47659 -0.47664 -0.4767 -0.47712 -0.47682 -0.47723 -0.47836 -0.47878 -0.47884 -0.4789 -0.47896 -0.47901 -0.47979 -0.47985 -0.48026 -0.4808 -0.48038 -0.48091 -0.48169 -0.48246 -0.48443 -0.48449 -0.48455 -0.48568 -0.48574 -0.48628 -0.48586 -0.48592 -0.48646 -0.48568 -0.48502 -0.48472 -0.4855 -0.48591 -0.48561 -0.48603 -0.48609 -0.48651 -0.48657 -0.48746 -0.48752 -0.48794 -0.48884 -0.4889 -0.48848 -0.48901 -0.48943 -0.48985 -0.49027 -0.49069 -0.49195 -0.49129 -0.49135 -0.4914 -0.49182 -0.4926 -0.49314 -0.49356 -0.49434 -0.4944 -0.49446 -0.4962 -0.49662 -0.49704 -0.4971 -0.49764 -0.4977 -0.49776 -0.49782 -0.49824 -0.4983 -0.498 -0.49806 -0.49848 -0.49854 -0.4986 -0.49782 -0.49788 -0.49842 -0.49884 -0.5001 -0.50052 -0.50143 -0.50185 -0.50275 -0.50317 -0.50371 -0.50377 -0.50456 -0.5051 -0.50516 -0.50474 -0.50444 -0.5045 -0.5042 -0.50426 -0.50504 -0.50559 -0.50601 -0.50655 -0.50697 -0.50752 -0.50758 -0.50764 -0.5077 -0.50848 -0.50818 -0.50824 -0.50831 -0.50837 -0.50927 -0.50933 -0.50976 -0.51115 -0.51121 -0.51163 -0.51218 -0.51224 -0.51266 -0.51272 -0.51315 -0.51369 -0.51375 -0.51333 -0.51557 -0.51515 -0.51485 -0.51491 -0.51497 -0.51588 -0.51594 -0.51636 -0.51691 -0.51612 -0.5157 -0.51661 -0.51716 -0.51855 -0.51813 -0.51868 -0.51874 -0.51916 -0.51971 -0.52147 -0.52153 -0.52196 -0.52202 -0.52257 -0.52348 -0.52354 -0.52409 -0.52367 -0.52373 -0.52076 -0.51961 -0.51967 -0.5167 -0.51542 -0.50031 -0.50037 -0.50092 -0.50013 -0.49205 -0.49247 -0.48792 -0.48834 -0.48803 -0.48506 -0.48402 -0.48298 -0.48231 -0.482 -0.4817 -0.48066 -0.48035 -0.48004 -0.47864 -0.4776 -0.47693 -0.47553 -0.47522 -0.47455 -0.4746 -0.47429 -0.47362 -0.47343 -0.47349 -0.47281 -0.47251 -0.47256 -0.47152 -0.47194 -0.472 -0.47169 -0.47175 -0.4718 -0.47222 -0.47191 -0.47197 -0.47239 -0.47281 -0.4725 -0.47293 -0.47298 -0.47377 -0.47383 -0.47462 -0.47602 -0.4768 -0.47723 -0.47728 -0.47771 -0.47813 -0.47855 -0.47861 -0.47867 -0.47872 -0.47915 -0.47994 -0.47963 -0.47968 -0.48047 -0.48053 -0.48096 -0.48101 -0.48107 -0.48149 -0.48118 -0.48087 -0.48056 -0.48099 -0.48104 -0.48184 -0.48189 -0.48232 -0.48274 -0.48317 -0.48433 -0.48475 -0.48518 -0.48523 -0.48566 -0.48719 -0.48798 -0.4884 -0.4892 -0.48926 -0.48968 -0.49134 -0.49102 -0.49108 -0.49114 -0.49071 -0.49077 -0.49046 -0.49088 -0.49143 -0.49186 -0.49228 -0.49455 -0.49461 -0.49356 -0.49362 -0.49368 -0.49411 -0.49453 -0.49496 -0.49588 -0.49594 -0.49563 -0.49643 -0.49685 -0.49802 -0.49857 -0.49937 -0.50103 -0.50108 -0.50114 -0.50157 -0.50163 -0.50169 -0.50212 -0.50255 -0.50347 -0.50316 -0.50322 -0.50278 -0.50284 -0.50376 -0.50579 -0.50623 -0.50628 -0.50597 -0.5064 -0.50646 -0.50739 -0.50782 -0.50824 -0.50794 -0.50676 -0.50608 -0.50651 -0.50731 -0.50786 -0.50829 -0.50909 -0.51002 -0.51094 -0.51137 -0.5118 -0.51273 -0.51316 -0.51285 -0.51291 -0.51383 -0.51426 -0.51643 -0.51686 -0.51729 -0.51908 -0.51865 -0.51871 -0.51877 -0.51883 -0.51976 -0.51982 -0.51951 -0.51957 -0.51963 -0.51969 -0.52062 -0.52019 -0.52111 -0.5208 -0.52086 -0.52179 -0.52185
-0.47415 -0.47492 -0.47653 -0.47694 -0.477 -0.47706 -0.47712 -0.47717 -0.47687 -0.47729 -0.47806 -0.47884 -0.47889 -0.47895 -0.47865 -0.47871 -0.47984 -0.48026 -0.48032 -0.48121 -0.48043 -0.48133 -0.4821 -0.48288 -0.48413 -0.48419 -0.48425 -0.48574 -0.4858 -0.48586 -0.48556 -0.48562 -0.48603 -0.48573 -0.48472 -0.48513 -0.48555 -0.48597 -0.48639 -0.48573 -0.48615 -0.48656 -0.48662 -0.48752 -0.48758 -0.48764 -0.48925 -0.48895 -0.48901 -0.48943 -0.48949 -0.49063 -0.49069 -0.49123 -0.492 -0.4917 -0.49092 -0.49098 -0.49152 -0.49266 -0.4932 -0.49362 -0.4944 -0.49446 -0.495 -0.49578 -0.49632 -0.49674 -0.49716 -0.4977 -0.49776 -0.49782 -0.4974 -0.49794 -0.498 -0.49842 -0.49848 -0.49854 -0.49824 -0.4983 -0.49788 -0.49842 -0.49848 -0.4989 -0.50016 -0.50058 -0.50148 -0.50239 -0.50245 -0.50371 -0.50377 -0.50419 -0.50462 -0.50468 -0.50522 -0.5048 -0.50486 -0.50456 -0.50426 -0.50432 -0.5051 -0.50565 -0.50607 -0.50697 -0.50752 -0.50758 -0.50764 -0.5077 -0.50776 -0.50818 -0.50824 -0.5083 -0.50836 -0.50843 -0.50933 -0.50975 -0.50982 -0.51121 -0.51163 -0.51254 -0.51223 -0.51302 -0.51308 -0.51363 -0.51405 -0.5146 -0.51418 -0.51424 -0.51563 -0.51569 -0.51575 -0.51533 -0.51539 -0.5163 -0.51636 -0.51691 -0.51649 -0.51655 -0.51576 -0.51667 -0.51722 -0.51813 -0.51867 -0.51873 -0.51916 -0.51922 -0.51977 -0.52153 -0.52159 -0.52202 -0.52256 -0.52263 -0.52354 -0.5236 -0.52366 -0.52372 -0.52379 -0.52082 -0.51918 -0.51876 -0.51166 -0.51221 -0.50037 -0.50043 -0.50049 -0.49946 -0.49514 -0.49253 -0.48834 -0.48767 -0.48736 -0.48475 -0.48371 -0.48267 -0.482 -0.48169 -0.48139 -0.48035 -0.47968 -0.47974 -0.47833 -0.47802 -0.47699 -0.47558 -0.47527 -0.4746 -0.47429 -0.47398 -0.47367 -0.47349 -0.47318 -0.4725 -0.47219 -0.47225 -0.47194 -0.472 -0.47169 -0.47174 -0.47143 -0.47149 -0.47228 -0.47197 -0.47202 -0.47208 -0.4725 -0.47256 -0.47298 -0.4734 -0.47382 -0.47388 -0.47467 -0.47607 -0.47613 -0.47655 -0.47734 -0.47739 -0.47745 -0.47751 -0.47793 -0.47872 -0.47914 -0.47957 -0.47999 -0.47968 -0.47937 -0.48016 -0.48059 -0.48101 -0.48107 -0.48149 -0.48155 -0.48124 -0.48093 -0.48062 -0.48067 -0.48146 -0.48226 -0.48231 -0.48274 -0.4828 -0.48322 -0.48475 -0.4848 -0.48523 -0.48566 -0.48608 -0.48724 -0.4884 -0.48846 -0.48925 -0.48931 -0.49011 -0.49102 -0.49145 -0.49114 -0.4912 -0.49076 -0.49045 -0.49051 -0.49057 -0.491 -0.49191 -0.49234 -0.49547 -0.49553 -0.49436 -0.49405 -0.49411 -0.49453 -0.49459 -0.49551 -0.49594 -0.49563 -0.49568 -0.49648 -0.49691 -0.49771 -0.49862 -0.49942 -0.50059 -0.50114 -0.5012 -0.50163 -0.50169 -0.50211 -0.50254 -0.5026 -0.50389 -0.50358 -0.50278 -0.50333 -0.50339 -0.50382 -0.50585 -0.50591 -0.50597 -0.50603 -0.50609 -0.50615 -0.50658 -0.50664 -0.50756 -0.50713 -0.50608 -0.50564 -0.50619 -0.50737 -0.50792 -0.50872 -0.50915 -0.51007 -0.5105 -0.5118 -0.51186 -0.51241 -0.51248 -0.51291 -0.51334 -0.51389 -0.51519 -0.51723 -0.51729 -0.51784 -0.51865 -0.51871 -0.51877 -0.51883 -0.51938 -0.51982 -0.51988 -0.51994 -0.52 -0.52006 -0.52012 -0.52018 -0.52024 -0.5208 -0.52123 -0.52129 -0.52222 -0.52265
-0.4742 -0.47497 -0.4773 -0.47771 -0.47741 -0.47711 -0.47753 -0.47759 -0.47764 -0.47842 -0.47955 -0.47961 -0.47931 -0.47936 -0.47942 -0.47912 -0.48026 -0.48079 -0.48121 -0.48198 -0.48204 -0.48281 -0.48287 -0.48293 -0.48418 -0.48389 -0.4843 -0.48627 -0.48585 -0.48591 -0.48561 -0.48567 -0.48573 -0.48579 -0.48549 -0.48555 -0.48597 -0.48638 -0.48692 -0.4865 -0.48704 -0.48746 -0.48752 -0.48829 -0.48835 -0.48841 -0.48967 -0.48973 -0.48979 -0.49056 -0.49027 -0.49116 -0.49122 -0.49128 -0.4917 -0.49176 -0.49146 -0.49188 -0.49194 -0.4932 -0.49362 -0.49368 -0.4941 -0.49451 -0.49505 -0.49547 -0.49637 -0.49679 -0.49685 -0.49727 -0.49733 -0.49788 -0.49709 -0.49751 -0.49806 -0.49848 -0.49854 -0.4986 -0.49829 -0.49835 -0.49841 -0.49884 -0.49926 -0.4998 -0.50106 -0.50148 -0.50238 -0.50317 -0.50323 -0.50449 -0.50455 -0.50461 -0.50467 -0.50474 -0.50528 -0.50534 -0.5054 -0.50498 -0.50504 -0.5051 -0.506 -0.50655 -0.50661 -0.50703 -0.50757 -0.508 -0.5077 -0.50776 -0.50818 -0.50824 -0.5083 -0.50836 -0.50842 -0.50885 -0.50891 -0.50981 -0.51036 -0.51211 -0.51217 -0.51344 -0.5135 -0.51393 -0.51399 -0.51453 -0.51496 -0.5155 -0.51593 -0.51599 -0.5169 -0.51696 -0.51666 -0.51672 -0.51714 -0.51721 -0.51775 -0.51781 -0.51788 -0.51745 -0.51752 -0.51758 -0.51812 -0.51903 -0.51958 -0.51964 -0.52007 -0.52013 -0.52068 -0.52195 -0.52201 -0.52256 -0.52311 -0.52317 -0.5236 -0.52366 -0.52421 -0.52378 -0.52348 -0.52088 -0.51972 -0.51845 -0.51427 -0.51226 -0.50043 -0.50049 -0.50103 -0.49794 -0.49751 -0.49332 -0.48961 -0.48772 -0.48705 -0.48444 -0.48413 -0.48309 -0.48206 -0.48175 -0.48144 -0.48004 -0.47973 -0.47979 -0.47802 -0.47771 -0.47741 -0.476 -0.47533 -0.47465 -0.47398 -0.47404 -0.47373 -0.47378 -0.47323 -0.47256 -0.47261 -0.4723 -0.47199 -0.47205 -0.47211 -0.4718 -0.47185 -0.47154 -0.47233 -0.47202 -0.47208 -0.4725 -0.47256 -0.47261 -0.47303 -0.47346 -0.47388 -0.4743 -0.47472 -0.47576 -0.47618 -0.4766 -0.47739 -0.47708 -0.47751 -0.47756 -0.47762 -0.47878 -0.4792 -0.47962 -0.48005 -0.47974 -0.47979 -0.48022 -0.48064 -0.4818 -0.48222 -0.48228 -0.48197 -0.48203 -0.48172 -0.48141 -0.48146 -0.48262 -0.48341 -0.4831 -0.48316 -0.48358 -0.48438 -0.48554 -0.48596 -0.48639 -0.48645 -0.48687 -0.48803 -0.48846 -0.48925 -0.48968 -0.4901 -0.49053 -0.49108 -0.4915 -0.49193 -0.49162 -0.49131 -0.49051 -0.4902 -0.49062 -0.49105 -0.49197 -0.49276 -0.49552 -0.49595 -0.49564 -0.49607 -0.49453 -0.49459 -0.49501 -0.49556 -0.49636 -0.49568 -0.49525 -0.49691 -0.49733 -0.49862 -0.49905 -0.49948 -0.50028 -0.50033 -0.50076 -0.50168 -0.50137 -0.50303 -0.50383 -0.50389 -0.50432 -0.50401 -0.50407 -0.50413 -0.50419 -0.50425 -0.50554 -0.5056 -0.50603 -0.50572 -0.50578 -0.50584 -0.50627 -0.5067 -0.50713 -0.50644 -0.50613 -0.50619 -0.50699 -0.50952 -0.50995 -0.51088 -0.51094 -0.51174 -0.5118 -0.51186 -0.51192 -0.51247 -0.51253 -0.51259 -0.5134 -0.51345 -0.51475 -0.51692 -0.51735 -0.5179 -0.5187 -0.51839 -0.51883 -0.51889 -0.51944 -0.51987 -0.51994 -0.52049 -0.52006 -0.52012 -0.52018 -0.52111 -0.5208 -0.52123 -0.52179 -0.52185 -0.52265 -0.52358
-0.47462 -0.47539 -0.47771 -0.47777 -0.47747 -0.47752 -0.47758 -0.478 -0.47841 -0.47847 -0.4796 -0.48002 -0.47936 -0.47942 -0.47912 -0.47882 -0.47995 -0.48037 -0.48126 -0.48168 -0.48174 -0.48251 -0.48257 -0.48335 -0.48388 -0.4843 -0.48436 -0.48633 -0.48591 -0.48525 -0.48495 -0.48501 -0.48543 -0.48513 -0.48519 -0.48561 -0.48602 -0.48644 -0.4865 -0.48704 -0.4871 -0.48751 -0.48793 -0.48835 -0.48889 -0.48895 -0.48937 -0.49014 -0.4902 -0.49026 -0.49032 -0.49038 -0.4908 -0.4905 -0.49176 -0.49182 -0.49152 -0.49194 -0.49235 -0.49325 -0.49331 -0.49373 -0.49415 -0.49457 -0.49511 -0.49553 -0.49595 -0.49649 -0.49655 -0.49697 -0.49703 -0.49709 -0.49715 -0.49721 -0.49763 -0.49817 -0.49823 -0.49829 -0.49835 -0.49841 -0.49847 -0.49925 -0.49895 -0.49938 -0.50112 -0.50154 -0.50196 -0.50323 -0.50329 -0.50419 -0.50425 -0.50431 -0.50473 -0.50527 -0.50485 -0.50576 -0.50546 -0.50504 -0.5051 -0.50516 -0.50606 -0.5066 -0.50667 -0.50757 -0.50763 -0.50769 -0.50811 -0.50781 -0.50824 -0.5083 -0.50836 -0.50842 -0.50848 -0.50891 -0.50945 -0.50987 -0.51042 -0.51168 -0.51223 -0.51302 -0.51356 -0.51362 -0.51453 -0.51495 -0.51502 -0.51592 -0.51599 -0.51605 -0.51744 -0.51702 -0.51708 -0.51678 -0.5172 -0.51775 -0.51781 -0.51787 -0.51842 -0.518 -0.51758 -0.51861 -0.51867 -0.51994 -0.52049 -0.52055 -0.52098 -0.52152 -0.52158 -0.52298 -0.52256 -0.52311 -0.52317 -0.52359 -0.52366 -0.52372 -0.52427 -0.52385 -0.52306 -0.52094 -0.5193 -0.51851 -0.51554 -0.5156 -0.50376 -0.49666 -0.49708 -0.49131 -0.4876 -0.4873 -0.48663 -0.48741 -0.48638 -0.48486 -0.48418 -0.48315 -0.48211 -0.4818 -0.4815 -0.48009 -0.47979 -0.47948 -0.47808 -0.4774 -0.47673 -0.47606 -0.47538 -0.47471 -0.4744 -0.47409 -0.47378 -0.47359 -0.47329 -0.47261 -0.47267 -0.47236 -0.47241 -0.47247 -0.47179 -0.47222 -0.47154 -0.47196 -0.47202 -0.47207 -0.47213 -0.47219 -0.47224 -0.47267 -0.47272 -0.47314 -0.47357 -0.47399 -0.47441 -0.47618 -0.47623 -0.47666 -0.47745 -0.47714 -0.47756 -0.47798 -0.47804 -0.47883 -0.47925 -0.48004 -0.48047 -0.47979 -0.47985 -0.48027 -0.48069 -0.48149 -0.48228 -0.48197 -0.48202 -0.48208 -0.48177 -0.48219 -0.48189 -0.48268 -0.48347 -0.48353 -0.48358 -0.48401 -0.48443 -0.48559 -0.48602 -0.48644 -0.4865 -0.48693 -0.48809 -0.48851 -0.48894 -0.48973 -0.48979 -0.49058 -0.49113 -0.49193 -0.49199 -0.49168 -0.49136 -0.49093 -0.49062 -0.49068 -0.4916 -0.49202 -0.49245 -0.49472 -0.49441 -0.4957 -0.49576 -0.49545 -0.4955 -0.49556 -0.49599 -0.49642 -0.49647 -0.49617 -0.49696 -0.49739 -0.49868 -0.49874 -0.4988 -0.49996 -0.50002 -0.50082 -0.50088 -0.50143 -0.50223 -0.50315 -0.50358 -0.50401 -0.5037 -0.50413 -0.50418 -0.50424 -0.50467 -0.5056 -0.50565 -0.50572 -0.50528 -0.50534 -0.5054 -0.50595 -0.50638 -0.50681 -0.50613 -0.50619 -0.50575 -0.50705 -0.50958 -0.51038 -0.5097 -0.5105 -0.51143 -0.51185 -0.51241 -0.51247 -0.51253 -0.51259 -0.51265 -0.51308 -0.51314 -0.51407 -0.51611 -0.51703 -0.51746 -0.51839 -0.51845 -0.51851 -0.51857 -0.51901 -0.51956 -0.51999 -0.52006 -0.52012 -0.52018 -0.52073 -0.52079 -0.52085 -0.52042 -0.52098 -0.52104 -0.52197 -0.52327
-0.47503 -0.4758 -0.47776 -0.47818 -0.47788 -0.47794 -0.478 -0.47806 -0.47811 -0.47889 -0.4793 -0.47972 -0.47906 -0.47912 -0.47882 -0.47888 -0.47965 -0.47971 -0.48096 -0.48102 -0.48108 -0.48185 -0.48191 -0.48269 -0.48394 -0.484 -0.48406 -0.48519 -0.48489 -0.48459 -0.48381 -0.48351 -0.48393 -0.48399 -0.48405 -0.4853 -0.48572 -0.4865 -0.48656 -0.48709 -0.48787 -0.48757 -0.48799 -0.48841 -0.48895 -0.48936 -0.48978 -0.48984 -0.49062 -0.49068 -0.48966 -0.48972 -0.49014 -0.4902 -0.49062 -0.49151 -0.49157 -0.49235 -0.49241 -0.49331 -0.49373 -0.49415 -0.49505 -0.49511 -0.49553 -0.49559 -0.49601 -0.49655 -0.49661 -0.49667 -0.49625 -0.49631 -0.49637 -0.49643 -0.49697 -0.49703 -0.49745 -0.49787 -0.49793 -0.49847 -0.49853 -0.49895 -0.49901 -0.49907 -0.50033 -0.50124 -0.50166 -0.50256 -0.50298 -0.50304 -0.5031 -0.50316 -0.50443 -0.50449 -0.50491 -0.50582 -0.50588 -0.50558 -0.50564 -0.5057 -0.50612 -0.50702 -0.50709 -0.50763 -0.50805 -0.50811 -0.50817 -0.50823 -0.5083 -0.50836 -0.50842 -0.50932 -0.50975 -0.50981 -0.51035 -0.51041 -0.51084 -0.51174 -0.51265 -0.51307 -0.51362 -0.51404 -0.51459 -0.51501 -0.51592 -0.51647 -0.51653 -0.51659 -0.51798 -0.51804 -0.51811 -0.51817 -0.51823 -0.51829 -0.51836 -0.51842 -0.51933 -0.51939 -0.51945 -0.52036 -0.52079 -0.5217 -0.52176 -0.52182 -0.52188 -0.52243 -0.52249 -0.52304 -0.52262 -0.52316 -0.52323 -0.52329 -0.5242 -0.52426 -0.52433 -0.5239 -0.5236 -0.52185 -0.52069 -0.51991 -0.51815 -0.51529 -0.50382 -0.49672 -0.49714 -0.49137 -0.48912 -0.48808 -0.48741 -0.48589 -0.48558 -0.48455 -0.48387 -0.4832 -0.4818 -0.48149 -0.48119 -0.48051 -0.47984 -0.47917 -0.47776 -0.47709 -0.47678 -0.47611 -0.4758 -0.47513 -0.47445 -0.47451 -0.4742 -0.47389 -0.47334 -0.47266 -0.47272 -0.47241 -0.47247 -0.47289 -0.47185 -0.4719 -0.47196 -0.47165 -0.47207 -0.47213 -0.47145 -0.47187 -0.47193 -0.47199 -0.47241 -0.47283 -0.47362 -0.47368 -0.47446 -0.47586 -0.47629 -0.47671 -0.4775 -0.47756 -0.47798 -0.47804 -0.47846 -0.47888 -0.47894 -0.479 -0.47979 -0.47948 -0.4799 -0.48033 -0.48075 -0.48191 -0.48196 -0.48202 -0.48171 -0.48177 -0.48146 -0.48225 -0.48231 -0.48273 -0.48352 -0.48358 -0.48437 -0.48443 -0.48522 -0.48638 -0.48681 -0.48723 -0.48729 -0.48735 -0.48888 -0.48894 -0.48936 -0.49016 -0.49021 -0.49064 -0.49156 -0.49198 -0.49204 -0.4921 -0.49093 -0.49099 -0.49105 -0.4911 -0.49165 -0.49208 -0.49214 -0.49293 -0.49336 -0.49538 -0.49581 -0.4955 -0.49556 -0.49562 -0.49641 -0.49684 -0.49653 -0.49585 -0.49665 -0.49671 -0.49677 -0.49682 -0.49688 -0.49805 -0.49848 -0.49854 -0.49946 -0.49989 -0.50068 -0.5016 -0.50203 -0.50283 -0.50289 -0.50344 -0.50387 -0.50393 -0.50399 -0.50479 -0.50522 -0.50528 -0.50497 -0.5054 -0.50546 -0.50552 -0.50607 -0.50687 -0.50656 -0.50625 -0.50668 -0.50674 -0.50877 -0.5092 -0.50815 -0.50895 -0.50988 -0.51068 -0.51123 -0.51166 -0.51135 -0.51141 -0.51147 -0.5119 -0.51159 -0.51239 -0.51419 -0.51499 -0.51591 -0.51721 -0.51727 -0.5182 -0.51777 -0.51832 -0.51875 -0.51968 -0.52011 -0.52017 -0.52024 -0.5203 -0.52085 -0.52091 -0.52048 -0.52104 -0.5206 -0.52066 -0.52122
-0.47544 -0.47621 -0.47782 -0.47824 -0.47794 -0.47764 -0.47805 -0.47811 -0.47817 -0.47858 -0.47972 -0.47977 -0.47876 -0.47918 -0.47887 -0.47929 -0.47971 -0.47976 -0.48018 -0.4806 -0.48066 -0.48119 -0.48197 -0.48238 -0.48352 -0.48358 -0.48411 -0.48489 -0.48459 -0.48381 -0.48315 -0.48285 -0.48327 -0.48333 -0.48339 -0.48536 -0.48578 -0.48655 -0.48661 -0.48715 -0.48793 -0.48763 -0.4884 -0.48894 -0.489 -0.48942 -0.4902 -0.49026 -0.49032 -0.49038 -0.49007 -0.48978 -0.49019 -0.48989 -0.49103 -0.49157 -0.49235 -0.49241 -0.49283 -0.49373 -0.49415 -0.49457 -0.49511 -0.49553 -0.49595 -0.49601 -0.49607 -0.49661 -0.49667 -0.49673 -0.49679 -0.49637 -0.49643 -0.49649 -0.49655 -0.49661 -0.49715 -0.49757 -0.49799 -0.49853 -0.49859 -0.49865 -0.49871 -0.49913 -0.50003 -0.50045 -0.50087 -0.50214 -0.5022 -0.5031 -0.5028 -0.50322 -0.50413 -0.50455 -0.50497 -0.50587 -0.50594 -0.50563 -0.50606 -0.50576 -0.50666 -0.50708 -0.50763 -0.50769 -0.50811 -0.50817 -0.50859 -0.50865 -0.50872 -0.50841 -0.50848 -0.50974 -0.51029 -0.51035 -0.51077 -0.51083 -0.5109 -0.5118 -0.51271 -0.51398 -0.51404 -0.51459 -0.51465 -0.51507 -0.51562 -0.51689 -0.51743 -0.5175 -0.51804 -0.5181 -0.51901 -0.51907 -0.51914 -0.51872 -0.51878 -0.51932 -0.52023 -0.52029 -0.52036 -0.52127 -0.52133 -0.52176 -0.52182 -0.52188 -0.52194 -0.52249 -0.52255 -0.5231 -0.52268 -0.52274 -0.52329 -0.52335 -0.52426 -0.52432 -0.52439 -0.52396 -0.52403 -0.52239 -0.5216 -0.52082 -0.51954 -0.51827 -0.49866 -0.49714 -0.49756 -0.48912 -0.48917 -0.4885 -0.48747 -0.48643 -0.48564 -0.48497 -0.48429 -0.48289 -0.48186 -0.48155 -0.48124 -0.4802 -0.4799 -0.47959 -0.47782 -0.47715 -0.47684 -0.47616 -0.47585 -0.47555 -0.47487 -0.47456 -0.47425 -0.47395 -0.47339 -0.47272 -0.47277 -0.47246 -0.47215 -0.47221 -0.4719 -0.47196 -0.47201 -0.4717 -0.47139 -0.47181 -0.47114 -0.47119 -0.47162 -0.47167 -0.4721 -0.47252 -0.47331 -0.4741 -0.47452 -0.47629 -0.47671 -0.47713 -0.47719 -0.47761 -0.47803 -0.47846 -0.47851 -0.47894 -0.47863 -0.47832 -0.47947 -0.47953 -0.47959 -0.48038 -0.4808 -0.48159 -0.48239 -0.48171 -0.48177 -0.48182 -0.48151 -0.48157 -0.48236 -0.48279 -0.48321 -0.48363 -0.48479 -0.48485 -0.48564 -0.48644 -0.48723 -0.48729 -0.48771 -0.48814 -0.48893 -0.48936 -0.48942 -0.49021 -0.49064 -0.49069 -0.49161 -0.49204 -0.4921 -0.49216 -0.49148 -0.49153 -0.49159 -0.49116 -0.49171 -0.49177 -0.49219 -0.49262 -0.49305 -0.49544 -0.49624 -0.49506 -0.49562 -0.49567 -0.4961 -0.4969 -0.49622 -0.49591 -0.49597 -0.49602 -0.49608 -0.49565 -0.49571 -0.497 -0.49743 -0.49785 -0.49865 -0.4992 -0.50037 -0.50117 -0.50172 -0.50215 -0.50258 -0.50264 -0.50306 -0.50362 -0.50368 -0.50448 -0.50453 -0.50533 -0.50502 -0.50545 -0.50551 -0.50607 -0.50613 -0.5073 -0.50699 -0.5063 -0.50673 -0.50679 -0.50759 -0.50765 -0.50771 -0.50864 -0.50907 -0.5095 -0.51042 -0.51048 -0.51054 -0.5106 -0.51103 -0.51072 -0.51115 -0.51171 -0.51338 -0.51381 -0.51511 -0.51603 -0.51646 -0.51739 -0.51745 -0.51838 -0.51881 -0.51974 -0.5198 -0.52023 -0.51992 -0.52035 -0.52091 -0.52048 -0.52054 -0.52109 -0.52066 -0.52035 -0.52078
-0.4755 -0.47627 -0.47752 -0.47793 -0.47799 -0.47805 -0.47811 -0.47817 -0.47822 -0.47864 -0.47977 -0.47983 -0.47917 -0.47923 -0.47929 -0.47935 -0.48012 -0.47982 -0.47988 -0.47994 -0.48071 -0.48125 -0.48167 -0.48244 -0.48357 -0.48411 -0.48369 -0.48375 -0.48429 -0.48387 -0.48321 -0.48327 -0.48333 -0.48374 -0.4838 -0.48577 -0.48619 -0.48661 -0.48715 -0.48792 -0.48834 -0.48888 -0.4893 -0.48936 -0.48942 -0.48984 -0.49025 -0.49031 -0.49001 -0.49007 -0.49013 -0.49019 -0.48989 -0.49031 -0.49109 -0.49163 -0.49205 -0.49283 -0.49336 -0.49343 -0.4942 -0.49462 -0.49552 -0.49558 -0.496 -0.49654 -0.4966 -0.49702 -0.49708 -0.49678 -0.496 -0.49522 -0.49528 -0.49582 -0.49588 -0.49594 -0.49672 -0.49726 -0.49768 -0.4981 -0.49901 -0.49871 -0.49913 -0.49919 -0.50009 -0.50015 -0.50057 -0.50063 -0.50105 -0.50232 -0.50238 -0.50292 -0.5037 -0.50376 -0.50382 -0.50509 -0.50563 -0.50569 -0.50611 -0.50618 -0.50672 -0.50714 -0.50768 -0.50811 -0.50817 -0.50823 -0.50865 -0.50871 -0.50877 -0.50847 -0.50853 -0.50944 -0.51071 -0.51077 -0.51083 -0.51089 -0.51144 -0.51234 -0.51277 -0.51404 -0.5141 -0.51465 -0.51507 -0.51562 -0.51604 -0.51695 -0.51749 -0.51755 -0.5181 -0.51816 -0.51859 -0.51865 -0.5192 -0.51877 -0.51884 -0.51938 -0.52066 -0.52036 -0.51993 -0.52133 -0.52139 -0.52182 -0.52188 -0.52194 -0.522 -0.52255 -0.52261 -0.52268 -0.52225 -0.5228 -0.52335 -0.52341 -0.52384 -0.52438 -0.52445 -0.52402 -0.52372 -0.52245 -0.52203 -0.52124 -0.5196 -0.51833 -0.49713 -0.49646 -0.49531 -0.48771 -0.48777 -0.48783 -0.48716 -0.48649 -0.48569 -0.48502 -0.48398 -0.48295 -0.48155 -0.48087 -0.4802 -0.47953 -0.47885 -0.47855 -0.47787 -0.47684 -0.47653 -0.47622 -0.47591 -0.47524 -0.47493 -0.47498 -0.47431 -0.47436 -0.47381 -0.47277 -0.47283 -0.47252 -0.47294 -0.473 -0.47159 -0.47164 -0.4717 -0.47176 -0.47181 -0.4715 -0.47156 -0.47162 -0.47167 -0.47209 -0.47215 -0.47294 -0.47373 -0.47415 -0.47494 -0.47634 -0.47676 -0.47682 -0.47761 -0.47803 -0.47809 -0.47814 -0.47857 -0.47899 -0.47868 -0.47874 -0.4788 -0.47922 -0.48001 -0.48043 -0.48086 -0.48128 -0.48171 -0.48103 -0.48108 -0.48151 -0.48157 -0.48162 -0.48205 -0.48284 -0.48327 -0.48369 -0.48412 -0.48454 -0.48496 -0.48576 -0.48618 -0.48661 -0.48703 -0.48783 -0.48862 -0.48868 -0.48874 -0.4899 -0.49033 -0.49038 -0.49081 -0.49136 -0.49178 -0.49147 -0.49104 -0.4911 -0.49165 -0.49171 -0.49176 -0.49219 -0.49262 -0.49267 -0.49347 -0.49463 -0.49592 -0.49475 -0.49481 -0.49524 -0.4953 -0.49535 -0.49541 -0.49473 -0.49516 -0.49485 -0.49491 -0.49423 -0.49465 -0.49582 -0.49674 -0.49717 -0.49723 -0.49803 -0.49969 -0.50085 -0.50128 -0.50221 -0.50226 -0.50269 -0.50312 -0.50367 -0.50447 -0.5049 -0.50533 -0.50539 -0.50545 -0.50551 -0.50606 -0.50649 -0.50655 -0.50822 -0.50791 -0.5071 -0.50716 -0.50759 -0.50765 -0.50771 -0.50826 -0.50906 -0.5095 -0.51005 -0.51048 -0.51054 -0.5106 -0.51066 -0.51109 -0.51115 -0.5117 -0.51177 -0.51306 -0.51387 -0.51516 -0.51609 -0.51652 -0.51708 -0.51714 -0.5172 -0.518 -0.51893 -0.51899 -0.51942 -0.51948 -0.51955 -0.5201 -0.52016 -0.52022 -0.52028 -0.52034 -0.52041 -0.52084
-0.47555 -0.47632 -0.47793 -0.47799 -0.47805 -0.47775 -0.47781 -0.47858 -0.47828 -0.47905 -0.47947 -0.47953 -0.47923 -0.47929 -0.47934 -0.4794 -0.47982 -0.47988 -0.47958 -0.47963 -0.48005 -0.48083 -0.48136 -0.48178 -0.48363 -0.48369 -0.48423 -0.48345 -0.48386 -0.4844 -0.48362 -0.48332 -0.48338 -0.4838 -0.48386 -0.48583 -0.48661 -0.48786 -0.48876 -0.48918 -0.48995 -0.49001 -0.49043 -0.49013 -0.49019 -0.49025 -0.49067 -0.49073 -0.49007 -0.49013 -0.49019 -0.49061 -0.49067 -0.49037 -0.49162 -0.49168 -0.4921 -0.49288 -0.49342 -0.4942 -0.4951 -0.49552 -0.49678 -0.49648 -0.49654 -0.49732 -0.49702 -0.49708 -0.49714 -0.49684 -0.49606 -0.49576 -0.49534 -0.49588 -0.49546 -0.496 -0.49678 -0.49732 -0.49774 -0.49816 -0.49906 -0.49912 -0.49918 -0.49961 -0.50051 -0.50057 -0.50063 -0.50069 -0.50111 -0.50201 -0.50243 -0.5025 -0.5034 -0.50346 -0.50352 -0.50479 -0.50521 -0.50575 -0.50617 -0.50672 -0.50714 -0.50768 -0.50774 -0.50817 -0.50823 -0.50829 -0.50871 -0.50877 -0.50883 -0.50889 -0.50944 -0.50986 -0.51077 -0.51131 -0.51137 -0.51143 -0.51186 -0.51313 -0.51367 -0.51458 -0.51464 -0.5147 -0.51561 -0.51604 -0.51694 -0.51749 -0.51804 -0.5181 -0.51816 -0.51858 -0.51913 -0.51919 -0.51926 -0.51968 -0.51974 -0.5198 -0.52072 -0.52041 -0.52048 -0.52139 -0.52145 -0.52187 -0.52242 -0.522 -0.52206 -0.52261 -0.52267 -0.52273 -0.5228 -0.52334 -0.52377 -0.52383 -0.52438 -0.52396 -0.52451 -0.52408 -0.52378 -0.52336 -0.52257 -0.5213 -0.51918 -0.51924 -0.49756 -0.49616 -0.49536 -0.48777 -0.48746 -0.48716 -0.48685 -0.48606 -0.48575 -0.48508 -0.48404 -0.483 -0.48124 -0.48093 -0.47989 -0.47885 -0.47818 -0.47824 -0.47756 -0.47725 -0.47695 -0.47627 -0.47633 -0.47529 -0.47535 -0.4754 -0.47473 -0.47442 -0.47387 -0.47319 -0.47325 -0.47294 -0.47299 -0.47305 -0.47164 -0.4717 -0.47175 -0.47144 -0.47187 -0.47156 -0.47161 -0.4713 -0.47136 -0.47215 -0.47257 -0.47336 -0.47415 -0.47494 -0.47524 -0.47676 -0.47718 -0.47761 -0.47803 -0.47845 -0.47851 -0.47857 -0.47899 -0.47905 -0.4791 -0.47916 -0.47922 -0.47964 -0.48006 -0.48085 -0.48091 -0.4817 -0.48213 -0.48145 -0.48151 -0.48156 -0.48162 -0.48168 -0.48247 -0.4829 -0.48369 -0.48374 -0.48417 -0.48459 -0.48502 -0.48581 -0.48624 -0.48703 -0.48746 -0.48788 -0.48868 -0.4891 -0.48916 -0.49032 -0.49075 -0.4913 -0.49135 -0.49178 -0.49184 -0.49153 -0.49159 -0.49164 -0.49207 -0.49176 -0.49182 -0.49261 -0.49267 -0.4931 -0.49389 -0.49506 -0.49635 -0.49481 -0.49523 -0.49529 -0.49584 -0.4959 -0.49547 -0.49516 -0.49558 -0.49527 -0.49459 -0.49428 -0.49471 -0.49588 -0.49643 -0.49686 -0.49765 -0.49771 -0.50011 -0.50128 -0.50134 -0.50226 -0.50269 -0.50312 -0.50404 -0.50447 -0.50527 -0.50619 -0.50625 -0.50668 -0.50674 -0.5068 -0.50686 -0.50729 -0.50821 -0.51025 -0.50957 -0.50839 -0.50882 -0.50925 -0.50894 -0.509 -0.50906 -0.50949 -0.51042 -0.51048 -0.51091 -0.51097 -0.51103 -0.51109 -0.51115 -0.51207 -0.51213 -0.51257 -0.51312 -0.51442 -0.51485 -0.51615 -0.51621 -0.51664 -0.5172 -0.51726 -0.51856 -0.51862 -0.51905 -0.51948 -0.51954 -0.5196 -0.52016 -0.52022 -0.52028 -0.52034 -0.52077 -0.52084 -0.52139
-0.47561 -0.47602 -0.47763 -0.47804 -0.47739 -0.47745 -0.4775 -0.47828 -0.47869 -0.47911 -0.47952 -0.47958 -0.47892 -0.47898 -0.47904 -0.47946 -0.47987 -0.47957 -0.47892 -0.47897 -0.47939 -0.48017 -0.48058 -0.48148 -0.48369 -0.48374 -0.4838 -0.48386 -0.48392 -0.48398 -0.48404 -0.48302 -0.48344 -0.4835 -0.48391 -0.48589 -0.4863 -0.48792 -0.48834 -0.48923 -0.49001 -0.49043 -0.49049 -0.49019 -0.49025 -0.48995 -0.49073 -0.49043 -0.49013 -0.48983 -0.48989 -0.49066 -0.49072 -0.49114 -0.4912 -0.49174 -0.49216 -0.49342 -0.49348 -0.49462 -0.49636 -0.49678 -0.49804 -0.49774 -0.49732 -0.49738 -0.49744 -0.49678 -0.49684 -0.49642 -0.49612 -0.49534 -0.49539 -0.49545 -0.496 -0.49642 -0.49684 -0.4969 -0.49816 -0.49822 -0.49876 -0.49918 -0.49924 -0.49966 -0.50093 -0.50062 -0.50069 -0.50111 -0.50117 -0.50207 -0.50249 -0.50303 -0.50346 -0.50316 -0.50322 -0.50484 -0.50526 -0.50581 -0.50623 -0.50629 -0.5072 -0.50774 -0.50732 -0.50738 -0.50828 -0.50798 -0.50841 -0.50883 -0.50889 -0.50943 -0.5095 -0.5104 -0.51083 -0.51089 -0.51143 -0.51101 -0.51155 -0.51282 -0.51373 -0.51416 -0.5147 -0.51513 -0.51603 -0.51658 -0.517 -0.51755 -0.51846 -0.51816 -0.51858 -0.51865 -0.51919 -0.51925 -0.51931 -0.51974 -0.52029 -0.52035 -0.52077 -0.52084 -0.52054 -0.52096 -0.52151 -0.52194 -0.52248 -0.52206 -0.52212 -0.52218 -0.52273 -0.52279 -0.52286 -0.52377 -0.52383 -0.52389 -0.52396 -0.52402 -0.52408 -0.52414 -0.52384 -0.52293 -0.52263 -0.52099 -0.51802 -0.51589 -0.49725 -0.49621 -0.49542 -0.4871 -0.48715 -0.48685 -0.48654 -0.48575 -0.48544 -0.48513 -0.48373 -0.48269 -0.48129 -0.48025 -0.47995 -0.47854 -0.47823 -0.47793 -0.47725 -0.47694 -0.477 -0.47669 -0.47638 -0.47571 -0.4754 -0.47509 -0.47515 -0.47447 -0.47392 -0.47324 -0.47293 -0.47299 -0.47305 -0.47274 -0.4717 -0.47175 -0.47181 -0.4715 -0.47192 -0.47161 -0.4713 -0.47136 -0.47141 -0.4722 -0.47262 -0.47341 -0.47457 -0.47523 -0.47602 -0.47681 -0.4776 -0.47803 -0.47845 -0.47887 -0.47893 -0.47899 -0.47904 -0.4791 -0.47952 -0.47921 -0.47927 -0.47969 -0.48049 -0.48054 -0.48097 -0.48213 -0.48255 -0.48187 -0.48156 -0.48199 -0.48168 -0.48173 -0.48252 -0.48332 -0.48374 -0.4838 -0.48422 -0.48502 -0.48544 -0.48623 -0.48666 -0.48745 -0.48788 -0.4883 -0.48873 -0.48916 -0.48922 -0.49038 -0.49129 -0.49172 -0.49178 -0.49184 -0.49226 -0.49158 -0.49164 -0.49244 -0.4925 -0.49182 -0.49224 -0.49304 -0.49273 -0.49316 -0.49395 -0.49598 -0.4964 -0.49523 -0.49529 -0.49584 -0.49627 -0.49596 -0.49552 -0.49558 -0.49564 -0.49533 -0.49502 -0.49471 -0.49513 -0.49593 -0.49648 -0.49728 -0.49734 -0.49814 -0.50017 -0.50134 -0.50189 -0.50232 -0.50312 -0.50367 -0.50447 -0.5049 -0.50582 -0.50662 -0.50668 -0.50711 -0.50717 -0.50723 -0.50729 -0.50821 -0.50864 -0.51117 -0.50913 -0.50845 -0.50975 -0.51018 -0.50937 -0.50943 -0.50949 -0.51004 -0.5101 -0.51053 -0.51146 -0.51152 -0.51158 -0.51164 -0.51121 -0.5125 -0.51256 -0.51262 -0.51392 -0.51448 -0.51528 -0.51583 -0.51627 -0.51719 -0.51725 -0.51769 -0.51812 -0.51867 -0.51948 -0.51954 -0.5201 -0.52016 -0.52059 -0.52028 -0.52034 -0.52077 -0.52083 -0.52089 -0.52095
-0.4753 -0.47572 -0.47697 -0.47739 -0.47661 -0.47631 -0.47672 -0.47726 -0.47803 -0.47845 -0.47922 -0.47964 -0.47898 -0.47904 -0.4791 -0.47951 -0.47957 -0.47963 -0.47897 -0.47867 -0.47909 -0.4795 -0.47992 -0.4807 -0.48267 -0.48344 -0.48314 -0.48356 -0.48362 -0.48368 -0.48338 -0.48272 -0.48278 -0.48319 -0.48361 -0.48487 -0.48528 -0.48726 -0.48768 -0.48929 -0.49043 -0.49049 -0.49019 -0.48989 -0.48995 -0.49001 -0.49078 -0.49048 -0.48982 -0.48952 -0.48994 -0.49072 -0.49042 -0.49084 -0.49126 -0.4918 -0.49222 -0.493 -0.49354 -0.49432 -0.49522 -0.49563 -0.4969 -0.4966 -0.49666 -0.49707 -0.49678 -0.49635 -0.49641 -0.49611 -0.49581 -0.49539 -0.49509 -0.49551 -0.49605 -0.49611 -0.49689 -0.49743 -0.49785 -0.49828 -0.49882 -0.4996 -0.49966 -0.5002 -0.50147 -0.50104 -0.50074 -0.50116 -0.50123 -0.50128 -0.50135 -0.50189 -0.50315 -0.50273 -0.50279 -0.50454 -0.50532 -0.50587 -0.50629 -0.50635 -0.50689 -0.50732 -0.50738 -0.50744 -0.50798 -0.50804 -0.5081 -0.50853 -0.50943 -0.50901 -0.50955 -0.51082 -0.51089 -0.51095 -0.51101 -0.51107 -0.51161 -0.51252 -0.51294 -0.51385 -0.51391 -0.51434 -0.51525 -0.51616 -0.5167 -0.51676 -0.51767 -0.51773 -0.5178 -0.51834 -0.51877 -0.51883 -0.51938 -0.51944 -0.51986 -0.51992 -0.52084 -0.5209 -0.52096 -0.52102 -0.52108 -0.52248 -0.52254 -0.5226 -0.52267 -0.52273 -0.52279 -0.52285 -0.52292 -0.52383 -0.52438 -0.52359 -0.52365 -0.52371 -0.52329 -0.5225 -0.52123 -0.51874 -0.51711 -0.5134 -0.51431 -0.51352 -0.49767 -0.4919 -0.49195 -0.48557 -0.48563 -0.48569 -0.48574 -0.48544 -0.48513 -0.48446 -0.48342 -0.48238 -0.48062 -0.47994 -0.47927 -0.47787 -0.47756 -0.47762 -0.47731 -0.477 -0.47669 -0.47638 -0.47607 -0.47503 -0.47509 -0.47514 -0.47447 -0.47392 -0.47361 -0.47293 -0.47299 -0.47304 -0.4731 -0.47316 -0.47175 -0.47144 -0.4715 -0.47155 -0.47197 -0.47166 -0.47172 -0.47141 -0.47183 -0.47189 -0.47268 -0.47347 -0.47499 -0.47529 -0.47571 -0.47723 -0.47729 -0.47845 -0.47887 -0.47893 -0.47935 -0.47904 -0.4791 -0.47989 -0.47958 -0.47963 -0.47933 -0.47975 -0.48054 -0.4806 -0.48102 -0.48255 -0.4826 -0.48229 -0.48198 -0.48204 -0.4821 -0.48216 -0.48295 -0.48337 -0.4838 -0.48385 -0.48501 -0.48507 -0.48586 -0.48629 -0.48672 -0.48751 -0.4883 -0.48836 -0.48916 -0.48921 -0.48964 -0.49043 -0.49135 -0.49178 -0.49183 -0.49226 -0.49232 -0.49164 -0.49207 -0.49249 -0.49255 -0.49224 -0.49193 -0.49273 -0.49278 -0.49284 -0.49401 -0.49566 -0.49646 -0.49529 -0.49535 -0.4959 -0.49633 -0.49638 -0.49607 -0.49564 -0.49656 -0.49576 -0.49507 -0.49476 -0.49482 -0.49562 -0.49605 -0.49611 -0.49666 -0.49745 -0.49862 -0.50065 -0.50145 -0.50237 -0.5028 -0.50323 -0.50453 -0.50495 -0.50501 -0.50594 -0.506 -0.50643 -0.50723 -0.50728 -0.50821 -0.50864 -0.50907 -0.5116 -0.51005 -0.50888 -0.51141 -0.5111 -0.51116 -0.51072 -0.51004 -0.5101 -0.51053 -0.51059 -0.51152 -0.51158 -0.51114 -0.51083 -0.51089 -0.51219 -0.51262 -0.51268 -0.51361 -0.51404 -0.5141 -0.51465 -0.51509 -0.51552 -0.51607 -0.51564 -0.51743 -0.51824 -0.51916 -0.5196 -0.52015 -0.52021 -0.52065 -0.52034 -0.52077 -0.52133 -0.52089 -0.52095 -0.52101
-0.47572 -0.47613 -0.47655 -0.47661 -0.47595 -0.47565 -0.47571 -0.47684 -0.47773 -0.47815 -0.47928 -0.47934 -0.4794 -0.47909 -0.47951 -0.47957 -0.47963 -0.47969 -0.47939 -0.47873 -0.47914 -0.47992 -0.47998 -0.48075 -0.48308 -0.48314 -0.48356 -0.48326 -0.48403 -0.48337 -0.48343 -0.48277 -0.48283 -0.48289 -0.48331 -0.48444 -0.48534 -0.48648 -0.48737 -0.48851 -0.49048 -0.49054 -0.49024 -0.4903 -0.49 -0.49006 -0.49048 -0.49018 -0.48988 -0.48994 -0.49 -0.49042 -0.49048 -0.49054 -0.49179 -0.49221 -0.49263 -0.49353 -0.49359 -0.49437 -0.49479 -0.49533 -0.49659 -0.49617 -0.49623 -0.49749 -0.49683 -0.49605 -0.49647 -0.49617 -0.49587 -0.49545 -0.49515 -0.49557 -0.49611 -0.49653 -0.49695 -0.49785 -0.49827 -0.49882 -0.50008 -0.50086 -0.50092 -0.50146 -0.50188 -0.50194 -0.50164 -0.5017 -0.50176 -0.50134 -0.50104 -0.50194 -0.50273 -0.50279 -0.50285 -0.5046 -0.50538 -0.50592 -0.50635 -0.50641 -0.50695 -0.50737 -0.50743 -0.5075 -0.50804 -0.50846 -0.50816 -0.50858 -0.50901 -0.50907 -0.50913 -0.51052 -0.51094 -0.51101 -0.51155 -0.51113 -0.51167 -0.51258 -0.513 -0.51391 -0.51397 -0.5144 -0.51531 -0.51585 -0.51591 -0.51682 -0.51725 -0.51731 -0.51785 -0.51792 -0.51883 -0.51889 -0.51895 -0.51986 -0.51956 -0.51998 -0.52089 -0.52144 -0.5215 -0.52157 -0.52163 -0.52254 -0.52309 -0.52315 -0.52273 -0.52327 -0.52334 -0.5234 -0.52346 -0.52389 -0.52444 -0.52401 -0.52371 -0.52377 -0.52335 -0.52208 -0.52093 -0.51795 -0.51668 -0.51467 -0.51352 -0.51273 -0.51194 -0.49195 -0.49201 -0.48563 -0.48653 -0.48611 -0.4858 -0.48513 -0.48518 -0.48451 -0.48384 -0.4828 -0.48067 -0.48 -0.47932 -0.47792 -0.47725 -0.4773 -0.47736 -0.47742 -0.47711 -0.47643 -0.47576 -0.47545 -0.47514 -0.4752 -0.47489 -0.47421 -0.47366 -0.47299 -0.47304 -0.4731 -0.47315 -0.47321 -0.47217 -0.47223 -0.47228 -0.47197 -0.47239 -0.47208 -0.47214 -0.47183 -0.47225 -0.47304 -0.4731 -0.47389 -0.47504 -0.47534 -0.47576 -0.47765 -0.47771 -0.4785 -0.47892 -0.47898 -0.47977 -0.47946 -0.47989 -0.48031 -0.48037 -0.48006 -0.48011 -0.48054 -0.48059 -0.48102 -0.48107 -0.4826 -0.48266 -0.48308 -0.48277 -0.48283 -0.48289 -0.48294 -0.48374 -0.48453 -0.48459 -0.48501 -0.48544 -0.48623 -0.48592 -0.48708 -0.48714 -0.48756 -0.48836 -0.48842 -0.48884 -0.48927 -0.48969 -0.49086 -0.4914 -0.49183 -0.49226 -0.49232 -0.49274 -0.49206 -0.49249 -0.49255 -0.49297 -0.4923 -0.49235 -0.49278 -0.49247 -0.4929 -0.49369 -0.49609 -0.49615 -0.49584 -0.49626 -0.49669 -0.49712 -0.49681 -0.49687 -0.49693 -0.49698 -0.4963 -0.49587 -0.49556 -0.49562 -0.49604 -0.49573 -0.49616 -0.49671 -0.49751 -0.49868 -0.50071 -0.50151 -0.50243 -0.50286 -0.50378 -0.50458 -0.50501 -0.50507 -0.5055 -0.50605 -0.50648 -0.50691 -0.50697 -0.50864 -0.50956 -0.51086 -0.51252 -0.51221 -0.51141 -0.51307 -0.51313 -0.51406 -0.51449 -0.51047 -0.51016 -0.51059 -0.51065 -0.51195 -0.51163 -0.5112 -0.51089 -0.51132 -0.51262 -0.51317 -0.51323 -0.51366 -0.51372 -0.51416 -0.51422 -0.51477 -0.5152 -0.51563 -0.5157 -0.51662 -0.51829 -0.51922 -0.52015 -0.52058 -0.52065 -0.52071 -0.52039 -0.52132 -0.52176 -0.52095 -0.52101 -0.52157
-0.47577 -0.47547 -0.47589 -0.47595 -0.47529 -0.47499 -0.4754 -0.47618 -0.47659 -0.47749 -0.47898 -0.47903 -0.47945 -0.47951 -0.47957 -0.47998 -0.48004 -0.47974 -0.47944 -0.47914 -0.47956 -0.48033 -0.48039 -0.48117 -0.48314 -0.48355 -0.48361 -0.48403 -0.48409 -0.48415 -0.48349 -0.48319 -0.48289 -0.48295 -0.48336 -0.4845 -0.48504 -0.48581 -0.48659 -0.48821 -0.49102 -0.4906 -0.4903 -0.49 -0.49006 -0.49012 -0.49018 -0.48988 -0.48994 -0.49 -0.49006 -0.49047 -0.49053 -0.49059 -0.49185 -0.49227 -0.49269 -0.49359 -0.49401 -0.49407 -0.49485 -0.49539 -0.49701 -0.49671 -0.49677 -0.49719 -0.49689 -0.49611 -0.49653 -0.49659 -0.49629 -0.49599 -0.49557 -0.49611 -0.49653 -0.49695 -0.49701 -0.49755 -0.49917 -0.49959 -0.50014 -0.50176 -0.50146 -0.50152 -0.50194 -0.502 -0.50206 -0.50212 -0.50218 -0.50188 -0.50074 -0.50116 -0.50243 -0.50285 -0.50339 -0.50466 -0.50544 -0.50598 -0.5064 -0.50647 -0.50653 -0.50707 -0.50713 -0.50755 -0.5081 -0.50816 -0.50822 -0.50864 -0.5087 -0.50913 -0.50967 -0.51009 -0.51064 -0.51106 -0.51161 -0.51167 -0.51173 -0.51216 -0.51306 -0.51349 -0.51403 -0.51409 -0.51536 -0.51506 -0.51549 -0.5164 -0.51694 -0.517 -0.51791 -0.51846 -0.51889 -0.51858 -0.51901 -0.51956 -0.51962 -0.52004 -0.52144 -0.5215 -0.52156 -0.52163 -0.52169 -0.5226 -0.52315 -0.52321 -0.52327 -0.52333 -0.5234 -0.52382 -0.52389 -0.52395 -0.5245 -0.52456 -0.52414 -0.5242 -0.52341 -0.52214 -0.52099 -0.51801 -0.51674 -0.51558 -0.51358 -0.51279 -0.512 -0.49517 -0.49523 -0.48872 -0.48768 -0.48701 -0.48622 -0.48518 -0.48524 -0.48457 -0.4839 -0.48286 -0.48073 -0.48005 -0.47938 -0.47797 -0.47767 -0.47772 -0.47741 -0.47711 -0.47716 -0.47612 -0.47618 -0.47551 -0.4752 -0.47562 -0.47494 -0.47463 -0.47408 -0.47341 -0.47346 -0.47352 -0.47358 -0.47363 -0.47259 -0.47264 -0.4727 -0.47276 -0.47245 -0.47287 -0.47256 -0.47298 -0.47267 -0.47346 -0.47388 -0.47431 -0.47571 -0.47576 -0.47655 -0.47734 -0.47777 -0.47856 -0.47898 -0.4794 -0.48019 -0.47988 -0.48031 -0.48036 -0.48079 -0.48048 -0.48053 -0.48059 -0.48102 -0.48071 -0.48186 -0.48266 -0.48308 -0.48277 -0.48319 -0.48289 -0.48294 -0.48337 -0.48379 -0.48458 -0.48501 -0.48507 -0.48549 -0.48629 -0.48634 -0.48714 -0.48719 -0.48762 -0.48841 -0.48847 -0.48927 -0.48969 -0.49012 -0.49091 -0.49146 -0.49189 -0.49231 -0.49274 -0.4928 -0.49286 -0.49255 -0.49297 -0.49303 -0.49235 -0.49241 -0.49284 -0.4929 -0.49295 -0.49375 -0.49614 -0.4962 -0.49626 -0.49669 -0.49749 -0.49754 -0.4976 -0.49766 -0.49735 -0.49741 -0.4971 -0.49593 -0.49598 -0.49653 -0.49659 -0.49616 -0.49622 -0.49714 -0.49794 -0.50034 -0.50114 -0.50157 -0.50249 -0.50292 -0.50335 -0.50501 -0.50507 -0.5055 -0.50605 -0.50611 -0.50654 -0.50697 -0.50703 -0.50906 -0.50999 -0.51128 -0.51258 -0.51227 -0.51183 -0.51239 -0.51282 -0.51412 -0.51418 -0.5109 -0.51059 -0.51102 -0.51108 -0.51163 -0.51169 -0.51175 -0.51181 -0.51187 -0.51267 -0.51323 -0.51329 -0.51372 -0.51378 -0.51384 -0.51427 -0.51483 -0.51489 -0.51532 -0.51538 -0.51668 -0.51798 -0.51891 -0.51971 -0.52064 -0.5207 -0.52076 -0.52082 -0.52138 -0.52182 -0.5215 -0.52156 -0.52163
-0.47583 -0.47481 -0.47523 -0.47529 -0.47499 -0.47469 -0.47439 -0.47587 -0.47629 -0.47706 -0.47867 -0.47873 -0.47951 -0.47992 -0.47998 -0.48004 -0.48046 -0.48015 -0.4795 -0.47956 -0.47961 -0.48039 -0.4808 -0.48122 -0.48355 -0.48397 -0.48403 -0.48409 -0.48462 -0.4842 -0.48426 -0.48289 -0.48294 -0.483 -0.48342 -0.48456 -0.48509 -0.48587 -0.48593 -0.48707 -0.49024 -0.49066 -0.49036 -0.49042 -0.49048 -0.49018 -0.48988 -0.48993 -0.48999 -0.49005 -0.49011 -0.49053 -0.49059 -0.49065 -0.49107 -0.49197 -0.49239 -0.49281 -0.49323 -0.49293 -0.49383 -0.49425 -0.49671 -0.49677 -0.49683 -0.49725 -0.49695 -0.49653 -0.49707 -0.49665 -0.49671 -0.4964 -0.49562 -0.49616 -0.49695 -0.497 -0.49755 -0.49797 -0.49923 -0.49965 -0.50019 -0.50182 -0.50188 -0.50194 -0.502 -0.50206 -0.50248 -0.50254 -0.5026 -0.50194 -0.50116 -0.50122 -0.50164 -0.50218 -0.50296 -0.50471 -0.50514 -0.50556 -0.50562 -0.50568 -0.50622 -0.50665 -0.50671 -0.50677 -0.50683 -0.50737 -0.50743 -0.50786 -0.5084 -0.50882 -0.50925 -0.51015 -0.5107 -0.51112 -0.51118 -0.51173 -0.51179 -0.5127 -0.51312 -0.51355 -0.51409 -0.51415 -0.51458 -0.51464 -0.51518 -0.51609 -0.51652 -0.51658 -0.51749 -0.51804 -0.51943 -0.51901 -0.51907 -0.51998 -0.51968 -0.5201 -0.52186 -0.52192 -0.52162 -0.52205 -0.52211 -0.52266 -0.52321 -0.52327 -0.52333 -0.52339 -0.52382 -0.52388 -0.52358 -0.52449 -0.52492 -0.52462 -0.52468 -0.52474 -0.52347 -0.5222 -0.52104 -0.51807 -0.51643 -0.51564 -0.51315 -0.51236 -0.50027 -0.49522 -0.49528 -0.48878 -0.48811 -0.48743 -0.48676 -0.48524 -0.4853 -0.48426 -0.48395 -0.48255 -0.48114 -0.48047 -0.47943 -0.4784 -0.47809 -0.47814 -0.47747 -0.47716 -0.47722 -0.47654 -0.47623 -0.47592 -0.47562 -0.47531 -0.47536 -0.47469 -0.47377 -0.47346 -0.47352 -0.47357 -0.47363 -0.47369 -0.47301 -0.47307 -0.47312 -0.47318 -0.47323 -0.47292 -0.47298 -0.4734 -0.47346 -0.47388 -0.4743 -0.47509 -0.47613 -0.47655 -0.47661 -0.47776 -0.47819 -0.47861 -0.47903 -0.47946 -0.47988 -0.47994 -0.48036 -0.48079 -0.48084 -0.4809 -0.48096 -0.48101 -0.48107 -0.48113 -0.48192 -0.48271 -0.48314 -0.48319 -0.48325 -0.48331 -0.48336 -0.48379 -0.48421 -0.48501 -0.48506 -0.48549 -0.48591 -0.48634 -0.4864 -0.48756 -0.48762 -0.48767 -0.48847 -0.48889 -0.48932 -0.48975 -0.49017 -0.49097 -0.49152 -0.49194 -0.49237 -0.4928 -0.49322 -0.49291 -0.49297 -0.49266 -0.49309 -0.49278 -0.49283 -0.49326 -0.49258 -0.49301 -0.49417 -0.49583 -0.49626 -0.49632 -0.49748 -0.49791 -0.4976 -0.49729 -0.49772 -0.49778 -0.49784 -0.49752 -0.49684 -0.4969 -0.49696 -0.49702 -0.49671 -0.49677 -0.49719 -0.49836 -0.49879 -0.50082 -0.50125 -0.50254 -0.50297 -0.5034 -0.5047 -0.50512 -0.50518 -0.50611 -0.50654 -0.5066 -0.50666 -0.50746 -0.50962 -0.51042 -0.51134 -0.51264 -0.51233 -0.51189 -0.51245 -0.51288 -0.5138 -0.51386 -0.51145 -0.51101 -0.51107 -0.51163 -0.51206 -0.51175 -0.51218 -0.51224 -0.5123 -0.51323 -0.51366 -0.51372 -0.51415 -0.51384 -0.5139 -0.51396 -0.51489 -0.51495 -0.51538 -0.51544 -0.51637 -0.51717 -0.51847 -0.51977 -0.52033 -0.52076 -0.52082 -0.52088 -0.52144 -0.52187 -0.52156 -0.52162 -0.52206
-0.4766 -0.47523 -0.47528 -0.47606 -0.47504 -0.47474 -0.47444 -0.47593 -0.4767 -0.4776 -0.47909 -0.47914 -0.47956 -0.47998 -0.48004 -0.48009 -0.48051 -0.48021 -0.48027 -0.47997 -0.48003 -0.4808 -0.48122 -0.48211 -0.48397 -0.4845 -0.48408 -0.48414 -0.48468 -0.4851 -0.48516 -0.48485 -0.48444 -0.48378 -0.48384 -0.48689 -0.48742 -0.487 -0.48599 -0.48712 -0.48994 -0.49071 -0.49041 -0.49047 -0.49089 -0.49059 -0.49065 -0.49107 -0.49077 -0.49047 -0.49053 -0.49095 -0.49101 -0.49107 -0.49113 -0.49155 -0.49208 -0.49322 -0.49292 -0.49298 -0.4934 -0.49394 -0.49628 -0.49634 -0.49724 -0.49767 -0.49737 -0.49706 -0.49749 -0.49718 -0.49676 -0.49682 -0.49688 -0.49694 -0.49748 -0.4979 -0.49833 -0.49887 -0.49893 -0.49935 -0.50061 -0.50188 -0.50157 -0.502 -0.50206 -0.50212 -0.50218 -0.50308 -0.50314 -0.50272 -0.50206 -0.50164 -0.5017 -0.50224 -0.50266 -0.50429 -0.50483 -0.50526 -0.50568 -0.50574 -0.50628 -0.50634 -0.50677 -0.50683 -0.50689 -0.50658 -0.50701 -0.50755 -0.50797 -0.50924 -0.50931 -0.5107 -0.51076 -0.51166 -0.51209 -0.51263 -0.51269 -0.51312 -0.51354 -0.51445 -0.51415 -0.51506 -0.51512 -0.51518 -0.51561 -0.51567 -0.51621 -0.51664 -0.51755 -0.51809 -0.51949 -0.51955 -0.51913 -0.52004 -0.51974 -0.52016 -0.52192 -0.52247 -0.52205 -0.52211 -0.52217 -0.5232 -0.52327 -0.52333 -0.52375 -0.5243 -0.52436 -0.52479 -0.52449 -0.52492 -0.52546 -0.52504 -0.52511 -0.5248 -0.52438 -0.52359 -0.52195 -0.51813 -0.51649 -0.51534 -0.51285 -0.51242 -0.50033 -0.49528 -0.49534 -0.48956 -0.48816 -0.48822 -0.48755 -0.48602 -0.48608 -0.48468 -0.48401 -0.48297 -0.48193 -0.48162 -0.48095 -0.47881 -0.47814 -0.47783 -0.47752 -0.47722 -0.47691 -0.4766 -0.47629 -0.47635 -0.47604 -0.47573 -0.47505 -0.47511 -0.47419 -0.47351 -0.47357 -0.47399 -0.47368 -0.47337 -0.47306 -0.47312 -0.47318 -0.47323 -0.47365 -0.47371 -0.47377 -0.47382 -0.47388 -0.47467 -0.47472 -0.47539 -0.47618 -0.4766 -0.47703 -0.47818 -0.47824 -0.47903 -0.47946 -0.47951 -0.47994 -0.47999 -0.48042 -0.48084 -0.4809 -0.48132 -0.48101 -0.48144 -0.48149 -0.48192 -0.48197 -0.48277 -0.48282 -0.48325 -0.48367 -0.4841 -0.48415 -0.48458 -0.485 -0.4858 -0.48585 -0.48628 -0.48707 -0.48713 -0.48719 -0.48798 -0.48804 -0.48847 -0.48963 -0.48969 -0.49011 -0.49017 -0.4906 -0.49151 -0.49194 -0.492 -0.49279 -0.49322 -0.49328 -0.49334 -0.49339 -0.49345 -0.49388 -0.49394 -0.49363 -0.49405 -0.49411 -0.49417 -0.4946 -0.49626 -0.49631 -0.49674 -0.49754 -0.49834 -0.49766 -0.49772 -0.49777 -0.4982 -0.49863 -0.49795 -0.49764 -0.4977 -0.49739 -0.49744 -0.4975 -0.49756 -0.49799 -0.49879 -0.49971 -0.50051 -0.50094 -0.50223 -0.50266 -0.50346 -0.50475 -0.50555 -0.50561 -0.50653 -0.50659 -0.50739 -0.50745 -0.50801 -0.50967 -0.51047 -0.5114 -0.51269 -0.51189 -0.51195 -0.5125 -0.51293 -0.51386 -0.51392 -0.51349 -0.51355 -0.51286 -0.51292 -0.51298 -0.51304 -0.51261 -0.51316 -0.51322 -0.51328 -0.51409 -0.51415 -0.51421 -0.5139 -0.51433 -0.51439 -0.51494 -0.51575 -0.51581 -0.51587 -0.51642 -0.51772 -0.51816 -0.52033 -0.52076 -0.52082 -0.52138 -0.52181 -0.52237 -0.5228 -0.52286 -0.52329 -0.52336
-0.47713 -0.47528 -0.4757 -0.47683 -0.47581 -0.47551 -0.47521 -0.47634 -0.47712 -0.47801 -0.4795 -0.47956 -0.47997 -0.48039 -0.48081 -0.48087 -0.48092 -0.48063 -0.48068 -0.48038 -0.48044 -0.48122 -0.48175 -0.48253 -0.4845 -0.48456 -0.48462 -0.48468 -0.48509 -0.48479 -0.48485 -0.48491 -0.48449 -0.48419 -0.48425 -0.48551 -0.48664 -0.48754 -0.48712 -0.48802 -0.49035 -0.49077 -0.49047 -0.49053 -0.49059 -0.49065 -0.49071 -0.49113 -0.49083 -0.49089 -0.49058 -0.491 -0.49106 -0.49112 -0.49154 -0.49208 -0.49214 -0.49292 -0.49298 -0.49304 -0.4931 -0.49436 -0.49598 -0.4964 -0.49694 -0.49772 -0.49742 -0.49664 -0.49754 -0.49724 -0.49682 -0.49688 -0.49694 -0.497 -0.4979 -0.49796 -0.49838 -0.49892 -0.49934 -0.49977 -0.50067 -0.5023 -0.50199 -0.50205 -0.50211 -0.50218 -0.50224 -0.50314 -0.5032 -0.50278 -0.50248 -0.50169 -0.50224 -0.5023 -0.50272 -0.50399 -0.50441 -0.50495 -0.50537 -0.50543 -0.50586 -0.5064 -0.50646 -0.50652 -0.5061 -0.50616 -0.50707 -0.50761 -0.50852 -0.5093 -0.50936 -0.51075 -0.51118 -0.51172 -0.51263 -0.51269 -0.51275 -0.51354 -0.51409 -0.51451 -0.51457 -0.51463 -0.51518 -0.5156 -0.5153 -0.51573 -0.51579 -0.51633 -0.51676 -0.51767 -0.5187 -0.51876 -0.51882 -0.51973 -0.5198 -0.52022 -0.52162 -0.52168 -0.52174 -0.5218 -0.52223 -0.52229 -0.52284 -0.52339 -0.52381 -0.52388 -0.52443 -0.52485 -0.52455 -0.52546 -0.52504 -0.5251 -0.52516 -0.52486 -0.52444 -0.52365 -0.52238 -0.51819 -0.51606 -0.51491 -0.5129 -0.51126 -0.50962 -0.49923 -0.49929 -0.49704 -0.48822 -0.48827 -0.48797 -0.48693 -0.4865 -0.48473 -0.48406 -0.48339 -0.48235 -0.48168 -0.481 -0.47887 -0.47819 -0.47789 -0.47721 -0.47727 -0.47733 -0.47702 -0.47671 -0.4764 -0.47609 -0.47578 -0.47547 -0.4748 -0.47449 -0.47357 -0.47399 -0.47405 -0.47374 -0.47343 -0.47312 -0.47317 -0.47323 -0.47328 -0.47371 -0.47376 -0.47382 -0.47424 -0.4743 -0.47472 -0.47514 -0.47581 -0.4766 -0.47666 -0.47708 -0.47824 -0.4783 -0.47908 -0.47914 -0.47957 -0.47962 -0.47968 -0.4801 -0.4809 -0.48132 -0.48138 -0.48143 -0.48186 -0.48191 -0.48234 -0.48276 -0.48319 -0.48361 -0.48367 -0.48409 -0.48452 -0.48494 -0.485 -0.48543 -0.48585 -0.48628 -0.4867 -0.48713 -0.48755 -0.48798 -0.48767 -0.4881 -0.48963 -0.49005 -0.49011 -0.49017 -0.49023 -0.49065 -0.49108 -0.49163 -0.49205 -0.49322 -0.49328 -0.49407 -0.49413 -0.49345 -0.49351 -0.49394 -0.49362 -0.49405 -0.49411 -0.49417 -0.4946 -0.49502 -0.49594 -0.496 -0.49643 -0.4976 -0.49839 -0.49771 -0.49777 -0.49783 -0.49826 -0.49869 -0.49838 -0.49806 -0.49812 -0.49818 -0.49824 -0.49793 -0.49799 -0.49841 -0.49971 -0.50051 -0.50094 -0.50099 -0.50229 -0.50309 -0.50352 -0.50518 -0.50524 -0.50567 -0.50659 -0.50665 -0.50745 -0.50714 -0.50843 -0.50973 -0.51053 -0.51146 -0.51238 -0.51195 -0.51164 -0.51256 -0.51299 -0.51392 -0.51398 -0.51404 -0.5136 -0.51329 -0.51335 -0.51341 -0.51347 -0.51353 -0.51359 -0.51365 -0.51371 -0.51414 -0.5147 -0.51426 -0.51433 -0.51401 -0.51445 -0.51537 -0.51543 -0.51636 -0.51593 -0.51685 -0.51729 -0.51859 -0.52162 -0.52168 -0.52175 -0.52181 -0.52236 -0.52317 -0.52373 -0.52329 -0.52422 -0.52428
-0.47719 -0.47605 -0.47611 -0.47688 -0.47694 -0.477 -0.47706 -0.47795 -0.47872 -0.47878 -0.47991 -0.47997 -0.48039 -0.48081 -0.48086 -0.4814 -0.48098 -0.48104 -0.4811 -0.4808 -0.48086 -0.48247 -0.48289 -0.48402 -0.48492 -0.48533 -0.48575 -0.48581 -0.48623 -0.48593 -0.48599 -0.48497 -0.48455 -0.48389 -0.48431 -0.48436 -0.48526 -0.48796 -0.48957 -0.48999 -0.49041 -0.49083 -0.49053 -0.49059 -0.49065 -0.49071 -0.49076 -0.49082 -0.49124 -0.4913 -0.49136 -0.4919 -0.49148 -0.49154 -0.49208 -0.4925 -0.49256 -0.49298 -0.49304 -0.49346 -0.494 -0.49442 -0.49604 -0.49646 -0.497 -0.49778 -0.49712 -0.49718 -0.49724 -0.49766 -0.49688 -0.49694 -0.49748 -0.4979 -0.49832 -0.49922 -0.49892 -0.49898 -0.50025 -0.50031 -0.50157 -0.50283 -0.50289 -0.50247 -0.50253 -0.50259 -0.50265 -0.50356 -0.50362 -0.50332 -0.50338 -0.5026 -0.50229 -0.50235 -0.50278 -0.50368 -0.50374 -0.50416 -0.50459 -0.50465 -0.50471 -0.50525 -0.50567 -0.50574 -0.5058 -0.50622 -0.50713 -0.50803 -0.50857 -0.50984 -0.50991 -0.51118 -0.51172 -0.51214 -0.51305 -0.51311 -0.51317 -0.5136 -0.51451 -0.51457 -0.51463 -0.51518 -0.51524 -0.5153 -0.51488 -0.51542 -0.515 -0.51555 -0.51597 -0.51652 -0.51694 -0.517 -0.51755 -0.51894 -0.51901 -0.51992 -0.52083 -0.52174 -0.52132 -0.52138 -0.52193 -0.52235 -0.5229 -0.52296 -0.52387 -0.52394 -0.52448 -0.5254 -0.52497 -0.52552 -0.5251 -0.52516 -0.52486 -0.52492 -0.5245 -0.5242 -0.52329 -0.51655 -0.51576 -0.5146 -0.51211 -0.51096 -0.51017 -0.49928 -0.49971 -0.49867 -0.48827 -0.48833 -0.48875 -0.48735 -0.48704 -0.48479 -0.48412 -0.48344 -0.4824 -0.48173 -0.48106 -0.47856 -0.47825 -0.47794 -0.47727 -0.47696 -0.47702 -0.47707 -0.47676 -0.47645 -0.47614 -0.47584 -0.47516 -0.47485 -0.47454 -0.47399 -0.47441 -0.47447 -0.47379 -0.47348 -0.47317 -0.47323 -0.47328 -0.47334 -0.47413 -0.47418 -0.47424 -0.4743 -0.47435 -0.47514 -0.4752 -0.47586 -0.47665 -0.47671 -0.47713 -0.47792 -0.47835 -0.47877 -0.4792 -0.47925 -0.47968 -0.47973 -0.48016 -0.48095 -0.48137 -0.48143 -0.48185 -0.48228 -0.4827 -0.48313 -0.48318 -0.48398 -0.48403 -0.48446 -0.48489 -0.48494 -0.485 -0.48579 -0.48622 -0.48664 -0.48707 -0.48749 -0.48755 -0.48798 -0.48803 -0.48846 -0.48852 -0.48968 -0.49047 -0.49017 -0.49059 -0.49065 -0.49107 -0.49162 -0.49168 -0.49211 -0.4929 -0.4937 -0.49376 -0.49418 -0.49351 -0.49356 -0.49362 -0.49368 -0.49374 -0.4938 -0.49385 -0.49391 -0.49471 -0.496 -0.4968 -0.49685 -0.49802 -0.49894 -0.49814 -0.49783 -0.49826 -0.49831 -0.49923 -0.49929 -0.49972 -0.49941 -0.49947 -0.49904 -0.49909 -0.49965 -0.50007 -0.50087 -0.5013 -0.50173 -0.50179 -0.50271 -0.50314 -0.50357 -0.50523 -0.50567 -0.50572 -0.50702 -0.50671 -0.508 -0.50806 -0.50812 -0.50929 -0.51022 -0.51065 -0.51194 -0.51163 -0.51169 -0.51212 -0.51268 -0.51397 -0.51404 -0.51447 -0.51416 -0.51422 -0.51428 -0.51434 -0.51477 -0.51446 -0.51489 -0.51495 -0.51538 -0.51544 -0.51513 -0.51519 -0.51488 -0.51494 -0.515 -0.51543 -0.51636 -0.51679 -0.51685 -0.51778 -0.51821 -0.51951 -0.52255 -0.52298 -0.52304 -0.5236 -0.52366 -0.52372 -0.52379 -0.52422 -0.52478 -0.52521
-0.47676 -0.47611 -0.47652 -0.47658 -0.477 -0.47753 -0.47759 -0.47836 -0.47914 -0.47955 -0.47997 -0.48003 -0.48045 -0.48134 -0.4814 -0.48146 -0.48104 -0.48109 -0.48115 -0.48085 -0.48127 -0.48252 -0.4833 -0.48455 -0.48569 -0.48611 -0.48652 -0.48658 -0.48664 -0.4867 -0.4864 -0.48502 -0.4846 -0.4843 -0.484 -0.48442 -0.48484 -0.48837 -0.48999 -0.49041 -0.49083 -0.49088 -0.49058 -0.49028 -0.4907 -0.4904 -0.49118 -0.49088 -0.49178 -0.49184 -0.4919 -0.49232 -0.49202 -0.49208 -0.4925 -0.49256 -0.49297 -0.49304 -0.49345 -0.49399 -0.49441 -0.49483 -0.49646 -0.49652 -0.49742 -0.49748 -0.49754 -0.49676 -0.49766 -0.49736 -0.49778 -0.49784 -0.4979 -0.49832 -0.49886 -0.49928 -0.4997 -0.49976 -0.50066 -0.50109 -0.50163 -0.50325 -0.50331 -0.50253 -0.50259 -0.50265 -0.50271 -0.50398 -0.50368 -0.50374 -0.50344 -0.5035 -0.50308 -0.50277 -0.50283 -0.50374 -0.5038 -0.50386 -0.50465 -0.50434 -0.50477 -0.50483 -0.50489 -0.50579 -0.50549 -0.50555 -0.50718 -0.50809 -0.509 -0.5099 -0.51033 -0.51123 -0.51178 -0.51269 -0.51311 -0.51353 -0.5136 -0.51414 -0.5142 -0.51511 -0.51517 -0.51523 -0.5153 -0.51536 -0.51457 -0.515 -0.5147 -0.51512 -0.51567 -0.51658 -0.517 -0.51706 -0.51761 -0.519 -0.51943 -0.51998 -0.52089 -0.52131 -0.52138 -0.52144 -0.52199 -0.52205 -0.52296 -0.52351 -0.52357 -0.524 -0.52406 -0.52546 -0.52503 -0.52558 -0.52565 -0.52522 -0.52492 -0.5245 -0.52456 -0.52426 -0.52383 -0.51575 -0.51545 -0.51503 -0.51181 -0.51053 -0.50974 -0.50019 -0.50062 -0.4991 -0.48869 -0.48875 -0.48844 -0.48741 -0.48661 -0.48484 -0.48417 -0.48386 -0.48209 -0.48179 -0.48075 -0.47898 -0.4783 -0.478 -0.47732 -0.47701 -0.47743 -0.47676 -0.47682 -0.47687 -0.4762 -0.47552 -0.47558 -0.47527 -0.47459 -0.47465 -0.47471 -0.47476 -0.47384 -0.47353 -0.47286 -0.47328 -0.4737 -0.47376 -0.47381 -0.47424 -0.47429 -0.47398 -0.47441 -0.47519 -0.47525 -0.47555 -0.47671 -0.47713 -0.47719 -0.47798 -0.47877 -0.47919 -0.47925 -0.47931 -0.47973 -0.47979 -0.48058 -0.481 -0.48143 -0.48148 -0.48228 -0.48233 -0.48313 -0.48318 -0.48361 -0.4844 -0.48446 -0.48451 -0.48531 -0.485 -0.48542 -0.48585 -0.48627 -0.4867 -0.48749 -0.48755 -0.48797 -0.48877 -0.48846 -0.48852 -0.48894 -0.4901 -0.49053 -0.49059 -0.49065 -0.4907 -0.49076 -0.49168 -0.49211 -0.49217 -0.49333 -0.49339 -0.49418 -0.49387 -0.49356 -0.49325 -0.49368 -0.49337 -0.49343 -0.49348 -0.49354 -0.4936 -0.4944 -0.49605 -0.49685 -0.49728 -0.49845 -0.499 -0.49819 -0.49788 -0.49794 -0.49837 -0.49929 -0.49972 -0.49978 -0.50021 -0.49953 -0.49958 -0.49964 -0.50007 -0.50087 -0.5013 -0.50222 -0.50179 -0.50185 -0.50314 -0.50357 -0.50412 -0.50529 -0.50535 -0.50628 -0.5067 -0.50714 -0.50757 -0.50812 -0.50818 -0.50935 -0.5099 -0.5107 -0.512 -0.51169 -0.51175 -0.51218 -0.51311 -0.51403 -0.51446 -0.51452 -0.51496 -0.51427 -0.5147 -0.51477 -0.51483 -0.51526 -0.51581 -0.51538 -0.51544 -0.51636 -0.51556 -0.51562 -0.51531 -0.51537 -0.51543 -0.51586 -0.51642 -0.51685 -0.51728 -0.51784 -0.51864 -0.51957 -0.52261 -0.52304 -0.5236 -0.52403 -0.52409 -0.52416 -0.52422 -0.5239 -0.52484 -0.5249
-0.47682 -0.4758 -0.47622 -0.47664 -0.47669 -0.47711 -0.47764 -0.47842 -0.47884 -0.47961 -0.48003 -0.48044 -0.4805 -0.4814 -0.48181 -0.48187 -0.48193 -0.48163 -0.48169 -0.48175 -0.4818 -0.48294 -0.48371 -0.48497 -0.48694 -0.487 -0.48742 -0.48784 -0.4879 -0.4876 -0.4873 -0.48508 -0.4843 -0.48436 -0.48406 -0.48448 -0.48489 -0.48495 -0.48621 -0.48819 -0.49088 -0.49094 -0.49064 -0.49034 -0.49076 -0.49046 -0.49088 -0.49094 -0.49184 -0.4919 -0.49195 -0.49201 -0.49243 -0.49249 -0.49291 -0.49297 -0.49303 -0.49309 -0.49315 -0.49405 -0.49447 -0.49525 -0.49651 -0.49705 -0.49711 -0.49753 -0.49759 -0.49681 -0.49807 -0.49777 -0.49819 -0.49826 -0.49832 -0.49886 -0.49928 -0.4997 -0.50024 -0.5003 -0.50072 -0.50162 -0.50205 -0.50331 -0.50337 -0.50307 -0.50265 -0.50319 -0.50277 -0.50404 -0.50374 -0.50343 -0.5035 -0.50355 -0.50313 -0.50319 -0.50325 -0.50416 -0.50422 -0.50392 -0.50434 -0.5044 -0.50446 -0.50452 -0.50543 -0.50549 -0.50555 -0.50597 -0.50772 -0.50863 -0.5099 -0.51032 -0.51038 -0.51178 -0.51268 -0.51275 -0.51353 -0.51359 -0.51365 -0.5142 -0.51426 -0.51469 -0.51475 -0.51529 -0.51536 -0.51542 -0.51499 -0.51506 -0.51512 -0.51518 -0.51609 -0.51663 -0.5167 -0.51676 -0.51718 -0.51858 -0.51913 -0.52004 -0.52131 -0.52137 -0.52144 -0.5215 -0.52156 -0.52247 -0.52302 -0.52357 -0.52448 -0.52454 -0.52497 -0.52552 -0.52558 -0.52516 -0.52522 -0.52528 -0.52498 -0.52456 -0.52328 -0.52298 -0.52219 -0.51581 -0.51587 -0.51509 -0.51223 -0.51144 -0.51028 -0.50025 -0.50189 -0.50073 -0.48875 -0.48954 -0.48923 -0.48783 -0.48716 -0.48417 -0.4835 -0.48319 -0.48069 -0.48038 -0.47971 -0.4783 -0.47763 -0.47732 -0.47664 -0.47634 -0.47676 -0.47645 -0.47651 -0.4762 -0.47625 -0.47558 -0.47527 -0.47532 -0.47465 -0.47446 -0.47476 -0.47457 -0.47426 -0.47395 -0.47328 -0.47333 -0.47339 -0.47381 -0.47387 -0.47429 -0.47398 -0.47404 -0.47446 -0.47525 -0.47531 -0.47561 -0.47566 -0.47645 -0.47688 -0.47693 -0.47736 -0.47851 -0.47857 -0.479 -0.47942 -0.47984 -0.48027 -0.48142 -0.48148 -0.48191 -0.48196 -0.48239 -0.48281 -0.48324 -0.48366 -0.48446 -0.48451 -0.48457 -0.48536 -0.48542 -0.48548 -0.4859 -0.48633 -0.48712 -0.48755 -0.4876 -0.4884 -0.48882 -0.48888 -0.48894 -0.489 -0.48979 -0.49022 -0.49028 -0.4907 -0.49076 -0.49082 -0.49174 -0.49179 -0.49185 -0.49302 -0.49344 -0.49387 -0.4943 -0.49362 -0.49367 -0.49373 -0.49342 -0.49385 -0.49354 -0.4936 -0.49439 -0.49482 -0.49611 -0.49691 -0.49734 -0.499 -0.49942 -0.49825 -0.49794 -0.498 -0.49843 -0.49935 -0.49941 -0.49983 -0.50026 -0.49995 -0.50001 -0.50007 -0.5005 -0.50093 -0.50173 -0.50228 -0.50234 -0.5024 -0.5032 -0.50362 -0.50418 -0.50535 -0.50541 -0.50547 -0.50639 -0.50682 -0.50725 -0.50768 -0.50823 -0.50904 -0.50947 -0.51002 -0.51045 -0.51051 -0.51094 -0.51187 -0.5123 -0.51236 -0.51242 -0.51297 -0.51378 -0.51433 -0.51439 -0.51445 -0.51451 -0.51494 -0.51538 -0.51544 -0.51599 -0.51642 -0.51611 -0.51617 -0.51574 -0.5158 -0.51586 -0.51641 -0.51722 -0.51728 -0.51734 -0.51864 -0.5192 -0.5205 -0.52267 -0.52273 -0.52316 -0.52409 -0.52465 -0.52421 -0.5239 -0.52396 -0.5244 -0.52446
-0.47616 -0.47586 -0.47628 -0.47669 -0.47711 -0.47764 -0.4777 -0.47883 -0.47961 -0.47967 -0.48008 -0.48014 -0.48091 -0.48145 -0.48187 -0.48193 -0.48198 -0.48204 -0.4821 -0.48216 -0.48258 -0.48407 -0.48497 -0.4861 -0.48891 -0.48933 -0.48939 -0.48945 -0.48951 -0.48885 -0.48843 -0.48585 -0.48555 -0.48561 -0.48483 -0.48489 -0.48543 -0.48549 -0.48699 -0.48824 -0.49022 -0.49028 -0.49034 -0.49076 -0.49082 -0.49088 -0.49057 -0.49099 -0.49189 -0.49195 -0.49237 -0.49279 -0.49321 -0.49327 -0.49381 -0.49387 -0.49345 -0.49315 -0.49357 -0.49447 -0.49489 -0.49531 -0.49657 -0.49711 -0.49717 -0.49843 -0.49801 -0.49807 -0.49897 -0.49903 -0.49873 -0.49879 -0.49922 -0.49964 -0.50018 -0.5006 -0.50066 -0.50072 -0.50162 -0.50204 -0.50247 -0.50337 -0.50343 -0.50349 -0.50319 -0.50325 -0.50367 -0.50373 -0.50416 -0.50385 -0.50391 -0.50397 -0.50367 -0.50373 -0.50416 -0.50422 -0.50392 -0.50398 -0.50355 -0.50361 -0.50488 -0.50494 -0.50549 -0.50591 -0.50597 -0.50603 -0.50814 -0.50905 -0.51032 -0.51087 -0.51129 -0.5122 -0.51311 -0.51353 -0.51359 -0.51365 -0.51371 -0.51462 -0.51432 -0.51475 -0.51529 -0.51535 -0.51578 -0.51548 -0.51554 -0.5156 -0.51566 -0.51572 -0.51663 -0.51706 -0.51676 -0.51682 -0.51688 -0.51912 -0.51955 -0.5201 -0.52137 -0.52143 -0.52198 -0.52204 -0.52247 -0.5235 -0.52393 -0.52448 -0.5249 -0.52545 -0.52551 -0.52558 -0.52564 -0.5257 -0.52577 -0.52534 -0.52541 -0.5251 -0.52383 -0.52304 -0.52262 -0.51879 -0.51715 -0.51636 -0.51314 -0.51198 -0.51071 -0.50347 -0.50195 -0.50079 -0.49112 -0.4919 -0.49123 -0.48861 -0.48757 -0.48459 -0.48392 -0.48361 -0.48074 -0.48044 -0.47976 -0.47872 -0.47768 -0.47774 -0.4767 -0.47675 -0.47645 -0.4765 -0.47656 -0.47625 -0.47594 -0.47563 -0.47532 -0.47538 -0.47507 -0.47476 -0.47481 -0.47487 -0.47432 -0.47437 -0.47333 -0.47375 -0.47381 -0.47423 -0.47429 -0.47471 -0.4744 -0.47409 -0.47451 -0.47494 -0.47536 -0.47542 -0.47608 -0.47614 -0.47656 -0.47735 -0.47741 -0.47783 -0.47863 -0.47905 -0.47947 -0.4799 -0.47995 -0.48148 -0.48154 -0.48196 -0.48239 -0.48281 -0.48324 -0.48329 -0.48372 -0.48414 -0.48457 -0.48462 -0.48505 -0.48511 -0.48553 -0.48669 -0.48712 -0.48718 -0.48797 -0.48803 -0.48845 -0.48888 -0.4893 -0.48936 -0.48905 -0.48985 -0.49027 -0.4907 -0.49076 -0.49118 -0.49124 -0.49179 -0.49136 -0.49191 -0.49344 -0.4935 -0.49393 -0.49398 -0.49367 -0.49373 -0.49342 -0.49348 -0.49354 -0.49396 -0.49402 -0.49482 -0.49525 -0.4969 -0.49733 -0.49776 -0.49856 -0.49911 -0.49867 -0.49836 -0.49805 -0.49848 -0.49891 -0.49983 -0.49989 -0.50032 -0.50038 -0.50007 -0.5005 -0.50092 -0.50135 -0.50228 -0.50233 -0.50239 -0.50245 -0.50362 -0.50368 -0.50423 -0.50504 -0.50546 -0.50589 -0.50645 -0.50651 -0.50768 -0.50774 -0.5078 -0.50872 -0.50915 -0.51008 -0.51014 -0.5102 -0.51026 -0.51155 -0.51161 -0.51242 -0.51248 -0.51303 -0.51346 -0.51439 -0.51445 -0.51488 -0.51494 -0.51537 -0.51593 -0.51549 -0.51642 -0.51685 -0.51654 -0.51697 -0.51666 -0.51672 -0.51678 -0.51684 -0.51777 -0.51783 -0.51826 -0.51919 -0.51963 -0.52055 -0.52186 -0.52241 -0.52248 -0.52378 -0.52421 -0.52427 -0.52396 -0.52353 -0.52446 -0.52452
-0.4755 -0.47556 -0.47633 -0.4771 -0.47716 -0.47806 -0.47776 -0.47925 -0.47966 -0.47972 -0.47978 -0.47984 -0.48025 -0.48151 -0.48192 -0.48162 -0.48168 -0.4821 -0.48216 -0.48222 -0.48263 -0.48413 -0.48574 -0.487 -0.48969 -0.49011 -0.4898 -0.48986 -0.48992 -0.48962 -0.48932 -0.48699 -0.48633 -0.48603 -0.48609 -0.48579 -0.4862 -0.48698 -0.4874 -0.4883 -0.48956 -0.48962 -0.49003 -0.49081 -0.49087 -0.49057 -0.49099 -0.49069 -0.49195 -0.49201 -0.49243 -0.49285 -0.49375 -0.49381 -0.49387 -0.49393 -0.49351 -0.49356 -0.49362 -0.49453 -0.49495 -0.49585 -0.49711 -0.49753 -0.49759 -0.49885 -0.49927 -0.49933 -0.49987 -0.49945 -0.49951 -0.49921 -0.49927 -0.50054 -0.50096 -0.50102 -0.50072 -0.50114 -0.50168 -0.50246 -0.50252 -0.50379 -0.50349 -0.50355 -0.50361 -0.50367 -0.50373 -0.50415 -0.50385 -0.50427 -0.50397 -0.50403 -0.50409 -0.50379 -0.50421 -0.50428 -0.50397 -0.50319 -0.50361 -0.50367 -0.50458 -0.505 -0.50554 -0.50681 -0.50639 -0.50693 -0.50869 -0.50947 -0.51086 -0.51092 -0.51135 -0.51274 -0.51316 -0.51359 -0.51365 -0.51419 -0.51426 -0.51468 -0.51438 -0.51529 -0.51535 -0.51577 -0.51632 -0.5159 -0.51596 -0.51602 -0.51608 -0.51614 -0.51754 -0.51712 -0.51718 -0.51688 -0.51694 -0.5187 -0.51961 -0.52016 -0.52143 -0.52149 -0.52204 -0.52247 -0.52301 -0.52393 -0.52399 -0.5249 -0.52545 -0.52551 -0.52606 -0.52612 -0.5257 -0.52576 -0.52582 -0.52589 -0.52546 -0.52553 -0.52389 -0.5231 -0.52268 -0.52104 -0.5194 -0.51776 -0.51441 -0.51204 -0.51077 -0.49951 -0.49994 -0.49927 -0.49263 -0.49233 -0.49129 -0.48903 -0.48763 -0.48501 -0.48434 -0.48366 -0.48116 -0.48049 -0.48055 -0.47878 -0.4781 -0.47779 -0.47712 -0.47681 -0.4765 -0.47656 -0.47661 -0.4763 -0.47599 -0.47569 -0.47574 -0.47543 -0.47512 -0.47481 -0.47524 -0.47492 -0.47474 -0.47479 -0.47375 -0.47381 -0.47386 -0.47392 -0.47434 -0.47476 -0.47446 -0.47451 -0.4742 -0.47499 -0.47541 -0.47547 -0.47614 -0.47656 -0.47625 -0.47741 -0.47746 -0.47825 -0.47868 -0.4791 -0.47953 -0.47958 -0.48037 -0.48117 -0.48159 -0.48165 -0.48244 -0.48286 -0.48329 -0.48335 -0.4834 -0.48456 -0.48425 -0.48468 -0.4851 -0.48479 -0.48522 -0.48675 -0.48717 -0.4876 -0.48802 -0.48808 -0.48851 -0.48893 -0.48899 -0.48942 -0.48911 -0.4899 -0.49033 -0.49039 -0.49044 -0.49087 -0.4913 -0.49185 -0.49141 -0.49196 -0.49313 -0.49318 -0.49361 -0.49367 -0.49336 -0.49342 -0.49347 -0.49317 -0.49359 -0.49365 -0.49371 -0.49487 -0.4953 -0.49659 -0.49739 -0.49819 -0.49861 -0.49917 -0.49873 -0.49842 -0.49848 -0.49854 -0.49897 -0.49952 -0.50032 -0.50038 -0.50043 -0.50012 -0.50055 -0.50098 -0.50141 -0.50233 -0.50276 -0.50282 -0.50325 -0.50331 -0.50374 -0.50429 -0.50509 -0.50552 -0.50595 -0.50687 -0.50694 -0.50736 -0.50779 -0.50785 -0.50878 -0.50921 -0.50927 -0.5097 -0.50976 -0.50982 -0.51075 -0.51167 -0.51247 -0.51253 -0.51309 -0.51352 -0.51395 -0.51451 -0.51494 -0.515 -0.51543 -0.51599 -0.51605 -0.51648 -0.51654 -0.51697 -0.51666 -0.51672 -0.51678 -0.51721 -0.51727 -0.51783 -0.51826 -0.51795 -0.51875 -0.51882 -0.51975 -0.52067 -0.52111 -0.52117 -0.52297 -0.5234 -0.52346 -0.52315 -0.52358 -0.52414 -0.52507
-0.47448 -0.47454 -0.47567 -0.4768 -0.47722 -0.47811 -0.47817 -0.47858 -0.479 -0.47942 -0.47948 -0.47953 -0.47995 -0.48073 -0.48114 -0.48168 -0.48174 -0.48216 -0.48221 -0.48227 -0.48269 -0.48382 -0.48472 -0.48585 -0.4901 -0.49016 -0.48914 -0.48884 -0.48842 -0.48848 -0.48818 -0.48705 -0.48674 -0.48644 -0.48614 -0.4862 -0.48626 -0.4874 -0.48794 -0.48835 -0.48877 -0.48967 -0.49009 -0.49087 -0.49093 -0.49063 -0.49141 -0.49111 -0.49153 -0.49207 -0.49212 -0.4929 -0.49296 -0.49338 -0.49344 -0.49398 -0.4932 -0.49362 -0.49368 -0.49458 -0.49536 -0.49626 -0.49717 -0.49759 -0.49801 -0.49891 -0.49933 -0.50023 -0.50029 -0.49951 -0.49957 -0.49927 -0.49933 -0.50059 -0.50065 -0.50108 -0.50113 -0.50119 -0.50174 -0.50216 -0.50258 -0.50348 -0.50355 -0.50324 -0.50367 -0.50373 -0.50343 -0.50385 -0.50391 -0.50397 -0.50403 -0.50409 -0.50415 -0.50421 -0.50427 -0.50433 -0.50355 -0.50289 -0.50294 -0.50337 -0.50379 -0.50433 -0.50476 -0.50639 -0.50693 -0.50736 -0.50875 -0.51001 -0.51128 -0.51135 -0.51189 -0.51316 -0.51358 -0.51365 -0.51371 -0.51377 -0.51383 -0.51474 -0.5148 -0.51535 -0.51577 -0.51632 -0.51674 -0.51644 -0.5165 -0.51657 -0.51663 -0.51669 -0.51796 -0.51766 -0.51687 -0.51645 -0.517 -0.51876 -0.5193 -0.52021 -0.52113 -0.52155 -0.52161 -0.52253 -0.52307 -0.52399 -0.52453 -0.5246 -0.52551 -0.52606 -0.52612 -0.5257 -0.52624 -0.52582 -0.52589 -0.52595 -0.52601 -0.52559 -0.52443 -0.52401 -0.52322 -0.52243 -0.52116 -0.51952 -0.51277 -0.51283 -0.49878 -0.49567 -0.49646 -0.49579 -0.48928 -0.49007 -0.4894 -0.48836 -0.48769 -0.48543 -0.48439 -0.48335 -0.48122 -0.48054 -0.48024 -0.4792 -0.47816 -0.47785 -0.47681 -0.47686 -0.47655 -0.47624 -0.4763 -0.47636 -0.47641 -0.47574 -0.47506 -0.47512 -0.47518 -0.47487 -0.47529 -0.47474 -0.47442 -0.47448 -0.47344 -0.47386 -0.47392 -0.47397 -0.47403 -0.47409 -0.47378 -0.47383 -0.47425 -0.47468 -0.4751 -0.47516 -0.47582 -0.47625 -0.4763 -0.47746 -0.47752 -0.47794 -0.47873 -0.47916 -0.47958 -0.47964 -0.48006 -0.48085 -0.48128 -0.4817 -0.4825 -0.48255 -0.48334 -0.4834 -0.48383 -0.48425 -0.48431 -0.48437 -0.48479 -0.48485 -0.48527 -0.48644 -0.48649 -0.48729 -0.48771 -0.48814 -0.48856 -0.48899 -0.48868 -0.48874 -0.48879 -0.48922 -0.48965 -0.49007 -0.4905 -0.49093 -0.49098 -0.4919 -0.49147 -0.49153 -0.49318 -0.49287 -0.49256 -0.49299 -0.49305 -0.4931 -0.49316 -0.49322 -0.49365 -0.49371 -0.49376 -0.49493 -0.49499 -0.49702 -0.49744 -0.49787 -0.4983 -0.49873 -0.49842 -0.49848 -0.49854 -0.49822 -0.49902 -0.49908 -0.5 -0.50006 -0.50012 -0.50018 -0.50061 -0.50104 -0.50147 -0.50189 -0.50282 -0.50288 -0.50294 -0.50336 -0.50379 -0.50435 -0.50515 -0.50558 -0.50601 -0.50656 -0.50699 -0.50742 -0.50748 -0.50754 -0.50846 -0.5089 -0.50933 -0.50976 -0.50982 -0.51037 -0.51043 -0.51173 -0.51253 -0.51259 -0.51315 -0.51358 -0.51401 -0.51456 -0.515 -0.51543 -0.51598 -0.51604 -0.51648 -0.51654 -0.51746 -0.51703 -0.51709 -0.51715 -0.51721 -0.51727 -0.51733 -0.51789 -0.51832 -0.51838 -0.51844 -0.5185 -0.51894 -0.52024 -0.5203 -0.52085 -0.52265 -0.52346 -0.52315 -0.52321 -0.52364 -0.52457 -0.52513
-0.47382 -0.47459 -0.47573 -0.47686 -0.47727 -0.47817 -0.47787 -0.47864 -0.47942 -0.47947 -0.47989 -0.47995 -0.48036 -0.48078 -0.4812 -0.48126 -0.48179 -0.48221 -0.48191 -0.48233 -0.48239 -0.48388 -0.4843 -0.48555 -0.4898 -0.4895 -0.4892 -0.48806 -0.48848 -0.48782 -0.48788 -0.4871 -0.48644 -0.4865 -0.48656 -0.48662 -0.48668 -0.48793 -0.48835 -0.48841 -0.48883 -0.48973 -0.49051 -0.49129 -0.49099 -0.49105 -0.49146 -0.49152 -0.49206 -0.49164 -0.49254 -0.4926 -0.49302 -0.49308 -0.4935 -0.49356 -0.49362 -0.49368 -0.49374 -0.49464 -0.49542 -0.49632 -0.49722 -0.49764 -0.49806 -0.49933 -0.49939 -0.50029 -0.50035 -0.50041 -0.49963 -0.49933 -0.49975 -0.50065 -0.50071 -0.50041 -0.50167 -0.50125 -0.50216 -0.50258 -0.50264 -0.50318 -0.5036 -0.50366 -0.50372 -0.50379 -0.50385 -0.50427 -0.50433 -0.50439 -0.50409 -0.50451 -0.50505 -0.50463 -0.50469 -0.50403 -0.50324 -0.5033 -0.50336 -0.50379 -0.50385 -0.50439 -0.50518 -0.50645 -0.50735 -0.5079 -0.50953 -0.51092 -0.51219 -0.51225 -0.5128 -0.51322 -0.51364 -0.51371 -0.51425 -0.51431 -0.51389 -0.5148 -0.5145 -0.51541 -0.51583 -0.51638 -0.51765 -0.51735 -0.51693 -0.51662 -0.51669 -0.51711 -0.51802 -0.51808 -0.5173 -0.51699 -0.51706 -0.5193 -0.51973 -0.52064 -0.52119 -0.52161 -0.52167 -0.52259 -0.52313 -0.52404 -0.52459 -0.52502 -0.52557 -0.52648 -0.52618 -0.52624 -0.52631 -0.52637 -0.52643 -0.52649 -0.52607 -0.52613 -0.52486 -0.52492 -0.52462 -0.52419 -0.52377 -0.52298 -0.52049 -0.51715 -0.49884 -0.49695 -0.49579 -0.49548 -0.49238 -0.48976 -0.48945 -0.48841 -0.48738 -0.48548 -0.48445 -0.48341 -0.48091 -0.4806 -0.48029 -0.47889 -0.47821 -0.47827 -0.47723 -0.47692 -0.47697 -0.4763 -0.47635 -0.47641 -0.4761 -0.47579 -0.47512 -0.47517 -0.47523 -0.47492 -0.47498 -0.47479 -0.47448 -0.47453 -0.47349 -0.47355 -0.47397 -0.47403 -0.47372 -0.47414 -0.47346 -0.47352 -0.47431 -0.47436 -0.47479 -0.47521 -0.47588 -0.47593 -0.47636 -0.47715 -0.47794 -0.478 -0.47915 -0.47958 -0.47963 -0.48006 -0.48012 -0.48128 -0.4817 -0.48213 -0.48255 -0.48261 -0.48377 -0.48346 -0.48388 -0.48431 -0.48436 -0.48479 -0.48485 -0.48527 -0.48533 -0.48649 -0.48691 -0.48734 -0.48777 -0.48782 -0.48862 -0.48868 -0.48873 -0.48879 -0.48885 -0.48891 -0.48933 -0.48939 -0.49055 -0.49061 -0.49104 -0.49196 -0.49152 -0.49158 -0.49287 -0.49256 -0.49262 -0.49304 -0.4931 -0.49316 -0.49285 -0.49328 -0.49407 -0.49413 -0.49419 -0.49499 -0.49541 -0.4967 -0.49713 -0.49756 -0.49836 -0.49878 -0.49847 -0.49853 -0.49822 -0.49828 -0.49908 -0.49914 -0.50006 -0.50049 -0.50055 -0.5006 -0.5014 -0.50146 -0.50189 -0.50245 -0.50324 -0.5033 -0.50336 -0.50342 -0.50435 -0.50477 -0.50557 -0.50601 -0.50693 -0.50662 -0.50742 -0.50748 -0.50791 -0.5076 -0.50889 -0.50932 -0.50938 -0.50981 -0.51037 -0.5108 -0.51123 -0.51179 -0.51308 -0.51351 -0.51358 -0.51401 -0.51456 -0.51499 -0.51505 -0.51548 -0.51641 -0.51734 -0.5169 -0.51697 -0.51752 -0.51758 -0.51764 -0.5177 -0.51776 -0.5182 -0.51789 -0.51832 -0.51838 -0.51844 -0.51887 -0.51943 -0.51949 -0.52029 -0.52036 -0.52091 -0.52346 -0.52352 -0.52407 -0.52364 -0.5242 -0.5255 -0.52556
-0.47387 -0.47429 -0.47614 -0.47655 -0.47733 -0.47822 -0.47792 -0.4787 -0.47947 -0.47989 -0.47995 -0.48 -0.48042 -0.48048 -0.4809 -0.48131 -0.48185 -0.48191 -0.48197 -0.48202 -0.48244 -0.48394 -0.48435 -0.48561 -0.48914 -0.4892 -0.4889 -0.48812 -0.48854 -0.48788 -0.48794 -0.48644 -0.4865 -0.48656 -0.48662 -0.48667 -0.48709 -0.48751 -0.48805 -0.48847 -0.48925 -0.48979 -0.49056 -0.49134 -0.4914 -0.4911 -0.492 -0.49122 -0.49212 -0.4917 -0.49224 -0.49302 -0.49308 -0.49314 -0.49356 -0.49362 -0.49416 -0.49374 -0.4938 -0.4947 -0.49548 -0.49602 -0.498 -0.49806 -0.4986 -0.49902 -0.49993 -0.49999 -0.50041 -0.50011 -0.50017 -0.49974 -0.49944 -0.50071 -0.50041 -0.50083 -0.50209 -0.50215 -0.50258 -0.50312 -0.50318 -0.50324 -0.50402 -0.50408 -0.50414 -0.50421 -0.5039 -0.50481 -0.50439 -0.50445 -0.50451 -0.50457 -0.50463 -0.50469 -0.50403 -0.5036 -0.5033 -0.50336 -0.50379 -0.50433 -0.50475 -0.50481 -0.50572 -0.50699 -0.50741 -0.50832 -0.50922 -0.51049 -0.51225 -0.51279 -0.51322 -0.51364 -0.51419 -0.51425 -0.51431 -0.51437 -0.51443 -0.51486 -0.51456 -0.51546 -0.51589 -0.51595 -0.51735 -0.51741 -0.51662 -0.51668 -0.51675 -0.51681 -0.51857 -0.51814 -0.51699 -0.51657 -0.51712 -0.51936 -0.51979 -0.52033 -0.52161 -0.52216 -0.52222 -0.52265 -0.52319 -0.52411 -0.52417 -0.52472 -0.52563 -0.52618 -0.52624 -0.5263 -0.52588 -0.52643 -0.52649 -0.52655 -0.52613 -0.52571 -0.52492 -0.52498 -0.52468 -0.52474 -0.52432 -0.52353 -0.5214 -0.5211 -0.49804 -0.49737 -0.49658 -0.49505 -0.49244 -0.49103 -0.48987 -0.48847 -0.48743 -0.48554 -0.48414 -0.4831 -0.48096 -0.48029 -0.47998 -0.47894 -0.47826 -0.47796 -0.47728 -0.47697 -0.47666 -0.47635 -0.47678 -0.47647 -0.47616 -0.47621 -0.47517 -0.47523 -0.47492 -0.47473 -0.47503 -0.47484 -0.47453 -0.47459 -0.47318 -0.47324 -0.47366 -0.47371 -0.47377 -0.47383 -0.47315 -0.47357 -0.47399 -0.47442 -0.47447 -0.47526 -0.47569 -0.47599 -0.47641 -0.4772 -0.47799 -0.47805 -0.47921 -0.47963 -0.47969 -0.47975 -0.48017 -0.48133 -0.48212 -0.48255 -0.48297 -0.48303 -0.48345 -0.48351 -0.48394 -0.48436 -0.48479 -0.48484 -0.48527 -0.48533 -0.48538 -0.48655 -0.4866 -0.48776 -0.48819 -0.48788 -0.48794 -0.48836 -0.48842 -0.48885 -0.48854 -0.48859 -0.48902 -0.48945 -0.49024 -0.49067 -0.49109 -0.49152 -0.49207 -0.49164 -0.49256 -0.49298 -0.49304 -0.4931 -0.49316 -0.49322 -0.49327 -0.49333 -0.49376 -0.49382 -0.49424 -0.49467 -0.49547 -0.49676 -0.49719 -0.49761 -0.49804 -0.49847 -0.49853 -0.49859 -0.49828 -0.49834 -0.49839 -0.49882 -0.50011 -0.50054 -0.5006 -0.50103 -0.50146 -0.50189 -0.50244 -0.50287 -0.5033 -0.50336 -0.50342 -0.50385 -0.5044 -0.50483 -0.506 -0.50606 -0.50662 -0.50742 -0.50711 -0.50791 -0.50797 -0.50852 -0.50895 -0.50901 -0.50907 -0.51037 -0.51043 -0.51086 -0.51129 -0.51221 -0.51265 -0.51357 -0.51363 -0.51406 -0.51462 -0.51468 -0.51548 -0.51554 -0.51684 -0.5174 -0.51696 -0.51702 -0.51758 -0.51764 -0.51807 -0.51813 -0.51819 -0.51825 -0.51831 -0.51838 -0.51844 -0.5185 -0.51943 -0.51949 -0.51955 -0.51998 -0.52091 -0.52134 -0.52401 -0.52407 -0.52451 -0.52419 -0.52426 -0.52606 -0.52562
