0 0 0 -0.1015 -0.10111 -0.10067 -0.10016 -0.099712 -0.098285 -0.097784 -0.097284 -0.0965 -0.09572 -0.095111 -0.09456 -0.093787 -0.093239 -0.092582 -0.091981 -0.091437 -0.090949 -0.090352 -0.089866 -0.089164 -0.088626 -0.087982 -0.087394 -0.086965 -0.086483 -0.086054 -0.085625 -0.085248 -0.084819 -0.084339 0 0 0 0 0 0 0 0 0 0 -0.065346 -0.065042 -0.06469 -0.064338 -0.063938 -0.063633 -0.063328 -0.062882 -0.062484 -0.062133 -0.061735 -0.061384 -0.060987 -0.060636 -0.060285 -0.059934 -0.059582 -0.059275 -0.058923 -0.058572 -0.058221 -0.057869 -0.05756 -0.057124 -0.056899 -0.056547 -0.056153 -0.055801 -0.055491 -0.055057 -0.054989 -0.054676 -0.054362 -0.054048 -0.053694 -0.053418 -0.053063 -0.052786 -0.052469 -0.052114 -0.051721 0 0 -0.060179 -0.059794 -0.059372 -0.05895 -0.058528 -0.058105 -0.057754 -0.057332 -0.056909 -0.056556 -0.056167 -0.055778 -0.055422 -0.055032 -0.054674 -0.054315 -0.053923 -0.053595 -0.053233 -0.052806 -0.052475 -0.052047 -0.05165 -0.051253 -0.050856 -0.050458 -0.050059 -0.04966 -0.049379 -0.048978 -0.048635 -0.048232 -0.047858 -0.047539 -0.047162 -0.046784 -0.046405 -0.04597 -0.045589 -0.04518 -0.044771 -0.044361 -0.044213 -0.043773 -0.043462 -0.043047 -0.042707 -0.042314 -0.041897 -0.041551 -0.041132 -0.040711 -0.040362 -0.040172 -0.039816 -0.039436 -0.039031 -0.038758 -0.03835 -0.038005 -0.037637 -0.037224 -0.036852 -0.036705 -0.036204 -0.035824 -0.035403 -0.035039 -0.034614 -0.034189 -0.033932 -0.033521 -0.033053 -0.032622 -0.032474 -0.032001 -0.031788 -0.031328 0 0 0 -0.043032 -0.04235 -0.041652 -0.040908 -0.04021 -0.039513 -0.038844 -0.038118 -0.037392 -0.03675 -0.036119 -0.035486 -0.034875 -0.034236 -0.03357 -0.032853 -0.032066 -0.031282 -0.030604 -0.029892 -0.029159 -0.028448 -0.027728 -0.027008 -0.026309 -0.025592 -0.024921 -0.024222 -0.023549 -0.022833 -0.022133 -0.021402 -0.020704 -0.019998 -0.019307 -0.018609 -0.017911 -0.017206 -0.016496 -0.015787 -0.015039 -0.014355 -0.01366 -0.012965 -0.012293 -0.011553 -0.010867 -0.010173 -0.0094964 -0.0087252 -0.0080355 -0.0073845 -0.0067965 -0.0060945 -0.0053264 -0.004632 -0.0039458 -0.0032415 -0.0025427 -0.0018463 -0.0011515 -0.00045405 0.00024277 0.00093843 0.0016335 0.0023297 0.0030254 0.0037377 0.0044316 0.0051257 0.0058275 0.0065158 0.0072128 0.0079451 0.0086452 0.0093452 0.010083 0.010781 0.011484 0.012281 0.012989 0.013697 0.01424 0.014946 0.015518 0.016188 0.016882 0.017838 0.018302 0.019011 0.019655 0.020333 0.021026 0.021735 0.022411 0.023139 0.023752 0.024453 0.025201 0.025856 0.026528 0.027332 0.028048 0.028722 0.029416 0.030145 0.030852 0.031606 0.032363 0.032803 0.033433 0.034125 0.035287 0.036081 0.03677 0.037445 0.038147 0.038835 0.039507 0.040208 0.040939 0.041656 0.042358 0.04306 0.043811 0.044563 0.045283 0.045987 0.045949 0.046519 0.047246 0.048045 0.048811 0.049505 0.050236 0.050854 0.051548 0.052241 0.052934 0.053708 0.054362 0.055406 0.056104 0.056549 0.057265 0.057614 0.058305 0.059085 0.059822 0.060515 0.061093 0.061785 0.06365 0.063263 0.063955 0.064648 0.065757 0.066454 0.067501 0.067317 0.068008 0.068442 0.069131 0.070399 0.071279 0.07203 0.073106 0.073478 0.074562 0.075347 0.076021 0.076723 0.077453 0.078213 0.078857 0.079559 0.080231 0.081022 0.081725 0.081269 0.081961 0.082778 0.083471 0.084291 0.084859 0.085552 0.086246 0.086907 0.087895 0.088293 0.088987 0.090453
0 0 0 -0.10155 -0.10093 -0.10042 -0.099974 -0.0997 -0.098274 -0.097773 -0.097216 -0.096659 -0.095652 -0.095044 -0.094437 -0.09372 -0.093284 -0.092516 -0.09186 -0.091372 -0.090938 -0.090342 -0.089855 -0.089261 -0.088775 -0.087918 -0.087383 -0.086901 -0.086472 -0.085991 -0.085614 -0.085134 -0.084757 -0.084328 0 0 0 0 0 0 0 0 0 0 -0.065337 -0.064937 -0.064586 -0.064234 -0.063882 -0.063531 -0.063179 -0.062827 -0.062429 -0.062032 -0.061681 -0.061329 -0.060978 -0.060582 -0.060231 -0.05988 -0.059529 -0.059222 -0.058871 -0.05852 -0.058126 -0.057775 -0.057466 -0.057115 -0.056764 -0.056413 -0.056061 -0.05571 -0.055359 -0.055048 -0.05498 -0.054627 -0.054313 -0.05396 -0.053646 -0.053331 -0.052977 -0.0527 -0.052384 -0.051991 -0.051712 0 0 -0.060168 -0.059747 -0.059325 -0.058903 -0.058481 -0.058095 -0.057744 -0.057356 -0.056933 -0.056545 -0.056191 -0.055767 -0.055411 -0.055021 -0.054697 -0.054304 -0.053945 -0.053584 -0.053222 -0.052827 -0.052464 -0.052036 -0.051671 -0.051242 -0.050845 -0.050477 -0.050078 -0.049679 -0.049398 -0.048997 -0.048654 -0.048251 -0.047847 -0.0475 -0.047095 -0.046689 -0.046366 -0.045959 -0.045578 -0.045169 -0.04476 -0.044377 -0.044228 -0.043788 -0.043451 -0.043036 -0.042695 -0.042278 -0.041885 -0.04154 -0.041145 -0.040724 -0.04035 -0.040161 -0.039782 -0.039401 -0.038997 -0.03868 -0.038382 -0.037994 -0.037582 -0.03717 -0.03684 -0.036714 -0.036274 -0.035833 -0.035411 -0.035047 -0.034603 -0.034177 -0.033902 -0.033491 -0.03306 -0.03261 -0.032462 -0.031989 -0.031776 -0.031316 0 0 0 -0.043014 -0.042316 -0.041587 -0.040783 -0.040073 -0.039363 -0.038769 -0.038086 -0.037291 -0.036582 -0.036075 -0.035376 -0.034742 -0.034206 -0.033502 -0.032775 -0.031965 -0.03123 -0.03053 -0.029808 -0.029033 -0.028335 -0.027638 -0.02692 -0.026224 -0.025498 -0.02483 -0.024142 -0.023471 -0.022781 -0.022075 -0.021329 -0.020625 -0.019914 -0.01924 -0.018557 -0.017847 -0.017131 -0.016423 -0.015693 -0.014993 -0.0143 -0.013607 -0.012918 -0.012193 -0.011501 -0.010817 -0.010125 -0.0094753 -0.0087078 -0.0080181 -0.007367 -0.0067788 -0.0060768 -0.0053089 -0.0046144 -0.0039165 -0.0032179 -0.0025214 -0.0018266 -0.001131 -0.00043516 0.00025994 0.0009542 0.001651 0.0023473 0.0030429 0.0037554 0.0044492 0.0051338 0.0058256 0.0065188 0.0072304 0.0079628 0.0086628 0.0093629 0.0101 0.010799 0.011501 0.012299 0.012997 0.013714 0.014258 0.014963 0.015536 0.016163 0.016899 0.017856 0.01832 0.018986 0.019672 0.020335 0.021012 0.021703 0.022378 0.02307 0.023716 0.024424 0.025124 0.025834 0.026536 0.027258 0.027971 0.028653 0.029346 0.030038 0.030731 0.031506 0.032381 0.032821 0.033413 0.034142 0.035305 0.036006 0.036707 0.03731 0.037953 0.038651 0.039349 0.040062 0.04079 0.041489 0.042156 0.042839 0.04365 0.044548 0.04525 0.046004 0.045967 0.046537 0.04721 0.0479 0.048591 0.049337 0.050028 0.050681 0.051372 0.052102 0.052833 0.053585 0.054277 0.055217 0.055954 0.056566 0.057283 0.057632 0.058323 0.059103 0.05984 0.060533 0.061111 0.061802 0.063668 0.06328 0.063949 0.064665 0.065431 0.066472 0.067519 0.067334 0.068026 0.068459 0.069148 0.070416 0.071297 0.072047 0.073124 0.073551 0.074193 0.075253 0.075842 0.076286 0.076954 0.077681 0.078641 0.079282 0.080041 0.08068 0.08147 0.081286 0.081979 0.082795 0.08327 0.083962 0.084876 0.08557 0.086263 0.086924 0.087913 0.088311 0.089004 0.090538
0 0 0 -0.1013 -0.1008 -0.10029 -0.099846 -0.0994 -0.098263 -0.097762 -0.097205 -0.096705 -0.095471 -0.094976 -0.094314 -0.093709 -0.093217 -0.092228 -0.091795 -0.091306 -0.090872 -0.090331 -0.089844 -0.089303 -0.088871 -0.087854 -0.087372 -0.08689 -0.086461 -0.085981 -0.085552 -0.085123 -0.084643 0 0 0 0 0 0 0 0 0 -0.066032 -0.06568 -0.065328 -0.064929 -0.064577 -0.064225 -0.063873 -0.063522 -0.06317 -0.062772 -0.06242 -0.062023 -0.061672 -0.061321 -0.060924 -0.060573 -0.060222 -0.059871 -0.05952 -0.059169 -0.058862 -0.058511 -0.058117 -0.057766 -0.057415 -0.057064 -0.056713 -0.056362 -0.056011 -0.055701 -0.05535 -0.05504 -0.054931 -0.054578 -0.054265 -0.053951 -0.053637 -0.053283 -0.052968 -0.052652 -0.052337 -0.051944 -0.05159 0 0 -0.060158 -0.059736 -0.059277 -0.058856 -0.05847 -0.058048 -0.057733 -0.057346 -0.056923 -0.056569 -0.056146 -0.055757 -0.055435 -0.05501 -0.054686 -0.054327 -0.053901 -0.053606 -0.053212 -0.052784 -0.052453 -0.052057 -0.05166 -0.051232 -0.050834 -0.050466 -0.050068 -0.049668 -0.049417 -0.049015 -0.048643 -0.04824 -0.047836 -0.047489 -0.047084 -0.046678 -0.046355 -0.045948 -0.045567 -0.045158 -0.044749 -0.044366 -0.04419 -0.043777 -0.04344 -0.043025 -0.042684 -0.042292 -0.041874 -0.041553 -0.041133 -0.040737 -0.040363 -0.04015 -0.039771 -0.039367 -0.038963 -0.038602 -0.038349 -0.037896 -0.037528 -0.037328 -0.036871 -0.036723 -0.036283 -0.035821 -0.035399 -0.035035 -0.034591 -0.034127 -0.033909 -0.033479 -0.033048 -0.032562 -0.032878 -0.032399 -0.032266 -0.031781 -0.03133 -0.030845 0 0 0 -0.041446 -0.04069 -0.039965 -0.039242 -0.038404 -0.037714 -0.036953 -0.036209 -0.035534 -0.034754 -0.034093 -0.033329 -0.032644 -0.032624 -0.031568 -0.030888 -0.030195 -0.029624 -0.028972 -0.028297 -0.0276 -0.026883 -0.026157 -0.025452 -0.024784 -0.024097 -0.023436 -0.02273 -0.022024 -0.021288 -0.020576 -0.019881 -0.019193 -0.018519 -0.017809 -0.017101 -0.016375 -0.015646 -0.014942 -0.014251 -0.013569 -0.012877 -0.012143 -0.011453 -0.010764 -0.010081 -0.0093836 -0.0086609 -0.0079766 -0.0073 -0.0066687 -0.0059786 -0.0052992 -0.00459 -0.0038902 -0.0031956 -0.0025001 -0.0018064 -0.0011118 -0.00041698 0.00027695 0.00097099 0.0016642 0.0023419 0.0030308 0.0037225 0.0044435 0.0051398 0.0058322 0.0065193 0.0071291 0.0078176 0.0084808 0.0091717 0.0099161 0.010529 0.011212 0.011896 0.012575 0.013269 0.014 0.014692 0.015466 0.016144 0.016828 0.017524 0.018214 0.018982 0.019668 0.02033 0.021013 0.021688 0.02232 0.023 0.023689 0.024387 0.025076 0.025784 0.026513 0.027214 0.027926 0.028628 0.029319 0.029999 0.030691 0.031358 0.032073 0.032777 0.033393 0.03407 0.034838 0.035529 0.036275 0.037134 0.037872 0.038611 0.039279 0.04002 0.040732 0.041414 0.042096 0.042745 0.043376 0.044071 0.044666 0.044918 0.045605 0.046432 0.047121 0.047809 0.04848 0.049224 0.049914 0.050565 0.051293 0.052002 0.052751 0.053502 0.054132 0.054822 0.055178 0.055886 0.056572 0.057194 0.05788 0.058566 0.059162 0.059846 0.060577 0.061889 0.062582 0.063226 0.063894 0.064586 0.065351 0.06582 0.066485 0.066694 0.067353 0.068038 0.06927 0.069933 0.070729 0.07142 0.072165 0.073021 0.073686 0.074518 0.075409 0.076076 0.076743 0.077467 0.078279 0.078622 0.079256 0.079949 0.079765 0.08045 0.081197 0.082317 0.083069 0.083758 0.083685 0.084369 0.085408 0.086062 0.086814 0.087302 0.087621 0.088303
0 0 0 -0.10129 -0.10085 -0.10028 -0.099835 -0.099389 -0.098251 -0.097751 -0.097193 -0.096751 -0.09546 -0.095022 -0.094191 -0.093643 -0.093151 -0.092217 -0.091784 -0.09124 -0.090807 -0.09032 -0.089833 -0.089293 -0.08886 -0.08779 -0.087308 -0.086827 -0.086398 -0.085865 -0.085489 -0.085009 -0.084581 0 0 0 0 0 0 0 0 -0.066278 -0.065926 -0.065623 -0.065271 -0.06492 -0.064568 -0.064216 -0.063817 -0.063466 -0.063114 -0.062716 -0.062365 -0.061968 -0.061617 -0.061266 -0.060915 -0.060565 -0.060214 -0.059818 -0.059512 -0.059161 -0.05881 -0.058459 -0.058065 -0.057757 -0.057363 -0.057013 -0.056662 -0.056353 -0.056002 -0.055651 -0.055341 -0.05499 -0.054881 -0.054529 -0.054216 -0.053902 -0.053588 -0.053274 -0.05292 -0.052605 -0.052251 -0.051897 -0.051543 0 0 -0.06011 -0.059688 -0.059267 -0.058845 -0.05846 -0.058074 -0.057722 -0.057335 -0.056947 -0.056558 -0.056169 -0.05578 -0.05539 -0.054999 -0.054675 -0.054316 -0.053923 -0.053562 -0.053168 -0.052774 -0.052379 -0.051983 -0.051618 -0.051221 -0.050792 -0.050425 -0.050057 -0.049688 -0.049377 -0.049005 -0.048632 -0.048229 -0.047825 -0.04745 -0.047073 -0.046667 -0.046344 -0.045937 -0.045556 -0.045147 -0.044765 -0.044355 -0.044101 -0.043688 -0.043403 -0.042988 -0.042648 -0.042231 -0.041863 -0.041542 -0.041146 -0.040725 -0.040328 -0.040115 -0.039736 -0.039333 -0.038952 -0.038635 -0.038228 -0.037841 -0.037495 -0.037147 -0.036713 -0.036484 -0.036026 -0.035628 -0.035427 -0.034965 -0.034579 -0.034116 -0.033897 -0.033467 -0.033036 -0.032568 -0.032813 -0.032334 -0.032202 -0.031752 -0.031301 -0.030817 0 0 0 -0.040469 -0.03979 -0.039589 -0.038769 -0.038098 -0.037455 -0.036797 -0.036083 -0.035356 -0.034303 -0.033625 -0.032896 -0.032231 -0.031578 -0.030876 -0.030198 -0.029544 -0.029098 -0.028425 -0.027826 -0.02714 -0.026454 -0.025749 -0.025064 -0.024434 -0.02408 -0.023401 -0.022712 -0.02199 -0.021238 -0.020521 -0.019708 -0.019011 -0.01848 -0.017745 -0.017039 -0.016259 -0.015546 -0.014841 -0.014153 -0.013465 -0.012792 -0.01208 -0.011397 -0.01071 -0.010022 -0.0093379 -0.0086435 -0.0079562 -0.0072826 -0.0066313 -0.0059499 -0.0052659 -0.0045605 -0.0038611 -0.0031638 -0.0024714 -0.0017802 -0.0010897 -0.00039618 0.00029257 0.00097777 0.0016628 0.0023424 0.0030298 0.003723 0.0044059 0.0050917 0.0057863 0.0064364 0.0071247 0.007823 0.0084981 0.009189 0.0098773 0.01053 0.011217 0.011909 0.012597 0.013296 0.013996 0.014687 0.01539 0.016077 0.016769 0.017456 0.018135 0.018822 0.019486 0.020141 0.020825 0.02151 0.022203 0.022887 0.023572 0.024275 0.02498 0.025685 0.026391 0.027068 0.027744 0.02843 0.029116 0.029757 0.03042 0.031022 0.031705 0.032363 0.033045 0.033728 0.034436 0.035146 0.035884 0.036582 0.037295 0.038125 0.039091 0.039814 0.040507 0.041216 0.041909 0.042012 0.042696 0.043792 0.044382 0.044918 0.045605 0.046274 0.046925 0.04761 0.048333 0.048963 0.049649 0.050277 0.050904 0.051725 0.052451 0.053137 0.05362 0.054282 0.054987 0.055692 0.05644 0.057103 0.057809 0.058428 0.059112 0.059773 0.060434 0.061373 0.062082 0.06284 0.063551 0.064312 0.064927 0.065218 0.065901 0.066534 0.067217 0.067951 0.068922 0.069608 0.070294 0.070981 0.071667 0.072792 0.073482 0.074312 0.075004 0.075667 0.075498 0.076153 0.076836 0.07752 0.078025 0.078767 0.079449 0.080162 0.081091 0.081869 0.082836 0.083524 0.083416 0.084226 0.085038 0.085721 0.086404 0.087022 0.087505 0.088085
0 0 0 -0.10152 -0.10095 -0.10027 -0.099708 -0.09932 -0.098298 -0.097682 -0.097182 -0.096683 -0.095619 -0.095179 -0.09418 -0.093687 -0.09314 -0.092372 -0.091718 -0.091284 -0.090796 -0.090309 -0.089822 -0.089282 -0.088849 -0.08778 -0.08735 -0.086816 -0.086388 -0.085907 -0.085427 -0.08505 -0.08457 0 0 0 0 0 0 0 0 -0.066269 -0.065917 -0.065614 -0.065263 -0.064911 -0.064559 -0.06416 -0.063856 -0.063457 -0.063105 -0.062708 -0.062356 -0.061959 -0.061608 -0.061212 -0.060861 -0.060556 -0.060205 -0.059765 -0.059415 -0.059064 -0.058714 -0.058363 -0.058013 -0.057663 -0.057312 -0.056962 -0.056611 -0.056303 -0.055993 -0.055642 -0.055332 -0.055103 -0.054832 -0.05448 -0.054167 -0.053893 -0.05354 -0.053265 -0.052911 -0.052596 -0.052242 -0.05185 -0.051534 0 0 -0.060099 -0.059678 -0.059256 -0.058871 -0.058485 -0.058098 -0.057747 -0.057359 -0.056936 -0.056583 -0.056193 -0.055803 -0.055413 -0.054989 -0.054664 -0.054305 -0.053913 -0.053552 -0.053158 -0.052731 -0.052368 -0.05194 -0.051607 -0.051179 -0.050782 -0.050445 -0.050046 -0.049677 -0.049396 -0.048994 -0.04865 -0.048247 -0.047843 -0.047467 -0.047062 -0.046684 -0.046361 -0.045953 -0.045572 -0.04519 -0.044754 -0.044423 -0.044064 -0.043677 -0.043367 -0.043002 -0.042637 -0.042245 -0.041852 -0.041507 -0.041111 -0.040714 -0.040317 -0.040104 -0.039748 -0.039322 -0.03894 -0.038624 -0.038216 -0.037829 -0.037484 -0.037051 -0.036701 -0.036473 -0.036014 -0.035616 -0.035416 -0.034953 -0.034781 -0.034276 -0.033885 -0.033493 -0.033061 -0.032647 -0.032801 -0.032322 -0.032207 -0.03174 -0.031272 -0.030804 0 0 0 -0.040452 -0.039773 -0.039572 -0.038752 -0.038038 -0.037353 -0.03671 -0.036011 -0.035339 -0.034286 -0.033556 -0.032866 -0.032189 -0.031536 -0.030847 -0.03017 -0.029527 -0.029081 -0.028408 -0.027809 -0.027123 -0.026437 -0.025732 -0.025046 -0.024417 -0.024062 -0.023383 -0.022694 -0.02194 -0.021244 -0.020503 -0.019668 -0.018994 -0.018463 -0.017721 -0.017021 -0.016236 -0.0155 -0.014801 -0.014104 -0.013417 -0.012736 -0.012036 -0.011358 -0.010676 -0.0099933 -0.009303 -0.0086197 -0.0079329 -0.007268 -0.0066113 -0.0059302 -0.0052444 -0.004543 -0.0038451 -0.0031452 -0.0024457 -0.0017614 -0.0010735 -0.0003788 0.00030924 0.00099547 0.0016776 0.0023596 0.0030459 0.0037318 0.0044199 0.0051071 0.0057926 0.0064634 0.0071338 0.0078135 0.0084959 0.0091853 0.0098757 0.010551 0.011234 0.011912 0.0126 0.013298 0.013987 0.014682 0.01539 0.0161 0.01678 0.017466 0.018153 0.018839 0.019503 0.020135 0.020811 0.021494 0.022186 0.022879 0.023563 0.024274 0.024987 0.025673 0.026388 0.027054 0.027729 0.028415 0.02909 0.029741 0.030402 0.031039 0.031674 0.032331 0.033 0.033694 0.034362 0.035163 0.035806 0.036489 0.037284 0.038142 0.039108 0.039801 0.04054 0.041218 0.041927 0.04203 0.042714 0.04381 0.0444 0.044953 0.045622 0.046256 0.046924 0.047664 0.048314 0.048999 0.04961 0.050275 0.050921 0.051742 0.052289 0.053013 0.053637 0.054259 0.054941 0.055667 0.05635 0.057055 0.057739 0.058401 0.059039 0.059722 0.060405 0.061134 0.061982 0.062691 0.063401 0.064329 0.06487 0.065235 0.065843 0.066501 0.067183 0.067917 0.068704 0.06952 0.070205 0.070891 0.071684 0.072809 0.073416 0.074274 0.074965 0.075685 0.075515 0.076083 0.076766 0.077478 0.078012 0.078664 0.079345 0.080057 0.080985 0.081793 0.082728 0.083415 0.083465 0.084179 0.084958 0.085673 0.086323 0.086973 0.087488 0.088069
0 0 0 -0.1015 -0.10094 -0.10026 -0.099638 -0.099135 -0.098171 -0.097614 -0.097171 -0.096615 -0.095438 -0.095 -0.094449 -0.093788 -0.093295 -0.09214 -0.091707 -0.091273 -0.09084 -0.090298 -0.089811 -0.089271 -0.088839 -0.087769 -0.087287 -0.086858 -0.086377 -0.085844 -0.085416 0 0 0 0 0 0 0 0 0 0 -0.066211 -0.06586 -0.065557 -0.065205 -0.064854 -0.064503 -0.064151 -0.0638 -0.063448 -0.063097 -0.062699 -0.062348 -0.06195 -0.061554 -0.061158 -0.060582 -0.060233 -0.059973 -0.059668 -0.059318 -0.058968 -0.058618 -0.058268 -0.057918 -0.057611 -0.057261 -0.056911 -0.056602 -0.056294 -0.055984 -0.055634 -0.055323 -0.055054 -0.054742 -0.05443 -0.054158 -0.053845 -0.053531 -0.053256 -0.052902 -0.052587 -0.052195 -0.051879 -0.051487 0 0 -0.060089 -0.059667 -0.059245 -0.058824 -0.058474 -0.058088 -0.057736 -0.057349 -0.05696 -0.056572 -0.056183 -0.055793 -0.055403 -0.054978 -0.054654 -0.054262 -0.053869 -0.053541 -0.053115 -0.05272 -0.052325 -0.05193 -0.051596 -0.051199 -0.050771 -0.050434 -0.050065 -0.049696 -0.049385 -0.048983 -0.048639 -0.048265 -0.047832 -0.047456 -0.047079 -0.046701 -0.046378 -0.045942 -0.045616 -0.045179 -0.044769 -0.044438 -0.044053 -0.043666 -0.043355 -0.042966 -0.042651 -0.042234 -0.041841 -0.04152 -0.0411 -0.040679 -0.040282 -0.040093 -0.039737 -0.039333 -0.038929 -0.038612 -0.038205 -0.037818 -0.037451 -0.037039 -0.036648 -0.036441 -0.036003 -0.035645 -0.035384 -0.034922 -0.034614 -0.034207 -0.033892 -0.033462 -0.033049 -0.032888 -0.032433 -0.03231 -0.032143 -0.031727 -0.03126 -0.030792 0 0 -0.041035 -0.040373 -0.039634 -0.038956 -0.038588 -0.037948 -0.037279 -0.036651 -0.035925 -0.035174 -0.03415 -0.033487 -0.032824 -0.032147 -0.031495 -0.03083 -0.030118 -0.029419 -0.028743 -0.028067 -0.027412 -0.026797 -0.0261 -0.025441 -0.024688 -0.024021 -0.0233 -0.022634 -0.021959 -0.021284 -0.020608 -0.02024 -0.019562 -0.018876 -0.018046 -0.017365 -0.016768 -0.016121 -0.015447 -0.014756 -0.014049 -0.013349 -0.01268 -0.011995 -0.011324 -0.010643 -0.0099609 -0.0092751 -0.0085893 -0.0079036 -0.007226 -0.006579 -0.0059104 -0.0052249 -0.0045238 -0.0038305 -0.0031054 -0.00242 -0.0017308 -0.0010437 -0.00035924 0.00032586 0.0010116 0.0016942 0.0023769 0.0030562 0.003742 0.0044322 0.0051166 0.0058033 0.0064782 0.0071374 0.0078069 0.0084872 0.0091711 0.0098704 0.010564 0.011247 0.011916 0.012598 0.01329 0.013978 0.01466 0.015326 0.01594 0.0166 0.017279 0.017957 0.018635 0.019417 0.020122 0.020812 0.021487 0.022178 0.022861 0.023562 0.024282 0.024995 0.02568 0.026376 0.027051 0.027705 0.028389 0.029052 0.029713 0.030373 0.031009 0.031655 0.032299 0.032929 0.033608 0.034274 0.034913 0.0357 0.036395 0.037005 0.037698 0.03829 0.038818 0.039494 0.0402 0.040876 0.041408 0.042098 0.042788 0.043295 0.043915 0.044586 0.045292 0.045963 0.046869 0.048129 0.048849 0.048686 0.049376 0.050107 0.051426 0.052187 0.05291 0.053552 0.054193 0.054875 0.055599 0.056282 0.056986 0.05769 0.058351 0.059011 0.059648 0.06033 0.061059 0.061835 0.062518 0.06325 0.06391 0.064495 0.065103 0.06576 0.066442 0.067124 0.067831 0.068617 0.069458 0.070089 0.070774 0.071457 0.072525 0.073296 0.074291 0.074898 0.075474 0.075533 0.076014 0.076754 0.077436 0.077911 0.078531 0.079211 0.079952 0.080879 0.081717 0.08262 0.083306 0.08361 0.08426 0.084943 0.085625 0.086308 0.086924 0.087439 0.088052
0 0 0 -0.10149 -0.10105 -0.10019 -0.099685 -0.099124 -0.09816 -0.09766 -0.097103 -0.096604 -0.095427 -0.094988 -0.094494 -0.093832 -0.093284 -0.092129 -0.091696 -0.091262 -0.090829 -0.090287 -0.0898 -0.089206 -0.088774 -0.087758 -0.087329 -0.086847 -0.086366 -0.085885 -0.085405 0 0 0 0 0 0 0 0 0 0 -0.066202 -0.065851 -0.0655 -0.065148 -0.064749 -0.064398 -0.064047 -0.063696 -0.063345 -0.062948 -0.062551 -0.062154 -0.061758 -0.061363 -0.061013 -0.060573 -0.060224 -0.059875 -0.05957 -0.059221 -0.058872 -0.058479 -0.058173 -0.057823 -0.057517 -0.057167 -0.05686 -0.056552 -0.056243 -0.055934 -0.055625 -0.055315 -0.055045 -0.054693 -0.054381 -0.054109 -0.053796 -0.053522 -0.053169 -0.052816 -0.052501 -0.052147 -0.051794 -0.051478 0 0 -0.060078 -0.059657 -0.059271 -0.058813 -0.0585 -0.058077 -0.057761 -0.057373 -0.05695 -0.056596 -0.056206 -0.055782 -0.055392 -0.054967 -0.05461 -0.054218 -0.053793 -0.053465 -0.053071 -0.052645 -0.052283 -0.051887 -0.051554 -0.051157 -0.05076 -0.050423 -0.050055 -0.049715 -0.049404 -0.049002 -0.048628 -0.048225 -0.047821 -0.047417 -0.04704 -0.046635 -0.046339 -0.045931 -0.045604 -0.045195 -0.044785 -0.044453 -0.044068 -0.043655 -0.04337 -0.042955 -0.04264 -0.042223 -0.04183 -0.041508 -0.041064 -0.040668 -0.040271 -0.040105 -0.039725 -0.039345 -0.03894 -0.038623 -0.038215 -0.037806 -0.037439 -0.037028 -0.036636 -0.036429 -0.035991 -0.035593 -0.035372 -0.034988 -0.034583 -0.034138 -0.033843 -0.033506 -0.033037 -0.032876 -0.032421 -0.032298 -0.032148 -0.031715 -0.031248 -0.03078 0 0 -0.04083 -0.040186 -0.03948 -0.0387 -0.03813 -0.037441 -0.036851 -0.036244 -0.035499 -0.034823 -0.034068 -0.033393 -0.032693 -0.032056 -0.031406 -0.03073 -0.030043 -0.029357 -0.028671 -0.027996 -0.027332 -0.026668 -0.025982 -0.025317 -0.024633 -0.023967 -0.023283 -0.022608 -0.021942 -0.021267 -0.020591 -0.020192 -0.019493 -0.018773 -0.018035 -0.017341 -0.016623 -0.016061 -0.015366 -0.014672 -0.01392 -0.013251 -0.012547 -0.011869 -0.011195 -0.010565 -0.0098946 -0.0092158 -0.0085298 -0.0078474 -0.0071541 -0.0064727 -0.0057892 -0.0052133 -0.0045029 -0.003813 -0.003032 -0.00235 -0.0016791 -0.0010124 -0.00033729 0.00033873 0.0010161 0.0016881 0.0023641 0.0030419 0.0037192 0.0043785 0.0050521 0.0057257 0.0063894 0.0070646 0.0077673 0.0084427 0.0091005 0.0097746 0.010457 0.011123 0.011815 0.012485 0.013165 0.013841 0.014516 0.015191 0.015896 0.016573 0.017236 0.017919 0.018566 0.019301 0.020032 0.020798 0.021275 0.021967 0.022678 0.023561 0.024272 0.024993 0.025678 0.026353 0.027007 0.027648 0.028331 0.029025 0.029685 0.030333 0.030955 0.031539 0.032168 0.032845 0.033471 0.034108 0.034823 0.035622 0.036301 0.036908 0.037571 0.038204 0.038611 0.039313 0.040032 0.04072 0.041393 0.042099 0.042723 0.043329 0.043932 0.044603 0.045309 0.045998 0.046778 0.047378 0.048031 0.048684 0.049374 0.050027 0.051149 0.051887 0.052645 0.053263 0.053859 0.054579 0.055278 0.05602 0.056721 0.0574 0.05808 0.058692 0.05937 0.060026 0.060704 0.061406 0.062155 0.062835 0.063441 0.062941 0.063657 0.065552 0.066231 0.066885 0.067512 0.068347 0.069133 0.069814 0.070495 0.071095 0.071857 0.072566 0.073666 0.074041 0.074269 0.074947 0.075538 0.076303 0.076952 0.07763 0.078308 0.078926 0.079328 0.080004 0.081331 0.082168 0.082913 0.083373 0.084053 0.084701 0.085414 0.086062 0.086709 0.087189 0.087834
0 0 0 -0.10201 -0.10156 -0.10047 -0.099906 -0.099401 -0.098322 -0.097706 -0.097263 -0.096593 -0.095416 -0.094977 -0.094483 -0.093821 -0.093328 -0.092229 -0.09174 -0.091251 -0.090818 -0.090276 -0.089789 -0.089142 -0.088763 -0.087747 -0.087318 -0.086836 -0.086407 -0.085874 -0.085446 0 0 0 0 0 0 0 0 0 0 -0.066193 -0.065842 -0.065442 -0.065091 -0.064693 -0.064342 -0.064038 -0.06364 -0.063243 -0.062892 -0.062496 -0.062099 -0.061704 -0.061308 -0.060959 -0.060565 -0.060215 -0.059866 -0.059517 -0.059168 -0.058819 -0.05847 -0.058121 -0.057814 -0.057508 -0.057158 -0.056809 -0.056543 -0.056234 -0.055884 -0.055616 -0.055306 -0.054995 -0.054684 -0.054332 -0.0541 -0.053787 -0.053474 -0.05316 -0.052807 -0.052454 -0.052138 -0.051785 -0.051469 0 0 -0.060104 -0.059683 -0.059297 -0.058875 -0.058489 -0.058102 -0.057751 -0.057327 -0.056939 -0.05655 -0.056196 -0.055806 -0.055381 -0.054957 -0.054599 -0.054174 -0.053782 -0.053454 -0.053028 -0.052602 -0.052272 -0.051876 -0.051543 -0.051146 -0.050749 -0.050412 -0.050044 -0.049704 -0.049393 -0.048991 -0.048617 -0.048214 -0.04781 -0.047406 -0.047001 -0.046623 -0.0463 -0.04592 -0.045566 -0.045184 -0.044774 -0.044469 -0.044083 -0.043696 -0.043359 -0.042944 -0.042628 -0.042236 -0.041843 -0.041497 -0.041101 -0.040681 -0.040306 -0.040093 -0.039714 -0.039333 -0.038929 -0.038612 -0.038204 -0.037795 -0.037449 -0.037038 -0.036667 -0.036438 -0.03598 -0.035582 -0.035381 -0.034918 -0.034629 -0.034145 -0.03385 -0.033643 -0.033172 -0.033153 -0.032675 0 -0.032153 -0.031686 -0.031236 -0.030751 0 0 -0.040813 -0.040138 -0.039357 -0.038684 -0.038113 -0.037424 -0.036834 -0.036227 -0.035482 -0.034806 -0.034051 -0.033338 -0.032651 -0.032052 -0.031376 -0.030701 -0.030003 -0.02934 -0.028632 -0.027958 -0.027305 -0.02661 -0.025955 -0.025261 -0.024625 -0.023941 -0.023266 -0.022582 -0.021925 -0.021249 -0.020574 -0.02016 -0.019468 -0.018792 -0.018011 -0.017298 -0.016606 -0.016043 -0.015325 -0.014654 -0.013903 -0.013208 -0.01253 -0.011852 -0.011178 -0.010548 -0.0098662 -0.009188 -0.0085029 -0.0078183 -0.0071369 -0.0064556 -0.005772 0 0 0 -0.003015 -0.0023331 -0.0016622 -0.0009954 -0.00032026 0.00035581 0.0010332 0.0017051 0.0023812 0.0030589 0.0037363 0.0043955 0.0050612 0.0057294 0.0063989 0.0070816 0.0077754 0.00845 0.0091176 0.0097916 0.010474 0.01114 0.011832 0.012498 0.013172 0.013852 0.014521 0.015208 0.015901 0.016558 0.017233 0.017902 0.018591 0.019288 0.019987 0.020815 0.021292 0.021968 0.022695 0.023578 0.024261 0.025011 0.025695 0.0264 0.026993 0.027634 0.028337 0.029042 0.029657 0.03035 0.030925 0.031471 0.032099 0.032774 0.033424 0.034046 0.03476 0.035666 0.03629 0.036883 0.037487 0.038148 0.038688 0.039285 0.039971 0.040706 0.041378 0.042067 0.04269 0.043329 0.043949 0.044603 0.045326 0.045997 0.046777 0.047431 0.048029 0.048682 0.049353 0.050044 0.051206 0.051804 0.052582 0.053158 0.053752 0.054449 0.055147 0.055909 0.056717 0.057352 0.057941 0.058596 0.059205 0.059928 0.060558 0.061305 0.062077 0.06278 0.063458 0.062958 0.063674 0.065544 0.066172 0.066851 0.067529 0.068364 0.069044 0.069778 0.070405 0.071112 0.071874 0.072583 0.073683 0.074059 0.074286 0.074964 0.075555 0.076233 0.076852 0.077528 0.078115 0.078792 0.079346 0.080021 0.081348 0.082028 0.082867 0.083358 0.084006 0.084719 0.085366 0.086112 0.086627 0.087173 0.087817
0 0 -0.10298 -0.10171 -0.10126 -0.10028 -0.099895 -0.099563 -0.098943 -0.09821 -0.097765 -0.096922 -0.095518 -0.094966 -0.094472 -0.093755 -0.093206 -0.092107 -0.091729 -0.09124 -0.090752 -0.090211 -0.089778 -0.089024 -0.088539 -0.087789 -0.087307 -0.086878 -0.086397 -0.08602 0 0 0 0 0 0 0 0 0 0 0 -0.066135 -0.065784 -0.065433 -0.065083 -0.064684 -0.064333 -0.063982 -0.063584 -0.063234 -0.062837 -0.06244 -0.062044 -0.061649 -0.061254 -0.060905 -0.060556 -0.060207 -0.059813 -0.059508 -0.059159 -0.05881 -0.058417 -0.058112 -0.057763 -0.057456 -0.057149 -0.0568 -0.056534 -0.056225 -0.055875 -0.055607 -0.055256 -0.054986 -0.054635 -0.054323 -0.054052 -0.053739 -0.053426 -0.053112 -0.052798 -0.052445 -0.052091 -0.051738 0 0 -0.060516 -0.060094 -0.059672 -0.059287 -0.058864 -0.058514 -0.058092 -0.05774 -0.057317 -0.056928 -0.05654 -0.056185 -0.055761 -0.05537 -0.054946 -0.054588 -0.054196 -0.053771 -0.053411 -0.052985 -0.052591 -0.052229 -0.051866 -0.051533 -0.051136 -0.050738 -0.050432 -0.050063 -0.049693 -0.049411 -0.04898 -0.048606 -0.048203 -0.047799 -0.047395 -0.04699 -0.046613 -0.046289 -0.045909 -0.045555 -0.045173 -0.044763 -0.044458 -0.044098 -0.04371 -0.043348 -0.042958 -0.042617 -0.04225 -0.041856 -0.041486 -0.04109 -0.040669 -0.040295 -0.040059 -0.03968 -0.039277 -0.038805 -0.038578 -0.038171 -0.037784 -0.037438 -0.037026 -0.036676 -0.036447 -0.035988 -0.035771 -0.035389 -0.034926 -0.034656 -0.034191 -0.033876 -0.033631 -0.03316 -0.033213 -0.032752 -0.032361 -0.032037 -0.031657 -0.031223 -0.030739 -0.030271 0 0 0 -0.038914 -0.038249 -0.037642 -0.036931 -0.036265 -0.035599 -0.03492 -0.034294 -0.033641 -0.032974 -0.032307 -0.031653 -0.031009 -0.030295 -0.029628 -0.029007 -0.028306 -0.027607 -0.02693 -0.026295 -0.025609 -0.024972 -0.024334 -0.023666 -0.023025 -0.022313 -0.021663 -0.021012 -0.020352 -0.019706 -0.019273 -0.018332 -0.017664 -0.016944 -0.016284 -0.015612 -0.014946 -0.014381 -0.013641 -0.012969 -0.012307 -0.01164 -0.010934 -0.01027 -0.0095637 -0.0088843 -0.0082237 -0.0075929 -0.006927 -0.0062641 -0.0056012 -0.0049382 -0.0042753 -0.0036124 -0.0029633 -0.0023161 -0.0016446 -0.00096971 -0.00030054 0.00036947 0.0010394 0.0017096 0.0023798 0.0030583 0.0037086 0.0043904 0.0050625 0.005733 0.0064034 0.0070246 0.0076904 0.0084181 0.0090501 0.009718 0.010386 0.011058 0.011808 0.012486 0.013169 0.013848 0.014522 0.015201 0.015894 0.016562 0.017217 0.017891 0.018572 0.019261 0.019889 0.020562 0.021227 0.021942 0.022582 0.023443 0.023946 0.024629 0.025274 0.025947 0.026959 0.027641 0.028279 0.028595 0.029256 0.029927 0.030599 0.031271 0.032041 0.032715 0.03335 0.03401 0.034616 0.035301 0.035945 0.036631 0.037389 0.038047 0.03863 0.039256 0.039942 0.04066 0.041347 0.042035 0.042691 0.043329 0.043932 0.04462 0.045308 0.045978 0.046739 0.047375 0.04799 0.048661 0.049332 0.050041 0.05085 0.051642 0.052236 0.052849 0.053625 0.054341 0.055015 0.055604 0.056104 0.056754 0.057936 0.058501 0.059109 0.059784 0.060436 0.06024 0.060929 0.061498 0.062139 0.063048 0.063566 0.064257 0.065328 0.065946 0.066641 0.067337 0.068006 0.068783 0.069534 0.070206 0.070219 0.070414 0.07113 0.071538 0.072169 0.073143 0.074124 0.074788 0.075807 0.077069 0.077982 0.078657 0.079241 0.079791 0.080682 0.081231 0.081905 0.082452 0.083125 0.083539 0.084177 0.08488 0.085219 0.085921 0.086993
0 0 -0.10297 -0.10164 -0.10107 -0.10039 -0.099884 -0.099552 -0.098989 -0.098256 -0.097696 -0.097081 -0.095507 -0.094955 -0.094349 -0.093688 -0.093195 -0.092097 -0.091663 -0.09123 -0.090742 -0.0902 -0.089767 -0.088852 -0.088368 -0.087832 -0.087296 -0.086867 -0.086438 -0.086009 0 0 0 0 0 0 0 0 0 0 -0.066477 -0.066127 -0.065727 -0.065328 -0.064977 -0.064531 -0.064181 -0.063831 -0.063293 -0.063038 -0.062688 -0.062293 -0.061943 -0.061548 -0.061154 -0.060805 -0.060457 -0.060108 -0.05976 -0.059455 -0.059106 -0.058714 -0.058322 -0.058017 -0.057711 -0.057362 -0.057056 -0.056706 -0.056441 -0.056133 -0.055825 -0.055516 -0.055206 -0.054937 -0.054586 -0.054275 -0.053963 -0.053651 -0.053338 -0.053064 -0.052711 -0.052359 -0.052006 -0.051653 0 0 -0.060505 -0.060083 -0.059698 -0.059276 -0.05889 -0.058468 -0.058081 -0.057694 -0.057306 -0.056918 -0.056529 -0.05614 -0.05575 -0.055326 -0.054935 -0.054577 -0.054186 -0.053793 -0.0534 -0.052975 -0.052549 -0.052218 -0.051855 -0.051522 -0.051094 -0.050697 -0.05036 -0.049962 -0.049532 -0.049371 -0.048969 -0.048595 -0.048192 -0.047788 -0.047412 -0.046979 -0.046602 -0.046278 -0.045898 -0.045544 -0.045162 -0.044752 -0.044447 -0.044061 -0.043699 -0.043362 -0.042947 -0.042631 -0.042239 -0.041845 -0.041499 -0.041079 -0.040682 -0.04026 -0.040047 -0.039623 -0.03922 -0.038816 -0.038545 -0.038159 -0.037772 -0.037426 -0.037036 -0.036665 -0.036415 -0.035957 -0.03578 -0.035337 -0.034914 -0.034606 -0.034141 -0.033864 -0.033619 -0.033148 -0.03302 -0.032563 -0.032314 -0.03199 -0.031509 -0.031161 -0.03071 -0.030258 0 0 0 -0.038594 -0.037948 -0.037625 -0.036814 -0.036136 -0.035444 -0.03478 -0.034144 -0.033506 -0.03288 -0.032227 -0.031574 -0.030908 -0.030231 -0.029577 -0.028911 -0.028256 -0.027569 -0.026903 -0.026238 -0.025572 -0.024916 -0.02425 -0.023612 -0.022955 -0.022262 -0.021596 -0.02093 -0.020287 -0.019689 -0.018821 -0.018159 -0.017593 -0.016914 -0.016248 -0.015583 -0.014906 -0.014292 -0.013577 -0.012932 -0.012266 -0.011601 -0.010918 -0.010245 -0.0095657 -0.0088781 -0.0082071 -0.0075584 -0.0069022 -0.0062351 -0.0055757 -0.0049118 -0.0042519 -0.00359 -0.0029258 -0.0022662 -0.001605 -0.00094284 -0.00028056 0.00038505 0.0010534 0.0017211 0.002392 0.0030633 0.0037313 0.0043936 0.0050578 0.005712 0.0063781 0.0070386 0.0076951 0.0084154 0.009081 0.0097348 0.010314 0.010984 0.011821 0.012455 0.01312 0.013721 0.014359 0.015025 0.015862 0.016299 0.016968 0.017839 0.018252 0.018914 0.019622 0.020286 0.020941 0.021612 0.022363 0.022975 0.02351 0.024171 0.024861 0.025523 0.026174 0.026899 0.027562 0.028225 0.028876 0.029597 0.03045 0.031179 0.03191 0.032581 0.033239 0.033909 0.03458 0.035264 0.035907 0.036591 0.037247 0.037917 0.038528 0.039182 0.039866 0.040535 0.04122 0.041938 0.042625 0.043245 0.043881 0.044533 0.045219 0.045906 0.04663 0.047263 0.047914 0.048565 0.049253 0.05 0.050749 0.051441 0.052112 0.052784 0.053456 0.054149 0.054821 0.055428 0.056056 0.056617 0.057286 0.057956 0.058739 0.059295 0.059382 0.060045 0.060803 0.061419 0.062204 0.062967 0.063633 0.064424 0.065218 0.065886 0.066529 0.067223 0.067891 0.068613 0.069228 0.068946 0.069632 0.070154 0.070896 0.071527 0.072185 0.072729 0.07359 0.074249 0.074968 0.076789 0.077639 0.078432 0.079196 0.079901 0.080668 0.081155 0.081543 0.08145 0.082114 0.082779 0.083411 0.084108 0.084275 0.084735 0.085428
0 0 -0.10296 -0.10168 -0.10118 -0.10044 -0.10005 -0.099656 -0.098863 -0.098302 -0.097742 -0.097127 -0.095496 -0.094944 -0.094338 -0.093732 -0.09324 -0.092196 -0.091817 -0.091328 -0.090839 -0.090243 -0.08981 -0.088841 -0.088304 -0.087821 -0.087338 -0.086909 -0.08648 -0.085998 0 0 0 0 0 0 0 0 0 0 -0.066468 -0.066118 -0.065669 -0.065319 -0.06492 -0.064426 -0.064077 -0.063775 -0.063331 -0.062935 -0.062586 -0.062191 -0.061843 -0.061494 -0.061145 -0.060751 -0.060403 -0.060099 -0.059751 -0.059402 -0.059054 -0.058661 -0.058313 -0.057965 -0.057659 -0.057353 -0.057004 -0.056655 -0.056349 -0.056125 -0.055775 -0.055507 -0.055156 -0.054887 -0.054577 -0.054226 -0.053954 -0.053642 -0.05329 -0.053016 -0.052664 -0.052311 -0.051959 -0.051644 0 0 -0.060532 -0.06011 -0.059687 -0.059302 -0.058879 -0.058493 -0.05807 -0.057718 -0.057295 -0.056907 -0.056518 -0.056163 -0.055739 -0.055315 -0.054925 -0.054567 -0.054208 -0.053815 -0.053455 -0.052996 -0.05257 -0.052208 -0.051844 -0.051511 -0.051083 -0.050686 -0.050349 -0.049951 -0.049582 -0.04933 -0.048958 -0.048585 -0.04821 -0.047777 -0.04743 -0.047024 -0.046647 -0.046295 -0.045915 -0.04556 -0.045151 -0.044741 -0.044436 -0.04405 -0.043688 -0.043376 -0.042961 -0.042645 -0.042252 -0.041858 -0.041488 -0.041092 -0.040647 -0.040273 -0.040036 -0.039634 -0.039209 -0.038805 -0.038555 -0.038148 -0.037761 -0.037436 -0.037046 -0.036695 -0.036403 -0.035945 -0.035748 -0.035326 -0.034981 -0.034575 -0.034129 -0.033909 -0.033663 -0.033191 -0.033008 -0.032551 -0.032302 -0.031978 -0.031496 -0.031149 -0.030682 -0.030246 0 0 0 -0.038577 -0.037932 -0.037388 -0.036725 -0.036062 -0.035344 -0.034682 -0.03406 -0.033437 -0.032799 -0.03216 -0.031533 -0.030843 -0.030179 -0.029537 -0.028872 -0.028228 -0.027541 -0.026876 -0.02619 -0.025525 -0.024861 -0.024215 -0.023568 -0.022902 -0.022219 -0.021554 -0.020888 -0.020231 -0.019672 -0.018804 -0.018142 -0.017542 -0.016877 -0.016206 -0.015554 -0.014889 -0.014252 -0.013576 -0.012905 -0.01224 -0.011575 -0.010892 -0.010216 -0.009549 -0.0088684 -0.0082033 -0.0075387 -0.0068773 -0.0062111 -0.0055502 -0.0048932 -0.0042319 -0.0035705 -0.0029092 -0.0022487 -0.0015876 -0.00092576 -0.00026397 0.00040096 0.0010682 0.0017366 0.0024042 0.003079 0.0037424 0.0044122 0.0050569 0.0057177 0.0063824 0.0070444 0.0077119 0.0084323 0.0091015 0.0097782 0.01033 0.011001 0.011773 0.012471 0.013137 0.013737 0.014376 0.015042 0.015879 0.016315 0.016985 0.017856 0.018269 0.018931 0.019616 0.020302 0.020958 0.021663 0.022362 0.023001 0.023555 0.024188 0.024868 0.02553 0.026191 0.026874 0.027568 0.02823 0.028904 0.029614 0.030467 0.031123 0.031878 0.032547 0.033217 0.033874 0.034543 0.035226 0.035882 0.036551 0.037206 0.037861 0.038485 0.039137 0.039821 0.040489 0.041221 0.04189 0.042625 0.043229 0.043847 0.044515 0.045219 0.045905 0.046556 0.047225 0.047894 0.048525 0.049194 0.04994 0.050707 0.051358 0.052049 0.052719 0.053431 0.054124 0.054795 0.055445 0.056051 0.056634 0.057303 0.057973 0.058619 0.059311 0.059399 0.060038 0.060725 0.061388 0.062172 0.062935 0.063674 0.064491 0.065184 0.065852 0.066494 0.067109 0.067855 0.068497 0.069057 0.068962 0.069649 0.070253 0.070829 0.071458 0.07206 0.072803 0.07352 0.074266 0.074985 0.076806 0.077506 0.078419 0.079122 0.080072 0.080778 0.08089 0.08156 0.081467 0.082131 0.082795 0.083427 0.084125 0.084292 0.084785 0.085377
-0.10421 -0.10382 -0.10265 -0.1022 -0.10175 -0.10054 -0.10009 -0.099876 -0.098967 -0.098234 -0.097731 -0.097172 -0.095315 -0.094877 -0.094326 -0.093721 -0.09334 -0.092626 -0.091971 -0.091481 -0.090883 -0.090341 -0.089853 -0.088669 -0.08824 -0.08781 -0.087328 -0.086898 -0.086469 -0.086039 0 0 0 0 0 0 0 0 0 0 0 0 -0.065417 -0.065068 -0.064574 -0.064226 -0.064021 -0.063672 -0.063228 -0.06288 -0.062531 -0.062136 -0.061741 -0.061393 -0.061045 -0.060697 -0.060349 -0.060001 -0.059698 -0.059349 -0.059001 -0.058609 -0.058261 -0.057956 -0.057607 -0.057259 -0.056911 -0.056605 -0.056214 -0.056074 -0.055766 -0.055498 -0.055148 -0.054878 -0.054528 -0.054217 -0.053905 -0.053594 -0.053242 -0.052929 -0.052616 -0.052264 -0.051835 0 0 0 -0.060521 -0.060099 -0.059677 -0.059255 -0.058869 -0.058482 -0.05806 -0.057672 -0.057285 -0.056862 -0.056508 -0.056118 -0.055729 -0.055304 -0.054914 -0.054589 -0.05423 -0.053837 -0.053444 -0.053018 -0.052591 -0.052197 -0.051833 -0.0515 -0.051072 -0.050675 -0.050308 -0.04994 -0.049571 -0.04929 -0.048888 -0.048574 -0.04817 -0.047767 -0.047419 -0.047014 -0.046663 -0.046312 -0.045904 -0.045549 -0.04514 -0.044756 -0.044425 -0.044039 -0.043677 -0.043365 -0.04295 -0.042609 -0.042216 -0.041823 -0.041477 -0.041056 -0.040636 -0.040261 -0.040048 -0.039646 -0.03922 -0.038816 -0.038544 -0.038136 -0.037749 -0.037425 -0.037013 -0.036558 -0.036371 -0.035933 -0.035756 -0.035314 -0.03495 -0.034563 -0.034117 -0.033897 -0.033595 -0.033125 -0.032978 -0.032503 -0.032255 -0.031863 -0.031383 -0.031187 -0.030719 0 0 -0.039568 -0.038928 -0.038379 -0.037736 -0.037283 -0.036637 -0.035975 -0.035272 -0.034611 -0.033977 -0.033342 -0.032718 -0.03208 -0.031417 -0.03079 -0.030126 -0.029474 -0.028832 -0.028189 -0.027492 -0.026828 -0.026163 -0.025499 -0.024844 -0.024179 -0.023533 -0.022876 -0.022167 -0.021495 -0.020839 -0.020112 -0.019465 -0.01875 -0.018111 -0.01749 -0.016821 -0.016031 -0.01538 -0.014867 -0.014219 -0.013538 -0.012868 -0.012209 -0.01154 -0.010871 -0.010191 -0.0095285 -0.0088482 -0.0081834 -0.0075131 -0.0068499 -0.0061896 -0.0055227 -0.004867 -0.0042069 -0.0035482 -0.002889 -0.0022293 -0.0015703 -0.00090906 -0.00024708 0.0004165 0.0010812 0.0017378 0.0024004 0.0030382 0.0036964 0.0043516 0.0050103 0.0056537 0.0063092 0.0069452 0.0076018 0.0082721 0.0089272 0.0096089 0.010306 0.010962 0.011685 0.012459 0.013128 0.013674 0.01437 0.015012 0.015657 0.016306 0.016969 0.017645 0.018257 0.01894 0.019609 0.020295 0.020966 0.021663 0.022353 0.022991 0.023562 0.024195 0.024856 0.025516 0.026177 0.026848 0.027541 0.028203 0.028876 0.029514 0.030306 0.030971 0.03182 0.032488 0.033156 0.033812 0.034493 0.035161 0.035829 0.036497 0.03718 0.037819 0.038412 0.039048 0.039714 0.040191 0.04087 0.041468 0.04213 0.042826 0.043454 0.044151 0.044866 0.04553 0.046428 0.047095 0.047781 0.048429 0.049096 0.049646 0.050528 0.051295 0.051985 0.052654 0.053366 0.053973 0.054261 0.054926 0.055568 0.056255 0.056964 0.057472 0.058113 0.058776 0.059183 0.059961 0.06067 0.061332 0.062092 0.062829 0.063617 0.064458 0.065201 0.065664 0.066304 0.066943 0.06716 0.06782 0.068266 0.068925 0.069611 0.070242 0.070789 0.071447 0.072019 0.072734 0.073449 0.074107 0.074706 0.075423 0.075901 0.076588 0.076786 0.077439 0.07806 0.078744 0.079492 0.080273 0.080863 0.082003 0.082661 0.083319 0.084143 0.084769 0.085327
-0.1042 -0.1038 -0.10264 -0.10219 -0.10174 -0.10053 -0.10008 -0.099865 -0.098956 -0.098165 -0.09772 -0.097274 -0.095304 -0.09481 -0.094315 -0.093766 -0.093329 -0.092781 -0.092124 -0.091634 -0.091035 -0.090384 -0.089896 -0.088658 -0.088229 -0.087746 -0.087317 -0.086887 -0.086406 -0.086028 0 0 0 0 0 0 0 0 0 0 0 0 -0.065408 -0.065059 -0.064566 -0.064169 -0.063869 -0.063473 -0.063125 -0.062777 -0.062382 -0.061988 -0.061641 -0.061293 -0.060945 -0.060598 -0.06025 -0.059903 -0.059555 -0.059208 -0.058904 -0.058556 -0.058208 -0.057904 -0.057556 -0.057208 -0.05686 -0.056554 -0.056247 -0.05594 -0.055716 -0.055407 -0.055098 -0.054829 -0.054478 -0.054168 -0.053817 -0.053505 -0.053154 -0.052803 -0.052452 -0.052101 -0.051826 0 0 0 -0.06051 -0.060088 -0.059666 -0.05928 -0.058894 -0.058472 -0.058085 -0.057662 -0.057274 -0.056851 -0.056497 -0.056108 -0.055718 -0.055294 -0.054903 -0.054579 -0.054219 -0.053859 -0.053466 -0.053039 -0.052613 -0.052218 -0.051854 -0.051489 -0.051092 -0.050695 -0.050328 -0.049929 -0.04956 -0.049249 -0.048818 -0.048534 -0.048188 -0.047784 -0.047436 -0.047059 -0.04668 -0.046273 -0.045865 -0.045538 -0.045129 -0.044719 -0.044414 -0.044027 -0.043666 -0.043329 -0.042914 -0.042598 -0.042205 -0.041812 -0.041441 -0.041021 -0.040601 -0.04025 -0.04006 -0.039635 -0.039231 -0.038827 -0.038555 -0.038169 -0.03776 -0.037414 -0.03698 -0.036567 -0.03636 -0.035922 -0.035724 -0.035342 -0.034938 -0.034532 -0.034087 -0.033923 -0.033491 -0.033113 -0.032966 -0.032491 -0.032243 -0.031799 -0.03137 -0.031175 -0.030707 0 0 -0.039552 -0.038912 -0.038286 -0.03766 -0.037091 -0.036462 -0.035831 -0.035144 -0.034485 -0.03384 -0.033181 -0.032535 -0.031926 -0.031253 -0.030593 -0.029956 -0.029307 -0.028759 -0.02814 -0.027464 -0.0268 -0.026136 -0.025462 -0.024808 -0.024153 -0.023488 -0.022833 -0.022116 -0.021453 -0.020773 -0.020095 -0.019448 -0.018734 -0.018059 -0.017399 -0.016731 -0.01604 -0.015363 -0.01485 -0.014152 -0.013484 -0.012811 -0.012149 -0.011482 -0.010821 -0.010151 -0.009482 -0.0088107 -0.0081443 -0.0074759 -0.0068063 -0.006151 -0.0054887 -0.0048331 -0.0041754 -0.0035177 -0.0028599 -0.0022031 -0.0015518 -0.00089201 -0.00023037 0.00043106 0.0010916 0.0017503 0.0024171 0.0030548 0.0037056 0.0043613 0.0050209 0.0056681 0.0063232 0.0069645 0.0076153 0.0082754 0.0089402 0.0096141 0.010278 0.010983 0.011702 0.012476 0.013145 0.013691 0.014331 0.014999 0.015655 0.01631 0.016972 0.017633 0.018274 0.018934 0.019611 0.020272 0.020975 0.021637 0.02237 0.022963 0.023542 0.024116 0.024765 0.025412 0.02607 0.026727 0.027406 0.028064 0.028824 0.029531 0.030323 0.030987 0.031726 0.032429 0.032993 0.03367 0.034335 0.035 0.035665 0.036443 0.037153 0.037733 0.038249 0.038882 0.039529 0.04016 0.040807 0.041403 0.042147 0.042842 0.043471 0.044099 0.044778 0.045547 0.046264 0.047002 0.047686 0.048295 0.04896 0.049663 0.050544 0.051213 0.051901 0.052631 0.0533 0.05399 0.054277 0.054942 0.055585 0.056272 0.056981 0.057489 0.058129 0.058792 0.0592 0.059766 0.060496 0.06118 0.061817 0.062501 0.063335 0.064374 0.065192 0.065399 0.065855 0.066489 0.067176 0.067837 0.068283 0.06886 0.069518 0.070148 0.070694 0.071294 0.071836 0.072463 0.073118 0.073802 0.074486 0.075142 0.075917 0.076301 0.076864 0.077394 0.078015 0.078667 0.07935 0.080034 0.08088 0.08202 0.082678 0.083336 0.083994 0.084652 0.085276
-0.10443 -0.10397 -0.10334 -0.10241 -0.10196 -0.10151 -0.10088 -0.10043 -0.098772 -0.097925 -0.097481 -0.096469 -0.09518 -0.094742 -0.094304 -0.093811 -0.093318 -0.09277 -0.092223 -0.091732 -0.091078 -0.090373 -0.089939 -0.088594 -0.088165 0 0 0 0 0 0 0 0 0 0 0 0 0 0 0 0 0 0 0 -0.064509 -0.064161 -0.063812 -0.063464 -0.063069 -0.062721 -0.062327 -0.061933 -0.061586 -0.061238 -0.060891 -0.060544 -0.060197 -0.059894 -0.059502 -0.059199 -0.058895 -0.058547 -0.0582 -0.057895 -0.057547 -0.057199 -0.056851 -0.056503 -0.056196 -0.05589 -0.055541 -0.055357 -0.055048 -0.05478 -0.054429 -0.054119 -0.053808 -0.053457 -0.053106 -0.052755 -0.052404 -0.052053 -0.051702 0 0 0 -0.0605 -0.060078 -0.059692 -0.05927 -0.058884 -0.058497 -0.058074 -0.057687 -0.057263 -0.05684 -0.056486 -0.056063 -0.055707 -0.055283 -0.054892 -0.054568 -0.054242 -0.053849 -0.053455 -0.053028 -0.052602 -0.052207 -0.051843 -0.05151 -0.051082 -0.050684 -0.050317 -0.049918 -0.049549 -0.049238 -0.048807 -0.048523 -0.048206 -0.047802 -0.047426 -0.047048 -0.046669 -0.046262 -0.045854 -0.0455 -0.045091 -0.044708 -0.044402 -0.044042 -0.043681 -0.043318 -0.042902 -0.042587 -0.042194 -0.0418 -0.041406 -0.04101 -0.040613 -0.040262 -0.040025 -0.039646 -0.03922 -0.038816 -0.038543 -0.038157 -0.03777 -0.037423 -0.03699 -0.036556 -0.036472 -0.036012 -0.035572 -0.03533 -0.034926 -0.03452 -0.034056 -0.033892 -0.033479 -0.033028 -0.032882 -0.032426 -0.032213 -0.031787 -0.031358 0 0 0 -0.040159 -0.039504 -0.038864 -0.038224 -0.037584 -0.037001 -0.036373 -0.035758 -0.0351 -0.034414 -0.03377 -0.033112 -0.032454 -0.031834 -0.03115 -0.03048 -0.029869 -0.029222 -0.028551 -0.028068 -0.027179 -0.026522 -0.025833 -0.025196 -0.024519 -0.023881 -0.023187 -0.022531 -0.02184 -0.021193 -0.020537 -0.019826 -0.019165 -0.018673 -0.018014 -0.017348 -0.016682 -0.016004 -0.01534 -0.014764 -0.014108 -0.01343 -0.012769 -0.012118 -0.011448 -0.010783 -0.010118 -0.0094541 -0.0087768 -0.0081116 -0.0074475 -0.0067817 -0.0061247 -0.0054656 -0.004809 -0.0041522 -0.0034942 -0.0028366 -0.0021805 -0.0015231 -0.0008688 -0.00021319 0.00044687 0.0011061 0.0017621 0.0024185 0.0030628 0.0037177 0.0043743 0.0050295 0.0056823 0.0063347 0.0069782 0.0076227 0.0082821 0.0089389 0.0096116 0.010271 0.010921 0.011636 0.012309 0.012968 0.013659 0.014336 0.014998 0.015659 0.016308 0.016962 0.017629 0.018103 0.018757 0.019427 0.020082 0.020753 0.021425 0.022098 0.022727 0.023373 0.024076 0.024723 0.025359 0.026014 0.02667 0.027326 0.028015 0.028626 0.029293 0.030245 0.030519 0.031173 0.032231 0.032932 0.033648 0.034285 0.034935 0.035598 0.036176 0.036837 0.037558 0.038191 0.038837 0.039484 0.040098 0.040743 0.041339 0.041915 0.042338 0.04301 0.044029 0.044724 0.044671 0.045322 0.045972 0.046604 0.047254 0.048689 0.048399 0.049048 0.049756 0.050425 0.050992 0.051619 0.052267 0.052915 0.053563 0.054472 0.055497 0.05613 0.056695 0.057349 0.058326 0.05903 0.059688 0.060418 0.061053 0.061712 0.062296 0.063029 0.063713 0.064144 0.064826 0.065716 0.066349 0.066374 0.067027 0.068165 0.068822 0.069425 0.070082 0.070682 0.071226 0.071682 0.072336 0.072989 0.073643 0.074296 0.07495 0.075423 0.076106 0.076758 0.077287 0.077907 0.078589 0.07924 0.07986 0.080479 0.081291 0.081747 0.082398 0.083247 0.083866 0.084551
-0.1043 -0.10384 -0.1025 -0.10205 -0.10178 -0.10132 -0.10006 -0.099611 -0.098761 -0.098143 -0.097469 -0.096458 -0.095169 -0.0949 -0.094405 -0.093855 -0.093307 -0.092814 -0.092102 -0.091503 -0.090741 -0.090254 -0.089766 -0.088583 -0.088154 -0.087777 -0.087348 0 0 0 0 0 0 0 0 0 0 0 0 0 0 0 0 0 -0.0645 -0.064056 -0.063709 -0.063361 -0.063013 -0.062666 -0.062272 -0.061878 -0.061485 -0.061138 -0.060791 -0.06049 -0.060188 -0.059885 -0.059538 -0.05919 -0.058887 -0.058539 -0.058191 -0.057886 -0.057538 -0.05719 -0.056884 -0.056494 -0.056188 -0.055839 -0.055491 -0.055307 -0.054958 -0.05469 -0.05438 -0.05407 -0.053759 -0.053369 -0.053019 -0.052707 -0.052357 -0.052006 -0.051655 0 0 0 -0.060489 -0.060067 -0.059681 -0.059296 -0.058873 -0.058486 -0.058063 -0.05764 -0.057253 -0.056829 -0.056441 -0.056052 -0.055662 -0.055272 -0.054848 -0.054524 -0.054165 -0.053772 -0.053444 -0.053018 -0.052591 -0.052196 -0.051832 -0.051499 -0.051102 -0.050674 -0.050337 -0.049907 -0.049538 -0.049227 -0.048826 -0.048483 -0.048138 -0.047734 -0.047386 -0.047009 -0.046603 -0.046251 -0.045816 -0.045489 -0.045107 -0.044697 -0.044391 -0.044031 -0.043644 -0.043306 -0.042891 -0.042525 -0.042133 -0.041716 -0.04137 -0.040975 -0.040578 -0.040181 -0.040014 -0.039635 -0.039209 -0.038827 -0.03851 -0.038146 -0.037758 -0.037412 -0.036978 -0.036544 -0.036337 -0.035878 -0.035561 -0.035338 -0.034856 -0.034528 -0.034044 -0.033824 -0.033375 -0.032925 -0.03287 -0.032414 -0.032166 -0.031826 -0.031346 -0.031351 -0.030863 0 -0.040142 -0.039299 -0.038709 -0.038117 -0.037478 -0.036824 -0.036213 -0.035586 -0.034931 -0.034276 -0.03366 -0.032978 -0.032348 -0.031654 -0.030986 -0.030319 -0.029723 -0.029067 -0.028411 -0.027733 -0.027098 -0.026453 -0.025786 -0.02514 -0.024474 -0.023817 -0.023134 -0.02247 -0.021806 -0.021168 -0.020512 -0.019652 -0.019004 -0.018267 -0.017628 -0.017099 -0.016468 -0.015817 -0.01516 -0.01437 -0.013732 -0.013219 -0.012608 -0.011954 -0.011305 -0.010656 -0.01003 -0.0093744 -0.0087187 -0.0080631 -0.0074045 -0.0067491 -0.0060937 -0.005434 -0.0047791 -0.0041242 -0.003468 -0.0028111 -0.0021562 -0.0015017 -0.00084817 -0.00019506 0.00046007 0.0011143 0.0017668 0.0024206 0.0030672 0.0037209 0.0043804 0.005034 0.0056853 0.0063386 0.0069808 0.00763 0.008282 0.0089412 0.009609 0.010263 0.010899 0.011551 0.012252 0.012908 0.013563 0.014331 0.014967 0.015614 0.01626 0.016912 0.017487 0.018069 0.018722 0.019374 0.020026 0.020687 0.021339 0.022018 0.02268 0.023325 0.023978 0.024631 0.025285 0.025917 0.02657 0.027212 0.027865 0.028517 0.029181 0.029763 0.030402 0.031053 0.031679 0.032316 0.032966 0.033643 0.034267 0.034931 0.035581 0.036246 0.036882 0.037533 0.038214 0.039051 0.039705 0.040359 0.040834 0.041419 0.042086 0.042736 0.043387 0.044037 0.044616 0.045266 0.045915 0.046546 0.047157 0.047825 0.048397 0.049044 0.049672 0.0503 0.050681 0.051222 0.051864 0.052634 0.053279 0.054314 0.055007 0.055656 0.056396 0.057024 0.057697 0.058417 0.059045 0.060291 0.060949 0.061533 0.062092 0.062002 0.062649 0.063475 0.064483 0.065137 0.065738 0.066232 0.066883 0.067669 0.068322 0.069002 0.06971 0.070363 0.070904 0.071499 0.072093 0.072745 0.073337 0.073988 0.074609 0.075229 0.075879 0.07656 0.07718 0.077768 0.078386 0.079035 0.079685 0.080334 0.080984 0.081633 0.08225 0.082866 0.083515 0.084197
-0.10429 -0.10383 -0.10249 -0.10204 -0.10171 -0.10119 -0.10005 -0.099484 -0.098922 -0.098246 -0.0978 -0.096617 -0.09561 -0.095057 -0.094562 -0.093956 -0.093406 -0.092858 -0.092091 -0.091492 -0.09073 -0.090243 -0.089702 -0.088679 -0.08825 -0.087767 -0.087337 0 0 0 0 0 0 0 0 0 0 0 0 0 0 0 0 0 -0.064491 -0.064047 -0.0637 -0.063352 -0.062957 -0.062563 -0.062216 -0.061823 -0.06143 -0.061129 -0.060737 -0.060436 -0.060134 -0.059832 -0.059484 -0.059181 -0.058834 -0.058486 -0.058182 -0.057834 -0.057486 -0.057181 -0.056833 -0.056485 -0.056137 -0.05583 -0.055482 -0.055257 -0.054908 -0.054681 -0.054371 -0.054061 -0.053711 -0.05336 -0.05301 -0.052659 -0.052309 -0.051958 -0.051646 0 0 0 -0.060478 -0.060019 -0.059671 -0.059285 -0.058898 -0.058511 -0.058088 -0.057665 -0.057242 -0.056819 -0.05643 -0.056041 -0.055618 -0.055261 -0.054837 -0.054546 -0.054187 -0.053827 -0.053466 -0.053039 -0.052644 -0.052249 -0.051885 -0.051519 -0.051122 -0.050693 -0.050356 -0.049957 -0.049557 -0.049216 -0.048786 -0.048472 -0.048098 -0.047723 -0.047375 -0.046998 -0.04662 -0.04624 -0.045832 -0.045478 -0.045096 -0.044686 -0.044407 -0.044046 -0.043659 -0.043295 -0.04288 -0.042514 -0.042098 -0.041705 -0.041383 -0.040964 -0.040543 -0.040169 -0.040003 -0.039601 -0.039197 -0.038793 -0.038454 -0.0382 -0.037769 -0.037443 -0.037009 -0.036533 -0.036325 -0.035867 -0.03577 -0.035347 -0.035 -0.034593 -0.034166 -0.033793 -0.033363 -0.032913 -0.033056 -0.032579 -0.032556 -0.032089 -0.031639 -0.031338 -0.030851 0 0 -0.039283 -0.038647 -0.038146 -0.037357 -0.036793 -0.036211 -0.03557 -0.034914 -0.034245 -0.033617 -0.032961 -0.032306 -0.031612 -0.030921 -0.030255 -0.029683 -0.029016 -0.028394 -0.027716 -0.027082 -0.026405 -0.02577 -0.025093 -0.024428 -0.023763 -0.023062 -0.0224 -0.021755 -0.021134 -0.020504 -0.019636 -0.018919 -0.018236 -0.017605 -0.017082 -0.016412 -0.015763 -0.015144 -0.014354 -0.013715 -0.013202 -0.012591 -0.011919 -0.011266 -0.010618 -0.010006 -0.0093578 -0.0086918 -0.0080337 -0.0073791 -0.0067245 -0.0060699 -0.005411 -0.0047607 -0.0041077 -0.0034487 -0.0027913 -0.002138 -0.0014847 -0.00083168 -0.00017852 0.0004766 0.0011308 0.0017833 0.0024371 0.0030848 0.0037359 0.0043952 0.0050505 0.0056927 0.006345 0.0069861 0.0076374 0.0082886 0.008947 0.0096217 0.010283 0.010915 0.011568 0.012269 0.012924 0.013579 0.014347 0.015008 0.015612 0.016277 0.016928 0.017503 0.018079 0.018708 0.01936 0.020043 0.020695 0.021364 0.022017 0.022688 0.023323 0.023937 0.024609 0.025251 0.025893 0.026523 0.027174 0.027826 0.0285 0.029151 0.029767 0.030394 0.031045 0.031695 0.032307 0.032983 0.033633 0.034283 0.034933 0.035584 0.036248 0.036899 0.037549 0.03823 0.038943 0.039627 0.040376 0.04085 0.041435 0.042102 0.042753 0.043403 0.044054 0.044633 0.045282 0.045932 0.046544 0.047174 0.047842 0.048413 0.049061 0.049649 0.050094 0.050657 0.051238 0.051902 0.052629 0.053295 0.054265 0.054957 0.055606 0.056322 0.056972 0.057644 0.058387 0.059061 0.060308 0.060965 0.061501 0.062108 0.062018 0.06254 0.063491 0.0645 0.064998 0.06565 0.066196 0.066873 0.067551 0.068202 0.068963 0.069616 0.070212 0.070779 0.071344 0.071995 0.072645 0.073295 0.073886 0.074536 0.075125 0.075774 0.076454 0.077073 0.077722 0.07834 0.078989 0.079638 0.080254 0.080935 0.081584 0.082134 0.082782 0.083431 0.084079
-0.10398 -0.10358 -0.10248 -0.10197 -0.10152 -0.10107 -0.099863 -0.099473 -0.098911 -0.098235 -0.097732 -0.096549 -0.095486 -0.095046 -0.094551 -0.093945 -0.093395 -0.092792 -0.09208 -0.09159 -0.090719 -0.090178 -0.089691 -0.088615 -0.088185 -0.087703 -0.087273 -0.086791 0 0 0 0 0 0 0 0 0 0 0 0 -0.065825 -0.065478 -0.065227 -0.064879 -0.064482 -0.064038 -0.063691 -0.063296 -0.062902 -0.062508 -0.062114 -0.061768 -0.061375 -0.061075 -0.060728 -0.060427 -0.06008 -0.059823 -0.059476 -0.059128 -0.058825 -0.058477 -0.05813 -0.057782 -0.057478 -0.05713 -0.056782 -0.056434 -0.056128 -0.05578 -0.055473 -0.055207 -0.054899 -0.054672 -0.054362 -0.054012 -0.053702 -0.053351 -0.053001 -0.052651 -0.0523 -0.05195 -0.051599 0 0 0 -0.060393 -0.060009 -0.05966 -0.059274 -0.058924 -0.058501 -0.058078 -0.057654 -0.057266 -0.056843 -0.056454 -0.05603 -0.055607 -0.055251 -0.054827 -0.054569 -0.05421 -0.053849 -0.053488 -0.053093 -0.052666 -0.052302 -0.051906 -0.05154 -0.051142 -0.050713 -0.050345 -0.049976 -0.049576 -0.049206 -0.048775 -0.048461 -0.048087 -0.047712 -0.047364 -0.046987 -0.046609 -0.046229 -0.045821 -0.045494 -0.045085 -0.044701 -0.044396 -0.044035 -0.043647 -0.04331 -0.042869 -0.042503 -0.042086 -0.041693 -0.041372 -0.040952 -0.040556 -0.040158 -0.039922 -0.039566 -0.039163 -0.038714 -0.038686 -0.038254 -0.037865 -0.037453 -0.03704 -0.036647 -0.036313 -0.035855 -0.035738 -0.035315 -0.034989 -0.034562 -0.034154 -0.033781 -0.033332 -0.032883 -0.033404 -0.032939 -0.032579 -0.032094 -0.031627 -0.031359 -0.030871 0 0 -0.039094 -0.038461 -0.037827 -0.037237 -0.036528 -0.03585 -0.03499 -0.034372 -0.033672 -0.033015 -0.032384 -0.031739 -0.031533 -0.030843 -0.030214 -0.029655 -0.028988 -0.027984 -0.027348 -0.027022 -0.026378 -0.025722 -0.025067 -0.024402 -0.023728 -0.022991 -0.02233 -0.021695 -0.0209 -0.020268 -0.019525 -0.018864 -0.018205 -0.017546 -0.017045 -0.016363 -0.015696 -0.015031 -0.014309 -0.013671 -0.013023 -0.012504 -0.011879 -0.011223 -0.010577 -0.0099177 -0.0092969 -0.0086581 -0.0080045 -0.0073509 -0.0067 -0.0060486 -0.0053838 -0.0047291 -0.0040441 -0.0033981 -0.0027704 -0.0021181 -0.0014478 -0.00080353 -0.00016026 0.00048706 0.0011346 0.0017791 0.0024254 0.0030717 0.0037195 0.0043713 0.0050408 0.0056978 0.0063488 0.006997 0.0076446 0.0082984 0.0089491 0.0096037 0.010201 0.010814 0.011451 0.012096 0.012741 0.013396 0.014211 0.014616 0.015259 0.015895 0.016544 0.017422 0.018023 0.018702 0.019345 0.01982 0.020464 0.021049 0.021692 0.02247 0.023135 0.023916 0.024566 0.025217 0.025857 0.026508 0.027148 0.02782 0.028471 0.02911 0.02976 0.030398 0.031049 0.031674 0.032323 0.03296 0.033609 0.034258 0.034922 0.0356 0.03625 0.036915 0.037521 0.038201 0.038866 0.039549 0.040248 0.040606 0.041121 0.041799 0.042394 0.043021 0.043595 0.044221 0.044954 0.04558 0.046225 0.046869 0.047436 0.048041 0.048703 0.049366 0.050009 0.050632 0.051233 0.051918 0.052603 0.05329 0.054238 0.054886 0.055533 0.056271 0.056874 0.057638 0.05831 0.058889 0.059514 0.059826 0.060398 0.061042 0.061761 0.062481 0.063254 0.064106 0.064859 0.065457 0.066106 0.066809 0.067487 0.068164 0.06887 0.069521 0.070088 0.070598 0.071247 0.071896 0.072545 0.073194 0.073784 0.074463 0.075022 0.07573 0.076379 0.077058 0.077676 0.078262 0.07891 0.079526 0.080174 0.080854 0.08147 0.082085 0.082699 0.08338 0.084028
-0.10396 -0.10357 -0.10235 -0.1019 -0.10145 -0.10106 -0.099851 -0.099346 -0.098899 -0.098223 -0.09772 -0.096424 -0.095362 -0.094923 -0.094484 -0.093878 -0.093384 -0.092836 -0.092124 -0.091579 -0.090708 -0.090167 -0.08968 -0.088658 -0.088175 -0.087692 -0.087263 -0.08678 0 0 0 0 0 0 0 0 0 0 0 -0.065868 -0.065571 -0.065273 -0.065072 -0.064725 -0.064377 -0.063934 -0.063587 -0.06324 -0.062799 -0.062405 -0.062059 -0.061666 -0.061321 -0.060975 -0.060629 -0.060328 -0.060027 -0.05968 -0.059333 -0.058987 -0.05864 -0.058294 -0.057947 -0.057558 -0.057383 -0.057036 -0.056688 -0.056341 -0.056036 -0.05573 -0.055423 -0.055157 -0.054809 -0.054541 -0.054273 -0.053963 -0.053653 -0.053303 -0.052953 -0.052642 -0.052291 -0.051941 -0.05159 0 0 0 -0.060383 -0.059961 -0.059613 -0.059227 -0.058841 -0.05849 -0.058067 -0.057644 -0.057221 -0.056832 -0.056444 -0.05602 -0.05563 -0.05524 -0.054816 -0.054558 -0.054199 -0.053838 -0.05351 -0.053082 -0.052655 -0.052291 -0.051895 -0.051529 -0.051131 -0.050702 -0.050334 -0.049966 -0.049565 -0.049165 -0.048764 -0.04845 -0.048076 -0.047672 -0.047353 -0.046976 -0.046626 -0.046218 -0.04581 -0.045483 -0.045074 -0.04469 -0.044411 -0.044024 -0.043662 -0.043299 -0.042858 -0.042492 -0.042075 -0.041682 -0.041361 -0.040941 -0.040521 -0.040147 -0.039934 -0.039555 -0.039152 -0.038703 -0.038409 -0.038177 -0.037832 -0.037442 -0.037028 -0.036698 -0.036281 -0.035844 -0.035686 -0.035284 -0.034938 -0.034512 -0.034104 -0.03377 -0.033339 -0.032871 -0.033014 -0.032537 -0.032584 -0.0321 -0.031598 -0.031347 -0.030859 0 0 -0.038984 -0.038367 -0.03772 -0.037072 -0.036395 -0.03569 -0.034959 -0.034273 -0.033629 -0.032919 -0.032211 -0.031531 -0.030865 -0.030139 -0.029489 -0.028863 -0.028431 -0.027789 -0.027222 -0.026578 -0.02586 -0.025207 -0.024584 -0.023941 -0.023288 -0.022654 -0.022055 -0.021351 -0.020716 -0.020122 -0.019281 -0.018598 -0.017954 -0.017311 -0.016682 -0.016046 -0.015416 -0.014779 -0.014287 -0.013644 -0.013007 -0.012378 -0.011739 -0.011099 -0.010455 -0.0098143 -0.0091696 -0.0085248 -0.0079086 -0.0072616 -0.0066039 -0.0059578 -0.0053097 -0.0046638 -0.0040132 -0.0033642 -0.002721 -0.0020724 -0.0014292 -0.00078759 -0.0001435 0.00050297 0.0011477 0.0017932 0.0024387 0.0030843 0.0037313 0.0043823 0.005037 0.0056869 0.0063347 0.0069798 0.0076243 0.008275 0.0089369 0.0096009 0.010119 0.010752 0.011421 0.012068 0.012716 0.013353 0.013985 0.014627 0.015269 0.015898 0.016533 0.017181 0.017809 0.018457 0.019106 0.019716 0.020381 0.021023 0.021655 0.022332 0.023049 0.023693 0.024426 0.024941 0.025584 0.026334 0.027001 0.027692 0.028328 0.02887 0.029705 0.03022 0.030854 0.031436 0.032055 0.032699 0.03337 0.034014 0.034729 0.035218 0.035875 0.036533 0.037162 0.037805 0.038402 0.039028 0.039686 0.040313 0.041004 0.041664 0.042307 0.042898 0.043523 0.044183 0.044844 0.045505 0.046148 0.046753 0.047395 0.048018 0.04866 0.049322 0.049965 0.050607 0.051167 0.051808 0.052471 0.053112 0.05395 0.054616 0.055037 0.055679 0.056434 0.057054 0.05758 0.058222 0.058863 0.059384 0.060122 0.060787 0.061453 0.062045 0.06266 0.063301 0.063813 0.064426 0.065065 0.065678 0.066371 0.066983 0.068776 0.069343 0.069825 0.070388 0.070921 0.071567 0.072242 0.072918 0.073535 0.074151 0.074797 0.075413 0.076089 0.076766 0.077412 0.078027 0.07861 0.07916 0.079805 0.080482 0.081127 0.081739 0.082384 0.083062 0.083774
0 0 -0.1024 -0.10189 -0.1015 -0.10104 -0.099898 -0.099335 -0.098831 -0.098155 -0.097709 -0.096413 -0.095407 -0.094968 -0.094473 -0.093922 -0.093373 -0.092825 -0.092168 -0.091622 -0.090806 -0.090372 -0.089669 -0.088701 -0.088217 -0.087734 -0.087304 -0.086875 0 0 0 0 0 0 0 0 0 0 0 -0.065859 -0.065562 -0.065265 -0.065064 -0.064668 -0.064368 -0.063973 -0.063531 -0.063184 -0.062696 -0.06235 -0.062004 -0.061658 -0.061312 -0.060966 -0.06062 -0.060274 -0.059973 -0.059626 -0.059236 -0.058934 -0.058588 -0.058198 -0.057852 -0.057549 -0.057374 -0.056942 -0.056637 -0.05629 -0.056027 -0.055679 -0.055373 -0.055066 -0.054759 -0.054451 -0.054264 -0.053995 -0.053604 -0.053255 -0.052905 -0.052594 -0.052244 -0.051932 -0.051582 0 0 0 -0.060372 -0.05995 -0.059566 -0.05918 -0.058794 -0.058444 -0.058056 -0.057633 -0.057245 -0.056822 -0.056433 -0.056009 -0.05562 -0.055263 -0.054839 -0.054547 -0.054188 -0.053828 -0.053499 -0.053071 -0.052676 -0.05228 -0.051852 -0.051518 -0.051121 -0.050692 -0.050324 -0.049955 -0.049585 -0.049154 -0.048753 -0.048439 -0.048065 -0.04769 -0.047371 -0.047021 -0.046642 -0.046235 -0.045827 -0.045472 -0.04509 -0.044679 -0.044321 -0.044091 -0.043677 -0.043313 -0.042872 -0.042506 -0.042064 -0.041671 -0.041326 -0.04093 -0.040533 -0.040136 -0.039923 -0.039567 -0.039163 -0.038759 -0.038398 -0.038166 -0.037713 -0.037451 -0.036996 -0.036686 -0.03627 -0.035832 -0.035655 -0.035331 -0.034868 -0.034539 -0.034054 -0.033758 -0.033475 -0.033005 -0.033002 -0.032525 -0.032572 -0.032105 -0.031687 -0.031351 -0.030879 0 0 -0.038968 -0.038305 -0.037628 -0.037041 -0.036378 -0.035588 -0.034901 -0.034257 -0.033572 -0.032836 -0.032129 -0.031489 -0.030787 -0.030111 -0.029473 -0.028835 -0.028415 -0.027783 -0.027173 -0.02654 -0.025854 -0.02518 -0.024548 -0.023924 -0.023272 -0.022638 -0.022039 -0.021334 -0.0207 -0.020106 -0.019265 -0.018597 -0.017945 -0.017295 -0.016666 -0.016029 -0.015393 -0.014763 -0.014271 -0.013628 -0.01299 -0.012362 -0.011723 -0.011083 -0.010439 -0.009798 -0.0091533 -0.0085085 -0.0078923 -0.0072452 -0.0065876 -0.005932 -0.0052848 -0.0046401 -0.0039937 -0.0033479 -0.0027048 -0.0020561 -0.001413 -0.00077008 -0.00012749 0.00051805 0.0011616 0.0018066 0.0024511 0.0030968 0.0037431 0.0043951 0.0050452 0.0056918 0.0063383 0.0069821 0.0076253 0.0082847 0.0089676 0.0096173 0.010136 0.010773 0.011418 0.012065 0.012706 0.013348 0.013989 0.014625 0.015267 0.015908 0.016543 0.017191 0.017825 0.018466 0.019115 0.01974 0.020373 0.021013 0.021654 0.022358 0.023065 0.023709 0.024442 0.024958 0.025611 0.026297 0.026963 0.02763 0.028287 0.028898 0.029519 0.030176 0.030808 0.03144 0.032071 0.032689 0.033359 0.034017 0.034703 0.035291 0.035877 0.03652 0.037163 0.037775 0.038402 0.039013 0.039654 0.040296 0.040938 0.04163 0.042272 0.042897 0.043504 0.044146 0.044842 0.045484 0.046127 0.04675 0.047354 0.047996 0.048618 0.049279 0.04992 0.050603 0.051183 0.051803 0.052423 0.053107 0.053857 0.0545 0.055053 0.05565 0.056382 0.057071 0.057597 0.058238 0.05876 0.059352 0.059992 0.060656 0.06132 0.062061 0.062677 0.063317 0.063829 0.064442 0.065081 0.065614 0.066306 0.067027 0.068793 0.069221 0.069701 0.070319 0.070766 0.071439 0.072113 0.072758 0.073522 0.074138 0.074693 0.075308 0.075953 0.07669 0.077367 0.077918 0.078563 0.079113 0.07966 0.080304 0.080947 0.081591 0.082234 0.082944 0.083588
0 0 -0.10233 -0.10193 -0.10148 -0.10109 -0.099771 -0.099324 -0.098819 -0.098144 -0.097584 -0.096402 -0.095509 -0.095013 -0.094518 -0.093911 -0.093418 -0.092814 -0.092212 -0.091666 -0.090741 -0.089712 -0.089281 -0.088797 -0.088206 -0.087723 -0.087294 -0.086969 0 0 0 0 0 0 0 0 0 0 0 -0.065851 -0.065504 -0.06506 -0.064909 -0.064611 -0.064312 -0.063917 -0.063474 -0.063128 -0.062687 -0.062341 -0.061948 -0.061603 -0.061303 -0.060957 -0.060566 -0.060265 -0.059919 -0.059573 -0.059227 -0.058881 -0.058535 -0.058189 -0.057799 -0.057411 -0.057108 -0.056848 -0.056586 -0.056239 -0.055976 -0.055629 -0.05524 -0.055017 -0.05471 -0.054361 -0.054094 -0.053745 -0.053516 -0.053167 -0.052857 -0.052546 -0.052196 -0.051885 -0.051496 -0.051222 -0.050834 0 0 -0.059829 -0.059481 -0.059097 -0.058747 -0.058397 -0.05801 -0.057622 -0.057199 -0.056811 -0.056422 -0.056033 -0.055609 -0.055253 -0.054828 -0.054537 -0.054177 -0.053817 -0.053455 -0.053061 -0.052665 -0.052269 -0.051842 -0.051476 -0.051079 -0.050681 -0.050313 -0.049944 -0.049574 -0.049203 -0.048772 -0.048428 -0.048083 -0.047679 -0.04736 -0.04701 -0.046603 -0.046224 -0.045789 -0.045461 -0.045052 -0.044642 -0.044231 -0.044132 -0.043692 -0.043302 -0.042886 -0.042495 -0.042078 -0.04166 -0.041314 -0.040895 -0.040498 -0.040148 -0.039934 -0.039555 -0.039175 -0.03877 -0.038453 -0.038132 -0.037701 -0.037333 -0.037026 -0.036654 -0.036238 -0.03582 -0.035563 -0.03524 -0.034778 -0.034508 -0.034043 -0.033802 -0.033685 -0.033212 -0.033062 -0.032602 -0.03256 -0.032075 -0.03159 -0.031389 -0.0309 0 0 -0.038842 -0.038243 -0.037566 -0.036519 -0.035895 -0.035141 -0.034448 -0.033826 -0.033176 -0.03254 -0.032009 -0.031384 -0.03072 -0.030083 -0.029445 -0.028807 -0.028399 -0.027734 -0.027091 -0.02647 -0.025806 -0.025123 -0.024522 -0.023908 -0.023049 -0.022421 -0.021783 -0.021154 -0.020425 -0.019798 -0.019233 -0.018581 -0.017922 -0.017279 -0.016643 -0.016007 -0.015371 -0.014729 -0.014134 -0.013491 -0.012869 -0.012236 -0.011598 -0.010973 -0.010317 -0.0096832 -0.0090634 -0.0084239 -0.0077906 -0.0071738 -0.0065263 -0.005899 -0.0052559 -0.0046126 -0.0039679 -0.0032793 -0.0026463 -0.0020094 -0.0013759 -0.00074319 -0.0001099 0.00053067 0.0011755 0.0018185 0.0024634 0.0031068 0.0037563 0.0044043 0.0050534 0.0057012 0.0063444 0.00699 0.0076294 0.0082643 0.008905 0.0095412 0.010156 0.01078 0.011421 0.012066 0.012707 0.013348 0.013983 0.014612 0.01527 0.015905 0.016545 0.017186 0.017826 0.018475 0.019123 0.019732 0.020364 0.021004 0.021635 0.022247 0.022933 0.023573 0.024232 0.024873 0.025596 0.02626 0.026914 0.027591 0.028235 0.028868 0.029488 0.030168 0.030775 0.031406 0.032036 0.032692 0.033335 0.033992 0.034677 0.035265 0.035864 0.036463 0.037104 0.037731 0.038356 0.038966 0.039606 0.040263 0.040921 0.041596 0.042237 0.042879 0.043503 0.044144 0.04484 0.0455 0.046124 0.046728 0.047351 0.047973 0.048634 0.049275 0.049937 0.050578 0.051178 0.051777 0.052375 0.053059 0.053765 0.054428 0.055003 0.055621 0.056307 0.056279 0.056936 0.0579 0.058681 0.059248 0.059886 0.060573 0.061212 0.061272 0.061905 0.062384 0.063041 0.063673 0.064674 0.065523 0.066187 0.066716 0.067407 0.068044 0.068709 0.069572 0.070583 0.071312 0.071955 0.07254 0.073006 0.073498 0.074138 0.075142 0.075877 0.076583 0.077227 0.077307 0.077947 0.078778 0.079548 0.080223 0.080865 0.081475 0.082084 0.082793 0.083402
0 0 -0.10237 -0.10192 -0.10153 -0.10102 -0.099586 -0.099197 -0.098693 -0.098018 -0.097459 -0.096391 -0.095667 -0.095058 -0.094562 -0.093956 -0.093462 -0.092858 -0.092146 -0.091655 -0.090567 -0.089701 -0.089378 -0.088786 -0.088249 -0.087765 -0.087335 -0.086906 0 0 0 0 0 0 0 0 0 0 0 -0.065842 -0.065299 -0.064954 -0.064754 -0.064457 -0.064062 -0.063621 -0.063323 -0.062977 -0.062537 -0.062192 -0.061847 -0.061502 -0.061202 -0.060857 -0.060511 -0.060166 -0.059865 -0.05952 -0.059129 -0.058784 -0.058482 -0.058093 -0.057747 -0.057402 -0.057056 -0.056711 -0.05645 -0.056188 -0.055884 -0.055537 -0.05519 -0.054926 -0.054619 -0.054312 -0.054045 -0.053697 -0.053348 -0.053039 -0.052691 -0.052459 -0.052149 -0.051837 -0.051487 -0.051175 -0.050825 0 0 -0.059781 -0.059397 -0.059049 -0.058701 -0.058386 -0.057964 -0.057612 -0.057189 -0.0568 -0.056411 -0.056022 -0.055632 -0.055242 -0.054851 -0.054526 -0.054167 -0.053773 -0.053477 -0.05305 -0.052623 -0.052259 -0.051831 -0.051465 -0.051068 -0.05067 -0.050302 -0.049933 -0.049563 -0.049221 -0.04879 -0.048446 -0.048072 -0.047697 -0.047349 -0.046999 -0.046593 -0.046185 -0.045777 -0.045423 -0.045041 -0.044631 -0.04422 -0.044121 -0.04368 -0.043291 -0.042875 -0.042484 -0.042066 -0.041649 -0.041303 -0.040884 -0.040464 -0.040113 -0.039807 -0.039338 -0.039209 -0.038781 -0.038464 -0.038077 -0.037668 -0.037322 -0.03691 -0.036476 -0.036267 -0.035809 -0.035571 -0.03515 -0.034844 -0.034438 -0.033993 -0.033791 -0.033673 -0.0332 -0.03305 -0.03259 -0.032548 -0.032063 -0.031578 -0.03131 -0.030838 -0.03035 0 -0.038826 -0.038196 -0.037066 -0.036444 -0.035806 -0.035125 -0.034418 -0.033783 -0.033147 -0.032524 -0.031889 -0.031265 -0.030617 -0.029993 -0.029357 -0.028697 -0.028084 -0.027437 -0.026823 -0.026208 -0.02555 -0.024914 -0.024238 -0.023612 -0.022986 -0.022368 -0.021758 -0.02113 -0.02035 -0.01975 -0.019139 -0.018519 -0.017877 -0.017234 -0.016599 -0.015971 -0.015336 -0.014707 -0.014083 -0.013447 -0.012822 -0.012185 -0.011549 -0.010921 -0.010284 -0.0096475 -0.0090142 -0.0083804 -0.0077366 -0.0071141 -0.0064891 -0.0058495 -0.00521 -0.0045704 -0.0039261 -0.0032499 -0.0026249 -0.001991 -0.0013587 -0.0007254 -9.203e-05 0.00053686 0.0011657 0.0017917 0.0024195 0.0030461 0.0036813 0.0043085 0.0049371 0.0055473 0.0061713 0.0068004 0.007427 0.0081103 0.0087197 0.0093491 0.010135 0.010774 0.011414 0.012053 0.012672 0.013304 0.013937 0.014568 0.015218 0.015856 0.016481 0.017111 0.017756 0.018408 0.019054 0.019676 0.020306 0.020926 0.021537 0.022128 0.022818 0.023503 0.02416 0.024839 0.025561 0.026181 0.026822 0.027485 0.028126 0.028779 0.029457 0.030111 0.030754 0.031371 0.032013 0.032655 0.033311 0.033953 0.034596 0.035224 0.035793 0.036375 0.037015 0.037609 0.038233 0.038824 0.039478 0.040149 0.040821 0.041426 0.041877 0.04253 0.04336 0.044035 0.044765 0.045425 0.046047 0.046669 0.047252 0.047872 0.048551 0.049191 0.049831 0.050472 0.050759 0.051563 0.052222 0.052817 0.053323 0.054158 0.054461 0.055141 0.055707 0.056157 0.056812 0.057185 0.057838 0.058685 0.059341 0.060146 0.06078 0.061213 0.061845 0.062451 0.063031 0.063662 0.064346 0.064871 0.065529 0.066024 0.066653 0.067311 0.067941 0.06874 0.069828 0.070061 0.070722 0.071765 0.072401 0.072559 0.073191 0.073853 0.074516 0.07487 0.0755 0.076098 0.076538 0.077134 0.079178 0.079817 0.079051 0.079679 0.080307 0.081939 0.082339
0 0 -0.1026 -0.10209 -0.10152 -0.10101 -0.099574 -0.09907 -0.098624 -0.09795 -0.097448 -0.096436 -0.095825 -0.095328 -0.094831 -0.094112 -0.093451 -0.092847 -0.09219 -0.091644 -0.090556 -0.089961 -0.089421 -0.088829 -0.088344 -0.087914 -0.087536 -0.087157 0 0 0 0 0 0 0 0 0 0 0 0 -0.06529 -0.064994 -0.064697 -0.0644 -0.064054 -0.06366 -0.063267 -0.062874 -0.062529 -0.062183 -0.061791 -0.061493 -0.061148 -0.060802 -0.060457 -0.060157 -0.059812 -0.059466 -0.059121 -0.058775 -0.05843 -0.058084 -0.057739 -0.057393 -0.057048 -0.056702 -0.056399 -0.056264 -0.055917 -0.055487 -0.055181 -0.054917 -0.05461 -0.054303 -0.054036 -0.053648 -0.053339 -0.052991 -0.052682 -0.052411 -0.05214 -0.05179 -0.05144 -0.051167 -0.050817 0 0 -0.059771 -0.059387 -0.059039 -0.05869 -0.058376 -0.057953 -0.057601 -0.057213 -0.056824 -0.056401 -0.056046 -0.055656 -0.055299 -0.054874 -0.054582 -0.054189 -0.053795 -0.053466 -0.053039 -0.052676 -0.05228 -0.051852 -0.051486 -0.051057 -0.050659 -0.050322 -0.049982 -0.049582 -0.04924 -0.048838 -0.048465 -0.04809 -0.047686 -0.047366 -0.046988 -0.046609 -0.046202 -0.045794 -0.045439 -0.04503 -0.04462 -0.044235 -0.04411 -0.043669 -0.04328 -0.042864 -0.042472 -0.042055 -0.041638 -0.041292 -0.040872 -0.040476 -0.040102 -0.039727 -0.039327 -0.039197 -0.038792 -0.038474 -0.038066 -0.037678 -0.037332 -0.036919 -0.036464 -0.036256 -0.035797 -0.03562 -0.035178 -0.034774 -0.034446 -0.033981 -0.033816 -0.033698 -0.033243 -0.033469 -0.032985 -0.032535 -0.032102 -0.031718 -0.031281 -0.030826 -0.030338 0 0 0 -0.03705 -0.036428 -0.035761 -0.035066 -0.034388 -0.033753 -0.033131 -0.032482 -0.031872 -0.031211 -0.030576 -0.029952 -0.029317 -0.028681 -0.028068 -0.027421 -0.026807 -0.026171 -0.025534 -0.024898 -0.024232 -0.023596 -0.02297 -0.022334 -0.021707 -0.021131 -0.020334 -0.019709 -0.019092 -0.018465 -0.017839 -0.017204 -0.016563 -0.015936 -0.015301 -0.014685 -0.01405 -0.01342 -0.012785 -0.012149 -0.011519 -0.010883 -0.010247 -0.0096117 -0.0089761 -0.0083473 -0.0077237 -0.0070922 -0.0064572 -0.0058215 -0.0051833 -0.0045451 -0.00391 -0.0032353 -0.0026035 -0.0019726 -0.0013411 -0.0007077 -7.619e-05 0.00055273 0.0011801 0.0018083 0.0024344 0.003062 0.0036926 0.0043243 0.0049488 0.0055701 0.0061897 0.0068162 0.0074521 0.0081229 0.0087356 0.009365 0.010151 0.010782 0.01142 0.012064 0.012677 0.01331 0.013919 0.014555 0.01521 0.015847 0.016457 0.017086 0.017721 0.018372 0.019016 0.019652 0.020305 0.020891 0.021509 0.022144 0.022834 0.023461 0.024127 0.024764 0.025587 0.026144 0.026794 0.027445 0.028119 0.02876 0.029461 0.030127 0.030758 0.031362 0.03199 0.032645 0.033314 0.033928 0.034598 0.035183 0.035737 0.036362 0.036986 0.037564 0.038171 0.038777 0.03943 0.0401 0.040771 0.041392 0.041961 0.042529 0.043288 0.044069 0.044709 0.045422 0.046007 0.046628 0.04723 0.047869 0.048528 0.049168 0.049827 0.050467 0.050941 0.051474 0.052174 0.052682 0.053339 0.054174 0.054477 0.055157 0.055723 0.056173 0.056828 0.057201 0.057854 0.058701 0.059333 0.060039 0.060671 0.061229 0.06181 0.062441 0.063047 0.063678 0.064283 0.064887 0.065518 0.06604 0.066669 0.067327 0.067957 0.068756 0.069845 0.070077 0.070738 0.071781 0.072417 0.072575 0.073177 0.073869 0.074501 0.074979 0.075485 0.076114 0.076554 0.07715 0.079194 0.079833 0.079067 0.079695 0.080323 0.081955 0.082389
0 0 -0.10253 -0.10208 -0.10151 -0.101 -0.099621 -0.099175 -0.098613 -0.097996 -0.097493 -0.096425 -0.095814 -0.095316 -0.09482 -0.094045 -0.09344 -0.092836 -0.092124 -0.091524 -0.090599 -0.090004 -0.089464 -0.088871 -0.08844 -0.088009 -0.087578 -0.087409 0 0 0 0 0 0 0 0 0 0 0 -0.065676 -0.065331 -0.065034 -0.064688 -0.064391 -0.064045 -0.063603 -0.063258 -0.062865 -0.06252 -0.062128 -0.061783 -0.061438 -0.061093 -0.060748 -0.060448 -0.060103 -0.059803 -0.059413 -0.059068 -0.058722 -0.058421 -0.058075 -0.057687 -0.057341 -0.057039 -0.056694 -0.056348 -0.056255 -0.055866 -0.055478 -0.055131 -0.054908 -0.054601 -0.054295 -0.054027 -0.053639 -0.053291 -0.052943 -0.052634 -0.052402 -0.052092 -0.051781 -0.051393 0 0 0 -0.060144 -0.059723 -0.059376 -0.059028 -0.058679 -0.058365 -0.057942 -0.05759 -0.057202 -0.056779 -0.056425 -0.056035 -0.055645 -0.055288 -0.054897 -0.054571 -0.054211 -0.053817 -0.053488 -0.05306 -0.052665 -0.0523 -0.051872 -0.051506 -0.051108 -0.05071 -0.050341 -0.050002 -0.049601 -0.049229 -0.048827 -0.048454 -0.048079 -0.047646 -0.047355 -0.046977 -0.046571 -0.046219 -0.04581 -0.045455 -0.045046 -0.044635 -0.044329 -0.043995 -0.043607 -0.043269 -0.042853 -0.042461 -0.042044 -0.041626 -0.041281 -0.040885 -0.040465 -0.040114 -0.039715 -0.039407 -0.039163 -0.038758 -0.038463 -0.038076 -0.037753 -0.037341 -0.036929 -0.036577 -0.036265 -0.035826 -0.035628 -0.035205 -0.034821 -0.034588 -0.03414 -0.033804 -0.033649 -0.033194 -0.033457 -0.032972 -0.032523 -0.032073 -0.031706 -0.031252 -0.030797 -0.030309 0 0 0 -0.036883 -0.036338 -0.035687 -0.035007 -0.034316 -0.033626 -0.032803 -0.032161 -0.031739 -0.030889 -0.03026 -0.029753 -0.02899 -0.028372 -0.027812 -0.027181 -0.026747 -0.026123 -0.025487 -0.024851 -0.024196 -0.023561 -0.022926 -0.022291 -0.021629 -0.020848 -0.020218 -0.019661 -0.019052 -0.018442 -0.017808 -0.017174 -0.01654 -0.015907 -0.015273 -0.014651 -0.014028 -0.013393 -0.012758 -0.012123 -0.011489 -0.010854 -0.010219 -0.0095879 -0.0089527 -0.008321 -0.0076982 -0.0070675 -0.0064306 -0.0057936 -0.0051567 -0.004516 -0.0038654 -0.003218 -0.0025855 -0.0019542 -0.0013225 -0.00069006 -6.029e-05 0.00056742 0.001195 0.0018211 0.0024482 0.0030778 0.0037054 0.0043312 0.0049565 0.0055789 0.0061978 0.0068321 0.0074648 0.0080818 0.0086792 0.0093073 0.0099277 0.010569 0.011195 0.011874 0.012502 0.013125 0.013884 0.014547 0.015195 0.01583 0.016446 0.01706 0.017701 0.018335 0.01897 0.019532 0.020155 0.020779 0.021472 0.022033 0.022655 0.023257 0.023877 0.024305 0.02494 0.025554 0.026059 0.026692 0.027292 0.027913 0.028535 0.029632 0.030276 0.030972 0.031501 0.032146 0.032669 0.03323 0.033858 0.034814 0.035376 0.036023 0.036701 0.037473 0.038109 0.038698 0.039381 0.040067 0.040737 0.041391 0.041978 0.042284 0.042934 0.043548 0.044126 0.044776 0.045893 0.046588 0.04715 0.047788 0.048524 0.049164 0.049803 0.050442 0.050936 0.051427 0.052041 0.052375 0.053007 0.053462 0.053958 0.054563 0.055214 0.055773 0.0564 0.057004 0.057631 0.058548 0.059227 0.059931 0.060588 0.061144 0.061775 0.062406 0.063011 0.063642 0.064272 0.06485 0.065453 0.066056 0.066493 0.066787 0.067412 0.068235 0.069261 0.069862 0.07058 0.071034 0.071634 0.072322 0.073102 0.073794 0.074425 0.07484 0.075407 0.075942 0.076095 0.076687 0.077376 0.077838 0.078461 0.079645 0.080272 0.080933 0.081561
0 0 -0.10252 -0.10201 -0.1015 -0.10099 -0.09961 -0.099221 -0.098717 -0.098042 -0.097482 -0.096414 -0.095746 -0.095193 -0.094697 -0.093867 -0.093318 -0.09277 -0.092113 -0.091513 -0.090589 -0.090101 -0.089614 -0.089021 -0.088589 -0.08821 -0.087778 -0.087398 0 0 0 0 0 0 0 0 0 0 0 -0.065668 -0.065322 -0.065025 -0.06468 -0.064382 -0.063988 -0.063595 -0.063201 -0.062856 -0.062464 -0.062072 -0.061728 -0.061383 -0.061038 -0.060648 -0.060303 -0.060004 -0.059659 -0.059315 -0.058925 -0.058625 -0.058324 -0.057979 -0.057634 -0.057246 -0.056945 -0.056599 -0.056339 -0.056246 -0.055899 -0.055428 -0.055123 -0.054899 -0.054552 -0.054245 -0.053978 -0.05363 -0.053242 -0.052934 -0.052586 -0.052316 -0.052045 -0.051734 -0.051384 0 0 0 -0.060133 -0.05975 -0.059402 -0.059018 -0.058669 -0.058318 -0.057932 -0.057544 -0.057156 -0.056768 -0.056448 -0.056024 -0.055634 -0.055345 -0.054953 -0.054627 -0.054266 -0.053872 -0.053542 -0.053114 -0.052718 -0.052353 -0.051924 -0.051558 -0.051159 -0.05076 -0.050391 -0.049991 -0.04959 -0.049218 -0.048816 -0.048414 -0.04801 -0.047635 -0.047316 -0.046966 -0.046587 -0.046235 -0.045826 -0.045471 -0.045061 -0.044677 -0.044344 -0.043984 -0.04357 -0.043232 -0.042816 -0.0425 -0.042082 -0.041689 -0.041318 -0.040922 -0.04043 -0.04008 -0.03982 -0.039396 -0.039152 -0.038702 -0.038496 -0.038065 -0.037742 -0.03733 -0.036938 -0.036628 -0.036191 -0.035815 -0.035636 -0.035273 -0.034809 -0.034576 -0.034128 -0.033792 -0.033637 -0.033182 -0.033444 -0.03296 -0.032493 -0.032043 -0.03166 -0.031207 -0.030752 -0.030297 0 0 0 -0.036867 -0.036247 -0.035598 -0.03492 -0.034159 -0.033486 -0.032801 -0.032171 -0.031632 -0.030924 -0.030256 -0.029664 -0.028998 -0.028356 -0.02775 -0.027165 -0.026622 -0.02601 -0.02545 -0.024815 -0.024111 -0.023477 -0.022881 -0.022238 -0.021613 -0.020832 -0.020202 -0.019581 -0.019044 -0.018411 -0.017778 -0.017137 -0.016511 -0.015884 -0.015251 -0.014617 -0.013995 -0.013355 -0.012727 -0.012083 -0.011411 -0.010784 -0.010157 -0.0095288 -0.0089038 -0.0082778 -0.007657 -0.0070284 -0.0063935 -0.005754 -0.0051176 -0.0044853 -0.0038494 -0.0032021 -0.0025632 -0.0019303 -0.0013006 -0.00067139 -4.4271e-05 0.00058132 0.0012068 0.0018316 0.0024568 0.0030872 0.0037105 0.0043308 0.0049538 0.0055785 0.0062033 0.0068337 0.0074589 0.0080842 0.008695 0.0093192 0.0099434 0.010576 0.011229 0.01187 0.012497 0.013146 0.013905 0.014533 0.015173 0.015807 0.016408 0.017041 0.017674 0.018291 0.018923 0.019548 0.020171 0.020795 0.0214 0.02203 0.022642 0.023244 0.023903 0.024321 0.024914 0.025559 0.026151 0.026697 0.027319 0.027917 0.028551 0.029648 0.030292 0.030988 0.031517 0.032162 0.032685 0.033246 0.033874 0.03483 0.035392 0.036039 0.036733 0.03729 0.037938 0.038587 0.039253 0.039952 0.040637 0.041424 0.041925 0.042352 0.042932 0.043546 0.044142 0.044791 0.045909 0.046547 0.047089 0.047726 0.048501 0.04918 0.049799 0.050417 0.050807 0.051443 0.051887 0.052391 0.053023 0.053478 0.053974 0.054444 0.05507 0.05565 0.056276 0.056878 0.057647 0.058346 0.058974 0.059701 0.060354 0.060984 0.061613 0.062242 0.062871 0.063553 0.064129 0.064785 0.065415 0.065881 0.066178 0.066747 0.067428 0.068251 0.069277 0.069878 0.070595 0.07105 0.07162 0.072249 0.072908 0.073627 0.074288 0.074671 0.07533 0.075769 0.076047 0.076543 0.077166 0.077756 0.078477 0.07966 0.080288 0.080949 0.081577
0 0 -0.1025 -0.10194 -0.10143 -0.10098 -0.099656 -0.09921 -0.098763 -0.097973 -0.097471 -0.096233 -0.095679 -0.095182 -0.09463 -0.093634 -0.093196 -0.092704 -0.092047 -0.091502 -0.090741 -0.090198 -0.089657 -0.089117 -0.088685 -0.088305 -0.087925 -0.087597 -0.087529 -0.087094 0 0 0 0 0 0 0 0 0 -0.065659 -0.065362 -0.065017 -0.064671 -0.064325 -0.063979 -0.063586 -0.063193 -0.062848 -0.062408 -0.062064 -0.061672 -0.061328 -0.060984 -0.060593 -0.060249 -0.059905 -0.059561 -0.059216 -0.058828 -0.058572 -0.058272 -0.057927 -0.057539 -0.057238 -0.056893 -0.056548 -0.056204 -0.055985 -0.05564 -0.055294 -0.054949 -0.054891 -0.054543 -0.054196 -0.053969 -0.053581 -0.053234 -0.052886 -0.052577 -0.052307 -0.051997 -0.051687 -0.051338 0 0 0 -0.06016 -0.059739 -0.059392 -0.059007 -0.058622 -0.058308 -0.057921 -0.057534 -0.057146 -0.056758 -0.056438 -0.056048 -0.055623 -0.055334 -0.054942 -0.054649 -0.054256 -0.053861 -0.053531 -0.053136 -0.052739 -0.052342 -0.051913 -0.051547 -0.051148 -0.050719 -0.05038 -0.04998 -0.049579 -0.049208 -0.048776 -0.048432 -0.048057 -0.047653 -0.047333 -0.046983 -0.046576 -0.046197 -0.045815 -0.04546 -0.04505 -0.044666 -0.04436 -0.043972 -0.043559 -0.043221 -0.04283 -0.042514 -0.042121 -0.041726 -0.041355 -0.040934 -0.040537 -0.040232 -0.039947 -0.039499 -0.039208 -0.038736 -0.038484 -0.038075 -0.03773 -0.037318 -0.036906 -0.036575 -0.03618 -0.035763 -0.035384 -0.035301 -0.034836 -0.034968 -0.034496 -0.034043 -0.033699 -0.033225 -0.033468 -0.032948 -0.032464 -0.032014 -0.03163 -0.031194 -0.03074 -0.030284 0 0 -0.036827 -0.036218 -0.036231 -0.035553 -0.034889 -0.034059 -0.033415 -0.032758 -0.032155 -0.031577 -0.030895 -0.030216 -0.029587 -0.028946 -0.028329 -0.027711 -0.027105 -0.026551 -0.025941 -0.025153 -0.024545 -0.023867 -0.02324 -0.022622 -0.021721 -0.021101 -0.02049 -0.01992 -0.019307 -0.018724 -0.018116 -0.017565 -0.016889 -0.016265 -0.015712 -0.015078 -0.014457 -0.013847 -0.01323 -0.012617 -0.011983 -0.011363 -0.010742 -0.010112 -0.0094972 -0.0088696 -0.0082449 -0.0076285 -0.0070009 -0.0063671 -0.0057333 -0.0050953 -0.004418 -0.003791 -0.003177 -0.0025452 -0.0019121 -0.0012832 -0.00065421 -2.8402e-05 0.00059636 0.0012206 0.0018458 0.0024706 0.0030966 0.0037216 0.0043412 0.0049633 0.005585 0.0062164 0.0068438 0.0074685 0.0080932 0.0087071 0.0093272 0.0099633 0.010588 0.011217 0.011871 0.012487 0.013124 0.013727 0.014347 0.015003 0.015759 0.016255 0.016889 0.017515 0.018104 0.018722 0.019347 0.01998 0.020768 0.021398 0.022019 0.02264 0.023231 0.02382 0.024245 0.024878 0.025565 0.026167 0.026735 0.027323 0.027933 0.028566 0.0292 0.029822 0.030482 0.031092 0.031661 0.032296 0.032918 0.033553 0.034118 0.034739 0.035774 0.036598 0.037245 0.037877 0.03854 0.039253 0.039903 0.040487 0.041136 0.041633 0.042299 0.042913 0.043562 0.043594 0.044254 0.044841 0.045502 0.046145 0.046438 0.047057 0.047657 0.048276 0.048875 0.049681 0.050323 0.051136 0.051696 0.052297 0.05292 0.053543 0.054301 0.054949 0.05555 0.056151 0.056776 0.057376 0.058266 0.058917 0.059593 0.060246 0.060874 0.061527 0.062206 0.062835 0.06349 0.064092 0.064347 0.064945 0.065406 0.066084 0.066708 0.067444 0.068266 0.068436 0.069001 0.069623 0.070919 0.071547 0.072265 0.072893 0.073552 0.073507 0.07413 0.075003 0.075314 0.075905 0.076463 0.077021 0.07761 0.078493 0.07905 0.079706 0.08053 0.080951
0 0 -0.10249 -0.10187 -0.10142 -0.10096 -0.099645 -0.099198 -0.098694 -0.097848 -0.09746 -0.096222 -0.095611 -0.095059 -0.094507 -0.093789 -0.09313 -0.092637 -0.091981 -0.091382 -0.090838 -0.090133 -0.089646 -0.089106 -0.088727 -0.088294 -0.087861 -0.087429 -0.087048 -0.086615 0 0 0 0 0 0 0 0 0 -0.06565 -0.065354 -0.065008 -0.064662 -0.064268 -0.063923 -0.063577 -0.063184 -0.062839 -0.0624 -0.062008 -0.061617 -0.061227 -0.060883 -0.060493 -0.06015 -0.059806 -0.059462 -0.059118 -0.058775 -0.058475 -0.058219 -0.057875 -0.05753 -0.057186 -0.056841 -0.056497 -0.056195 -0.05585 -0.055589 -0.055244 -0.054899 -0.054718 -0.054412 -0.054106 -0.05388 -0.053532 -0.053225 -0.052877 -0.052529 -0.052259 -0.05195 -0.051601 -0.051214 0 0 0 -0.060149 -0.059728 -0.059381 -0.058996 -0.058611 -0.058261 -0.057875 -0.057523 -0.057135 -0.056747 -0.056392 -0.056003 -0.055613 -0.055323 -0.054965 -0.054639 -0.054245 -0.053851 -0.053521 -0.053125 -0.052728 -0.052331 -0.051903 -0.051536 -0.051138 -0.050708 -0.050369 -0.049969 -0.049568 -0.049197 -0.048794 -0.048421 -0.048046 -0.047642 -0.047323 -0.046945 -0.046566 -0.046185 -0.045804 -0.045422 -0.045012 -0.044655 -0.044348 -0.043936 -0.043548 -0.043235 -0.042819 -0.042503 -0.042134 -0.041715 -0.041344 -0.040947 -0.040526 -0.040244 -0.039867 -0.039556 -0.039152 -0.038702 -0.038429 -0.03802 -0.037632 -0.037286 -0.036894 -0.036564 -0.036168 -0.035751 -0.035373 -0.035289 -0.034825 -0.034957 -0.034503 -0.034031 -0.033613 -0.033213 -0.0329 -0.032423 -0.032016 -0.03183 -0.031365 -0.031032 -0.030547 -0.030272 0 0 -0.036382 -0.035765 -0.035208 -0.034591 -0.034259 -0.033707 -0.033096 -0.032377 -0.031768 -0.031159 -0.030612 -0.030013 -0.029449 -0.028822 -0.028196 -0.02757 -0.026955 -0.026328 -0.025712 -0.025023 -0.024398 -0.023743 -0.02282 -0.022213 -0.021551 -0.020936 -0.02032 -0.019805 -0.019186 -0.018708 -0.017957 -0.017345 -0.016719 -0.0161 -0.015553 -0.014882 -0.014268 -0.013671 -0.01317 -0.012544 -0.011912 -0.011272 -0.010651 -0.010025 -0.0093915 -0.0087663 -0.0081444 -0.0073971 -0.0067817 -0.0062027 -0.0055837 -0.0049835 -0.0043475 -0.0037267 -0.0031272 -0.0025032 -0.0018813 -0.0012579 -0.00063524 -1.2562e-05 0.00060958 0.0012317 0.0018538 0.002476 0.0030981 0.0037203 0.0043406 0.0049646 0.0055844 0.0062114 0.0068367 0.0074656 0.0080955 0.0087119 0.0093312 0.0099583 0.010582 0.011205 0.011838 0.012461 0.013074 0.013709 0.014315 0.014931 0.015775 0.016224 0.016855 0.017487 0.018112 0.018737 0.019338 0.019929 0.020578 0.021193 0.021817 0.022422 0.022997 0.023629 0.024221 0.024852 0.025495 0.026107 0.026706 0.027316 0.027937 0.028558 0.029179 0.0298 0.030383 0.031004 0.031611 0.032217 0.032823 0.033443 0.034048 0.034638 0.035272 0.035785 0.036403 0.037207 0.037605 0.038206 0.038806 0.039372 0.039971 0.040689 0.041306 0.041922 0.042467 0.043083 0.043754 0.044539 0.045157 0.046045 0.046453 0.046994 0.047532 0.048109 0.048767 0.049385 0.050002 0.050684 0.051453 0.052095 0.052693 0.05338 0.054001 0.054279 0.054873 0.055513 0.05613 0.056723 0.057774 0.058615 0.059288 0.059913 0.060562 0.061212 0.061837 0.062461 0.063165 0.063764 0.064121 0.064744 0.06534 0.065852 0.066445 0.066982 0.067574 0.06808 0.068699 0.069347 0.070025 0.070675 0.071414 0.072066 0.072717 0.073247 0.073806 0.074426 0.075109 0.075667 0.076255 0.076843 0.07743 0.07805 0.078735 0.079522 0.08011 0.080697
0 0 0 -0.10186 -0.1014 -0.10089 -0.10033 -0.099764 -0.099142 -0.098351 -0.097847 -0.096211 -0.095488 -0.095047 -0.09444 -0.093778 -0.093174 -0.092627 -0.091806 -0.091316 -0.090773 -0.090122 -0.089635 -0.089149 -0.088716 -0.088283 -0.08785 -0.087418 -0.086985 -0.086604 0 0 0 0 0 0 0 0 0 0 -0.065345 -0.06495 -0.064605 -0.064259 -0.063866 -0.063521 -0.063128 -0.062783 -0.062391 -0.061999 -0.061608 -0.061172 -0.060828 -0.060439 -0.060095 -0.059797 -0.059453 -0.059065 -0.058766 -0.058422 -0.058167 -0.057822 -0.057478 -0.057177 -0.056833 -0.056488 -0.056186 -0.055841 -0.055538 -0.055235 -0.054931 -0.054668 -0.054403 -0.054097 -0.053831 -0.053484 -0.053176 -0.052829 -0.052481 -0.052211 -0.051902 -0.051554 -0.051205 0 0 0 -0.060175 -0.059791 -0.059407 -0.059022 -0.0586 -0.058286 -0.057864 -0.057548 -0.05716 -0.056771 -0.056416 -0.055992 -0.055602 -0.055346 -0.054954 -0.054628 -0.054234 -0.053872 -0.05351 -0.053114 -0.052718 -0.052352 -0.051923 -0.051525 -0.051096 -0.050697 -0.050359 -0.049958 -0.049557 -0.049186 -0.048784 -0.048439 -0.048064 -0.04766 -0.047311 -0.046934 -0.046527 -0.046175 -0.045766 -0.045411 -0.045001 -0.044617 -0.044364 -0.04395 -0.043536 -0.043224 -0.042833 -0.042516 -0.042147 -0.041728 -0.041357 -0.04096 -0.040562 -0.040303 -0.039902 -0.039567 -0.039141 -0.038691 -0.038439 -0.038009 -0.0376 -0.037274 -0.036883 -0.036573 -0.036177 -0.03576 -0.035581 -0.035593 -0.035125 -0.034964 -0.034491 -0.034056 -0.033639 -0.033201 -0.032888 -0.032447 -0.032004 -0.031818 -0.031353 -0.03102 -0.030535 -0.03026 0 0 -0.036366 -0.03575 -0.035148 -0.034575 -0.034243 -0.033691 -0.03308 -0.032362 -0.031753 -0.031143 -0.030596 -0.029984 -0.029433 -0.028783 -0.028157 -0.027531 -0.026905 -0.026312 -0.025696 -0.025007 -0.024372 -0.023707 -0.022805 -0.022179 -0.021554 -0.02092 -0.020322 -0.019723 -0.019171 -0.018692 -0.017941 -0.017322 -0.016696 -0.016092 -0.015505 -0.014872 -0.01424 -0.013655 -0.013155 -0.012528 -0.011882 -0.011256 -0.010626 -0.010001 -0.0093757 -0.0087505 -0.0081286 -0.0073816 -0.0067662 -0.0061871 -0.0055751 -0.0049657 -0.0043319 -0.0037173 -0.0031024 -0.0024854 -0.0018625 -0.0012406 -0.00061823 3.1441e-06 0.00062449 0.0012453 0.0018657 0.0024865 0.0031073 0.0037282 0.0043454 0.0049699 0.005586 0.006222 0.0068524 0.0074719 0.0080977 0.0087204 0.0093431 0.0099699 0.010588 0.011216 0.011834 0.012462 0.013079 0.013702 0.014324 0.014947 0.01579 0.01624 0.016857 0.017481 0.018113 0.01873 0.019346 0.019945 0.020568 0.021191 0.021805 0.022419 0.023013 0.023615 0.024226 0.024837 0.02549 0.0261 0.026677 0.027286 0.027894 0.028538 0.029158 0.029754 0.030361 0.030967 0.031573 0.032179 0.032798 0.033402 0.034007 0.03461 0.035184 0.035771 0.036418 0.037222 0.037621 0.038173 0.038789 0.039388 0.040003 0.040653 0.041269 0.041867 0.042447 0.043062 0.043788 0.044554 0.045173 0.045849 0.046449 0.047088 0.047528 0.048084 0.048701 0.049338 0.049976 0.050699 0.051468 0.051979 0.052598 0.053239 0.054017 0.054294 0.054819 0.055458 0.056051 0.056738 0.05779 0.058631 0.059255 0.059928 0.060502 0.061126 0.061749 0.062399 0.063076 0.063647 0.064137 0.06476 0.065301 0.065895 0.066433 0.066998 0.06759 0.068067 0.068715 0.069363 0.070041 0.07069 0.07143 0.072081 0.072733 0.073263 0.073822 0.074317 0.074999 0.075492 0.076111 0.07673 0.077316 0.077935 0.078652 0.079371 0.079991 0.08051
0 0 0 -0.10179 -0.10139 -0.10088 -0.10032 -0.099752 -0.099188 -0.098339 -0.097836 -0.096539 -0.095871 -0.095429 -0.094485 -0.093767 -0.093108 -0.092616 -0.091631 -0.091251 -0.090708 -0.090111 -0.089571 -0.089084 -0.088705 -0.088272 -0.08784 -0.087407 -0.086974 -0.086541 -0.086264 0 0 0 0 0 0 0 0 0 -0.065238 -0.064942 -0.064548 -0.064202 -0.063857 -0.063464 -0.063119 -0.062727 -0.062335 -0.061944 -0.061553 -0.061117 -0.060774 -0.060384 -0.060041 -0.059743 -0.0594 -0.059056 -0.058713 -0.058414 -0.058158 -0.057814 -0.057469 -0.057168 -0.056824 -0.05648 -0.056135 -0.055833 -0.05553 -0.055185 -0.054881 -0.054618 -0.054313 -0.054048 -0.053782 -0.053475 -0.053167 -0.05282 -0.052472 -0.052203 -0.051854 -0.051506 -0.051158 0 0 0 -0.060202 -0.059781 -0.059433 -0.059012 -0.058626 -0.058276 -0.057889 -0.057537 -0.057149 -0.05676 -0.056406 -0.056016 -0.055591 -0.055302 -0.054943 -0.054617 -0.054256 -0.053862 -0.053499 -0.053103 -0.052707 -0.052341 -0.051912 -0.051514 -0.051085 -0.050686 -0.050348 -0.049947 -0.049547 -0.049175 -0.048773 -0.048457 -0.048053 -0.047649 -0.047301 -0.046923 -0.046516 -0.046164 -0.045755 -0.0454 -0.044964 -0.044606 -0.0443 -0.043913 -0.043525 -0.043213 -0.042797 -0.042505 -0.042112 -0.041693 -0.041346 -0.040925 -0.040551 -0.040292 -0.03989 -0.039579 -0.039174 -0.038768 -0.03845 -0.038019 -0.037674 -0.037263 -0.036871 -0.036582 -0.036186 -0.035748 -0.03577 -0.035483 -0.035035 -0.034664 -0.034176 -0.034044 -0.033626 -0.033225 -0.032966 -0.032488 -0.032027 -0.031892 -0.031425 -0.031124 -0.030638 -0.030199 0 0 -0.036289 -0.035704 -0.035118 -0.034501 -0.033985 -0.033395 -0.032776 -0.032157 -0.031446 -0.030842 -0.030275 -0.029645 -0.029039 -0.028385 -0.027767 -0.02723 -0.026465 -0.02586 -0.025234 -0.024628 -0.024022 -0.023406 -0.02278 -0.022154 -0.021529 -0.020905 -0.020298 -0.019699 -0.019091 -0.018482 -0.017858 -0.017292 -0.016681 -0.016076 -0.01547 -0.014838 -0.014213 -0.013611 -0.012992 -0.012367 -0.011694 -0.011077 -0.010469 -0.0098607 -0.0092355 -0.0086186 -0.0079578 -0.0073349 -0.0067221 -0.0061689 -0.0055618 -0.004948 -0.0043163 -0.0036985 -0.0030828 -0.0024646 -0.0018445 -0.0012229 -0.00060154 1.8776e-05 0.00063856 0.0012584 0.0018782 0.0024969 0.0031152 0.0037329 0.0043519 0.0049709 0.00559 0.0061986 0.0068538 0.0074783 0.0081067 0.0087324 0.0093549 0.0099773 0.0106 0.011222 0.011845 0.012467 0.013084 0.013706 0.014328 0.014944 0.015566 0.016181 0.016859 0.017483 0.018114 0.01873 0.019329 0.019944 0.020575 0.021198 0.021803 0.022416 0.023 0.023611 0.024211 0.024832 0.025473 0.026072 0.026648 0.027267 0.027875 0.028506 0.029137 0.029719 0.030325 0.030931 0.031536 0.032168 0.032786 0.033348 0.033936 0.034539 0.03514 0.035741 0.036326 0.037004 0.037557 0.038173 0.038755 0.039354 0.039985 0.0406 0.041232 0.04183 0.042391 0.042987 0.043527 0.04427 0.044847 0.0455 0.046017 0.04663 0.047384 0.048019 0.048675 0.049291 0.049907 0.050459 0.051139 0.05182 0.052481 0.053121 0.053738 0.054036 0.054742 0.05538 0.055901 0.056467 0.057395 0.057865 0.058456 0.059769 0.060417 0.06104 0.061662 0.062311 0.062934 0.063504 0.063537 0.064127 0.064634 0.065222 0.065837 0.06606 0.066671 0.067654 0.068154 0.068767 0.069205 0.069788 0.070549 0.071072 0.071654 0.072389 0.073404 0.074239 0.074921 0.075318 0.075903 0.076488 0.077137 0.077819 0.078536 0.079287 0.07994 0.080289
