2.301 2.314 2.3056 2.3079 2.2995 2.2912 2.2934 2.2852 2.298 2.3002 2.2815 2.2837 2.286 2.2882 2.3115 2.3245 2.3161 2.3183 2.2994 2.3122 2.3251 2.3167 2.319 2.3212 2.3129 2.3151 2.328 2.3409 2.3432 2.3347 2.337 2.3392 2.3415 2.3437 2.3353 2.3375 2.3505 2.3314 2.3658 2.379 2.4034 2.4284 2.4308 2.4103 2.4126 2.4037 2.406 2.4083 2.4106 2.3907 2.3604 2.3626 2.3756 2.3671 2.3693 2.3824 2.3955 2.3978 2.4 2.4133 2.4267 2.4402 2.4425 2.4562 2.4471 2.4381 2.4291 2.4203 2.4225 2.4137 2.416 2.4073 2.3986 2.3793 2.3923 2.4162 2.4075 2.4207 2.412 2.4034 2.4056 2.4078 2.4209 2.434 2.4363 2.4385 2.4407 2.4541 2.4676 2.4812 2.4834 2.4971 2.4994 2.5017 2.5156 2.5062 2.497 2.4992 2.4787 2.4697 2.472 2.4409 2.4431 2.4345 2.4259 2.4281 2.4303 2.4325 2.4454 2.4476 2.4943 2.4965 2.4987 2.5354 2.5494 2.54 2.5306 2.5445 2.5585 2.5608 2.5513 2.5419 2.5441 2.5233 2.5255 2.5277 2.5186 2.5095 2.5004 2.4915 2.4937 2.4958 2.5092 2.5002 2.5136 2.5272 2.5408 2.5545 2.5568 2.5706 2.5612 2.5634 2.5541 2.5563 2.5471 2.5608 2.5746 2.5886 2.5908 2.6049 2.5953 2.6214 2.6237 2.638 2.6525 2.6548 2.6821 2.6844 2.6867 2.7016 2.7039 2.7062 2.7085 2.7109 2.6508 2.6409 2.6192 2.5862 2.5884 2.5791 2.5699 2.5607 2.5743 2.565 2.5672 2.5808 2.6296 2.62 2.6104 2.6244 2.6032 2.5939 2.5961 2.5983 2.6355 2.6377 2.6399 2.6421 2.6683 2.6827 2.6849 2.6995 2.7141 2.7164 2.7186 2.7209 2.6984 2.7006 2.6906 2.6928 2.6709 2.6731 2.6874 2.7141 2.704 2.7062 2.7208 2.7355 2.7503 2.7653 2.7675 2.7956 2.7979 2.8002 2.8157 2.818 2.8203 2.8359 2.8249 2.8272 2.8163 2.8451 2.8342 2.8498 2.8655 2.8678 2.8702 2.8725 2.8613 2.8637 2.866 2.8818 2.8706 2.8461 2.8352 2.8374 2.8529 2.8687 2.871 2.8868 2.9027 2.9051 2.9074 2.9375 2.9259 2.9283 2.903 2.9053 2.9213 2.91 2.9123 2.901 2.8896 2.8785 2.8942 2.9102 2.9262 2.9285 2.9446 2.9331 2.9493 2.9516 2.94 2.8747 0 0 0 0 0 0 0 1.1245 1.1295 1.1344 1.1353 1.1383 1.1331 1.1339 1.1388 1.1377 1.1406 1.1375 1.1322 1.1331 1.1319 1.1349 1.1357 1.1407 1.1561 1.1632 1.1728 1.1758 1.181 1.1863 1.1872 1.1837 1.176 1.1683 1.1544 1.1491 1.1439 1.1428 1.1416 1.1345 1.1138 1.1032 1.0966 1.0863 1.0854 1.0862 1.087 1.1216 1.1264 1.1371 1.146 1.1529 1.1559 1.1629 1.168 1.1284 1.1352 1.1301 1.1156 1.1014 1.1022 1.1162 1.1171 1.1294 1.1582 1.1673 1.1681 1.171 1.1761 1.2182 1.2191 1.22 1.2209 1.2242 1.2274 1.2306 1.2338 1.2347 1.231 1.2319 1.2305 1.2337 1.237 1.2425 1.2457 1.2467 1.2429 1.2439 1.2471 1.2457 1.2466 1.2452 1.2461 1.2447 1.2433 1.2396
2.2914 2.3043 2.3173 2.3089 2.3112 2.2922 2.2839 2.2967 2.299 2.2907 2.293 2.2952 2.287 2.2892 2.3232 2.3363 2.3278 2.33 2.3216 2.3346 2.3261 2.3284 2.3306 2.3222 2.3139 2.3267 2.3397 2.3312 2.3335 2.3251 2.3273 2.3296 2.3213 2.3341 2.3363 2.3175 2.3197 2.3219 2.356 2.3691 2.3823 2.4181 2.4091 2.4114 2.4025 2.4047 2.407 2.432 2.4228 2.3808 2.3722 2.3636 2.3767 2.3789 2.3811 2.3834 2.4075 2.3988 2.4121 2.4143 2.439 2.4526 2.4436 2.4458 2.4481 2.4279 2.4301 2.4213 2.4235 2.4148 2.417 2.4083 2.3889 2.3911 2.4041 2.4172 2.4085 2.4217 2.4239 2.4043 2.4066 2.4088 2.4328 2.435 2.4373 2.4395 2.4417 2.444 2.4799 2.4822 2.4844 2.4867 2.5004 2.5027 2.5166 2.4957 2.498 2.5003 2.4685 2.4596 2.4618 2.4419 2.4333 2.4355 2.4269 2.4183 2.4313 2.4442 2.4464 2.4486 2.4953 2.4975 2.5111 2.5249 2.5504 2.5294 2.5316 2.5339 2.5595 2.5618 2.5523 2.5545 2.5451 2.5243 2.538 2.5288 2.5196 2.5105 2.5014 2.4924 2.4946 2.4968 2.499 2.5124 2.5146 2.5396 2.5418 2.5555 2.5694 2.5716 2.5739 2.5761 2.5667 2.5689 2.5711 2.5734 2.5873 2.5896 2.6037 2.6059 2.5963 2.6224 2.6247 2.6391 2.6536 2.6682 2.6705 2.6854 2.6751 2.69 2.6923 2.682 2.6969 2.6741 2.6518 2.6299 2.6084 2.5643 2.5665 2.5687 2.5595 2.5616 2.5638 2.566 2.5682 2.5818 2.6188 2.621 2.6232 2.6254 2.6042 2.6064 2.5971 2.6108 2.6246 2.6268 2.6409 2.655 2.6693 2.696 2.6982 2.7129 2.7151 2.7174 2.7197 2.7219 2.6994 2.6894 2.6795 2.6817 2.6719 2.6741 2.6763 2.7028 2.705 2.7195 2.7218 2.7491 2.7513 2.7791 2.7814 2.7966 2.8121 2.8144 2.83 2.8323 2.8346 2.8503 2.826 2.8283 2.8306 2.8329 2.8485 2.8508 2.8666 2.8689 2.8712 2.8601 2.8624 2.8647 2.867 2.8693 2.8716 2.8471 2.8231 2.8385 2.8674 2.8563 2.8721 2.8878 2.9038 2.9061 2.9084 2.9247 2.927 2.9154 2.904 2.9064 2.9224 2.911 2.9133 2.902 2.8907 2.8796 2.8953 2.9112 2.9272 2.9295 2.9457 2.9341 2.9365 2.9808 2.9832 3.0585 0 0 0 0 0 0 0 0 1.1422 1.1389 1.1398 1.1428 1.1375 1.1384 1.1393 1.1422 1.1431 1.1398 1.1367 1.1355 1.1384 1.1372 1.1402 1.1451 1.1586 1.1657 1.1732 1.1784 1.1814 1.1867 1.1877 1.1841 1.1786 1.1708 1.1548 1.1495 1.1463 1.1432 1.142 1.1329 1.1142 1.1036 1.0951 1.0885 1.0912 1.0921 1.1251 1.1279 1.1288 1.1395 1.1464 1.1554 1.1603 1.1633 1.1747 1.1407 1.1395 1.1525 1.1473 1.1401 1.1429 1.1539 1.1568 1.1617 1.1857 1.1759 1.1768 1.1798 1.1936 1.2186 1.2195 1.2205 1.2192 1.2246 1.2301 1.231 1.2342 1.2351 1.2337 1.2323 1.2379 1.2365 1.2397 1.2452 1.2485 1.2494 1.241 1.242 1.2452 1.2461 1.2447 1.2456 1.2442 1.2474 1.246 1.2401
2.2924 2.2947 2.3076 2.3099 2.3122 2.2932 2.3061 2.2977 2.3 2.2813 2.294 2.3068 2.309 2.3113 2.3242 2.3373 2.3396 2.3419 2.3333 2.3356 2.3379 2.3294 2.321 2.3127 2.3044 2.3171 2.3089 2.3216 2.3133 2.3156 2.297 2.2889 2.291 2.2933 2.2955 2.2875 2.2795 2.2817 2.3251 2.3485 2.3615 2.4078 2.3989 2.3901 2.3924 2.3947 2.3969 2.433 2.4239 2.3818 2.3624 2.354 2.3777 2.3799 2.393 2.3953 2.4085 2.4108 2.4131 2.4153 2.4288 2.431 2.4333 2.4356 2.4378 2.4178 2.42 2.4223 2.4135 2.4158 2.418 2.3984 2.3899 2.3921 2.3943 2.4073 2.4204 2.4227 2.4249 2.4162 2.4076 2.4206 2.4338 2.4471 2.4383 2.4405 2.4427 2.445 2.4696 2.4832 2.4855 2.4877 2.49 2.5037 2.5176 2.4968 2.499 2.4898 2.4695 2.4496 2.4407 2.4321 2.4343 2.4257 2.4386 2.4193 2.4322 2.4561 2.4583 2.4605 2.4963 2.5099 2.5121 2.5259 2.5281 2.5304 2.5211 2.5349 2.5488 2.551 2.5416 2.5556 2.5461 2.5368 2.5275 2.5297 2.4979 2.5002 2.4802 2.4934 2.4956 2.4868 2.5 2.5022 2.5044 2.5406 2.5428 2.5565 2.5821 2.5726 2.5867 2.5771 2.5912 2.5816 2.5957 2.5861 2.6002 2.6024 2.6047 2.6069 2.6092 2.6234 2.6257 2.6279 2.6423 2.6446 2.6592 2.6614 2.6514 2.6537 2.656 2.646 2.6605 2.6384 2.6168 2.6072 2.5977 2.5539 2.5561 2.5583 2.5492 2.5513 2.5535 2.5556 2.5691 2.5828 2.6198 2.622 2.6242 2.6264 2.6052 2.6074 2.6096 2.6118 2.6256 2.6161 2.63 2.6441 2.6583 2.697 2.6992 2.7139 2.7161 2.731 2.7207 2.7229 2.7004 2.6662 2.6684 2.6586 2.649 2.6512 2.6652 2.6916 2.6938 2.7082 2.7228 2.7375 2.765 2.7801 2.7954 2.7977 2.8132 2.8155 2.8178 2.8201 2.8356 2.838 2.8403 2.8293 2.8316 2.8339 2.8229 2.8385 2.8408 2.8565 2.8588 2.8611 2.8634 2.8657 2.8681 2.8704 2.8862 2.8481 2.8372 2.8527 2.855 2.8573 2.8596 2.9025 2.8912 2.9072 2.9095 2.9118 2.928 2.9165 2.8915 2.8938 2.9097 2.912 2.9007 2.8894 2.8783 2.8806 2.8963 2.9123 2.9282 2.9306 2.9192 2.9078 2.9101 2.9123 2.9284 2.8767 0 0 0 0 0 0 0 1.1376 1.1426 1.1394 1.1423 1.1453 1.142 1.1408 1.1417 1.1447 1.1477 1.1423 1.1392 1.1379 1.1388 1.1376 1.1385 1.1415 1.1548 1.1599 1.167 1.1723 1.1754 1.1827 1.1881 1.1845 1.1811 1.1733 1.1574 1.152 1.1467 1.1436 1.1404 1.1353 1.1146 1.104 1.0936 1.087 1.0861 1.0906 1.0914 1.1283 1.133 1.1399 1.1468 1.1537 1.1587 1.1596 1.1584 1.1451 1.1459 1.1488 1.1477 1.1445 1.1453 1.1523 1.1592 1.1621 1.1797 1.187 1.1857 1.1887 1.2005 1.2124 1.22 1.2231 1.2218 1.2227 1.2259 1.2314 1.2323 1.2355 1.2341 1.235 1.2383 1.2392 1.2401 1.2457 1.2512 1.2521 1.2438 1.2424 1.2456 1.2465 1.2474 1.246 1.2446 1.2455 1.2441 1.2427
2.2829 2.2957 2.298 2.3109 2.3132 2.2942 2.3071 2.2987 2.3116 2.3033 2.3055 2.3184 2.31 2.3123 2.336 2.3383 2.3406 2.3429 2.3344 2.3259 2.3281 2.3304 2.322 2.3137 2.3054 2.3182 2.3204 2.3017 2.3143 2.3061 2.298 2.2797 2.2819 2.2942 2.2761 2.2783 2.2704 2.2827 2.3053 2.3283 2.3625 2.3866 2.4 2.3802 2.3824 2.3847 2.398 2.4226 2.4137 2.3719 2.3528 2.355 2.3679 2.3809 2.3832 2.4073 2.4096 2.4118 2.4141 2.4163 2.4186 2.4209 2.4231 2.4254 2.4277 2.4078 2.41 2.4123 2.4256 2.4278 2.4301 2.4213 2.4125 2.3931 2.4061 2.4192 2.4214 2.4347 2.4369 2.4392 2.4304 2.4326 2.4348 2.4481 2.4393 2.4305 2.4437 2.446 2.4706 2.4842 2.4751 2.4887 2.491 2.4933 2.5187 2.4863 2.4886 2.4795 2.4594 2.4505 2.4309 2.4331 2.4352 2.4374 2.4616 2.4527 2.466 2.4906 2.4928 2.5064 2.5086 2.5109 2.5246 2.5385 2.5291 2.5314 2.5221 2.5359 2.5498 2.5521 2.5426 2.5449 2.5471 2.5263 2.5171 2.5193 2.4989 2.5011 2.4812 2.4834 2.4966 2.4988 2.501 2.5143 2.5166 2.5301 2.5553 2.5575 2.5832 2.5854 2.5996 2.5899 2.6041 2.5944 2.6086 2.6109 2.6012 2.6154 2.6057 2.6199 2.6102 2.6244 2.6267 2.629 2.6434 2.6456 2.6602 2.6625 2.6403 2.6547 2.6448 2.6471 2.6372 2.6274 2.606 2.5965 2.587 2.5663 2.5571 2.5593 2.5501 2.5523 2.5545 2.5679 2.5701 2.5838 2.6208 2.623 2.649 2.6512 2.6296 2.6319 2.6222 2.6244 2.6149 2.6288 2.6193 2.657 2.6593 2.6857 2.7126 2.7149 2.7424 2.7447 2.7342 2.7239 2.7014 2.6672 2.6574 2.6478 2.6383 2.6522 2.6544 2.6805 2.6827 2.697 2.7238 2.7511 2.7661 2.7941 2.7964 2.8119 2.8142 2.8165 2.8321 2.8344 2.8367 2.8257 2.828 2.8303 2.8326 2.835 2.8239 2.8262 2.8285 2.8575 2.8465 2.8622 2.8645 2.8668 2.8826 2.9125 2.9148 2.8896 2.8919 2.8807 2.8966 2.8989 2.8876 2.9036 2.8922 2.8946 2.8969 2.9129 2.9152 2.9175 2.8925 2.8949 2.9108 2.9131 2.9154 2.9177 2.9064 2.895 2.8973 2.927 2.9431 2.9179 2.9065 2.8953 2.8842 2.8865 2.8888 2.8777 0 0 0 0 0 0 0 1.138 1.1389 1.1398 1.1427 1.1457 1.1445 1.1454 1.1483 1.1492 1.1501 1.1448 1.1415 1.1383 1.1371 1.1361 1.1369 1.1398 1.151 1.1561 1.1632 1.1706 1.1715 1.1853 1.1907 1.1916 1.1903 1.1846 1.1641 1.1565 1.1533 1.148 1.1449 1.1377 1.1035 1.1025 1.0921 1.0857 1.0865 1.0873 1.0918 1.1305 1.1334 1.1443 1.1492 1.1521 1.155 1.16 1.1547 1.1475 1.1483 1.1492 1.1481 1.1428 1.1457 1.1547 1.172 1.1792 1.1865 1.2048 1.2078 1.211 1.2185 1.2217 1.2227 1.2282 1.2245 1.2254 1.2286 1.2295 1.2327 1.2336 1.2346 1.2331 1.2387 1.2419 1.2428 1.2484 1.2564 1.2549 1.2511 1.2521 1.2553 1.2539 1.2525 1.2511 1.2497 1.2459 1.2468 1.2454
2.2839 2.2967 2.299 2.3013 2.293 2.2952 2.2975 2.2998 2.302 2.3149 2.3172 2.3195 2.3111 2.3028 2.3479 2.3502 2.3416 2.3331 2.3354 2.3269 2.3292 2.3314 2.323 2.3253 2.3169 2.3192 2.3214 2.3131 2.3259 2.3071 2.3093 2.2908 2.293 2.2952 2.2872 2.2793 2.2714 2.2837 2.3062 2.3293 2.3528 2.3767 2.3899 2.3812 2.3834 2.3857 2.388 2.4124 2.4035 2.3729 2.3432 2.356 2.3689 2.3819 2.3841 2.4083 2.3996 2.4129 2.4041 2.4174 2.4308 2.4219 2.4242 2.4376 2.4399 2.4198 2.411 2.4243 2.4155 2.4288 2.4423 2.4223 2.4135 2.3941 2.4071 2.4093 2.4224 2.4357 2.4379 2.4291 2.4424 2.4336 2.4358 2.4491 2.4403 2.4315 2.4447 2.447 2.483 2.4852 2.4761 2.4897 2.492 2.4943 2.508 2.4874 2.4783 2.4693 2.4493 2.4297 2.4318 2.4125 2.4147 2.4276 2.4515 2.4537 2.467 2.4916 2.5052 2.5074 2.5211 2.5234 2.5256 2.5395 2.5418 2.5324 2.5347 2.5369 2.5391 2.5531 2.5553 2.5459 2.5366 2.5273 2.5181 2.509 2.4999 2.491 2.4822 2.4844 2.4866 2.4887 2.5131 2.5267 2.5289 2.5425 2.5563 2.5702 2.5842 2.5983 2.6006 2.6028 2.6051 2.6074 2.6096 2.6119 2.6141 2.6164 2.6187 2.6209 2.6232 2.6254 2.6398 2.63 2.6444 2.6467 2.6489 2.6635 2.6413 2.6557 2.6458 2.6481 2.6382 2.6284 2.5953 2.5858 2.5765 2.5559 2.5581 2.5602 2.54 2.5422 2.5443 2.5576 2.5597 2.5847 2.6218 2.6358 2.65 2.6522 2.6425 2.6447 2.6351 2.6137 2.6159 2.6181 2.632 2.6461 2.6603 2.6867 2.7012 2.7159 2.7307 2.7457 2.7353 2.725 2.7148 2.6682 2.6584 2.6488 2.651 2.6532 2.6554 2.6815 2.6958 2.7102 2.7248 2.7521 2.7799 2.7952 2.7974 2.8129 2.8152 2.8176 2.8199 2.8222 2.8377 2.8268 2.8291 2.8314 2.8204 2.8227 2.8119 2.8142 2.8164 2.8586 2.8475 2.8632 2.8655 2.8813 2.8837 2.9276 2.9159 2.9044 2.893 2.8953 2.8976 2.9 2.9023 2.891 2.8933 2.8821 2.8979 2.9139 2.9162 2.9049 2.8936 2.8959 2.8982 2.9141 2.9164 2.9188 2.9211 2.9097 2.912 2.928 2.9303 2.9326 2.9075 2.8963 2.8852 2.8875 2.8898 2.9055 0 0 0 0 0 0 0 1.1384 1.1393 1.1401 1.141 1.1461 1.1449 1.1458 1.1487 1.1496 1.1484 1.1473 1.1379 1.1387 1.1375 1.1343 1.1373 1.1402 1.1472 1.1523 1.1574 1.1687 1.1719 1.1835 1.1889 1.192 1.1885 1.185 1.1645 1.159 1.1537 1.1484 1.1473 1.142 1.0908 1.0972 1.0907 1.0824 1.0832 1.084 1.0812 1.1349 1.1358 1.1467 1.1476 1.1525 1.1554 1.1584 1.1531 1.1459 1.1467 1.1496 1.1505 1.1453 1.1481 1.1531 1.1745 1.1817 1.1912 1.2073 1.2127 1.218 1.2189 1.2222 1.2254 1.2286 1.2249 1.2258 1.2267 1.2299 1.2285 1.2341 1.2327 1.2336 1.2368 1.2423 1.2409 1.2488 1.2568 1.2553 1.2539 1.2548 1.258 1.2567 1.2552 1.2538 1.2524 1.2487 1.2496 1.2482
2.2745 2.2767 2.2895 2.2917 2.294 2.2963 2.288 2.3008 2.2925 2.2948 2.297 2.3098 2.3015 2.2933 2.3273 2.3296 2.3318 2.3234 2.3256 2.3279 2.3195 2.3218 2.324 2.3263 2.3179 2.3308 2.333 2.3141 2.3269 2.2978 2.3104 2.3022 2.294 2.286 2.268 2.2503 2.2427 2.2546 2.297 2.3199 2.3431 2.3777 2.3799 2.3822 2.3845 2.3867 2.389 2.3912 2.3935 2.3848 2.3548 2.3677 2.3699 2.3721 2.3852 2.4205 2.4116 2.425 2.4161 2.4295 2.4318 2.4454 2.4364 2.4499 2.4409 2.432 2.4121 2.4143 2.4276 2.4188 2.421 2.4233 2.4145 2.4059 2.4081 2.4212 2.4234 2.4257 2.4279 2.4301 2.4324 2.4346 2.4368 2.4391 2.4413 2.4325 2.4347 2.448 2.4726 2.4862 2.4771 2.4908 2.4816 2.4726 2.4748 2.4771 2.4681 2.4592 2.4285 2.4199 2.4007 2.382 2.3841 2.4072 2.42 2.4222 2.446 2.4702 2.4836 2.4858 2.5221 2.5244 2.5267 2.5289 2.5311 2.5334 2.5357 2.5496 2.5402 2.5541 2.5564 2.5586 2.5492 2.5283 2.5191 2.51 2.5009 2.492 2.4832 2.4854 2.4986 2.5119 2.5255 2.5506 2.5528 2.5784 2.5925 2.6068 2.6212 2.6234 2.6257 2.6402 2.6181 2.6326 2.6348 2.6371 2.6394 2.6417 2.644 2.634 2.6363 2.6386 2.6531 2.6431 2.67 2.6599 2.6622 2.6645 2.6545 2.6691 2.6468 2.6491 2.6392 2.6175 2.5731 2.5639 2.5434 2.5345 2.5256 2.5278 2.5189 2.5102 2.5232 2.5474 2.5607 2.5742 2.6346 2.6368 2.6631 2.6653 2.6675 2.6457 2.6599 2.6147 2.6286 2.6191 2.6213 2.6235 2.6374 2.6755 2.7023 2.7045 2.7317 2.734 2.7363 2.726 2.7158 2.6812 2.6594 2.6498 2.6402 2.6542 2.6564 2.6704 2.6847 2.699 2.7135 2.7531 2.7809 2.7962 2.8117 2.8008 2.8031 2.8186 2.8077 2.8099 2.7992 2.8015 2.8038 2.7931 2.8083 2.8106 2.787 2.7893 2.8045 2.8329 2.8485 2.8375 2.8531 2.8689 2.8712 2.9286 2.9169 2.8917 2.9078 2.8963 2.8987 2.901 2.9033 2.9056 2.8943 2.8831 2.8854 2.9013 2.9036 2.9059 2.8946 2.9105 2.9129 2.9289 2.9312 2.9335 2.9359 2.9382 2.9405 2.9569 2.9452 2.9337 2.9223 2.9108 2.8996 2.9292 2.9315 2.9065 0 0 0 0 0 0 0 1.1388 1.1417 1.1426 1.1435 1.1485 1.1432 1.1462 1.1471 1.15 1.1468 1.1456 1.1362 1.137 1.136 1.1328 1.1356 1.1365 1.1414 1.1444 1.1474 1.1565 1.1616 1.1775 1.1848 1.1858 1.1845 1.1832 1.1628 1.1553 1.15 1.1427 1.1477 1.1424 1.0912 1.0957 1.0911 1.0828 1.0781 1.0789 1.0816 1.1353 1.1382 1.1531 1.154 1.157 1.1619 1.1649 1.1596 1.1442 1.1431 1.148 1.1508 1.1497 1.1546 1.1575 1.177 1.1842 1.1959 1.2145 1.2198 1.2253 1.2262 1.2249 1.2281 1.2313 1.2322 1.2262 1.2271 1.2257 1.2289 1.2298 1.2331 1.234 1.2372 1.2404 1.239 1.2469 1.2595 1.2582 1.2566 1.2575 1.2609 1.2594 1.2603 1.2589 1.2552 1.2537 1.257 1.2556
2.2755 2.2882 2.2905 2.2823 2.2845 2.2973 2.2995 2.2913 2.2935 2.2853 2.298 2.3108 2.3025 2.2943 2.3176 2.3199 2.3222 2.3244 2.316 2.3183 2.31 2.3122 2.3144 2.3167 2.3189 2.3318 2.334 2.3257 2.3279 2.2988 2.301 2.3032 2.2848 2.2769 2.259 2.2317 2.2436 2.2556 2.2878 2.3104 2.3441 2.3787 2.3919 2.3832 2.3855 2.3877 2.39 2.4033 2.3945 2.3858 2.3664 2.358 2.3709 2.3839 2.3971 2.4215 2.4238 2.426 2.4396 2.4418 2.4555 2.4578 2.4487 2.4624 2.4419 2.433 2.4241 2.4263 2.4286 2.4198 2.422 2.4133 2.4046 2.4068 2.4091 2.4113 2.4244 2.4267 2.44 2.4311 2.4334 2.4246 2.4489 2.4512 2.4423 2.4445 2.4468 2.4601 2.485 2.4759 2.4781 2.4918 2.4826 2.4736 2.4871 2.4668 2.4691 2.4491 2.4294 2.4101 2.3912 2.3726 2.3645 2.3872 2.421 2.4125 2.4362 2.4601 2.4734 2.4868 2.5117 2.5139 2.5277 2.5299 2.5322 2.5344 2.5367 2.5389 2.5528 2.5551 2.5574 2.5596 2.5619 2.5293 2.5201 2.511 2.4908 2.482 2.4842 2.4863 2.4996 2.5243 2.5494 2.5632 2.5772 2.5913 2.6055 2.6199 2.6468 2.6367 2.6514 2.6413 2.6313 2.6336 2.6359 2.6381 2.6404 2.6427 2.6328 2.6473 2.6373 2.6519 2.6541 2.6564 2.6837 2.6734 2.6757 2.678 2.6678 2.6701 2.6724 2.6501 2.6282 2.6185 2.5741 2.5535 2.5444 2.5244 2.5156 2.5177 2.5199 2.5002 2.5133 2.5373 2.5506 2.5752 2.6356 2.6378 2.6641 2.6785 2.6686 2.6587 2.6609 2.6274 2.6179 2.6201 2.6223 2.6245 2.6384 2.6645 2.6788 2.6932 2.7202 2.7225 2.7373 2.727 2.7168 2.6702 2.6604 2.6508 2.6295 2.6434 2.6456 2.6714 2.6736 2.6879 2.7022 2.7416 2.782 2.7843 2.7995 2.815 2.8173 2.8064 2.8087 2.7979 2.8002 2.8025 2.7919 2.7941 2.7964 2.7858 2.7881 2.7776 2.7798 2.8208 2.8362 2.8385 2.8408 2.8565 2.8722 2.9156 2.9042 2.9065 2.8951 2.9112 2.8997 2.902 2.9044 2.9067 2.8818 2.8841 2.9 2.9023 2.9183 2.9069 2.9093 2.9116 2.9276 2.9162 2.9463 2.9486 2.951 2.9392 2.9556 2.9439 2.9462 2.9486 2.9509 2.9256 2.9279 2.9302 2.9463 2.9486 0 0 0 0 0 0 0 1.1412 1.1442 1.143 1.1481 1.1489 1.1457 1.1445 1.1475 1.1484 1.1472 1.1439 1.1386 1.1374 1.1343 1.1351 1.1341 1.1349 1.1399 1.1386 1.1436 1.1527 1.1557 1.1713 1.1809 1.1841 1.1827 1.1793 1.1632 1.1557 1.1483 1.1371 1.138 1.0944 1.0971 1.0961 1.0951 1.0849 1.0785 1.0793 1.0783 1.1337 1.1386 1.1557 1.1605 1.1636 1.1664 1.1736 1.1852 1.1406 1.1435 1.1484 1.1512 1.1521 1.157 1.162 1.1774 1.1846 1.1963 1.217 1.2225 1.2257 1.2289 1.2299 1.2308 1.234 1.2326 1.2289 1.2275 1.2261 1.2293 1.2303 1.2312 1.2344 1.2376 1.2408 1.2417 1.2496 1.26 1.2609 1.2595 1.2604 1.2613 1.2623 1.2607 1.2593 1.2579 1.2542 1.2574 1.2583
2.287 2.2788 2.281 2.2833 2.2855 2.2983 2.3005 2.2923 2.2945 2.2968 2.299 2.3119 2.3035 2.2953 2.3186 2.3209 2.3125 2.3148 2.317 2.3193 2.311 2.3027 2.305 2.3072 2.3199 2.3222 2.3139 2.3161 2.3184 2.2998 2.2916 2.2836 2.2858 2.2779 2.2599 2.2327 2.2348 2.2566 2.299 2.3114 2.3451 2.3907 2.393 2.3842 2.3865 2.3888 2.391 2.4043 2.4066 2.3868 2.3674 2.3697 2.3827 2.3849 2.3981 2.4225 2.4248 2.427 2.4406 2.4429 2.4681 2.4588 2.4497 2.452 2.443 2.434 2.4251 2.4274 2.4186 2.4319 2.423 2.4143 2.4056 2.4078 2.4101 2.4123 2.4145 2.4167 2.419 2.4212 2.4344 2.4366 2.4388 2.4411 2.4433 2.4345 2.4367 2.45 2.4634 2.4656 2.4679 2.4814 2.4611 2.4523 2.4545 2.4567 2.4589 2.4391 2.4089 2.4005 2.3818 2.3633 2.3655 2.3778 2.4113 2.4135 2.4371 2.4501 2.4633 2.4545 2.4677 2.4699 2.4721 2.4633 2.4655 2.4787 2.4809 2.4831 2.5078 2.5214 2.5351 2.5489 2.5512 2.5303 2.5325 2.512 2.5029 2.494 2.4851 2.4983 2.5117 2.5139 2.5389 2.5526 2.5665 2.5805 2.5946 2.6455 2.6479 2.6502 2.6524 2.6548 2.6446 2.6346 2.6492 2.6515 2.6538 2.6437 2.646 2.6483 2.6506 2.6529 2.6675 2.6698 2.6847 2.6744 2.6643 2.6666 2.6688 2.6711 2.6734 2.6511 2.6412 2.6195 2.5751 2.5659 2.5566 2.5254 2.5275 2.5187 2.4991 2.5012 2.5033 2.5163 2.5404 2.5648 2.6366 2.6508 2.6651 2.6795 2.6818 2.684 2.6619 2.6521 2.6306 2.6328 2.635 2.6372 2.6394 2.6655 2.6798 2.6942 2.7212 2.7235 2.7383 2.728 2.7178 2.6592 2.6496 2.64 2.6422 2.6444 2.6466 2.6605 2.6627 2.6768 2.6911 2.7177 2.7574 2.7724 2.7876 2.7898 2.7792 2.7687 2.771 2.786 2.7755 2.7778 2.78 2.7823 2.7718 2.7741 2.7763 2.7786 2.7808 2.8088 2.811 2.8395 2.8418 2.8575 2.8598 2.9167 2.9191 2.9076 2.9099 2.9123 2.9146 2.9169 2.9054 2.9216 2.8964 2.8852 2.8875 2.9034 2.9194 2.908 2.924 2.9126 2.9287 2.931 2.9473 2.9497 2.966 2.9543 2.9707 2.9449 2.9473 2.9496 2.9519 2.9266 2.929 2.945 2.9473 2.9497 0 0 0 0 0 0 0 1.1416 1.1446 1.1434 1.1485 1.1514 1.1482 1.147 1.1479 1.1488 1.1476 1.1443 1.139 1.1378 1.1367 1.1336 1.1304 1.1334 1.1403 1.1411 1.1399 1.1449 1.1458 1.1466 1.1663 1.1693 1.1744 1.1732 1.1678 1.1602 1.1386 1.1335 1.1324 1.0948 1.0975 1.0965 1.0918 1.078 1.0788 1.0779 1.0787 1.1341 1.137 1.1622 1.1631 1.164 1.1648 1.1677 1.1707 1.1389 1.1438 1.1548 1.1577 1.1606 1.1554 1.1665 1.1674 1.1872 1.201 1.2174 1.2229 1.2216 1.2225 1.2257 1.2289 1.2321 1.233 1.2316 1.2302 1.2265 1.2297 1.233 1.2339 1.2348 1.2403 1.2436 1.2445 1.25 1.2604 1.2613 1.2622 1.2608 1.2618 1.2602 1.2611 1.2597 1.256 1.2546 1.2578 1.2588
2.288 2.2902 2.3031 2.3054 2.3183 2.3099 2.3122 2.3145 2.3167 2.319 2.3213 2.3129 2.3151 2.3174 2.3197 2.3219 2.3242 2.3264 2.318 2.3097 2.312 2.3037 2.306 2.3082 2.3209 2.3127 2.3149 2.3171 2.3089 2.2904 2.2824 2.2846 2.2767 2.2789 2.2709 2.2532 2.2554 2.2674 2.3102 2.3229 2.3461 2.3807 2.394 2.3743 2.3766 2.3788 2.3811 2.4053 2.4076 2.4099 2.3792 2.3815 2.3946 2.3969 2.4101 2.4348 2.437 2.4393 2.4416 2.4439 2.4691 2.4599 2.4507 2.4417 2.444 2.4463 2.4261 2.4284 2.4196 2.4218 2.424 2.4044 2.4175 2.398 2.4111 2.4133 2.4155 2.4287 2.4309 2.4222 2.4354 2.4376 2.4398 2.4421 2.4443 2.4355 2.4377 2.4399 2.4532 2.4444 2.4577 2.4599 2.451 2.4312 2.4335 2.4356 2.4379 2.4185 2.3993 2.3806 2.3724 2.344 2.3461 2.3685 2.4018 2.4039 2.4166 2.4511 2.4425 2.4555 2.4577 2.4709 2.4512 2.4534 2.4665 2.4687 2.4708 2.473 2.4975 2.511 2.5246 2.5383 2.5522 2.5313 2.5335 2.5243 2.5152 2.5061 2.5083 2.5105 2.5241 2.5377 2.5399 2.5536 2.5675 2.5933 2.6076 2.6466 2.6613 2.6636 2.6535 2.6558 2.6456 2.6479 2.6627 2.6525 2.6548 2.6571 2.6471 2.6371 2.6394 2.6539 2.6562 2.6708 2.6731 2.6754 2.6777 2.6676 2.6699 2.6722 2.6621 2.6521 2.6544 2.6325 2.5992 2.5782 2.569 2.5485 2.5285 2.5197 2.5 2.5021 2.5043 2.5173 2.5413 2.5658 2.6139 2.6398 2.6783 2.6928 2.6951 2.7098 2.6996 2.6652 2.6554 2.6457 2.6479 2.6381 2.6404 2.6665 2.6687 2.683 2.6975 2.7121 2.7143 2.7042 2.7064 2.6483 2.6388 2.6293 2.6432 2.6336 2.6593 2.6497 2.6637 2.6659 2.6921 2.7187 2.7458 2.7863 2.7886 2.7909 2.7803 2.7825 2.7848 2.8 2.7894 2.7788 2.7939 2.7833 2.7856 2.7878 2.7901 2.7924 2.7946 2.8098 2.8251 2.854 2.8697 2.8855 2.9016 2.9318 2.9342 2.9365 2.9248 2.9412 2.9436 2.9318 2.9203 2.9227 2.9111 2.8862 2.8885 2.9044 2.9067 2.909 2.9251 2.9274 2.916 2.9183 2.9484 2.9507 2.9813 2.9694 2.9718 2.9741 2.9624 2.9506 2.953 2.9414 2.9438 2.96 2.9623 2.9787 0 0 0 0 0 0 0 1.142 1.1429 1.1418 1.1468 1.1498 1.1465 1.1474 1.1504 1.1492 1.148 1.1447 1.1415 1.1403 1.1391 1.134 1.1329 1.1337 1.1406 1.1394 1.1424 1.1474 1.1461 1.1574 1.1646 1.1655 1.1685 1.1673 1.1682 1.1776 1.139 1.1379 1.1307 1.0971 1.096 1.0969 1.1322 1.0802 1.0811 1.1529 1.1538 1.1608 1.1659 1.1709 1.1635 1.1643 1.1631 1.1661 1.1711 1.1393 1.1402 1.1613 1.1683 1.1734 1.1806 1.1901 1.2018 1.205 1.2103 1.2202 1.2211 1.222 1.2229 1.2261 1.2293 1.2348 1.2357 1.232 1.2329 1.2269 1.2302 1.2357 1.2366 1.2398 1.2408 1.244 1.2449 1.2505 1.2608 1.2617 1.265 1.2612 1.2645 1.2606 1.2616 1.265 1.2634 1.2597 1.2653 1.2638
2.289 2.2913 2.3041 2.3171 2.3194 2.3216 2.3239 2.3262 2.3178 2.3308 2.3223 2.3353 2.3268 2.3184 2.3207 2.3337 2.3252 2.3275 2.3297 2.3213 2.3236 2.3047 2.3175 2.3197 2.322 2.3137 2.3159 2.3077 2.3099 2.2812 2.2733 2.2654 2.2676 2.2799 2.2719 2.2741 2.2763 2.2886 2.3112 2.3239 2.3471 2.3817 2.3731 2.3754 2.3668 2.369 2.3821 2.4064 2.4198 2.4109 2.4021 2.3934 2.3956 2.4089 2.4223 2.4471 2.4494 2.4404 2.4426 2.4563 2.4472 2.4609 2.4518 2.4541 2.445 2.436 2.4383 2.4294 2.4206 2.4228 2.4141 2.4054 2.4076 2.399 2.4121 2.4143 2.4165 2.4187 2.4319 2.4341 2.4254 2.4386 2.4408 2.4542 2.4234 2.4365 2.4278 2.43 2.4432 2.4454 2.4366 2.4388 2.4192 2.4107 2.4129 2.4151 2.4066 2.3981 2.3794 2.361 2.3529 2.3349 2.337 2.3592 2.3923 2.4049 2.4071 2.4304 2.4543 2.4457 2.4587 2.4609 2.4522 2.4435 2.4566 2.4587 2.4609 2.4631 2.4762 2.4895 2.5142 2.5278 2.5301 2.5209 2.5231 2.5253 2.5162 2.5184 2.5093 2.5229 2.5251 2.5387 2.5409 2.5546 2.5685 2.5943 2.6086 2.6476 2.6624 2.6647 2.6545 2.6693 2.6467 2.6489 2.6637 2.6535 2.6558 2.6458 2.6481 2.6504 2.6404 2.6427 2.645 2.6595 2.6618 2.6765 2.6663 2.6686 2.6709 2.6732 2.6631 2.6532 2.6433 2.6455 2.6002 2.5907 2.5814 2.5495 2.5295 2.5316 2.5119 2.5031 2.5052 2.5182 2.5313 2.5556 2.6149 2.629 2.6793 2.6939 2.7086 2.6984 2.7131 2.6783 2.6684 2.6706 2.6489 2.6511 2.6533 2.6435 2.6577 2.6719 2.6862 2.7007 2.703 2.7052 2.683 2.6376 2.6398 2.6303 2.6324 2.6463 2.6485 2.6625 2.6647 2.6669 2.6931 2.7321 2.7595 2.7745 2.7896 2.779 2.7685 2.7708 2.7987 2.801 2.7904 2.7926 2.7821 2.7843 2.7995 2.7889 2.804 2.7934 2.7956 2.8108 2.8393 2.855 2.898 2.9281 2.9305 2.947 2.9352 2.9518 2.9399 2.9565 2.9447 2.9329 2.9214 2.9237 2.8985 2.8872 2.8895 2.8919 2.9078 2.9101 2.9124 2.9284 2.917 2.9193 2.9354 2.9658 2.9681 2.9564 2.9588 2.9611 2.9634 2.9517 2.9402 2.9425 2.9448 2.9471 2.9633 2.9657 0 0 0 0 0 0 0 1.1383 1.1392 1.1421 1.1451 1.1502 1.1448 1.1478 1.1508 1.1496 1.1484 1.1451 1.1419 1.1407 1.1395 1.1343 1.1333 1.1361 1.141 1.1419 1.1428 1.1499 1.1486 1.1536 1.1587 1.1617 1.1626 1.1635 1.1644 1.1653 1.1455 1.1402 1.1391 1.138 1.1369 1.1417 1.1446 1.1475 1.1423 1.1412 1.1521 1.1612 1.1704 1.1734 0 0 0 0 0 0 1.1588 1.1638 1.1687 1.1738 1.181 1.1927 1.2067 1.2075 1.2129 1.2183 1.2215 1.2201 1.221 1.2242 1.2297 1.2329 1.2338 1.2325 1.231 1.2252 1.2283 1.2315 1.2347 1.2379 1.2388 1.2398 1.236 1.2439 1.2589 1.2645 1.2631 1.264 1.2649 1.2635 1.2668 1.2677 1.2686 1.2672 1.2681 1.2714
2.29 2.2923 2.2946 2.3181 2.3204 2.3227 2.325 2.3272 2.3295 2.3318 2.3341 2.3364 2.3279 2.3194 2.3217 2.3239 2.3156 2.3178 2.3201 2.3223 2.314 2.3058 2.2976 2.2998 2.3124 2.3147 2.3169 2.3087 2.3005 2.2822 2.2743 2.2564 2.2685 2.291 2.283 2.2852 2.2975 2.31 2.3226 2.3353 2.3588 2.3828 2.385 2.3764 2.3678 2.37 2.3831 2.4074 2.4208 2.4119 2.4142 2.4054 2.4188 2.421 2.4233 2.4368 2.4391 2.4301 2.4324 2.4459 2.4369 2.4392 2.4415 2.4437 2.446 2.437 2.4393 2.4304 2.4216 2.4128 2.4042 2.3956 2.387 2.3892 2.4022 2.4153 2.4175 2.4197 2.4219 2.4352 2.4264 2.4286 2.4418 2.4441 2.4353 2.4266 2.4178 2.42 2.4222 2.4244 2.4052 2.418 2.4095 2.38 2.3822 2.3843 2.3761 2.3577 2.3296 2.3218 2.3239 2.3064 2.3182 2.3401 2.3828 2.3954 2.408 2.4423 2.4444 2.4466 2.4488 2.4619 2.4532 2.4337 2.4466 2.438 2.4402 2.4423 2.4445 2.4684 2.4816 2.5061 2.5084 2.4993 2.4903 2.4925 2.4947 2.4969 2.4991 2.5125 2.5374 2.5283 2.5305 2.5441 2.5579 2.5835 2.5976 2.6362 2.6385 2.6533 2.6431 2.6579 2.6602 2.6625 2.6648 2.6671 2.6568 2.6468 2.6491 2.6514 2.6293 2.6437 2.6582 2.6482 2.6628 2.6651 2.6674 2.6696 2.6596 2.6619 2.6641 2.6542 2.6443 2.6465 2.613 2.5917 2.5824 2.5394 2.5304 2.5326 2.5128 2.5041 2.5062 2.5301 2.5322 2.5566 2.5928 2.6181 2.656 2.6704 2.6848 2.6994 2.7017 2.6672 2.6454 2.6477 2.6379 2.6401 2.6423 2.6212 2.6233 2.6372 2.6751 2.6895 2.6796 2.6939 2.672 2.6386 2.6291 2.6312 2.6334 2.6356 2.6378 2.6517 2.6421 2.6561 2.682 2.7207 2.7479 2.7755 2.7778 2.7546 2.7443 2.7466 2.7868 2.7891 2.7786 2.7808 2.7704 2.7726 2.7749 2.7771 2.7794 2.7816 2.7712 2.7989 2.8272 2.856 2.8853 2.9152 2.9316 2.9481 2.9505 2.9386 2.9552 2.9434 2.9457 2.934 2.9363 2.9248 2.9132 2.8883 2.8906 2.8929 2.8952 2.9111 2.9134 2.9157 2.9181 2.9204 2.9227 2.9528 2.9692 2.9715 2.9598 2.9481 2.9366 2.9114 2.9274 2.916 2.9048 2.8936 2.8826 2.7702 2.7724 0 0 1.131 1.1279 1.1288 1.1256 1.1265 1.1294 1.1323 1.1372 1.1422 1.1411 1.1419 1.1428 1.1437 1.1425 1.1414 1.1381 1.139 1.1379 1.1347 1.1316 1.1345 1.1393 1.1402 1.1411 1.1482 1.149 1.154 1.1591 1.16 1.1609 1.1618 1.1627 1.1614 1.152 1.1446 1.1415 1.1404 1.1412 1.1461 1.147 1.1499 1.1447 1.1436 1.1424 1.1721 1.1708 1.1738 0 0 0 0 0 0 1.1571 1.1662 1.1713 1.1785 1.1879 1.1974 1.2093 1.2103 1.2133 1.2187 1.2219 1.2205 1.2237 1.2223 1.2255 1.231 1.2319 1.2306 1.2292 1.2256 1.2287 1.2319 1.2328 1.236 1.2369 1.2355 1.2364 1.2397 1.2545 1.2602 1.2611 1.2621 1.2606 1.2615 1.2672 1.2705 1.2714 1.2723 1.2757 1.2742
2.2806 2.2933 2.3062 2.3084 2.3214 2.3237 2.326 2.3283 2.3414 2.3437 2.3351 2.3374 2.3289 2.3205 2.3334 2.3143 2.3166 2.3188 2.3105 2.3023 2.3045 2.2963 2.2986 2.3008 2.303 2.3262 2.3179 2.3097 2.3119 2.2832 2.2854 2.2774 2.2897 2.3126 2.3044 2.2963 2.3192 2.3214 2.3554 2.3576 2.3815 2.3948 2.3971 2.3883 2.3906 2.3928 2.3951 2.4084 2.4331 2.4241 2.4264 2.4175 2.4198 2.4109 2.4243 2.4378 2.4289 2.42 2.4222 2.4357 2.4379 2.4402 2.4313 2.4448 2.447 2.4381 2.4403 2.4314 2.4116 2.4138 2.4052 2.3858 2.388 2.3902 2.3924 2.4054 2.4076 2.4207 2.4229 2.4252 2.4384 2.4296 2.4428 2.4451 2.4363 2.4385 2.4298 2.421 2.4125 2.4146 2.4062 2.3977 2.3892 2.3706 2.3728 2.3646 2.3565 2.3384 2.3108 2.3032 2.3053 2.2977 2.2998 2.3311 2.3735 2.3756 2.3881 2.4432 2.4563 2.4476 2.4389 2.452 2.4433 2.4346 2.4262 2.4284 2.4305 2.4221 2.4348 2.4585 2.4606 2.4958 2.4981 2.4891 2.4803 2.4825 2.4957 2.4979 2.5001 2.5135 2.5157 2.5179 2.5315 2.5337 2.5589 2.5727 2.5986 2.625 2.6395 2.6296 2.6441 2.6464 2.6612 2.651 2.6658 2.6681 2.6579 2.6602 2.6501 2.6648 2.6425 2.6447 2.6593 2.6616 2.6515 2.6661 2.6684 2.6707 2.6484 2.6507 2.6652 2.6552 2.6453 2.6475 2.6258 2.6162 2.5949 2.5627 2.5536 2.5335 2.5247 2.5159 2.5071 2.5311 2.5442 2.5575 2.5938 2.6191 2.645 2.6713 2.6736 2.7004 2.6903 2.6561 2.6464 2.6367 2.6389 2.6294 2.6316 2.6338 2.6243 2.6381 2.6641 2.6784 2.6806 2.6949 2.673 2.6396 2.6301 2.6322 2.6461 2.6366 2.6387 2.6527 2.6431 2.657 2.6829 2.7217 2.7489 2.7765 2.7788 2.7556 2.7453 2.7601 2.7879 2.7901 2.7796 2.7691 2.7714 2.761 2.7632 2.7655 2.7677 2.77 2.7722 2.7999 2.8151 2.8436 2.8863 2.9024 2.9048 2.9491 2.9515 2.9539 2.9563 2.9444 2.9468 2.9491 2.9235 2.9258 2.9006 2.8893 2.8916 2.8939 2.8962 2.9121 2.9145 2.9305 2.9191 2.9214 2.9375 2.9539 2.9845 2.9726 2.9749 2.9632 2.9376 2.9262 2.9285 2.9308 2.9193 2.9081 2.8969 2.7712 2.7734 0 0 1.1314 1.1304 1.1292 1.128 1.1289 1.1278 1.1306 1.1357 1.1385 1.1394 1.1423 1.1432 1.142 1.1429 1.1398 1.1385 1.1394 1.1383 1.1351 1.134 1.1349 1.1418 1.1447 1.1456 1.1507 1.1515 1.1565 1.1595 1.1625 1.1634 1.1643 1.163 1.1618 1.1544 1.1491 1.152 1.1529 1.1559 1.1588 1.1618 1.1605 1.1553 1.15 1.1468 0 0 0 0 0 0 0 0 0 1.1575 1.1604 1.1865 1.1939 1.2101 1.211 1.2119 1.2107 1.2137 1.2191 1.22 1.2232 1.2218 1.2227 1.2236 1.2314 1.2347 1.231 1.2296 1.226 1.2291 1.2323 1.2332 1.2388 1.2373 1.2359 1.2369 1.2401 1.2526 1.2582 1.2616 1.2625 1.261 1.2619 1.2676 1.2733 1.2766 1.28 1.2834 1.2868
2.2816 2.2943 2.3072 2.3095 2.3224 2.3247 2.327 2.3293 2.3424 2.3447 2.3361 2.3384 2.3299 2.3215 2.3237 2.3154 2.3176 2.3199 2.3011 2.3033 2.3055 2.2973 2.2996 2.3018 2.3144 2.3272 2.3189 2.3211 2.3129 2.2841 2.2864 2.2885 2.3009 2.3136 2.3053 2.3075 2.3202 2.3329 2.3564 2.3694 2.3825 2.4069 2.3981 2.4003 2.3916 2.4049 2.3961 2.4319 2.4342 2.4365 2.4388 2.4297 2.4208 2.4343 2.4253 2.4389 2.4299 2.421 2.4122 2.4144 2.4278 2.43 2.4212 2.4346 2.4368 2.4391 2.4302 2.4324 2.4126 2.404 2.3954 2.3868 2.3784 2.3806 2.3934 2.3849 2.3978 2.4 2.4022 2.4153 2.4394 2.4416 2.4438 2.4572 2.4373 2.4395 2.4308 2.433 2.4242 2.405 2.3965 2.3777 2.3798 2.3613 2.3634 2.3554 2.3373 2.3195 2.302 2.2945 2.2966 2.2701 2.2721 2.3028 2.3541 2.3663 2.3787 2.4226 2.4356 2.4164 2.4291 2.4421 2.4229 2.425 2.4166 2.4187 2.4104 2.4125 2.4252 2.4379 2.4508 2.4857 2.4879 2.4681 2.4813 2.4725 2.4857 2.4989 2.49 2.5033 2.5166 2.5077 2.521 2.5347 2.5483 2.5737 2.5878 2.6139 2.6283 2.6306 2.6329 2.6475 2.6497 2.6646 2.6669 2.6692 2.6589 2.6612 2.6512 2.6534 2.6557 2.658 2.6603 2.6503 2.6526 2.6671 2.6571 2.6594 2.6494 2.6517 2.6539 2.6562 2.6585 2.6486 2.6268 2.6054 2.6076 2.5751 2.5545 2.5567 2.5256 2.5278 2.519 2.532 2.5452 2.5585 2.5948 2.6085 2.658 2.6724 2.6746 2.6891 2.6913 2.6571 2.6474 2.6496 2.6399 2.6421 2.6326 2.6231 2.6253 2.6391 2.6531 2.6793 2.6816 2.6838 2.674 2.6406 2.6427 2.6567 2.6471 2.6493 2.6515 2.6419 2.6441 2.658 2.6961 2.7351 2.7499 2.7775 2.7798 2.7693 2.7589 2.7738 2.8018 2.7912 2.7806 2.7701 2.7598 2.762 2.7517 2.754 2.7687 2.7584 2.7732 2.7881 2.8162 2.8315 2.8738 2.8897 2.892 2.9502 2.9384 2.955 2.9573 2.9455 2.9337 2.9361 2.9384 2.9269 2.9016 2.8904 2.8927 2.895 2.9109 2.8996 2.9155 2.9456 2.9339 2.9362 2.9526 2.9689 2.9856 2.988 2.9903 2.9643 2.9666 2.9272 2.9433 2.9456 2.9479 2.9502 2.9249 2.9272 0 1.13 1.133 1.1318 1.1327 1.1296 1.1304 1.1273 1.1301 1.131 1.1361 1.1389 1.1398 1.1427 1.1415 1.1424 1.1414 1.1422 1.141 1.1419 1.1407 1.1355 1.1364 1.1393 1.1442 1.1493 1.1502 1.153 1.156 1.1611 1.1641 1.1671 1.1659 1.1668 1.1656 1.1622 1.1569 1.1556 1.1545 1.1574 1.1604 1.1591 1.1622 1.163 1.1598 1.1524 1.1554 1.1707 1.155 1.158 0 0 0 0 0 1.1994 1.2003 1.2145 1.2131 1.2052 1.2149 1.2137 1.2146 1.2132 1.2164 1.2173 1.2204 1.2213 1.2222 1.2209 1.224 1.2295 1.2328 1.2314 1.23 1.2264 1.2295 1.2327 1.2359 1.2392 1.2401 1.2364 1.2349 1.2405 1.253 1.2563 1.2595 1.2629 1.259 1.2623 1.2657 1.2713 1.2795 1.2804 1.2838 1.2873
2.2826 2.2953 2.2976 2.3212 2.3235 2.3258 2.328 2.3303 2.3326 2.3349 2.3157 2.318 2.3096 2.3119 2.3036 2.3058 2.2976 2.2998 2.2917 2.2939 2.2961 2.2984 2.3006 2.3028 2.3154 2.3177 2.3199 2.3117 2.3139 2.2851 2.2975 2.2997 2.3124 2.325 2.3168 2.3085 2.3422 2.3339 2.3681 2.3704 2.3836 2.4079 2.3991 2.3903 2.4036 2.4059 2.4082 2.4329 2.4467 2.449 2.4398 2.4308 2.4218 2.4241 2.4152 2.4175 2.4087 2.4109 2.4132 2.4044 2.4067 2.4199 2.4112 2.4356 2.4378 2.4289 2.4312 2.4334 2.4027 2.4049 2.3964 2.3772 2.3794 2.371 2.3732 2.3754 2.367 2.3692 2.3714 2.3841 2.4185 2.4207 2.4229 2.4251 2.4164 2.4186 2.4208 2.4122 2.4038 2.3847 2.3661 2.358 2.3499 2.3419 2.344 2.3261 2.3183 2.3106 2.2934 2.2858 2.2879 2.2523 2.2636 2.294 2.335 2.3471 2.3694 2.4026 2.4152 2.3861 2.3882 2.4007 2.4028 2.3946 2.3863 2.3884 2.3905 2.3927 2.3948 2.4073 2.4199 2.4648 2.456 2.4582 2.4497 2.4625 2.4647 2.4888 2.491 2.4932 2.5065 2.4976 2.5108 2.513 2.5264 2.5631 2.577 2.591 2.6172 2.6195 2.6218 2.6362 2.6385 2.6531 2.6554 2.6453 2.6476 2.6377 2.6522 2.6422 2.6445 2.6468 2.649 2.6391 2.6414 2.6559 2.6459 2.6604 2.6383 2.6406 2.6428 2.6451 2.6595 2.6617 2.6278 2.63 2.6086 2.5875 2.5668 2.569 2.5376 2.5397 2.5309 2.533 2.5462 2.5595 2.5728 2.5864 2.6352 2.6493 2.6515 2.6657 2.6801 2.6702 2.6604 2.6506 2.6409 2.6431 2.6336 2.6357 2.6379 2.6401 2.6541 2.6683 2.6826 2.6728 2.675 2.6533 2.6437 2.6459 2.6598 2.6503 2.6407 2.6429 2.645 2.659 2.6971 2.7237 2.7509 2.7786 2.7681 2.7703 2.7599 2.7876 2.8028 2.7922 2.7689 2.7712 2.7608 2.7505 2.7527 2.755 2.7697 2.7594 2.7742 2.7892 2.8042 2.8325 2.848 2.8637 2.866 2.923 2.9116 2.9277 2.9301 2.9186 2.907 2.9094 2.9117 2.914 2.9026 2.8914 2.8937 2.896 2.9119 2.9142 2.9303 2.9466 2.9489 2.9373 2.9536 2.97 2.9867 2.989 2.9914 2.9794 2.9676 2.942 2.9582 2.9605 2.977 2.9935 2.926 2.9283 0 1.1264 1.1313 1.1303 1.1331 1.132 1.1308 1.1277 1.1265 1.1295 1.1344 1.1353 1.1361 1.1391 1.14 1.1409 1.1397 1.1405 1.1414 1.1402 1.1411 1.14 1.1388 1.1418 1.1488 1.1538 1.1546 1.1598 1.1606 1.1636 1.1666 1.1696 1.1684 1.1651 1.1639 1.1605 1.1573 1.156 1.159 1.162 1.1629 1.1617 1.1647 1.1634 1.1602 1.1589 1.1619 1.167 1.1637 1.1584 1.1675 1.1705 1.1755 1.1744 1.1837 1.1998 1.2051 1.2126 1.2135 1.2145 1.2176 1.2163 1.215 1.2136 1.2124 1.2154 1.2163 1.2172 1.2182 1.2191 1.2223 1.2276 1.2309 1.2341 1.2327 1.2268 1.2299 1.2354 1.2363 1.2372 1.2358 1.2344 1.2353 1.2386 1.2488 1.2544 1.2553 1.2585 1.2571 1.2604 1.2661 1.2717 1.2799 1.2833 1.2818 1.2852
2.3047 2.3176 2.3199 2.3222 2.3245 2.3376 2.3291 2.3313 2.3336 2.3251 2.3167 2.3084 2.3106 2.3023 2.2941 2.2964 2.2986 2.3008 2.2824 2.2846 2.2868 2.2993 2.3016 2.3038 2.306 2.3292 2.3209 2.3231 2.3149 2.2963 2.2985 2.3111 2.3238 2.3365 2.3388 2.3304 2.3539 2.3561 2.4021 2.427 2.4293 2.443 2.4339 2.4248 2.4158 2.4181 2.4316 2.4339 2.4477 2.4385 2.4408 2.4318 2.4228 2.4251 2.4162 2.4074 2.4097 2.4009 2.4032 2.4054 2.3968 2.399 2.4122 2.4144 2.4277 2.4189 2.4322 2.4234 2.4146 2.3952 2.3974 2.3888 2.3803 2.372 2.3742 2.3764 2.3576 2.3597 2.3723 2.3851 2.3979 2.4108 2.4023 2.4152 2.396 2.3982 2.411 2.4132 2.4047 2.3857 2.3568 2.3488 2.3509 2.3428 2.3449 2.3172 2.3095 2.3115 2.3039 2.2964 2.2984 2.2813 2.2834 2.3046 2.356 2.3682 2.3806 2.4141 2.4268 2.387 2.3788 2.3809 2.3934 2.3955 2.3873 2.369 2.3813 2.3834 2.3957 2.4083 2.4208 2.4549 2.4463 2.4485 2.4506 2.4528 2.4657 2.4788 2.492 2.4942 2.4964 2.4985 2.5007 2.514 2.5162 2.5641 2.578 2.592 2.6062 2.6085 2.6228 2.6251 2.6395 2.6541 2.6441 2.6587 2.6486 2.6387 2.641 2.6432 2.6455 2.6478 2.6501 2.6281 2.6303 2.6447 2.6469 2.6492 2.6515 2.6537 2.6438 2.6582 2.6605 2.6751 2.6528 2.643 2.6333 2.6001 2.5793 2.5814 2.5608 2.5518 2.5429 2.5562 2.5583 2.5604 2.5626 2.5989 2.6243 2.6265 2.6406 2.6667 2.669 2.6712 2.6614 2.6516 2.6538 2.6561 2.6463 2.6485 2.6507 2.6529 2.6671 2.6814 2.6836 2.6737 2.6639 2.6543 2.6447 2.6469 2.6608 2.663 2.6417 2.6438 2.646 2.66 2.6981 2.7247 2.7394 2.7796 2.7691 2.7713 2.7736 2.7887 2.8169 2.8192 2.7955 2.7978 2.7872 2.7767 2.7663 2.7812 2.7962 2.7857 2.7879 2.803 2.8313 2.8335 2.849 2.8648 2.8671 2.9103 2.9126 2.915 2.9311 2.9057 2.9081 2.9104 2.9127 2.915 2.9037 2.8924 2.8947 2.9106 2.9267 2.929 2.9453 2.9617 2.95 2.9523 2.9547 2.9711 2.9877 2.9901 2.9924 2.9804 2.9828 2.971 2.9875 3.0042 2.9922 2.9945 0 0 0 1.1268 1.1298 1.1307 1.1316 1.1344 1.1312 1.126 1.1249 1.1258 1.1327 1.1336 1.1344 1.1353 1.1383 1.1392 1.1401 1.1409 1.1439 1.1468 1.1457 1.1465 1.1474 1.1524 1.1596 1.1647 1.1677 1.1686 1.1695 1.1683 1.1691 1.1679 1.1688 1.1655 1.1643 1.1609 1.1598 1.1585 1.1616 1.1644 1.1653 1.1662 1.1671 1.168 1.1647 1.1697 1.1792 1.1843 1.1788 1.1776 1.1721 1.173 1.1759 1.179 1.197 1.2091 1.2121 1.213 1.214 1.2149 1.2203 1.219 1.2154 1.2119 1.2149 1.2137 1.2167 1.2155 1.2164 1.2195 1.2227 1.2281 1.2313 1.2345 1.2331 1.2294 1.2326 1.2335 1.2391 1.2377 1.2386 1.2372 1.2381 1.2413 1.2492 1.2548 1.2557 1.2566 1.2552 1.2585 1.2665 1.2721 1.2803 1.2837 1.2822 1.2807
2.3057 2.3187 2.321 2.3341 2.3363 2.3278 2.3301 2.3324 2.3346 2.3262 2.3177 2.3094 2.3116 2.3034 2.3056 2.3078 2.2996 2.2915 2.2937 2.2856 2.2878 2.2797 2.2922 2.2944 2.307 2.3197 2.3114 2.3137 2.3055 2.2973 2.2995 2.3121 2.3143 2.3375 2.3398 2.342 2.3657 2.3679 2.4031 2.4166 2.4303 2.444 2.4349 2.4258 2.4281 2.4304 2.4327 2.4465 2.4488 2.4396 2.4418 2.4216 2.4239 2.415 2.4173 2.4084 2.4107 2.402 2.4042 2.3955 2.3978 2.3892 2.3914 2.4154 2.4287 2.4199 2.4221 2.4244 2.4047 2.407 2.3984 2.3897 2.392 2.373 2.3752 2.3774 2.3483 2.3504 2.3628 2.365 2.3989 2.3904 2.4032 2.4054 2.3864 2.3992 2.3907 2.4035 2.395 2.3763 2.3578 2.3497 2.3417 2.3438 2.3459 2.3181 2.3104 2.3125 2.3146 2.3069 2.3187 2.3014 2.3131 2.3249 2.357 2.3795 2.3919 2.4256 2.4385 2.3983 2.3798 2.3922 2.3944 2.3965 2.3882 2.3903 2.3924 2.3843 2.4071 2.4092 2.4218 2.4558 2.4473 2.4495 2.4516 2.4538 2.4666 2.4798 2.4819 2.4841 2.4863 2.4884 2.4906 2.4928 2.5061 2.5421 2.5443 2.5812 2.5953 2.5976 2.6118 2.614 2.6284 2.6551 2.6451 2.6474 2.6497 2.6397 2.6542 2.6443 2.6344 2.6366 2.6389 2.6291 2.6434 2.6336 2.6479 2.6502 2.6283 2.6426 2.6448 2.6593 2.6615 2.6638 2.666 2.6561 2.6463 2.6128 2.6033 2.5939 2.5731 2.5753 2.555 2.5571 2.5593 2.5614 2.5636 2.5769 2.6253 2.6275 2.6297 2.6557 2.6579 2.6722 2.6744 2.6646 2.6668 2.657 2.6593 2.6615 2.6517 2.6659 2.6801 2.6824 2.6846 2.6868 2.677 2.6552 2.6457 2.6479 2.6618 2.664 2.6426 2.6448 2.647 2.661 2.6991 2.7134 2.7404 2.7806 2.7701 2.7597 2.7619 2.7897 2.818 2.8072 2.8095 2.7988 2.7882 2.7777 2.7799 2.795 2.7972 2.7995 2.7889 2.804 2.8192 2.8346 2.8369 2.8658 2.8681 2.8975 2.9137 2.9299 2.9322 2.9068 2.9091 2.8978 2.9138 2.9161 2.9047 2.8935 2.8958 2.8981 2.9277 2.9301 2.9464 2.9627 2.9651 2.9534 2.9557 2.9721 2.9745 2.9768 2.9792 2.9815 2.9697 2.9721 3.0029 3.0198 2.9933 3.01 0 0 0 1.1252 1.1302 1.1311 1.132 1.1328 1.1316 1.1225 1.1234 1.1262 1.1331 1.134 1.1348 1.1378 1.1387 1.1417 1.1404 1.1434 1.1443 1.1493 1.148 1.1489 1.1498 1.1528 1.1642 1.1672 1.1681 1.169 1.1678 1.1665 1.1653 1.1662 1.1692 1.1659 1.1625 1.1613 1.1602 1.1589 1.164 1.1691 1.1679 1.1666 1.1675 1.1684 1.1672 1.1701 1.1796 1.1826 1.1813 1.1801 1.1746 1.1776 1.1785 1.1837 1.2019 1.2095 1.2104 1.2134 1.2122 1.2131 1.2185 1.2171 1.2158 1.2144 1.2132 1.2141 1.2172 1.2181 1.219 1.2199 1.2231 1.2285 1.2317 1.2349 1.2335 1.2321 1.2353 1.2386 1.2395 1.2404 1.239 1.2399 1.2385 1.2417 1.2496 1.2552 1.2538 1.2547 1.2556 1.2565 1.2669 1.2725 1.2783 1.2842 1.2826 1.2811
2.3067 2.3197 2.322 2.3351 2.3374 2.3288 2.3204 2.3226 2.3357 2.338 2.3081 2.3104 2.3233 2.3044 2.3066 2.3088 2.2902 2.2925 2.2844 2.2763 2.2785 2.2706 2.2829 2.2851 2.2873 2.3102 2.3125 2.3043 2.3065 2.2881 2.3005 2.3027 2.3258 2.3385 2.3408 2.343 2.3667 2.3798 2.3931 2.4064 2.4314 2.4451 2.4474 2.4268 2.4291 2.4314 2.4337 2.436 2.4383 2.4293 2.4316 2.4226 2.4249 2.4272 2.4183 2.4095 2.4228 2.403 2.3943 2.3857 2.388 2.3902 2.3817 2.3839 2.3968 2.4099 2.4013 2.4144 2.3949 2.3863 2.3885 2.3801 2.3823 2.3634 2.3656 2.3678 2.339 2.331 2.3433 2.3454 2.3681 2.36 2.3622 2.3746 2.3665 2.3686 2.3604 2.3626 2.3751 2.3566 2.3384 2.3305 2.3226 2.3247 2.3268 2.319 2.3113 2.3037 2.3155 2.3176 2.3394 2.3316 2.3337 2.3457 2.3478 2.3701 2.3826 2.4373 2.4722 2.3993 2.3807 2.3828 2.3953 2.3974 2.3892 2.4017 2.3934 2.3955 2.4081 2.4102 2.4333 2.4461 2.4376 2.4292 2.4313 2.444 2.4676 2.4807 2.4719 2.4634 2.4655 2.4569 2.459 2.472 2.4741 2.5092 2.5003 2.5136 2.5269 2.5404 2.5773 2.5795 2.5935 2.6317 2.6218 2.6241 2.6143 2.6286 2.643 2.6453 2.6475 2.6376 2.6399 2.6301 2.6323 2.6467 2.6612 2.6635 2.6414 2.6436 2.6458 2.6481 2.6872 2.6771 2.6794 2.6816 2.6716 2.6375 2.616 2.6182 2.5971 2.5993 2.5785 2.5692 2.5714 2.5736 2.5757 2.5779 2.6146 2.6284 2.6426 2.6687 2.671 2.6732 2.6754 2.6776 2.6799 2.6821 2.6843 2.6866 2.6888 2.6789 2.6811 2.6833 2.6977 2.6757 2.6779 2.6562 2.6584 2.6488 2.6628 2.6769 2.6554 2.6458 2.648 2.6619 2.7122 2.7391 2.7539 2.7945 2.7839 2.7862 2.7756 2.8036 2.8323 2.8213 2.8236 2.8259 2.815 2.8173 2.8066 2.8219 2.8112 2.8005 2.8028 2.818 2.8202 2.8356 2.8511 2.8668 2.8691 2.8985 2.9009 2.9309 2.9194 2.9217 2.9241 2.9264 2.9148 2.9311 2.9195 2.9081 2.9104 2.9127 2.9288 2.9311 2.9474 2.9498 2.9521 2.9544 2.9708 2.9732 2.9615 2.9779 2.9802 2.9685 2.9567 2.9731 2.9896 3.0063 3.0087 3.0256 0 0 0 1.1256 1.1285 1.1294 1.1323 1.1332 1.13 1.1229 1.1198 1.1246 1.1315 1.1344 1.1373 1.1361 1.1391 1.14 1.1429 1.1438 1.1467 1.1538 1.1547 1.1556 1.1565 1.1595 1.1688 1.1718 1.1706 1.1736 1.1724 1.169 1.1678 1.1687 1.1696 1.1684 1.1672 1.1659 1.1647 1.1677 1.1728 1.178 1.1789 1.1777 1.1785 1.1773 1.1782 1.1769 1.1821 1.1873 1.186 1.1848 1.1814 1.1823 1.1853 1.1884 1.2046 1.2099 1.2108 1.2117 1.2103 1.2135 1.2189 1.2175 1.2162 1.2148 1.2136 1.2145 1.2154 1.2163 1.2217 1.2226 1.2235 1.2289 1.2344 1.2353 1.2339 1.2325 1.2357 1.2367 1.2399 1.2385 1.2394 1.238 1.2389 1.2421 1.2477 1.2533 1.2542 1.2551 1.256 1.2593 1.2673 1.2706 1.2787 1.2821 1.2782 1.2743
2.3077 2.3207 2.3123 2.3253 2.3276 2.3299 2.3214 2.3237 2.3367 2.3282 2.3198 2.322 2.3243 2.3159 2.3182 2.3098 2.3016 2.2935 2.2854 2.2773 2.2694 2.2715 2.2737 2.2759 2.2883 2.3009 2.3031 2.3053 2.3075 2.2891 2.3015 2.3141 2.3163 2.3395 2.3418 2.344 2.3677 2.3699 2.3941 2.4075 2.421 2.4347 2.437 2.4278 2.4301 2.4324 2.4347 2.437 2.428 2.4303 2.4214 2.4236 2.4259 2.4282 2.4193 2.4215 2.4238 2.415 2.4062 2.3975 2.3782 2.3805 2.3719 2.3849 2.3978 2.4001 2.4023 2.3937 2.3851 2.3873 2.3895 2.3811 2.3939 2.354 2.3561 2.3583 2.3298 2.3319 2.3341 2.3362 2.3485 2.3405 2.3426 2.3653 2.3571 2.3592 2.3512 2.3533 2.3554 2.3474 2.3194 2.3215 2.3137 2.3158 2.3179 2.32 2.3123 2.3046 2.3067 2.3088 2.3304 2.3325 2.3247 2.3268 2.3388 2.3409 2.353 2.4383 2.4844 2.3795 2.3613 2.3736 2.3859 2.388 2.3901 2.4026 2.4048 2.3965 2.3986 2.4111 2.4237 2.4471 2.4386 2.4196 2.4322 2.4344 2.4686 2.4817 2.4729 2.4643 2.4665 2.4472 2.46 2.4621 2.4643 2.488 2.4902 2.4924 2.4945 2.4967 2.5551 2.5688 2.5827 2.5967 2.599 2.6012 2.6034 2.6296 2.6319 2.6463 2.6364 2.6387 2.6409 2.6311 2.6455 2.6356 2.6622 2.6645 2.6545 2.6446 2.6348 2.6491 2.6883 2.6905 2.6804 2.6827 2.6849 2.6385 2.6407 2.6074 2.6214 2.6118 2.6024 2.5816 2.5953 2.5745 2.5767 2.5789 2.6156 2.6294 2.6436 2.6819 2.6964 2.6864 2.6764 2.6909 2.6809 2.6953 2.6854 2.6876 2.6898 2.6799 2.6821 2.6843 2.6866 2.6767 2.6669 2.6572 2.6594 2.6616 2.6757 2.69 2.6564 2.6586 2.6489 2.6629 2.7255 2.7401 2.7676 2.7955 2.7849 2.7872 2.8024 2.8047 2.8466 2.8356 2.8246 2.8269 2.8292 2.8184 2.8207 2.8361 2.8252 2.8015 2.8038 2.8321 2.8475 2.8366 2.8521 2.8679 2.8837 2.886 2.9019 2.932 2.9343 2.9089 2.9112 2.9135 2.9159 2.9321 2.9205 2.9091 2.9114 2.9138 2.9161 2.9322 2.9345 2.9791 2.9672 2.9555 2.9578 2.9742 2.9625 2.9789 2.9813 2.9695 2.9718 2.9742 2.9907 2.993 2.9954 2.9977 0 0 0 1.128 1.131 1.1319 1.1327 1.1336 1.1304 1.1233 1.1221 1.1251 1.1319 1.1347 1.1356 1.1386 1.1395 1.1424 1.1433 1.1442 1.1513 1.1542 1.1572 1.1581 1.159 1.162 1.1692 1.1722 1.1731 1.1762 1.1749 1.1695 1.1704 1.1691 1.1721 1.1709 1.1697 1.1727 1.1715 1.1724 1.1775 1.1826 1.1857 1.1844 1.1832 1.1862 1.1829 1.1838 1.1868 1.192 1.1886 1.1873 1.1839 1.1827 1.1857 1.1909 1.2027 1.208 1.2089 1.2098 1.2107 1.2139 1.2193 1.2202 1.2144 1.2153 1.214 1.2171 1.2158 1.2189 1.2198 1.2207 1.2239 1.2293 1.2348 1.2357 1.2343 1.2352 1.2385 1.2394 1.238 1.2389 1.2398 1.2384 1.2393 1.2425 1.2481 1.2537 1.2523 1.2555 1.2588 1.2597 1.2678 1.271 1.2768 1.2801 1.2762 1.2724
2.2877 2.3004 2.2817 2.284 2.2862 2.2781 2.2803 2.2722 2.2745 2.2767 2.2789 2.2915 2.2937 2.3064 2.3086 2.3004 2.2922 2.2842 2.2761 2.2783 2.2703 2.2725 2.2747 2.2769 2.2893 2.3018 2.3144 2.3167 2.3085 2.3107 2.3129 2.3255 2.3278 2.33 2.3322 2.3344 2.3472 2.3602 2.3841 2.4085 2.422 2.4472 2.4495 2.4289 2.4312 2.4449 2.4358 2.4381 2.429 2.4201 2.4112 2.4025 2.4047 2.407 2.4092 2.4115 2.4248 2.416 2.4182 2.3986 2.39 2.3814 2.3729 2.3859 2.3881 2.4011 2.3925 2.3947 2.3861 2.3777 2.3905 2.3927 2.3843 2.3447 2.3469 2.349 2.3308 2.3228 2.325 2.317 2.3393 2.3313 2.3335 2.3457 2.3478 2.3297 2.3318 2.324 2.3462 2.3382 2.3007 2.2931 2.2952 2.307 2.309 2.3209 2.3132 2.3056 2.3076 2.3293 2.3314 2.3335 2.3257 2.318 2.3104 2.3028 1.9471 1.9085 1.9036 2.311 2.313 2.3346 2.3564 2.3788 2.3809 2.4036 2.4057 2.3974 2.3995 2.4121 2.4247 2.4374 2.4289 2.4101 2.4019 2.4143 2.4375 2.461 2.4631 2.4545 2.4567 2.4482 2.461 2.4631 2.4653 2.489 2.4912 2.4825 2.4847 2.4977 2.5333 2.5468 2.5605 2.5743 2.5882 2.5787 2.5694 2.6067 2.6329 2.6473 2.6374 2.6519 2.642 2.6321 2.6465 2.6487 2.6632 2.6655 2.6434 2.6456 2.6358 2.6623 2.6769 2.6916 2.6814 2.6837 2.686 2.6515 2.6538 2.644 2.6343 2.6365 2.615 2.6056 2.6078 2.5755 2.5777 2.5913 2.5934 2.6072 2.6209 2.6468 2.649 2.6752 2.6774 2.6797 2.6941 2.6963 2.6986 2.7008 2.7031 2.6809 2.6831 2.6853 2.6997 2.6898 2.6799 2.6582 2.6486 2.6508 2.6767 2.7031 2.6692 2.6713 2.6735 2.6757 2.7389 2.7537 2.7814 2.8096 2.7988 2.8011 2.8034 2.8188 2.8344 2.8367 2.8256 2.8279 2.8302 2.8064 2.8217 2.8109 2.8132 2.8025 2.8048 2.82 2.8223 2.8116 2.8138 2.8422 2.8577 2.8735 2.8893 2.8916 2.9076 2.9099 2.9262 2.9285 2.9169 2.9192 2.9216 2.9102 2.9125 2.9148 2.9171 2.9332 2.9355 2.9659 2.9682 2.9565 2.9589 2.9612 2.9495 2.9518 2.9682 2.9564 2.9449 2.9611 2.9776 2.9799 2.9823 2.9846 0 0 0 1.1284 1.1314 1.1323 1.1351 1.134 1.1328 1.1276 1.1265 1.1294 1.1343 1.1372 1.1381 1.1411 1.142 1.1408 1.1416 1.1425 1.1434 1.1464 1.1534 1.1564 1.1573 1.1603 1.1654 1.1663 1.1693 1.1766 1.1753 1.172 1.1707 1.1738 1.1725 1.1734 1.1722 1.1731 1.1761 1.1749 1.1843 1.1874 1.1883 1.1892 1.1901 1.191 1.1919 1.1906 1.1915 1.1968 1.1933 1.1899 1.1886 1.1895 1.1904 1.1956 1.2031 1.2084 1.2049 1.2081 1.2067 1.2099 1.2197 1.2183 1.2192 1.218 1.2166 1.2175 1.2184 1.2193 1.2225 1.2234 1.2243 1.232 1.2352 1.2385 1.2371 1.2357 1.2389 1.2398 1.2384 1.2393 1.2402 1.2388 1.2397 1.2429 1.2509 1.2564 1.255 1.2559 1.2592 1.2625 1.2682 1.2714 1.2772 1.2805 1.2766 1.2752
2.2782 2.2805 2.2724 2.2644 2.2769 2.2688 2.271 2.2529 2.2551 2.2572 2.2697 2.2719 2.2843 2.2969 2.3096 2.3119 2.2932 2.2955 2.2874 2.2793 2.2815 2.2735 2.2859 2.2881 2.3006 2.3028 2.3259 2.3282 2.3304 2.3221 2.3243 2.3371 2.3288 2.331 2.3332 2.3354 2.3482 2.3505 2.3961 2.3984 2.423 2.4598 2.4738 2.4414 2.4437 2.4575 2.4368 2.4391 2.4301 2.41 2.4123 2.4035 2.4057 2.408 2.4102 2.4125 2.4258 2.417 2.4304 2.4105 2.4018 2.3932 2.3954 2.3976 2.3998 2.4021 2.3935 2.3849 2.3979 2.3893 2.3915 2.3937 2.3959 2.3457 2.3479 2.35 2.3217 2.3137 2.3159 2.3081 2.3403 2.3323 2.3243 2.3365 2.3387 2.3307 2.3228 2.3249 2.337 2.3291 2.292 2.2941 2.2961 2.2982 2.31 2.3219 2.3339 2.326 2.3281 2.3402 2.3423 2.3444 2.3365 2.3189 2.3113 2.3037 1.9479 1.9026 1.9109 2.3119 2.3043 2.316 2.3376 2.3797 2.3818 2.4045 2.4067 2.4192 2.4214 2.4235 2.4469 2.449 2.4405 2.4111 2.4132 2.4153 2.4384 2.4619 2.4533 2.4448 2.447 2.4491 2.4619 2.4749 2.477 2.49 2.4922 2.4943 2.4856 2.4986 2.5231 2.5253 2.5387 2.5753 2.5775 2.5682 2.5704 2.5959 2.6339 2.6484 2.6384 2.6529 2.6552 2.6574 2.6597 2.6743 2.6643 2.6789 2.6565 2.6588 2.6611 2.6633 2.6903 2.6926 2.6824 2.6847 2.687 2.6769 2.6669 2.6814 2.6837 2.6615 2.6637 2.6419 2.6323 2.5879 2.5901 2.6038 2.606 2.6082 2.6219 2.6358 2.6619 2.6641 2.6784 2.6807 2.6951 2.7097 2.7119 2.7266 2.7289 2.7063 2.7209 2.7108 2.713 2.703 2.6809 2.671 2.6614 2.6754 2.6776 2.7041 2.682 2.6843 2.6986 2.713 2.7907 2.793 2.8083 2.8239 2.8129 2.8022 2.8308 2.8331 2.8354 2.8377 2.84 2.8556 2.8312 2.8335 2.8227 2.8381 2.8142 2.8035 2.8058 2.8341 2.8233 2.8126 2.8279 2.8432 2.8588 2.8611 2.8769 2.9063 2.9087 2.911 2.9133 2.9435 2.9319 2.9342 2.9366 2.9389 2.9412 2.9296 2.9319 2.9342 2.9366 2.967 2.9553 2.9576 2.9459 2.9344 2.923 2.939 2.9552 2.9575 2.9459 2.9482 2.9786 2.981 2.9833 2.9856 0 0 0 1.1309 1.1337 1.1387 1.1417 1.1447 1.1393 1.1381 1.1371 1.138 1.1388 1.1417 1.1426 1.1415 1.1424 1.1412 1.1399 1.1429 1.1417 1.1487 1.1538 1.1589 1.1577 1.1607 1.1637 1.1646 1.1676 1.1748 1.1757 1.1724 1.1711 1.1721 1.1729 1.1717 1.1726 1.1756 1.1808 1.1838 1.1891 1.1922 1.1952 1.194 1.1971 1.2002 1.2011 1.1998 1.2007 1.2016 1.2004 1.1968 1.1955 1.1964 1.1973 1.2004 1.2058 1.2067 1.2076 1.2085 1.2071 1.2125 1.2201 1.2187 1.2196 1.2205 1.2214 1.2224 1.2211 1.2242 1.2251 1.226 1.2292 1.2324 1.2356 1.2389 1.2398 1.2407 1.2416 1.2449 1.2458 1.2467 1.2476 1.2462 1.2471 1.248 1.2536 1.2592 1.2578 1.261 1.2619 1.2677 1.2709 1.2719 1.2776 1.2809 1.2795 1.2756
2.2587 2.2609 2.2631 2.2552 2.2574 2.2596 2.2618 2.2538 2.2262 2.2482 2.2504 2.2729 2.2751 2.2876 2.3002 2.3024 2.2942 2.2965 2.2884 2.2906 2.2824 2.2847 2.2868 2.2891 2.3016 2.3142 2.3269 2.3292 2.3209 2.3231 2.3359 2.3381 2.3298 2.332 2.3342 2.326 2.3282 2.3409 2.3971 2.3994 2.4241 2.4608 2.4631 2.4539 2.4562 2.4585 2.4378 2.4401 2.4199 2.411 2.4022 2.3935 2.4068 2.409 2.4112 2.4135 2.4158 2.418 2.4314 2.4225 2.4137 2.405 2.3964 2.3986 2.4117 2.3923 2.3945 2.3967 2.3989 2.3903 2.4033 2.3947 2.3969 2.3467 2.3488 2.351 2.3126 2.3048 2.3069 2.309 2.321 2.3231 2.3354 2.3375 2.3295 2.3217 2.3138 2.3159 2.318 2.3103 2.2929 2.2854 2.2875 2.2896 2.3109 2.3228 2.3348 2.347 2.339 2.3512 2.3533 2.3554 2.3374 2.3296 1.8983 1.9 1.8695 1.884 1.8793 2.2563 2.2768 2.3073 2.319 2.3705 2.3828 2.3951 2.4076 2.4202 2.4223 2.4245 2.4478 2.4607 2.4415 2.4225 2.4141 2.4162 2.4394 2.4629 2.4543 2.4565 2.4479 2.4501 2.4629 2.465 2.4672 2.491 2.4931 2.4844 2.4975 2.4996 2.5241 2.5375 2.5396 2.5647 2.5785 2.5692 2.5598 2.5852 2.6349 2.6372 2.6395 2.6539 2.6562 2.6585 2.6607 2.663 2.6776 2.6799 2.6576 2.6598 2.6499 2.6643 2.6789 2.6812 2.6835 2.6857 2.688 2.6779 2.6802 2.6824 2.6847 2.687 2.6769 2.6549 2.6451 2.6004 2.5911 2.6048 2.607 2.6092 2.6229 2.6368 2.651 2.6532 2.6794 2.6817 2.6961 2.7107 2.7129 2.7403 2.7425 2.7197 2.722 2.7242 2.714 2.7163 2.694 2.672 2.6742 2.6764 2.6908 2.7051 2.6952 2.6974 2.7118 2.7387 2.7789 2.794 2.8226 2.8116 2.8139 2.8162 2.8318 2.8341 2.8497 2.8521 2.841 2.8433 2.8457 2.8479 2.8369 2.8392 2.8152 2.8175 2.8198 2.8221 2.8243 2.8266 2.8289 2.8443 2.8598 2.8621 2.8779 2.8937 2.9097 2.912 2.9283 2.9445 2.9469 2.9492 2.9516 2.9539 2.9563 2.9306 2.933 2.9493 2.9376 2.954 2.9423 2.9308 2.9331 2.908 2.924 2.9263 2.9423 2.9447 2.9332 2.9493 2.9655 2.9678 2.9702 3.0009 0 0 0 1.1313 1.1382 1.1433 1.1483 1.1513 1.1501 1.1427 1.1415 1.1424 1.1433 1.1442 1.145 1.1438 1.1428 1.1416 1.1403 1.1412 1.1442 1.1491 1.1542 1.1593 1.1581 1.1611 1.1641 1.165 1.1659 1.1731 1.1719 1.1685 1.1673 1.1682 1.1691 1.17 1.1709 1.176 1.1812 1.1842 1.1895 1.1926 1.1957 1.1966 1.1975 1.2028 1.2015 1.2025 1.2055 1.2043 1.2008 1.2017 1.2003 1.199 1.1999 1.2008 1.2062 1.2071 1.208 1.2089 1.2098 1.2129 1.2182 1.2214 1.22 1.2209 1.2219 1.2251 1.2237 1.2246 1.2278 1.2287 1.2296 1.2374 1.2384 1.2416 1.2425 1.2411 1.2443 1.2476 1.2485 1.2494 1.2503 1.2536 1.2522 1.2531 1.2587 1.2619 1.2605 1.2614 1.2672 1.2704 1.2737 1.2746 1.278 1.2813 1.2774 1.276
2.0812 2.1184 2.1478 2.1591 2.1428 2.1357 2.1199 2.1042 2.133 2.1441 2.1739 2.2142 2.226 2.238 2.2908 2.3034 2.2952 2.2871 2.2894 2.2812 2.2834 2.2856 2.2982 2.3004 2.3026 2.3152 2.3279 2.3302 2.3324 2.3346 2.3369 2.3391 2.3308 2.333 2.3352 2.3374 2.3291 2.3525 2.3872 2.4116 2.4251 2.4618 2.4642 2.4549 2.4457 2.4596 2.4389 2.4298 2.4209 2.412 2.4033 2.3946 2.3968 2.41 2.4123 2.4145 2.4279 2.419 2.4324 2.4235 2.4147 2.406 2.4082 2.3996 2.4018 2.4041 2.3955 2.3977 2.3891 2.4021 2.4043 2.3957 2.3979 2.3579 2.3395 2.3315 2.3037 2.2959 2.298 2.3001 2.3121 2.3043 2.3163 2.3184 2.3008 2.3028 2.2952 2.307 2.2994 2.3014 2.2843 2.2768 2.2788 2.2809 2.2925 2.3042 2.3258 2.3378 2.3399 2.342 2.3441 2.3166 2.2994 1.9443 1.8991 1.8943 1.8831 1.8719 1.88 1.9142 1.9092 2.0522 2.054 2.3714 2.3735 2.4065 2.419 2.4211 2.4233 2.436 2.4488 2.4726 2.4531 2.4235 2.4256 2.4277 2.451 2.4639 2.4553 2.4574 2.4489 2.4617 2.4638 2.4768 2.479 2.4811 2.4833 2.4854 2.4876 2.5006 2.5362 2.5272 2.5294 2.5428 2.545 2.5586 2.5724 2.5979 2.6359 2.6382 2.6527 2.6549 2.6695 2.6595 2.6618 2.6764 2.6787 2.6809 2.6586 2.6608 2.6631 2.6654 2.6676 2.6699 2.6721 2.6744 2.689 2.6789 2.6812 2.6835 2.6857 2.688 2.6779 2.668 2.6461 2.6129 2.6036 2.6058 2.6195 2.6101 2.6239 2.6261 2.652 2.6542 2.6804 2.6949 2.7094 2.7117 2.7264 2.7287 2.7435 2.7207 2.7106 2.7128 2.6906 2.6807 2.6708 2.6612 2.6752 2.6538 2.6917 2.694 2.6962 2.7106 2.7251 2.7397 2.8058 2.8081 2.8236 2.8127 2.815 2.8306 2.8329 2.8619 2.8508 2.8531 2.8554 2.8577 2.8601 2.849 2.8513 2.8536 2.8425 2.8185 2.8339 2.8362 2.8384 2.8276 2.8299 2.8453 2.8608 2.8631 2.8789 2.8948 2.9107 2.9131 2.9293 2.9456 2.9479 2.9503 2.9526 2.955 2.9715 2.9457 2.934 2.9363 2.9386 2.9135 2.9158 2.891 2.8666 2.8428 2.7694 2.7351 2.7492 2.7514 2.6829 2.685 2.6871 2.7007 2.7146 2.8139 0 0 0 1.1317 1.1345 1.1354 1.1425 1.1558 1.1526 1.1452 1.144 1.1449 1.1437 1.1466 1.1454 1.1442 1.1432 1.1399 1.1407 1.1437 1.1446 1.1516 1.1567 1.1597 1.1606 1.1615 1.1624 1.1654 1.1663 1.1714 1.1702 1.1626 1.1593 1.1602 1.161 1.164 1.167 1.1764 1.1773 1.1825 1.1878 1.1908 1.1939 1.1948 1.1979 1.201 1.1997 1.1985 1.2015 1.2024 1.2012 1.1998 1.2007 1.1994 1.2004 1.2034 1.2066 1.2096 1.2084 1.2093 1.2124 1.2155 1.2186 1.2218 1.2204 1.2236 1.2223 1.2232 1.2264 1.225 1.2305 1.2314 1.2323 1.2379 1.2411 1.242 1.2429 1.2438 1.2471 1.248 1.2512 1.2545 1.2554 1.254 1.2549 1.2558 1.2614 1.2648 1.2633 1.2642 1.2676 1.2685 1.2718 1.2727 1.2736 1.2769 1.2731 1.2716
2.0908 2.0928 2.1125 2.1235 2.1078 2.0923 2.1208 2.1052 2.1072 2.127 2.1563 2.2151 2.2173 2.2291 2.3126 2.3044 2.3066 2.3089 2.3007 2.2926 2.2948 2.2866 2.3096 2.3118 2.3245 2.3373 2.3502 2.3418 2.3547 2.3463 2.3592 2.3615 2.3423 2.3445 2.3468 2.3384 2.3512 2.3642 2.3992 2.4238 2.4376 2.4746 2.4652 2.456 2.4468 2.4491 2.4399 2.4309 2.4219 2.402 2.4043 2.4065 2.4088 2.411 2.4133 2.4266 2.4401 2.4424 2.4446 2.4357 2.4157 2.418 2.4093 2.4115 2.4137 2.4051 2.3965 2.3987 2.3901 2.3923 2.4053 2.386 2.3777 2.3486 2.3405 2.3325 2.2947 2.2968 2.2892 2.301 2.3031 2.3052 2.2975 2.3094 2.3017 2.294 2.2961 2.2886 2.3003 2.3024 2.2852 2.2873 2.2797 2.2914 2.2935 2.3051 2.3268 2.319 2.3309 2.333 2.3351 2.3079 2.3003 1.9451 1.9196 1.9081 1.8902 1.8727 1.8808 1.8953 1.9166 2.053 2.0548 2.3724 2.4157 2.4178 2.4305 2.4433 2.4455 2.4476 2.4605 2.4626 2.4541 2.4349 2.4265 2.4287 2.4627 2.4756 2.4562 2.4584 2.4499 2.452 2.4864 2.4778 2.4907 2.4929 2.4951 2.4864 2.4777 2.5016 2.5372 2.5282 2.5304 2.5326 2.546 2.5482 2.5618 2.5872 2.637 2.6392 2.6415 2.6683 2.683 2.6853 2.6751 2.6774 2.6922 2.6944 2.6843 2.6865 2.6764 2.6787 2.6686 2.6587 2.6732 2.6754 2.6777 2.6677 2.6699 2.6845 2.6991 2.7014 2.6789 2.669 2.6591 2.6256 2.6161 2.6183 2.6322 2.6111 2.6249 2.6271 2.641 2.6552 2.6694 2.6959 2.7105 2.7127 2.7274 2.7423 2.7446 2.7093 2.7116 2.7015 2.6795 2.6696 2.6718 2.6621 2.6643 2.6665 2.6806 2.7071 2.685 2.7115 2.7261 2.7532 2.8068 2.8224 2.8114 2.827 2.816 2.8449 2.8472 2.8629 2.8653 2.8813 2.8699 2.8723 2.8883 2.8769 2.893 2.8815 2.8839 2.8592 2.8615 2.8638 2.8796 2.8418 2.8573 2.8596 2.8754 2.8777 2.8935 2.9234 2.9257 2.928 2.9443 2.9466 2.949 2.9374 2.9537 2.956 2.9726 2.9607 2.935 2.9236 2.9122 2.9009 2.8897 2.8523 2.8287 2.8055 2.722 2.7124 2.7263 2.6817 2.6723 2.6631 2.6765 2.6786 2.7038 2.8149 0 0 0 1.1321 1.137 1.1399 1.145 1.1627 1.1551 1.1477 1.1485 1.1473 1.1462 1.147 1.1458 1.1467 1.1455 1.1423 1.1432 1.1462 1.1471 1.152 1.1592 1.1643 1.161 1.164 1.1628 1.1616 1.1624 1.1718 1.1663 1.1609 1.1577 1.1585 1.1594 1.1623 1.1674 1.1768 1.182 1.1829 1.1903 1.1934 1.1943 1.1974 1.1983 1.1992 1.198 1.1989 1.2019 1.2007 1.2016 1.2002 1.2034 1.202 1.2029 1.2017 1.2091 1.2101 1.211 1.2119 1.215 1.216 1.219 1.2222 1.2254 1.2264 1.2273 1.2282 1.2268 1.2277 1.2309 1.2341 1.235 1.2429 1.2461 1.2494 1.248 1.2489 1.2544 1.2554 1.2587 1.2572 1.2581 1.2567 1.2577 1.2563 1.2618 1.2628 1.2637 1.2646 1.2655 1.2689 1.2698 1.2708 1.2764 1.2773 1.2735 1.272
2.083 2.0764 2.0785 2.0979 2.0826 2.0846 2.0953 2.0887 2.0994 2.1191 2.1481 2.2161 2.2279 2.25 2.3242 2.3159 2.3181 2.3099 2.3121 2.3039 2.2854 2.298 2.3002 2.3128 2.3255 2.3383 2.3512 2.3643 2.3666 2.3688 2.3603 2.3625 2.354 2.367 2.3693 2.3607 2.363 2.3869 2.4113 2.4249 2.4386 2.4757 2.478 2.457 2.4478 2.4386 2.4296 2.4207 2.4229 2.403 2.4053 2.3966 2.4098 2.412 2.4143 2.4276 2.4299 2.4434 2.4457 2.4367 2.4278 2.419 2.4212 2.4125 2.4147 2.4061 2.3975 2.3997 2.3805 2.3933 2.3955 2.3765 2.3681 2.3393 2.3313 2.3234 2.2957 2.2978 2.2901 2.2825 2.2943 2.2867 2.3083 2.3005 2.3026 2.295 2.2971 2.2895 2.2916 2.2936 2.2861 2.2786 2.2807 2.2732 2.2848 2.2965 2.3179 2.3199 2.322 2.3241 2.3164 1.9843 1.9861 1.9321 1.9072 1.8958 1.8846 1.8671 1.8751 1.8896 1.9174 2.0021 2.0038 2.1447 2.3856 2.4188 2.4209 2.4336 2.4465 2.4486 2.4615 2.4636 2.4443 2.4254 2.417 2.4296 2.4529 2.4658 2.4572 2.4487 2.4402 2.4529 2.4766 2.4896 2.4809 2.483 2.4743 2.4765 2.4786 2.4917 2.5382 2.5292 2.5314 2.5335 2.547 2.5492 2.5627 2.5882 2.6259 2.6402 2.6547 2.6817 2.6967 2.6863 2.7013 2.6909 2.7059 2.6955 2.6853 2.6876 2.6898 2.6674 2.6574 2.6597 2.6619 2.6764 2.6665 2.681 2.6709 2.6855 2.7127 2.7024 2.6923 2.6822 2.6722 2.6385 2.6288 2.631 2.6215 2.6237 2.6259 2.6398 2.642 2.6442 2.6824 2.6969 2.7239 2.7262 2.741 2.7433 2.7456 2.7227 2.725 2.7148 2.6805 2.6706 2.6728 2.6631 2.6772 2.6675 2.6937 2.7204 2.6982 2.7248 2.752 2.7669 2.8211 2.8234 2.8124 2.8147 2.817 2.8326 2.8482 2.8506 2.88 2.8686 2.871 2.887 2.8756 2.8917 2.894 2.8964 2.8714 2.8737 2.8626 2.8649 2.8672 2.856 2.8583 2.8741 2.8764 2.8787 2.8945 2.9105 2.9267 2.9291 2.9314 2.9477 2.95 2.9384 2.9547 2.9571 2.9594 2.9478 2.9087 2.911 2.8728 2.8751 2.8642 2.8147 2.7917 2.7569 2.6878 2.6785 2.6806 2.6486 2.6285 2.6416 2.6327 2.6347 2.604 0 0 0 0 1.1406 1.1436 1.1466 1.1516 1.1631 1.1534 1.1501 1.1531 1.1457 1.1465 1.1474 1.1462 1.1471 1.1459 1.1427 1.1436 1.1466 1.1495 1.1524 1.1575 1.1647 1.1635 1.1623 1.1632 1.162 1.1628 1.1659 1.1646 1.1592 1.156 1.1568 1.1577 1.1607 1.1657 1.1793 1.1803 1.1833 1.1907 1.1938 1.1947 1.1978 1.1987 1.1996 1.2005 1.1993 1.2023 1.2011 1.202 1.2006 1.2038 1.2024 1.2056 1.2042 1.2074 1.2105 1.2092 1.2123 1.2132 1.2164 1.2173 1.2204 1.2259 1.2268 1.2277 1.2263 1.2272 1.2281 1.2313 1.2345 1.2355 1.241 1.2442 1.2498 1.2484 1.2516 1.2549 1.2558 1.2567 1.2624 1.261 1.2595 1.2581 1.2567 1.2599 1.2632 1.2641 1.265 1.2684 1.2693 1.2703 1.2712 1.2745 1.2777 1.274 1.2724
2.0498 2.0518 2.0623 2.0728 2.0663 2.0683 2.0703 2.0639 2.0829 2.0937 2.1221 2.1978 2.2095 2.2311 2.3252 2.3275 2.3191 2.3214 2.3236 2.3049 2.2968 2.299 2.3012 2.3138 2.316 2.35 2.3631 2.3653 2.3785 2.3699 2.3721 2.3635 2.3658 2.3789 2.3812 2.3725 2.364 2.377 2.3902 2.4035 2.4169 2.4419 2.4442 2.4351 2.4261 2.4171 2.4194 2.4106 2.4128 2.404 2.4063 2.3976 2.4108 2.4131 2.4264 2.4287 2.4421 2.4557 2.458 2.449 2.4288 2.4311 2.4333 2.4245 2.4157 2.407 2.3985 2.3899 2.3921 2.3836 2.3858 2.3669 2.3484 2.3201 2.3121 2.3044 2.2869 2.2793 2.2814 2.2739 2.2759 2.2685 2.2897 2.3015 2.2842 2.2863 2.2884 2.2809 2.2829 2.285 2.268 2.2607 2.2534 2.2461 2.2481 2.2688 2.2898 2.2919 2.3036 2.296 1.9691 1.9639 1.9586 1.9397 1.8884 1.8773 1.8725 1.8554 1.8632 1.8775 1.8856 1.9332 1.9349 1.992 2.3268 2.3683 2.3805 2.3826 2.395 2.4074 2.3992 2.391 2.383 2.3551 2.3572 2.3791 2.4327 2.4348 2.4057 2.4078 2.3997 2.412 2.4245 2.437 2.4287 2.4204 2.4225 2.435 2.4371 2.4497 2.5057 2.5189 2.5211 2.5233 2.5367 2.5502 2.5524 2.5776 2.6269 2.6413 2.6557 2.6827 2.6977 2.7 2.7023 2.7046 2.7196 2.7092 2.6988 2.6886 2.6909 2.6684 2.6707 2.6486 2.6508 2.6531 2.6553 2.6697 2.6598 2.6742 2.7012 2.7034 2.6933 2.6832 2.6732 2.6514 2.6417 2.6439 2.6225 2.6247 2.6269 2.6408 2.643 2.6572 2.6713 2.6979 2.7125 2.7272 2.7295 2.7443 2.734 2.7237 2.7136 2.7158 2.6815 2.6716 2.6738 2.6641 2.6782 2.6804 2.6947 2.7214 2.6992 2.7258 2.753 2.7807 2.8089 2.8244 2.8135 2.8027 2.805 2.8337 2.8493 2.8516 2.8674 2.8697 2.8857 2.8881 2.8904 2.8927 2.8951 2.8974 2.8724 2.8747 2.8771 2.8659 2.8682 2.8571 2.8593 2.8751 2.8639 2.8662 2.8956 2.9116 2.9278 2.9301 2.9325 2.9348 2.9371 2.9255 2.9418 2.9302 2.9187 2.8937 2.8301 2.8068 2.7715 2.737 2.7273 2.6941 2.6731 2.6524 2.5994 2.5381 2.4506 2.3691 2.371 2.3728 2.3836 2.3946 2.3874 2.3984 0 0 0 1.1431 1.1481 1.1532 1.1583 1.1592 1.1559 1.1505 1.1556 1.1481 1.149 1.1478 1.1487 1.1475 1.1484 1.1452 1.144 1.147 1.1479 1.1507 1.1558 1.1567 1.1555 1.1564 1.1551 1.156 1.1549 1.1558 1.1567 1.1514 1.1501 1.151 1.154 1.1569 1.162 1.1798 1.1806 1.1837 1.1911 1.1943 1.1973 1.1982 1.1991 1.2 1.1988 1.1997 1.2027 1.2036 1.2024 1.201 1.2042 1.2051 1.206 1.2046 1.2078 1.2087 1.2118 1.2105 1.2136 1.2168 1.2177 1.2208 1.224 1.2272 1.2258 1.2267 1.2253 1.2262 1.2294 1.2303 1.2312 1.2391 1.2423 1.2502 1.2511 1.252 1.2577 1.2587 1.2596 1.2628 1.2637 1.2599 1.2608 1.2571 1.2603 1.2636 1.2645 1.2654 1.2664 1.2698 1.2707 1.2716 1.2749 1.2806 1.2767 1.2753
2.0424 2.0444 2.0547 2.0737 2.0587 2.0608 2.0544 2.0564 2.0668 2.0946 2.1053 2.1705 2.1914 2.2223 2.3369 2.3285 2.3308 2.333 2.3353 2.3269 2.3081 2.3 2.3125 2.3148 2.317 2.3618 2.3641 2.3773 2.3795 2.3818 2.3841 2.3864 2.3886 2.3799 2.3932 2.3735 2.365 2.3672 2.3912 2.3935 2.418 2.4202 2.4225 2.4136 2.4159 2.4071 2.4093 2.4116 2.4138 2.4051 2.4073 2.4096 2.4341 2.4363 2.4386 2.4409 2.4545 2.4568 2.4705 2.4613 2.4636 2.4659 2.4455 2.4478 2.45 2.43 2.4103 2.4125 2.4039 2.4169 2.3975 2.3472 2.3391 2.311 2.3032 2.3053 2.2878 2.2899 2.2823 2.2748 2.2674 2.2694 2.2715 2.2927 2.2851 2.2777 2.2797 2.2723 2.2649 2.2669 2.2502 2.2616 2.2358 2.2287 2.2308 2.2418 2.2812 2.2928 2.2948 2.2969 1.9699 1.9576 1.9457 1.9269 1.8827 1.8716 1.867 1.8561 1.864 1.8656 1.9123 1.9273 1.9492 2 2.3277 2.3396 2.3613 2.3535 2.3655 2.398 2.3797 2.3717 2.3441 2.3268 2.3288 2.3902 2.3923 2.4358 2.3763 2.3784 2.3804 2.3825 2.4048 2.4171 2.3988 2.3908 2.3929 2.405 2.4071 2.4402 2.4848 2.4979 2.5 2.5131 2.5264 2.5399 2.5533 2.5785 2.616 2.6423 2.6568 2.6964 2.6987 2.701 2.7288 2.7184 2.7207 2.7103 2.7126 2.7021 2.7044 2.6817 2.684 2.6617 2.664 2.6541 2.6685 2.6586 2.6608 2.6631 2.7022 2.692 2.6943 2.6966 2.6865 2.6644 2.6546 2.6568 2.6352 2.6256 2.6396 2.6657 2.6679 2.6701 2.6845 2.6989 2.7135 2.7408 2.7305 2.7454 2.735 2.7123 2.7146 2.7045 2.6825 2.6847 2.6869 2.6891 2.6913 2.7057 2.7325 2.7599 2.7246 2.7518 2.7795 2.7946 2.8232 2.8122 2.8145 2.8168 2.806 2.848 2.8638 2.8661 2.8684 2.8707 2.8868 2.8891 2.8914 2.8938 2.9099 2.9122 2.8735 2.8758 2.8781 2.8804 2.8827 2.8716 2.8739 2.8897 2.892 2.8808 2.8966 2.9265 2.9288 2.9451 2.9335 2.9498 2.9242 2.9266 2.9429 2.9175 2.9061 2.8681 2.793 2.758 2.7003 2.6791 2.6698 2.6269 2.618 2.6091 2.5473 2.5084 2.4806 2.3971 2.3718 2.3647 2.3845 2.3863 2.3973 2.3992 0 0 0 1.1561 1.1548 1.1579 1.1566 1.1575 1.1584 1.1592 1.1602 1.1527 1.1515 1.1503 1.1512 1.1521 1.1509 1.1497 1.1485 1.1494 1.1483 1.1511 1.1541 1.155 1.1538 1.1547 1.1556 1.1544 1.1553 1.1562 1.155 1.1518 1.1505 1.1514 1.1544 1.1573 1.1624 1.1759 1.1789 1.1841 1.1938 1.1968 1.2 1.1986 1.2018 1.2048 1.2036 1.2045 1.2075 1.2107 1.2094 1.2081 1.2112 1.2099 1.213 1.2117 1.2127 1.2157 1.2145 1.2154 1.2163 1.2193 1.2203 1.2235 1.229 1.2299 1.2285 1.2271 1.228 1.2266 1.2298 1.2307 1.2316 1.2372 1.2427 1.2483 1.2515 1.2548 1.2605 1.2637 1.2646 1.268 1.269 1.2651 1.266 1.2598 1.2607 1.264 1.2649 1.2683 1.2692 1.2702 1.2734 1.272 1.2753 1.2786 1.2795 1.2804
2.035 2.037 2.039 2.0576 2.0513 2.0533 2.0553 2.0406 2.0593 2.0613 2.0888 2.153 2.1736 2.2136 2.3273 2.3189 2.3318 2.334 2.3363 2.3279 2.3196 2.3113 2.324 2.3158 2.3285 2.3628 2.3651 2.3783 2.3696 2.3828 2.3742 2.3874 2.3787 2.3919 2.3942 2.3746 2.3768 2.379 2.3922 2.4055 2.419 2.4325 2.4348 2.4146 2.4058 2.4081 2.3993 2.4126 2.4149 2.4061 2.4083 2.4106 2.4128 2.4262 2.4284 2.4532 2.4555 2.4578 2.4601 2.4624 2.4646 2.4669 2.4692 2.4488 2.451 2.42 2.4113 2.4135 2.4049 2.4071 2.3878 2.3482 2.3199 2.3119 2.3042 2.2866 2.2791 2.2811 2.2736 2.2662 2.2683 2.2609 2.2535 2.265 2.267 2.241 2.2338 2.2266 2.2287 2.2307 2.2146 2.1725 2.0994 2.1764 2.1958 2.2156 2.1736 2.0847 2.0103 2.0196 1.943 1.9378 1.9193 1.9078 1.8707 1.866 1.8614 1.8569 1.8585 1.8727 1.9 1.9147 1.9364 1.9315 1.9882 1.99 2.2944 2.3251 2.2984 2.0708 2.0726 2.0977 2.0687 2.0705 2.1032 2.17 2.1803 2.3652 2.3282 2.3496 2.3615 2.3735 2.3855 2.3976 2.3997 2.3817 2.3838 2.3759 2.3879 2.4203 2.4644 2.4772 2.4901 2.5032 2.5053 2.5296 2.543 2.5679 2.617 2.6312 2.6578 2.6848 2.6871 2.6894 2.7171 2.7322 2.7217 2.7113 2.7136 2.7032 2.6929 2.6828 2.6727 2.675 2.6528 2.6551 2.6573 2.6717 2.6618 2.6762 2.6908 2.6807 2.683 2.6852 2.6753 2.6534 2.6556 2.6459 2.6362 2.6266 2.6406 2.6547 2.6569 2.6591 2.6977 2.7123 2.7145 2.7292 2.7315 2.7338 2.736 2.7011 2.7033 2.7055 2.6955 2.6978 2.7 2.7144 2.729 2.7313 2.7586 2.7736 2.7632 2.7782 2.7934 2.8087 2.8242 2.8132 2.8025 2.8178 2.8201 2.8357 2.8648 2.8671 2.8695 2.8718 2.8741 2.8902 2.8925 2.8948 2.9249 2.9133 2.9019 2.8904 2.8927 2.895 2.8974 2.8861 2.8749 2.8907 2.893 2.8818 2.8977 2.9276 2.9299 2.9462 2.9346 2.9508 2.9253 2.9139 2.9299 2.9049 2.8801 2.8428 2.7691 2.7346 2.6665 2.6459 2.648 2.5951 2.5757 2.5671 2.4389 2.4697 2.4428 2.3797 2.3637 2.3655 2.3674 2.3692 2.3801 2.3552 0 0 0 0 0 1.1711 1.1592 1.1558 1.1588 1.1597 1.1628 1.1531 1.154 1.1528 1.1537 1.1546 1.1534 1.1501 1.1489 1.1498 1.1487 1.1515 1.1545 1.1575 1.1563 1.1572 1.1581 1.1568 1.1557 1.1566 1.1554 1.1562 1.155 1.1539 1.1548 1.1577 1.1628 1.1742 1.1793 1.1824 1.1919 1.1951 1.2004 1.2013 1.2022 1.2052 1.2061 1.2049 1.2102 1.2111 1.2098 1.2107 1.2116 1.2148 1.2157 1.2143 1.2152 1.2184 1.2193 1.2202 1.2211 1.2198 1.223 1.2262 1.2294 1.2303 1.2289 1.2275 1.2284 1.227 1.2302 1.2311 1.2321 1.2353 1.2408 1.2464 1.2496 1.2505 1.2586 1.2641 1.2627 1.266 1.2669 1.2655 1.2616 1.2602 1.2612 1.2644 1.2653 1.2663 1.2672 1.2706 1.2715 1.2724 1.2757 1.2815 1.2799 1.2833
2.0195 2.0215 2.0316 2.0585 2.0522 2.0458 2.0478 2.0252 2.0353 2.0373 2.0558 2.1005 2.1112 2.1766 2.3177 2.3199 2.3116 2.3244 2.3266 2.3395 2.3311 2.3228 2.3356 2.3378 2.3401 2.3638 2.3661 2.3684 2.3598 2.3729 2.3752 2.3774 2.3797 2.3929 2.3952 2.3756 2.3887 2.391 2.4043 2.4177 2.42 2.4223 2.4246 2.4046 2.4068 2.4091 2.4003 2.4026 2.4048 2.4071 2.4093 2.4116 2.4138 2.4272 2.4183 2.4429 2.4565 2.4475 2.4611 2.4634 2.4771 2.468 2.4702 2.4611 2.4634 2.421 2.4123 2.4037 2.3844 2.376 2.3572 2.3187 2.2911 2.2932 2.2953 2.2876 2.28 2.2725 2.2651 2.2577 2.2597 2.2524 2.2451 2.2378 2.2215 2.2327 2.1986 2.1742 2.1675 2.2045 2.1628 2.1734 2.1083 2.1021 2.1706 2.1725 2.1745 2.0856 2.0112 2.0204 1.9438 1.8856 1.8745 1.8698 1.8527 1.8543 1.8498 1.8452 1.8468 1.8547 1.8814 1.8895 1.8976 1.9256 1.9474 1.9908 2.2953 2.2879 2.2993 2.0716 2.0507 2.0525 2.0469 2.0561 2.1041 2.1709 2.1812 2.3662 2.2729 2.284 2.3526 2.3645 2.3567 2.3986 2.3706 2.3727 2.3551 2.3571 2.3592 2.3612 2.4442 2.4463 2.4484 2.4717 2.4845 2.4975 2.5215 2.5462 2.6061 2.6202 2.6345 2.6734 2.6757 2.6904 2.7181 2.7204 2.71 2.7123 2.7019 2.6917 2.6815 2.6715 2.6615 2.6637 2.6418 2.6441 2.6463 2.6485 2.6508 2.6651 2.6795 2.6695 2.6718 2.674 2.6641 2.6305 2.6327 2.6232 2.6138 2.616 2.6182 2.6204 2.6226 2.6247 2.6623 2.6766 2.6909 2.7054 2.7076 2.7223 2.7245 2.7021 2.7043 2.6943 2.6965 2.711 2.7256 2.7403 2.7679 2.7574 2.7853 2.8005 2.7898 2.7921 2.7944 2.8097 2.8253 2.8143 2.8166 2.8058 2.8211 2.8501 2.8659 2.8682 2.857 2.8728 2.8752 2.8912 2.8935 2.8821 2.912 2.9006 2.9167 2.9052 2.9076 2.9237 2.9261 2.9007 2.9169 2.9193 2.9216 2.8964 2.8987 2.9147 2.917 2.9057 2.908 2.9103 2.8854 2.8743 2.8766 2.8524 2.8287 2.7928 2.7097 2.6768 2.6007 2.5812 2.5726 2.5225 2.5043 2.4765 2.4116 2.3951 2.3787 2.3538 2.3381 2.3487 2.333 2.3436 2.3281 2.356 0 0 0 0 0 1.1715 1.1511 1.1647 1.1677 1.1666 1.1675 1.1556 1.1565 1.1553 1.152 1.1529 1.1538 1.1505 1.1493 1.1502 1.1491 1.1519 1.157 1.16 1.163 1.1639 1.1648 1.1657 1.1623 1.1632 1.1641 1.1608 1.1597 1.1605 1.1572 1.1581 1.161 1.1703 1.1755 1.1806 1.1858 1.1888 1.1964 1.1994 1.2026 1.2035 1.2044 1.2053 1.2106 1.2115 1.2125 1.2156 1.2166 1.2175 1.2184 1.2216 1.2225 1.2257 1.2266 1.2252 1.2261 1.2248 1.2257 1.2266 1.2298 1.2284 1.2293 1.2279 1.2288 1.2274 1.2307 1.2339 1.2348 1.238 1.2412 1.2468 1.2477 1.251 1.2565 1.2622 1.2631 1.2641 1.265 1.2636 1.2597 1.2583 1.2616 1.2648 1.2634 1.2643 1.2676 1.2662 1.2719 1.2704 1.2738 1.2794 1.2803 1.2813
2.0285 2.0305 2.0325 2.0511 2.0531 2.0467 2.0487 2.0343 2.0199 2.03 2.0484 2.0755 2.0776 2.0796 2.1429 2.2692 2.3022 2.3254 2.3277 2.3405 2.3321 2.3238 2.326 2.3389 2.3411 2.3649 2.3671 2.3586 2.3608 2.3631 2.3762 2.3676 2.3807 2.383 2.3962 2.3875 2.3897 2.392 2.4053 2.4188 2.4099 2.4121 2.4144 2.4056 2.3968 2.3991 2.4013 2.4036 2.4058 2.4192 2.4214 2.4126 2.4148 2.4171 2.4194 2.4327 2.435 2.4485 2.4508 2.4644 2.4667 2.4805 2.4599 2.4621 2.4644 2.422 2.4133 2.4047 2.3854 2.377 2.3479 2.3096 2.292 2.2843 2.3061 2.2983 2.2714 2.264 2.2755 2.2586 2.2513 2.2533 2.246 2.2295 2.1955 2.137 2.035 1.9635 1.9723 1.96 1.9618 1.9776 1.8649 1.8665 1.8746 1.8699 1.8652 1.8796 1.8435 1.8452 1.8593 1.8609 1.8563 1.8518 1.841 1.8426 1.8382 1.8398 1.8415 1.8492 1.8758 1.8838 1.892 1.9065 1.9213 1.9297 1.9723 2.0239 2.0257 2.0348 2.022 2.0238 2.0328 2.0346 2.0437 2.0758 2.0776 2.0794 2.0509 2.0527 2.047 2.0488 2.058 2.0159 2.0177 2.0785 2.0727 2.067 2.0763 2.4326 2.4347 2.4368 2.4389 2.4619 2.4748 2.4876 2.5225 2.5359 2.5954 2.6094 2.6355 2.6621 2.6767 2.6915 2.7192 2.7215 2.7111 2.7134 2.6904 2.6927 2.6825 2.6725 2.6625 2.6648 2.6428 2.6451 2.6473 2.6495 2.6518 2.654 2.6805 2.6705 2.6487 2.6509 2.6531 2.6315 2.622 2.6126 2.6032 2.6054 2.6075 2.6097 2.6119 2.6141 2.6396 2.6535 2.6678 2.7064 2.7087 2.6986 2.7008 2.7031 2.6931 2.6953 2.6976 2.712 2.7266 2.7413 2.7689 2.7712 2.7863 2.7886 2.7908 2.7931 2.7954 2.8107 2.813 2.8153 2.8176 2.8199 2.8222 2.8646 2.8806 2.8692 2.8715 2.8739 2.8762 2.8923 2.8809 2.8832 2.9131 2.9154 2.904 2.9063 2.9086 2.9388 2.9412 2.9295 2.918 2.9483 2.9088 2.9111 2.9134 2.8885 2.8908 2.8931 2.8954 2.8977 2.8598 2.8753 2.8643 2.8146 2.7916 2.7566 2.6989 2.6778 2.5694 2.5608 2.542 2.5032 2.4754 2.4483 2.3849 2.3687 2.3528 2.3458 2.3476 2.332 2.3338 2.327 2.3204 2.3137 0 0 0 0 0 0 1.1706 1.1737 1.1724 1.169 1.1679 1.156 1.1569 1.1557 1.1524 1.1512 1.1521 1.1509 1.1497 1.1486 1.1514 1.1523 1.1574 1.1625 1.1655 1.1664 1.1694 1.1682 1.1648 1.1636 1.1666 1.1675 1.1642 1.1609 1.1597 1.1606 1.1615 1.1707 1.1737 1.1768 1.1841 1.1871 1.1945 1.1954 1.1986 1.2039 1.2048 1.2079 1.2088 1.212 1.2129 1.2161 1.217 1.2179 1.2211 1.2197 1.2229 1.2261 1.227 1.2279 1.2266 1.2252 1.2238 1.227 1.2279 1.2288 1.2274 1.2283 1.2269 1.2278 1.2311 1.2343 1.2352 1.2384 1.2416 1.2472 1.2505 1.2514 1.2594 1.2626 1.2659 1.2645 1.2654 1.2615 1.2601 1.2611 1.262 1.2652 1.2638 1.2624 1.2657 1.2666 1.2699 1.2684 1.2717 1.2775 1.2784 1.2817
2.0213 2.0233 2.0334 2.0354 2.0456 2.0312 2.0332 2.0109 2.0048 2.0067 2.0167 2.0431 2.045 2.0636 2.162 2.1921 2.2724 2.2951 2.3181 2.3203 2.3121 2.3143 2.3165 2.3188 2.3315 2.3443 2.3466 2.3488 2.3404 2.3533 2.3663 2.3686 2.3708 2.384 2.3862 2.3885 2.4018 2.4041 2.4064 2.4198 2.4109 2.4132 2.4154 2.3956 2.3869 2.3892 2.3914 2.4156 2.4179 2.4091 2.4224 2.4136 2.4159 2.4181 2.4204 2.4337 2.436 2.4271 2.4294 2.4316 2.4563 2.47 2.4723 2.4746 2.4654 2.434 2.4252 2.4056 2.3758 2.3674 2.3387 2.2909 2.2736 2.2756 2.2971 2.2895 2.2628 2.2554 2.2575 2.2408 2.2244 2.2083 2.1661 2.1424 2.0096 1.9822 2.0133 1.9295 1.9245 1.9126 1.9144 1.9161 1.8656 1.8673 1.8626 1.8643 1.8596 1.8613 1.8567 1.8397 1.8291 1.8308 1.8385 1.834 1.8296 1.8373 1.8328 1.8285 1.8301 1.8377 1.8578 1.8657 1.8673 1.8752 1.8769 1.8849 1.9255 1.9473 1.9905 1.9994 1.98 1.9887 1.9975 1.9992 2.0153 2.0099 1.9974 1.9851 1.9458 1.961 1.9627 1.9645 1.9729 1.9747 1.9833 2.0061 2.0219 2.0166 2.0112 2.0491 2.0582 2.0674 2.0692 2.0785 2.4545 2.4566 2.5125 2.5369 2.5964 2.5986 2.6245 2.6631 2.6654 2.68 2.7202 2.7225 2.6994 2.7017 2.6914 2.6813 2.6835 2.6613 2.6635 2.6536 2.6438 2.6341 2.6364 2.6386 2.6528 2.655 2.6693 2.6716 2.6497 2.6519 2.6422 2.6208 2.623 2.6252 2.6042 2.618 2.6202 2.6107 2.6129 2.615 2.6405 2.6545 2.6688 2.6951 2.6974 2.6996 2.7018 2.7041 2.7063 2.6963 2.6986 2.713 2.7276 2.7423 2.7572 2.7722 2.7744 2.7767 2.7662 2.7813 2.7964 2.7987 2.814 2.8033 2.8186 2.8342 2.8365 2.8656 2.8816 2.884 2.8863 2.8749 2.8772 2.8933 2.8819 2.8842 2.9141 2.9165 2.9188 2.9211 2.9235 2.9399 2.9423 2.9446 2.9329 2.9493 2.9237 2.9121 2.9008 2.9031 2.8918 2.8805 2.8562 2.8454 2.7963 2.7985 2.8134 2.8156 2.8051 2.6073 2.5984 2.6005 2.5286 2.5204 2.5122 2.4743 2.4569 2.4302 2.3766 2.3606 2.3625 2.3466 2.3485 2.3416 2.3347 2.3279 2.3042 2.306 2.2827 2.2845 0 0 0 0 1.171 1.1741 1.1707 1.1674 1.1661 1.1585 1.1594 1.1582 1.1549 1.1537 1.1525 1.1513 1.1522 1.153 1.1539 1.1548 1.1599 1.165 1.168 1.1689 1.1719 1.1728 1.1674 1.1683 1.1691 1.17 1.1667 1.1633 1.1642 1.1651 1.166 1.1732 1.1763 1.1814 1.1845 1.1875 1.1949 1.1958 1.1967 1.202 1.2029 1.2039 1.207 1.2079 1.211 1.2119 1.2151 1.2183 1.2215 1.2224 1.2256 1.2265 1.2274 1.226 1.2247 1.2256 1.2265 1.2274 1.2283 1.2292 1.2278 1.2287 1.2273 1.2283 1.2338 1.2347 1.2379 1.2411 1.2444 1.2476 1.2485 1.2518 1.255 1.2607 1.2592 1.2601 1.2611 1.2596 1.2559 1.2568 1.2577 1.2586 1.2596 1.2581 1.2614 1.2623 1.2632 1.2642 1.2698 1.2755 1.2765 1.2797
2.014 2.0242 2.0261 2.0445 2.0465 2.0321 2.0341 2.0197 1.9978 2.0076 2.0176 2.044 2.0377 2.0645 2.1359 2.1743 2.2533 2.2857 2.3087 2.3213 2.3131 2.3049 2.328 2.3303 2.3325 2.3454 2.3476 2.3498 2.3414 2.3651 2.3673 2.3696 2.3827 2.396 2.3983 2.4005 2.3918 2.4051 2.4185 2.4208 2.4119 2.4142 2.4165 2.3966 2.3989 2.4011 2.3924 2.4167 2.4189 2.4212 2.4346 2.4146 2.428 2.4302 2.4214 2.4236 2.437 2.4393 2.4304 2.4326 2.4461 2.471 2.4733 2.4642 2.4664 2.435 2.4262 2.4066 2.3873 2.3684 2.3396 2.282 2.2745 2.2766 2.2883 2.2807 2.2637 2.2658 2.2584 2.2325 2.2162 2.1913 2.133 2.1433 2.0104 1.9757 1.9848 1.9303 1.8919 1.8936 1.8888 1.8839 1.8727 1.8617 1.857 1.8587 1.8541 1.8558 1.8512 1.8282 1.8178 1.8254 1.8271 1.8287 1.8303 1.8319 1.8336 1.8292 1.8308 1.8384 1.8523 1.8602 1.8618 1.8697 1.8714 1.8793 1.9197 1.948 1.9634 2.0002 1.9877 1.9895 1.9983 2 2.0089 2.0107 1.9841 1.9789 1.9669 1.9483 1.95 1.9517 1.9533 1.955 1.9703 1.9857 1.9944 1.9961 2.0049 2.0138 2.0443 2.0534 2.0626 2.0793 2.4554 2.4575 2.5025 2.5719 2.5741 2.5763 2.6018 2.6641 2.6542 2.6687 2.7212 2.7236 2.7259 2.7027 2.705 2.6947 2.6722 2.6745 2.6768 2.6668 2.6448 2.6471 2.6493 2.6396 2.6418 2.656 2.6703 2.6726 2.6507 2.6529 2.6551 2.6335 2.624 2.6146 2.6052 2.6073 2.6211 2.6233 2.6138 2.6277 2.6415 2.6555 2.6698 2.6961 2.6984 2.7006 2.7151 2.7051 2.7321 2.7219 2.7241 2.7264 2.7537 2.7559 2.7709 2.786 2.7883 2.7777 2.78 2.7823 2.7975 2.7868 2.7891 2.8043 2.8066 2.8486 2.8509 2.8667 2.8827 2.885 2.9011 2.8897 2.892 2.8944 2.8967 2.8853 2.9152 2.9037 2.9198 2.9222 2.9386 2.9552 2.9575 2.9599 2.9623 2.9646 2.9386 2.9271 2.9294 2.8906 2.8659 2.855 2.8182 2.795 2.7477 2.7869 2.8272 2.7913 2.8062 2.6191 2.5566 2.5586 2.5295 2.491 2.4831 2.4654 2.4481 2.431 2.3957 2.3793 2.3723 2.3651 2.3582 2.3424 2.3355 2.3373 2.305 2.2984 2.2918 2.2853 0 0 0 0 1.1736 1.1617 1.1669 1.1656 1.1644 1.1568 1.1577 1.1586 1.1553 1.1562 1.1571 1.158 1.1589 1.1577 1.1606 1.1615 1.1645 1.1696 1.1726 1.1757 1.1744 1.1753 1.172 1.1708 1.1717 1.1747 1.1735 1.1722 1.1752 1.1761 1.177 1.1822 1.1852 1.1882 1.1891 1.1923 1.1976 1.1985 1.1994 1.2024 1.2033 1.2065 1.2074 1.2083 1.2092 1.2123 1.2155 1.2187 1.2219 1.2205 1.2237 1.2246 1.2255 1.2265 1.2274 1.226 1.2269 1.2301 1.2287 1.2296 1.2282 1.2315 1.2301 1.2333 1.2365 1.2397 1.2453 1.2485 1.2494 1.2504 1.2513 1.2499 1.2531 1.2587 1.2573 1.2582 1.2568 1.2577 1.2563 1.2572 1.2581 1.2591 1.26 1.2586 1.2618 1.2604 1.2636 1.2622 1.2702 1.2735 1.2792 1.2802
2.0149 2.0169 2.0189 2.0454 2.0474 2.0412 2.0431 2.0206 2.0065 2.0085 2.0185 2.0366 2.0386 2.057 2.119 2.1478 2.1867 2.2766 2.2993 2.3224 2.3246 2.3163 2.3185 2.3313 2.3335 2.3571 2.3593 2.3508 2.3531 2.3661 2.3792 2.3815 2.3838 2.397 2.3993 2.4016 2.3928 2.4061 2.4196 2.4218 2.4129 2.4152 2.4175 2.3976 2.3999 2.4021 2.4044 2.4177 2.4199 2.4334 2.447 2.4267 2.429 2.4425 2.4224 2.4358 2.438 2.4291 2.4203 2.4336 2.4471 2.4721 2.4859 2.4652 2.4675 2.436 2.4272 2.3968 2.3883 2.38 2.3508 2.283 2.2754 2.2775 2.2893 2.2626 2.2647 2.2572 2.2593 2.2151 2.1991 2.1659 2.109 2.0707 1.982 1.9483 1.909 1.8587 1.8732 1.8684 1.8638 1.8655 1.8544 1.8561 1.8515 1.8469 1.8486 1.8502 1.8396 1.8229 1.8125 1.8202 1.8278 1.8234 1.831 1.8327 1.8343 1.8299 1.8315 1.8332 1.8531 1.8547 1.8563 1.8642 1.8721 1.8738 1.9138 1.9421 1.9642 2.001 1.9885 1.9833 1.999 2.0008 2.0025 2.0043 1.9849 1.9728 1.9609 1.9424 1.9374 1.9457 1.9407 1.9359 1.9441 1.9796 1.9745 1.9762 1.9847 1.9934 2.0305 2.0395 2.0486 2.0726 2.1442 2.138 0 2.5388 2.5636 2.5773 2.5911 2.6529 2.6552 2.6697 2.7223 2.7374 2.7269 2.7165 2.7188 2.7083 2.6856 2.6879 2.6778 2.6678 2.6579 2.6481 2.6503 2.6406 2.6309 2.657 2.6472 2.6495 2.6517 2.642 2.6442 2.6345 2.6134 2.604 2.6061 2.6083 2.6221 2.6243 2.6265 2.617 2.6425 2.6565 2.6828 2.685 2.6994 2.7016 2.7162 2.7184 2.7331 2.7353 2.7376 2.7398 2.7674 2.7697 2.7848 2.7871 2.7894 2.8046 2.7683 2.7705 2.7856 2.7879 2.7773 2.8053 2.8076 2.8363 2.8519 2.8677 2.8837 2.8861 2.9021 2.8907 2.8931 2.8954 2.8977 2.9001 2.9162 2.9186 2.9209 2.9233 2.9397 2.9705 2.9729 2.961 2.9634 2.9515 2.9397 2.9142 2.9165 2.878 2.8406 2.8299 2.7938 2.7465 2.7125 2.6679 2.636 2.5514 2.5535 2.5142 2.5264 2.5284 2.49 2.4624 2.4644 2.447 2.4394 2.4319 2.3966 2.3893 2.382 2.366 2.359 2.352 2.3451 2.3381 2.3143 2.2992 2.2926 2.2861 0 0 0 0 1.1444 1.1536 1.1587 1.1639 1.1605 1.1572 1.1581 1.159 1.1557 1.1566 1.1596 1.1626 1.1635 1.1623 1.1652 1.1661 1.1649 1.17 1.173 1.1739 1.1748 1.1736 1.1703 1.1712 1.1742 1.1751 1.176 1.179 1.182 1.1829 1.1838 1.1868 1.19 1.1953 1.1939 1.1971 1.2001 1.1989 1.1998 1.2028 1.206 1.2069 1.2078 1.2087 1.2118 1.2106 1.2136 1.2191 1.22 1.2209 1.2241 1.2228 1.2237 1.2246 1.2232 1.2264 1.2273 1.2305 1.2291 1.23 1.2287 1.2319 1.2351 1.236 1.2415 1.2448 1.2457 1.2512 1.2522 1.2508 1.2494 1.2503 1.2535 1.2545 1.2554 1.2563 1.2549 1.2581 1.2567 1.2553 1.2586 1.2595 1.2604 1.259 1.2622 1.2631 1.2617 1.265 1.2683 1.2764 1.2773 1.2854
2.0158 2.0097 2.0117 2.0381 2.04 2.042 2.044 2.0215 1.9917 1.9936 2.0113 2.0133 2.0152 2.0172 2.0599 2.0787 2.0892 2.1991 2.2496 2.3129 2.3151 2.3278 2.3195 2.3323 2.3451 2.3474 2.3604 2.3412 2.3434 2.3563 2.3694 2.3825 2.3848 2.387 2.3893 2.3806 2.3829 2.3961 2.4094 2.4229 2.4139 2.4162 2.4185 2.4097 2.4119 2.4031 2.4054 2.4187 2.421 2.4344 2.4367 2.439 2.43 2.4435 2.4345 2.448 2.4503 2.4301 2.4324 2.4346 2.4481 2.4731 2.4754 2.4777 2.4685 2.426 2.4064 2.3871 2.3577 2.3497 2.3314 2.2937 2.2764 2.2784 2.2805 2.273 2.2656 2.2582 2.2602 2.207 2.1911 2.0216 1.9792 1.9882 1.9334 1.8498 1.8578 1.8469 1.8239 1.8255 1.8272 1.8288 1.8304 1.8321 1.8337 1.8354 1.837 1.8387 1.8281 1.8116 1.8074 1.809 1.8225 1.8181 1.8197 1.8274 1.829 1.8307 1.8323 1.8339 1.8477 1.8493 1.8571 1.8525 1.8603 1.8682 1.9016 1.9229 1.9379 1.9736 1.9684 1.9701 1.9788 1.9735 1.9753 1.977 1.9515 1.9398 1.9348 1.9233 1.9185 1.9267 1.9284 1.93 1.9383 1.9668 1.9753 1.9633 1.9719 1.9872 1.9959 2.0188 2.0276 2.0809 2.1057 2.1153 2.2064 2.5286 2.5533 2.5668 2.5921 2.6539 2.6562 2.6707 2.7362 2.7385 2.728 2.7303 2.7071 2.6968 2.6866 2.6765 2.6788 2.6688 2.6589 2.6491 2.6634 2.6535 2.6558 2.658 2.6602 2.6625 2.6647 2.6669 2.6571 2.6355 2.626 2.6166 2.6187 2.6209 2.6231 2.6253 2.6275 2.6296 2.6435 2.6575 2.6838 2.686 2.7004 2.7149 2.7172 2.7194 2.7466 2.7616 2.7512 2.7662 2.7812 2.7965 2.7858 2.7881 2.8166 2.8057 2.795 2.7972 2.7995 2.7761 2.7783 2.7934 2.7957 2.8507 2.8396 2.8553 2.8711 2.8734 2.8757 2.8918 2.8804 2.8827 2.885 2.9011 2.9035 2.9196 2.936 2.9243 2.9549 2.9716 2.974 2.962 2.9502 2.9525 2.9268 2.9153 2.8903 2.8394 2.7779 2.7309 2.6974 2.6646 2.6216 2.6018 2.593 2.5419 2.5131 2.505 2.4771 2.4691 2.4517 2.4251 2.4364 2.4289 2.4121 2.414 2.3974 2.3901 2.392 2.3847 2.3776 2.3617 2.3459 2.3477 2.3151 2.3 2.2934 2.2869 0 0 0 0 1.1448 1.152 1.1612 1.1643 1.163 1.1534 1.1585 1.1615 1.1561 1.157 1.16 1.163 1.1681 1.1648 1.1657 1.1686 1.1674 1.1704 1.1756 1.1743 1.1752 1.174 1.1707 1.1695 1.1725 1.1776 1.1785 1.1794 1.1824 1.1812 1.1821 1.1872 1.1925 1.1978 1.1987 1.1996 1.2028 1.2037 1.2024 1.2055 1.2064 1.2095 1.2104 1.2113 1.2122 1.2131 1.214 1.2195 1.2204 1.2213 1.2222 1.2232 1.2218 1.225 1.2259 1.2245 1.23 1.2309 1.2295 1.2305 1.2314 1.2346 1.2355 1.241 1.2443 1.2475 1.2484 1.2493 1.2526 1.2512 1.2498 1.2484 1.2493 1.2525 1.2511 1.252 1.253 1.2562 1.2571 1.258 1.259 1.2622 1.2608 1.2617 1.2626 1.2612 1.2621 1.263 1.2687 1.2768 1.2801 1.2858
2.0167 2.0187 2.0206 2.039 2.041 2.0512 2.0449 2.0224 1.9926 1.9867 2.0043 2.0062 2.0003 2.0101 2.0361 2.0628 2.0901 2.1721 2.2311 2.3139 2.3161 2.3183 2.331 2.3333 2.3461 2.3484 2.3506 2.3529 2.3444 2.3467 2.3813 2.3835 2.3749 2.3771 2.3903 2.3816 2.3839 2.3971 2.4216 2.4239 2.415 2.4173 2.4307 2.4107 2.4129 2.4152 2.4175 2.4309 2.4331 2.4467 2.449 2.44 2.431 2.4333 2.4356 2.4491 2.4513 2.4536 2.4446 2.4469 2.4604 2.4856 2.4879 2.4902 2.4695 2.427 2.4074 2.367 2.3485 2.3302 2.3223 2.2849 2.2677 2.2698 2.2815 2.2835 2.2665 2.2591 2.2612 2.2079 2.1832 2.0224 1.98 1.9746 1.9551 1.876 1.846 1.8291 1.8246 1.8201 1.8158 1.8174 1.8251 1.8267 1.8283 1.83 1.8316 1.8332 1.8228 1.8065 1.8081 1.8097 1.8172 1.8188 1.8145 1.8281 1.8298 1.8253 1.833 1.8346 1.8423 1.8562 1.8517 1.8594 1.8611 1.869 1.8959 1.9105 1.9319 1.9674 1.9623 1.964 1.9726 1.9675 1.9692 1.964 1.9388 1.9339 1.929 1.9111 1.9127 1.9144 1.9225 1.9242 1.939 1.9811 1.9898 1.9709 1.9794 1.988 2.0036 2.0196 2.0284 2.0742 2.0987 2.1238 2.1989 2.5295 2.5543 2.5792 2.6048 2.6549 2.6695 2.6841 2.7503 2.7526 2.7419 2.7442 2.7081 2.6978 2.6876 2.6776 2.6798 2.6821 2.6721 2.6743 2.6889 2.6911 2.7058 2.7081 2.7104 2.7002 2.7024 2.7172 2.707 2.6724 2.6746 2.6648 2.655 2.6692 2.6475 2.6497 2.6519 2.6541 2.6683 2.6705 2.6848 2.687 2.7014 2.7283 2.7306 2.7454 2.7603 2.7754 2.7777 2.7929 2.8084 2.8107 2.8262 2.8153 2.8309 2.8332 2.8222 2.8113 2.8136 2.7899 2.7793 2.8074 2.8097 2.8517 2.854 2.8698 2.8721 2.861 2.8633 2.8791 2.8952 2.8838 2.8861 2.8884 2.9045 2.9069 2.9512 2.9536 2.956 2.9727 2.9751 2.9631 2.9512 2.9395 2.9279 2.9026 2.8914 2.8801 2.7663 2.6845 2.6635 2.6316 2.6007 2.5811 2.5725 2.512 2.5039 2.4858 2.4583 2.441 2.4335 2.4166 2.4279 2.4298 2.413 2.4149 2.3983 2.4001 2.402 2.3947 2.3966 2.3803 2.3643 2.3662 2.3159 2.3092 2.311 2.2877 0 0 0 0 1.1663 1.1715 1.1745 1.169 1.1634 1.1559 1.1589 1.1619 1.1586 1.1595 1.1625 1.1634 1.1664 1.1652 1.1661 1.1669 1.1678 1.1708 1.176 1.1769 1.1756 1.1723 1.1711 1.172 1.175 1.178 1.181 1.1819 1.1828 1.1816 1.1825 1.1876 1.1952 1.1961 1.1991 1.2 1.2054 1.2063 1.2072 1.2081 1.2113 1.2099 1.2131 1.214 1.2149 1.2181 1.2167 1.2199 1.2231 1.2217 1.2227 1.2236 1.2222 1.2231 1.2263 1.2272 1.2327 1.2359 1.2323 1.2332 1.2364 1.2396 1.2428 1.2461 1.2493 1.2525 1.2511 1.2521 1.253 1.2539 1.2525 1.2488 1.252 1.253 1.2539 1.2525 1.2557 1.2566 1.2599 1.2608 1.2617 1.2673 1.2636 1.2645 1.2654 1.2663 1.2649 1.2611 1.2738 1.2796 1.2829 1.2911
2.0176 2.0196 2.0215 2.0398 2.0501 2.0438 2.0458 2.0233 1.9934 1.9953 2.0051 1.9914 1.9933 2.0031 2.0289 2.0554 2.0825 2.173 2.232 2.3045 2.3171 2.3193 2.3321 2.3449 2.3471 2.3601 2.3516 2.3539 2.3454 2.3584 2.3714 2.3736 2.3651 2.3781 2.3913 2.3826 2.3849 2.3981 2.4226 2.4249 2.4272 2.4295 2.4318 2.4341 2.4363 2.4386 2.4296 2.4432 2.4455 2.4591 2.4614 2.4523 2.4433 2.4455 2.4478 2.4614 2.4637 2.466 2.4569 2.4592 2.4729 2.4984 2.5007 2.4912 2.4705 2.428 2.3975 2.368 2.329 2.3211 2.3132 2.2761 2.2687 2.2707 2.2728 2.2749 2.2675 2.26 2.2621 2.2088 2.1841 2.1773 1.9736 1.9682 1.9419 1.8704 1.8405 1.8298 1.8192 1.8149 1.8165 1.8181 1.8197 1.8274 1.823 1.8247 1.8323 1.8279 1.8235 1.8072 1.8088 1.8104 1.8061 1.8077 1.8153 1.8169 1.8185 1.826 1.8217 1.8292 1.843 1.8446 1.8524 1.854 1.8618 1.8697 1.8966 1.9113 1.9327 1.9614 1.9563 1.9648 1.9665 1.9614 1.9496 1.9445 1.9329 1.9215 1.9166 1.9118 1.907 1.9087 1.9168 1.912 1.9398 1.9888 1.9906 1.9853 1.987 2.0027 2.0257 2.0274 2.0364 2.075 2.0996 2.1169 2.1584 2.4342 2.5217 2.5688 2.6058 2.6559 2.6705 2.6976 2.7644 2.7537 2.756 2.7452 2.7219 2.6988 2.6887 2.6786 2.6808 2.6708 2.6731 2.6753 2.6899 2.6921 2.6944 2.7091 2.7114 2.7137 2.7159 2.7182 2.7205 2.6856 2.6756 2.6779 2.6801 2.6823 2.6485 2.6507 2.6529 2.6551 2.6693 2.6715 2.6617 2.688 2.7024 2.7169 2.7316 2.7464 2.7614 2.7636 2.7787 2.794 2.8226 2.8118 2.8273 2.8296 2.8319 2.8342 2.8233 2.8256 2.8279 2.7909 2.7932 2.7955 2.8107 2.8662 2.855 2.8708 2.8732 2.8755 2.8778 2.8801 2.8689 2.8986 2.8871 2.8895 2.9056 2.9079 2.9381 2.9405 2.9571 2.9738 2.9906 2.9499 2.9382 2.9405 2.9289 2.8901 2.8655 2.8155 2.6263 2.6284 2.6084 2.5995 2.5693 2.5607 2.5417 2.5028 2.4848 2.467 2.44 2.4324 2.4249 2.4174 2.4287 2.4306 2.4138 2.4064 2.3991 2.401 2.3937 2.3864 2.3883 2.3722 2.3652 2.3581 2.3338 2.3356 2.3461 2.3744 2.4217 0 0 0 1.1819 1.1784 1.1771 1.1737 1.166 1.1584 1.1614 1.1623 1.159 1.1578 1.1629 1.1638 1.1668 1.1656 1.1643 1.1652 1.1682 1.1712 1.1764 1.1751 1.1739 1.1727 1.1694 1.1724 1.1754 1.1805 1.1814 1.1823 1.1832 1.182 1.1829 1.1903 1.1956 1.1965 1.1974 1.2005 1.2036 1.2045 1.2054 1.2085 1.2117 1.2103 1.2112 1.2121 1.2153 1.2162 1.2171 1.2203 1.2235 1.2222 1.2231 1.224 1.2249 1.2258 1.2267 1.2299 1.2331 1.2341 1.2373 1.2359 1.2391 1.2423 1.2456 1.2488 1.2545 1.253 1.2587 1.2573 1.2557 1.2543 1.2529 1.2538 1.2548 1.2557 1.2543 1.2575 1.2585 1.264 1.2626 1.2635 1.2668 1.2677 1.2663 1.2649 1.2682 1.2691 1.2676 1.2662 1.2742 1.2823 1.2857 1.294
2.0266 2.0286 2.0224 2.0326 2.0345 2.0365 2.0303 2.0081 1.9787 1.973 1.9826 1.9692 1.9635 1.973 2.0138 2.048 2.0835 2.1557 2.2041 2.2647 2.2871 2.2995 2.3331 2.3353 2.3375 2.3611 2.3634 2.3549 2.3464 2.3487 2.3616 2.3746 2.3554 2.3576 2.3706 2.3728 2.3859 2.3991 2.4237 2.4148 2.4282 2.4418 2.4441 2.4351 2.4487 2.4396 2.4419 2.4556 2.4695 2.4718 2.4625 2.4648 2.4556 2.4579 2.4602 2.4625 2.4647 2.4785 2.4693 2.4716 2.4854 2.4994 2.49 2.4807 2.4716 2.418 2.3879 2.3585 2.3199 2.312 2.2944 2.2675 2.2507 2.2622 2.2643 2.2568 2.2495 2.2515 2.2536 2.2007 2.185 2.187 1.9744 1.969 1.9358 1.8647 1.835 1.8244 1.814 1.8156 1.8112 1.8189 1.8144 1.8161 1.8177 1.8193 1.815 1.8166 1.8122 1.8079 1.8036 1.8052 1.8009 1.8025 1.8041 1.8176 1.8192 1.8208 1.8224 1.8299 1.8377 1.8454 1.8531 1.8609 1.8625 1.8704 1.8974 1.9121 1.9268 1.9553 1.957 1.9656 1.9673 1.9487 1.9436 1.932 1.914 1.9093 1.9045 1.8998 1.8887 1.8904 1.9047 1.9064 1.9017 2.0036 2.0053 2 1.9948 2.0034 2.0194 2.0139 2.0371 2.0609 2.0775 2.0945 2.1273 2.346 2.3575 2.5138 2.5492 2.6328 2.6592 2.6738 2.7655 2.7547 2.7571 2.7463 2.7229 2.6999 2.6773 2.6796 2.6696 2.6718 2.6619 2.6763 2.6909 2.6932 2.6954 2.7101 2.7124 2.7022 2.717 2.7192 2.7215 2.6989 2.7011 2.6911 2.6933 2.6955 2.6494 2.6517 2.6539 2.6561 2.6583 2.6486 2.6627 2.6769 2.6912 2.7179 2.7326 2.7474 2.7624 2.7647 2.7669 2.782 2.7973 2.7996 2.8019 2.8174 2.8197 2.8353 2.8243 2.8266 2.8289 2.8049 2.8072 2.8094 2.8248 2.8672 2.8561 2.8719 2.8879 2.8765 2.8789 2.8812 2.8835 2.8996 2.8882 2.8905 2.9066 2.9228 2.9251 2.9416 2.9581 2.9748 2.9917 2.9652 2.9392 2.9416 2.8888 2.8379 2.6343 2.6706 2.6272 2.5747 2.5555 2.547 2.5283 2.52 2.5017 2.4543 2.437 2.42 2.3849 2.3776 2.3795 2.3997 2.4016 2.4035 2.3962 2.3981 2.3908 2.3926 2.3945 2.3873 2.3801 2.373 2.366 2.3678 2.3432 2.3538 2.3734 2.3841 2.4225 0 0 0 1.1823 1.1832 1.1819 1.1741 1.1664 1.1588 1.1618 1.1627 1.1594 1.1603 1.1612 1.1621 1.163 1.1639 1.1626 1.1614 1.1644 1.1717 1.1768 1.1756 1.1743 1.171 1.1698 1.1749 1.1779 1.1809 1.1818 1.1827 1.1836 1.1824 1.1854 1.1907 1.196 1.1969 1.1955 1.1987 1.204 1.2049 1.2036 1.2067 1.2098 1.2107 1.2095 1.2125 1.2134 1.2144 1.2175 1.2185 1.2216 1.2226 1.2235 1.2244 1.223 1.2262 1.2271 1.2303 1.2335 1.2345 1.2354 1.2363 1.2395 1.2474 1.2506 1.254 1.2572 1.2605 1.2614 1.26 1.2586 1.2548 1.2533 1.2566 1.2575 1.2584 1.257 1.2579 1.2612 1.2669 1.2654 1.2663 1.2672 1.2682 1.2667 1.2677 1.2686 1.2671 1.2681 1.2666 1.2795 1.2852 1.291 1.2945
2.0194 2.0213 2.0233 2.0253 2.0272 2.0211 2.0231 2.0011 1.9719 1.9662 1.9681 1.9625 1.9568 1.9662 2.0146 2.0489 2.0844 2.1566 2.1863 2.2557 2.2679 2.2903 2.3235 2.3363 2.3385 2.3622 2.3644 2.3559 2.3474 2.3604 2.3626 2.3649 2.3671 2.3693 2.3716 2.3847 2.3761 2.4002 2.4247 2.4158 2.4293 2.4428 2.4567 2.459 2.4729 2.4752 2.4775 2.4915 2.5057 2.508 2.5104 2.5008 2.5031 2.5054 2.496 2.4983 2.5006 2.5029 2.4935 2.5076 2.4982 2.5122 2.491 2.4817 2.4612 2.419 2.3889 2.3595 2.3109 2.3031 2.3052 2.2685 2.2611 2.2631 2.2557 2.2578 2.2504 2.2432 2.2452 2.2196 2.1947 2.1879 1.9824 1.9698 1.9435 1.8719 1.842 1.8313 1.8147 1.8163 1.818 1.8196 1.8152 1.8168 1.8125 1.8141 1.8157 1.8113 1.8129 1.8087 1.8043 1.8059 1.8075 1.8091 1.8048 1.8183 1.8199 1.8215 1.8291 1.8368 1.8384 1.8522 1.8538 1.8804 1.8821 1.8965 1.9176 1.9259 1.9409 1.9629 1.9646 1.9802 1.9889 1.9494 1.9444 1.9328 1.9213 1.91 1.9117 1.8942 1.8895 1.8911 1.8991 1.9007 1.9088 2.0185 2.0203 2.0078 2.0025 2.0042 2.0059 2.0147 2.0236 2.0617 2.0709 2.0877 2.136 2.3469 2.3584 2.5258 2.5389 2.6218 2.6481 2.6872 2.7534 2.7558 2.745 2.7473 2.7112 2.7009 2.6907 2.6806 2.6829 2.6728 2.6751 2.6896 2.6796 2.7066 2.6964 2.7111 2.7387 2.7283 2.718 2.7077 2.71 2.7123 2.7021 2.7044 2.6943 2.7089 2.6624 2.6646 2.6789 2.6811 2.6833 2.6735 2.6757 2.7022 2.7044 2.7314 2.7336 2.7359 2.7634 2.753 2.768 2.7702 2.7725 2.7876 2.7899 2.7922 2.8075 2.823 2.8121 2.8277 2.8167 2.819 2.8082 2.8236 2.8392 2.882 2.8843 2.8866 2.9027 2.9051 2.9074 2.9097 2.9121 2.9144 2.9168 2.9191 2.9355 2.9521 2.9688 2.9856 3.0025 3.005 3.0222 2.9807 2.9687 2.9426 2.8763 2.852 2.6352 2.6373 2.6394 2.565 2.5459 2.5272 2.5189 2.5006 2.4728 2.4359 2.419 2.393 2.3766 2.3694 2.3713 2.3732 2.3933 2.386 2.3878 2.3897 2.3916 2.3935 2.3953 2.3881 2.381 2.3739 2.3668 2.3775 2.3705 2.3903 2.4103 2.4308 2.4802 0 0 0 1.1827 1.1836 1.1823 1.1745 1.1689 1.1592 1.1601 1.161 1.1619 1.1607 1.1616 1.1604 1.1634 1.1622 1.1609 1.1639 1.1648 1.1699 1.1772 1.176 1.1768 1.1714 1.1702 1.1795 1.1804 1.1857 1.1844 1.1875 1.1884 1.1871 1.188 1.1911 1.1942 1.1994 1.2004 1.1991 1.2022 1.2031 1.204 1.2072 1.2102 1.209 1.2099 1.2129 1.2139 1.2148 1.2157 1.2211 1.2221 1.223 1.2216 1.2225 1.2234 1.2266 1.2298 1.2308 1.234 1.2372 1.2381 1.2413 1.2422 1.2478 1.2535 1.2544 1.2624 1.2633 1.269 1.2724 1.2637 1.2623 1.2609 1.2593 1.2603 1.2612 1.2574 1.2607 1.2616 1.2697 1.2683 1.2692 1.2676 1.2686 1.2671 1.2681 1.269 1.2699 1.2685 1.2671 1.2799 1.2905 1.2964 1.2974
2.0202 2.0141 2.0242 2.0181 2.02 2.014 2.0079 1.9941 1.9728 1.9671 1.969 1.9633 1.9652 1.9671 2.0235 2.0581 2.0853 2.1666 2.1966 2.2567 2.279 2.2912 2.3351 2.3373 2.3502 2.3632 2.3763 2.3677 2.3591 2.3614 2.3636 2.3659 2.3681 2.3703 2.3834 2.3857 2.3879 2.4012 2.4257 2.428 2.4303 2.4554 2.4577 2.46 2.4739 2.4762 2.4785 2.4925 2.5068 2.5091 2.5114 2.5138 2.5042 2.5065 2.497 2.4994 2.5135 2.4923 2.4946 2.4969 2.4992 2.5132 2.492 2.4828 2.4736 2.42 2.3899 2.3605 2.3319 2.324 2.3062 2.279 2.2715 2.2735 2.2661 2.2587 2.2513 2.2534 2.2461 2.2115 2.1956 2.1799 1.9832 1.9778 1.9443 1.8791 1.849 1.8382 1.8154 1.8171 1.8187 1.8143 1.822 1.8175 1.8132 1.8148 1.8104 1.8181 1.8136 1.8153 1.811 1.8126 1.8142 1.8098 1.8114 1.8249 1.8266 1.8282 1.8359 1.8375 1.8513 1.853 1.8607 1.8749 1.8892 1.9037 1.9184 1.9267 1.935 1.9637 1.9722 1.974 1.9827 1.9569 1.9451 1.9335 1.9155 1.9108 1.906 1.9013 1.8902 1.8982 1.8935 1.8951 1.8967 2.0123 2.014 2.0086 2.0033 1.998 2.0067 2.0084 2.0244 2.0551 2.0717 2.0961 2.1609 2.4167 2.4289 2.5378 2.5512 2.6229 2.6613 2.6882 2.7545 2.7437 2.746 2.7355 2.6996 2.6894 2.6917 2.6694 2.6839 2.6739 2.6761 2.6907 2.6929 2.6952 2.6974 2.7122 2.727 2.7293 2.719 2.7088 2.711 2.7133 2.7155 2.7054 2.7076 2.7099 2.6754 2.6777 2.6799 2.6942 2.7088 2.6865 2.6888 2.7279 2.7177 2.7324 2.7346 2.7495 2.7517 2.754 2.7563 2.7585 2.7608 2.7758 2.7781 2.7803 2.8085 2.8108 2.8131 2.8024 2.8177 2.8069 2.8092 2.8246 2.8402 2.8693 2.8854 2.8877 2.9038 2.9061 2.9224 2.9248 2.9132 2.9295 2.9319 2.9202 2.9508 2.9531 2.9843 2.9867 3.0036 3.006 3.0084 2.9817 2.9555 2.9158 2.8377 2.7887 2.6704 2.627 2.618 2.5873 2.5261 2.5076 2.4895 2.4717 2.4541 2.4179 2.4012 2.3939 2.3684 2.3703 2.3632 2.374 2.3759 2.3777 2.3887 2.3815 2.3834 2.3852 2.3871 2.38 2.3818 2.3747 2.3765 2.3874 2.3893 2.4186 2.4485 2.4695 2.5306 0 0 0 1.1787 1.184 1.1805 1.1749 1.1672 1.1596 1.1605 1.1614 1.1602 1.159 1.162 1.1629 1.1638 1.1647 1.1656 1.1664 1.1673 1.1703 1.1733 1.1742 1.173 1.1697 1.1706 1.1757 1.1787 1.1839 1.1848 1.1879 1.1888 1.1897 1.1884 1.1937 1.1946 1.1999 1.1986 1.1995 1.2026 1.2013 1.2022 1.2031 1.2062 1.2094 1.2103 1.2112 1.2143 1.2152 1.2161 1.2216 1.2202 1.2211 1.2197 1.2206 1.2194 1.2247 1.2279 1.2335 1.2344 1.2353 1.2408 1.2417 1.245 1.253 1.2562 1.2571 1.2651 1.2661 1.267 1.2704 1.2641 1.2627 1.2588 1.2597 1.2583 1.2593 1.2602 1.2611 1.2644 1.2701 1.271 1.2696 1.2681 1.269 1.2699 1.2733 1.2742 1.2727 1.2712 1.2722 1.2803 1.2909 1.2969 1.2978
