0.22709 0.22742 0.22775 0.22808 0.22805 0.22826 0.22847 0.22867 0.229 0.22909 0.22918 0.22939 0.22924 0.22945 0.22953 0.22974 0.22983 0.2298 0.22989 0.22986 0.22982 0.22967 0.22976 0.22948 0.22957 0.2299 0.22987 0.22996 0.22992 0.23001 0.2301 0.23043 0.23101 0.23122 0.23118 0.23115 0.23124 0.23108 0.23117 0.23162 0.23208 0.23229 0.23213 0.23186 0.2317 0.23179 0.23224 0.23233 0.23254 0.23226 0.23186 0.23195 0.2329 0.23274 0.23308 0.23329 0.2335 0.23358 0.23367 0.23376 0.23422 0.23443 0.23464 0.23473 0.23371 0.2338 0.23315 0.23312 0.23321 0.23329 0.23289 0.23285 0.23393 0.23402 0.2341 0.23419 0.23453 0.23449 0.23433 0.23455 0.23451 0.2346 0.23469 0.23465 0.23474 0.2378 0.23802 0.2381 0.23819 0.23655 0.23663 0.23821 0.23557 0.23566 0.23637 0.23645 0.23555 0.23564 0.23684 0.23768 0.23777 0.23811 0.23919 0.23928 0.23925 0.23971 0.2398 0.23964 0.23985 0.23982 0.23991 0.23912 0.23946 0.23942 0.23926 0.23923 0.23944 0.23953 0.23974 0.23996 0.24042 0.24051 0.2406 0.24044 0.24078 0.24087 0.24133 0.24117 0.24114 0.24097 0.24106 0.24115 0.24099 0.24095 0.24192 0.24201 0.24223 0.24257 0.24139 0.24148 0.24385 0.24394 0.24542 0.24551 0.24547 0.24557 0.24566 0.24549 0.24546 0.24555 0.24538 0.24522 0.24518 0.24552 0.24549 0.24532 0.24503 0.24525 0.24572 0.24632 0.24654 0.24663 0.24671 0.24668 0.2469 0.24699 0.24733 0.24755 0.24751 0.24747 0 0 0 0 0 0 0 0 0 0 0 0 0 0 0.17788 0.17794 0.17775 0.17781 0.17813 0.17781 0.17595 0.17601 0.17594 0.17536 0.17543 0.17472 0.17387 0.17394 0.17387 0.17316 0.17322 0.17238 0.17076 0.17082 0.17036 0.16939 0.16945 0.16873 0.16853 0.16846 0.16839 0.16781 0.16787 0.16728 0.16721 0.16727 0.1672 0.16674 0.16654 0.16634 0.166 0.16593 0.1656 0.16566 0.16494 0.16473 0.16479 0.16394 0.16374 0.16379 0.1632 0.16313 0.16318 0.16298 0.16278 0.1627 0.16263 0.1623 0.16222 0.16228 0.16221 0.16226 0.16219 0.16199 0.16191 0.16157 0.1615 0.16116 0.16043 0.16049 0.16028 0.16034 0.16026 0.16019 0.16024 0.16017 0.16023 0.16015 0.16008 0.16013 0.16006 0.15998 0.1599 0.15983 0.15975 0.15968 0.1596 0.15952 0.15932 0.15924 0.15929 0.15922 0.15914 0.1592 0.15912 0.15904 0.15897 0.15902 0.15908 0.15887 0.15879 0.15871 0.15863 0.15869 0.15875 0.15867 0.15872 0.15865 0.15857 0.15862 0.15868 0.15873 0.15879 0.15884 0.1589 0.15896 0.15901 0.15907 0.15912 0.15918 0.15923 0.15915 0.15921 0.15926 0.15918 0.15924 0.15916 0.15922 0.15914 0.15933 0.15938 0.15944 0.15949 0.15955 0.1596 0.15966 0.15971 0.15977 0.15928 0.15947 0.15953 0.15985 0.15991 0.15983 0.15988 0.16007 0.16013 0.16032 0.16051 0.16057 0.16089 0.16095 0.16114 0.16133 0.16138 0.16144 0.16136 0.16141 0.1616 0.16166 0.16199 0.16218 0.1621 0.16229 0.16234 0.1624 0.16246 0.16374 0.16379 0.16385 0.1639 0.1641 0.16415 0.16434 0.1644 0.16459 0.16465 0.16498 0.16517 0.16564
0.2269 0.22711 0.22756 0.22777 0.22786 0.22795 0.22827 0.22848 0.22869 0.22878 0.22887 0.22908 0.22904 0.22925 0.22934 0.22955 0.22964 0.22961 0.2297 0.22966 0.22963 0.22948 0.22944 0.22953 0.22962 0.22983 0.22992 0.23001 0.22997 0.23006 0.23015 0.23048 0.23057 0.23102 0.23087 0.23096 0.23104 0.23113 0.23122 0.23167 0.23176 0.23197 0.23182 0.23191 0.23175 0.23184 0.23205 0.23226 0.23223 0.23219 0.23216 0.232 0.23234 0.23255 0.23288 0.23297 0.23318 0.23327 0.23336 0.23357 0.2339 0.23411 0.23432 0.23441 0.23376 0.23361 0.23333 0.23317 0.23325 0.23334 0.23294 0.2329 0.23398 0.23407 0.23415 0.23437 0.23458 0.23454 0.23451 0.23447 0.23456 0.23465 0.23474 0.2347 0.23479 0.23797 0.23782 0.23791 0.23812 0.23659 0.23668 0.23826 0.23562 0.23583 0.23604 0.23601 0.2356 0.23606 0.23689 0.23773 0.23782 0.23816 0.23924 0.23921 0.2393 0.23939 0.23948 0.23944 0.23953 0.23949 0.23958 0.23917 0.23926 0.23922 0.23906 0.2389 0.23911 0.23933 0.23942 0.23976 0.24022 0.24031 0.2404 0.24049 0.24058 0.24104 0.24138 0.2411 0.24119 0.24102 0.24111 0.2412 0.24104 0.24113 0.24147 0.24156 0.24228 0.24262 0.24144 0.24153 0.2439 0.24399 0.24509 0.24505 0.24515 0.24536 0.24532 0.24541 0.24538 0.24534 0.24518 0.24501 0.24498 0.24532 0.24541 0.24537 0.24508 0.24504 0.24513 0.24649 0.24658 0.24668 0.24664 0.2466 0.24669 0.24716 0.24725 0.24734 0.24756 0 0 0 0 0 0 0 0 0 0 0 0 0 0 0 0 0 0 0 0 0 0 0 0 0 0 0.17475 0.17391 0.17397 0.17365 0.17332 0.17325 0.17267 0.17131 0.17137 0.17066 0.16942 0.16948 0.16877 0.16831 0.16837 0.1683 0.1681 0.16803 0.16757 0.16737 0.1673 0.16723 0.16651 0.16657 0.16611 0.16617 0.16623 0.16603 0.16595 0.16497 0.16477 0.16483 0.16397 0.1639 0.16396 0.16323 0.16316 0.16309 0.16301 0.16281 0.16274 0.16266 0.16246 0.16239 0.16231 0.16224 0.1623 0.16222 0.16202 0.16194 0.16161 0.16153 0.16133 0.16112 0.16092 0.16084 0.16063 0.16069 0.16048 0.16028 0.16033 0.16039 0.16032 0.16024 0.16016 0.16009 0.16001 0.15994 0.15986 0.15978 0.15971 0.15963 0.15969 0.15948 0.1594 0.15933 0.15925 0.15931 0.15923 0.15928 0.15921 0.15913 0.15905 0.15911 0.1589 0.15909 0.15861 0.15867 0.15872 0.15878 0.15883 0.15889 0.15881 0.15887 0.15879 0.15884 0.1589 0.15895 0.15901 0.15906 0.15912 0.15918 0.15923 0.15929 0.15921 0.15926 0.15918 0.15924 0.15929 0.15935 0.1594 0.15933 0.15938 0.15944 0.15936 0.15941 0.15947 0.15966 0.15971 0.15977 0.15969 0.15988 0.15993 0.15972 0.15964 0.15983 0.15988 0.15994 0.15986 0.15991 0.15997 0.16016 0.16035 0.1604 0.1606 0.16079 0.16098 0.16117 0.16136 0.16141 0.16147 0.16153 0.16158 0.16177 0.16183 0.16215 0.16234 0.16226 0.16232 0.16238 0.16243 0.16249 0.1639 0.1641 0.16415 0.16434 0.16454 0.16473 0.16492 0.16525 0.16531 0.1655 0.16556 0.16561 0.16567
0.22659 0.22692 0.22737 0.22758 0.22767 0.22775 0.22808 0.22829 0.2285 0.22871 0.22868 0.22889 0.22897 0.22906 0.22915 0.22936 0.22957 0.22942 0.2295 0.22959 0.22956 0.2294 0.22949 0.22934 0.22943 0.22952 0.22803 0.22812 0.22796 0.22805 0.22838 0.22847 0.22831 0.2284 0.22836 0.22845 0.22842 0.22838 0.22847 0.22856 0.22864 0.22946 0.22979 0.22988 0.22997 0.22994 0.23002 0.23194 0.23215 0.23224 0.23196 0.23181 0.23214 0.23235 0.23281 0.23289 0.23311 0.23319 0.23328 0.23337 0.2337 0.23392 0.234 0.23409 0.23357 0.23329 0.233 0.23297 0.23256 0.23204 0.23212 0.23221 0.23341 0.23375 0.23396 0.23417 0.23438 0.23447 0.23443 0.23452 0.23461 0.2347 0.23478 0.23475 0.23471 0.23493 0.23501 0.2356 0.23569 0.23578 0.23673 0.23558 0.23567 0.23575 0.23609 0.23593 0.23565 0.23598 0.2362 0.23653 0.23662 0.23683 0.23855 0.23901 0.2391 0.23919 0.23928 0.23936 0.23933 0.23942 0.23938 0.23922 0.23918 0.23915 0.23886 0.23882 0.23904 0.23925 0.23947 0.23968 0.24015 0.24024 0.2402 0.24016 0.24038 0.24084 0.24106 0.24102 0.24098 0.24095 0.24091 0.24087 0.24096 0.24105 0.24139 0.24161 0.2417 0.24204 0.24124 0.24133 0.24155 0.24163 0.24172 0.24485 0.24177 0.24199 0.24512 0.24534 0.2453 0.24539 0.24523 0.24494 0.24503 0.24524 0.24521 0.24364 0.24373 0.24356 0.24365 0.24323 0.24307 0.24328 0.24452 0.2441 0.24419 0.24619 0.24705 0.24727 0.24723 0 0 0 0 0 0 0 0 0 0 0 0 0 0 0 0 0 0 0 0 0 0.17692 0.17698 0.17705 0.17711 0 0.17491 0.17433 0.17439 0.17355 0.17206 0.17213 0.1718 0.17173 0.17179 0.17108 0.16946 0.16952 0.16919 0.1686 0.16853 0.16846 0.16826 0.16832 0.16734 0.16727 0.16733 0.16726 0.1668 0.16686 0.1664 0.1662 0.16626 0.16606 0.16625 0.16513 0.1648 0.16486 0.16414 0.16393 0.16399 0.16326 0.16319 0.16312 0.16305 0.16284 0.16277 0.1627 0.16249 0.16242 0.16248 0.1624 0.16233 0.16239 0.16218 0.16211 0.16151 0.16156 0.16136 0.16115 0.16108 0.16087 0.16067 0.16072 0.16052 0.16044 0.16037 0.16042 0.16035 0.1604 0.16033 0.16012 0.16018 0.15997 0.15989 0.15982 0.15974 0.1598 0.15972 0.15951 0.15943 0.15949 0.15928 0.1592 0.15926 0.15918 0.15924 0.15903 0.15908 0.15901 0.1588 0.15872 0.15851 0.15856 0.15862 0.15868 0.15873 0.15879 0.15884 0.15876 0.15882 0.15887 0.15893 0.15898 0.15904 0.15909 0.15902 0.15907 0.15926 0.15918 0.15924 0.15929 0.15921 0.15927 0.15932 0.15938 0.15944 0.15949 0.15941 0.15947 0.15952 0.15958 0.15963 0.15969 0.15974 0.1598 0.15985 0.15991 0.15996 0.15975 0.15967 0.15986 0.15992 0.15997 0.15989 0.15995 0.16 0.16019 0.16038 0.16044 0.16049 0.16082 0.16087 0.1612 0.16139 0.16145 0.1615 0.16142 0.16148 0.1618 0.16199 0.16218 0.16238 0.1623 0.16235 0.16241 0.16233 0.16238 0.16393 0.16413 0.16432 0.16438 0.1647 0.16476 0.16495 0.16528 0.16534 0.16553 0.16559 0.16564 0.1657
0.22628 0.22697 0.22682 0.22691 0.22711 0.22756 0.22801 0.22798 0.22831 0.2284 0.22836 0.22857 0.22866 0.22887 0.22896 0.22905 0.22938 0.2291 0.22919 0.22928 0.22925 0.22945 0.2293 0.22903 0.22899 0.22932 0.22808 0.22768 0.22777 0.22798 0.22818 0.22827 0.22824 0.2282 0.22817 0.22826 0.22834 0.22831 0.22852 0.22848 0.22881 0.22914 0.22948 0.22956 0.2299 0.2295 0.23007 0.23211 0.23208 0.23205 0.23164 0.23186 0.23194 0.23252 0.23261 0.23282 0.23266 0.23275 0.23284 0.23293 0.23339 0.23347 0.23356 0.23353 0.23325 0.23333 0.23269 0.23253 0.23261 0.23209 0.2318 0.23226 0.23346 0.23355 0.23376 0.23422 0.23394 0.23402 0.23411 0.23432 0.23441 0.2345 0.23459 0.23467 0.23476 0.23485 0.23506 0.23528 0.23536 0.23582 0.23678 0.23563 0.23547 0.23543 0.23564 0.23561 0.23557 0.23566 0.23612 0.23621 0.23642 0.23688 0.23872 0.23868 0.2389 0.23861 0.2387 0.23879 0.23888 0.23897 0.23906 0.23902 0.23898 0.23895 0.23853 0.23837 0.23846 0.2388 0.23914 0.23948 0.23994 0.24028 0.23987 0.23996 0.24017 0.24001 0.24023 0.24044 0.2404 0.24037 0.24033 0.24054 0.24063 0.24072 0.24081 0.24102 0.24099 0.24095 0.24104 0.24113 0.24122 0.24168 0.24177 0.2449 0.24182 0.24204 0.24517 0.24526 0.24535 0.24544 0.24553 0.2446 0.24469 0.24529 0.24487 0.24369 0.24314 0.24323 0.24307 0.24303 0.24299 0.24321 0.24457 0.24415 0.24424 0.24624 0.24633 0.24719 0.24728 0 0 0 0 0 0 0 0 0 0 0 0 0 0 0 0 0 0 0 0 0 0.17695 0.17715 0.17734 0.17715 0 0.17495 0.17463 0.17443 0.17359 0.1721 0.17216 0.17209 0.17177 0.17183 0.17111 0.16949 0.16942 0.16935 0.16864 0.16883 0.16876 0.16843 0.16836 0.16738 0.16731 0.16724 0.1673 0.16697 0.16677 0.1667 0.16623 0.16629 0.16622 0.16628 0.16517 0.16509 0.16489 0.16417 0.16396 0.16402 0.1633 0.16309 0.16315 0.16308 0.16287 0.1628 0.16286 0.16252 0.16245 0.16251 0.16243 0.16249 0.16255 0.16248 0.16253 0.16154 0.1616 0.16152 0.16118 0.16111 0.1609 0.1607 0.16062 0.16055 0.16047 0.16053 0.16045 0.16051 0.16043 0.16036 0.16028 0.16021 0.16 0.15992 0.15985 0.15977 0.15983 0.15988 0.15967 0.15946 0.15952 0.15931 0.15937 0.15942 0.15921 0.15914 0.15893 0.15898 0.1589 0.1587 0.15862 0.15854 0.1586 0.15865 0.15871 0.15863 0.15868 0.15874 0.15879 0.15885 0.1589 0.15896 0.15901 0.15894 0.15899 0.15905 0.1591 0.15929 0.15921 0.15927 0.15932 0.15938 0.15943 0.15936 0.15941 0.15947 0.15952 0.15944 0.1595 0.15955 0.15961 0.15966 0.15972 0.15977 0.15983 0.15988 0.15994 0.15999 0.15992 0.15997 0.16003 0.16008 0.16014 0.16006 0.16011 0.16017 0.16022 0.16041 0.16047 0.16066 0.16071 0.1609 0.16123 0.16142 0.16161 0.16153 0.16145 0.16151 0.1621 0.1623 0.16235 0.16241 0.16233 0.16238 0.16244 0.16236 0.16241 0.1641 0.16402 0.16435 0.16454 0.16474 0.16479 0.16498 0.16518 0.16523 0.16556 0.16562 0.16568 0.16587
0.22561 0.22618 0.22651 0.22671 0.2268 0.22689 0.22626 0.22598 0.22607 0.22531 0.2254 0.22561 0.22533 0.22421 0.2243 0.22439 0.22447 0.22444 0.2244 0.22921 0.22917 0.2272 0.22729 0.22738 0.22747 0.22755 0.22716 0.22748 0.22769 0.2279 0.22799 0.22808 0.22792 0.22789 0.2281 0.22818 0.22827 0.22836 0.22845 0.22853 0.22862 0.22883 0.22916 0.22949 0.22958 0.2293 0.22914 0.22947 0.22944 0.22953 0.22961 0.22933 0.22942 0.22951 0.22959 0.2325 0.23259 0.23256 0.23277 0.23286 0.23319 0.2334 0.23349 0.23345 0.23244 0.23265 0.23175 0.23134 0.23143 0.23139 0.23161 0.23182 0.23227 0.23174 0.23195 0.2334 0.23374 0.23383 0.23391 0.23412 0.23434 0.23455 0.23464 0.23472 0.23481 0.23478 0.23499 0.23508 0.23517 0.23513 0.23534 0.23506 0.23514 0.23536 0.23544 0.23553 0.2355 0.23558 0.23592 0.23613 0.23622 0.23656 0.2364 0.23649 0.23832 0.23841 0.2385 0.23871 0.23868 0.23889 0.23898 0.23894 0.23891 0.23875 0.23833 0.23817 0.23826 0.2386 0.23906 0.23815 0.23824 0.23971 0.23854 0.23875 0.23947 0.23956 0.24002 0.24011 0.24033 0.24004 0.24013 0.24034 0.24056 0.24052 0.24061 0.24069 0.24066 0.24075 0.24071 0.2408 0.24088 0.24009 0.24005 0.23925 0.23934 0.23943 0.24027 0.24024 0.24032 0.23965 0.23974 0.23995 0.24004 0.24038 0.2406 0.24069 0.24268 0.24277 0.24286 0.24282 0.24266 0.24274 0.24296 0.24305 0.24352 0.24386 0.24383 0.24494 0.24579 0.24588 0 0 0 0 0 0 0 0 0 0 0 0 0 0 0 0 0 0 0 0.17796 0.17725 0.17731 0.17738 0.17757 0 0.17499 0.17466 0.17447 0.17362 0.17252 0.17233 0.17213 0.17193 0.17186 0.17128 0.16939 0.16945 0.16939 0.16906 0.16899 0.16892 0.16859 0.16852 0.16819 0.16721 0.16727 0.1672 0.167 0.1668 0.1666 0.16627 0.1662 0.1656 0.16566 0.16533 0.16513 0.16519 0.1642 0.164 0.16406 0.1632 0.16326 0.16318 0.16311 0.16291 0.16283 0.16289 0.16256 0.16248 0.16254 0.1626 0.16266 0.16245 0.16251 0.16257 0.16157 0.16163 0.16156 0.16135 0.16114 0.16094 0.16073 0.16065 0.16058 0.1605 0.16056 0.16048 0.16054 0.16047 0.16052 0.16018 0.16011 0.16003 0.15996 0.15988 0.1598 0.15973 0.15992 0.15957 0.1595 0.15955 0.15948 0.1594 0.15946 0.15924 0.15917 0.15896 0.15901 0.15894 0.15873 0.15865 0.1587 0.15863 0.15868 0.15874 0.15866 0.15871 0.15877 0.15882 0.15888 0.15894 0.15899 0.15905 0.15897 0.15902 0.15908 0.15913 0.15919 0.15924 0.1593 0.15949 0.15941 0.15933 0.15939 0.15944 0.1595 0.15955 0.15947 0.15966 0.15958 0.15964 0.15956 0.15975 0.15981 0.15986 0.15992 0.15997 0.16003 0.16008 0.16014 0.16019 0.16025 0.1603 0.16022 0.16028 0.16033 0.16039 0.16044 0.16063 0.16069 0.16074 0.1608 0.16126 0.16145 0.16164 0.1621 0.16216 0.16222 0.16227 0.16233 0.16252 0.16257 0.16249 0.16241 0.16233 0.16239 0.16258 0.16359 0.16365 0.16452 0.16457 0.16477 0.16482 0.16488 0.16507 0.16526 0.16546 0.16565 0.16571 0.1659
0.22506 0.22527 0.22559 0.22604 0.22553 0.2255 0.22534 0.22434 0.22431 0.2244 0.2246 0.22481 0.22381 0.22402 0.22411 0.22395 0.22404 0.22412 0.22397 0.22418 0.22402 0.22423 0.22455 0.22694 0.22703 0.22724 0.22696 0.22717 0.22726 0.22734 0.22767 0.22764 0.22736 0.22733 0.22741 0.22738 0.22698 0.22694 0.22764 0.22724 0.22672 0.2268 0.22689 0.22698 0.22926 0.22898 0.22931 0.22952 0.22961 0.22958 0.2277 0.22767 0.22775 0.22784 0.22756 0.22765 0.22859 0.2288 0.22962 0.22971 0.22992 0.22964 0.22973 0.23006 0.23076 0.23085 0.23094 0.23102 0.23099 0.23107 0.23116 0.23137 0.23146 0.23155 0.23188 0.23209 0.23218 0.23227 0.23223 0.23244 0.23364 0.23385 0.23394 0.23391 0.23399 0.23396 0.2333 0.23351 0.23323 0.23319 0.2334 0.23336 0.23345 0.23354 0.23363 0.23371 0.2338 0.23401 0.2341 0.23456 0.2344 0.23449 0.23408 0.23379 0.23375 0.23471 0.23467 0.23526 0.23873 0.23882 0.23891 0.23874 0.23883 0.23767 0.2375 0.23759 0.23768 0.23764 0.23748 0.23757 0.23778 0.23787 0.23808 0.23842 0.23864 0.23873 0.23919 0.23928 0.23949 0.23933 0.23942 0.23963 0.23972 0.23981 0.2399 0.23986 0.23982 0.23978 0.23987 0.23996 0.24005 0.24001 0.23972 0.23917 0.23901 0.23909 0.23918 0.23927 0.23936 0.23932 0.23928 0.23911 0.23945 0.24005 0.24039 0.24061 0.24069 0.24129 0.24125 0.24236 0.24156 0.24164 0.24173 0.24182 0.24191 0.24174 0.24183 0.24307 0.24444 0.24452 0.24653 0.24675 0.24671 0 0 0 0 0 0 0 0 0 0 0 0 0 0.1778 0.17786 0.17793 0.17748 0.17716 0.17722 0.17728 0.17722 0.17728 0.17502 0.17457 0.1745 0.17366 0.17256 0.17236 0.17229 0.17197 0.1719 0.17092 0.16917 0.16923 0.16929 0.16922 0.16902 0.16895 0.16862 0.16855 0.16848 0.16724 0.1673 0.16723 0.16703 0.16683 0.16663 0.1663 0.16623 0.16564 0.16556 0.16549 0.16438 0.16457 0.16423 0.16403 0.16409 0.16323 0.16316 0.16322 0.16314 0.16294 0.163 0.16292 0.16272 0.16251 0.16257 0.16263 0.16269 0.16248 0.16254 0.16247 0.1616 0.16166 0.16159 0.16125 0.16144 0.16084 0.16102 0.16082 0.16061 0.16054 0.16059 0.16052 0.16044 0.1605 0.16042 0.16021 0.16001 0.15993 0.15985 0.15978 0.1597 0.15976 0.15981 0.15934 0.1594 0.15945 0.15937 0.1593 0.15935 0.15928 0.1592 0.15899 0.15904 0.15897 0.15876 0.15868 0.15873 0.15866 0.15871 0.15877 0.15869 0.15874 0.1588 0.15872 0.15878 0.15883 0.15889 0.15894 0.159 0.15905 0.15911 0.15917 0.15922 0.15927 0.15933 0.15939 0.15944 0.15936 0.15942 0.15947 0.15953 0.15958 0.1595 0.15956 0.15962 0.15967 0.15959 0.15978 0.15984 0.15989 0.15995 0.16 0.16006 0.16011 0.16017 0.16022 0.16028 0.16033 0.16025 0.16031 0.16036 0.16042 0.16061 0.16066 0.16072 0.16077 0.16096 0.16102 0.16162 0.16181 0.16214 0.16219 0.16225 0.1623 0.16236 0.16241 0.1626 0.16239 0.16244 0.16236 0.16242 0.16248 0.16321 0.16327 0.16441 0.16447 0.16453 0.16458 0.16464 0.16483 0.16502 0.16535 0.16555 0.1656 0.16579
0.22511 0.22531 0.2254 0.22609 0.22558 0.22554 0.22539 0.22439 0.22412 0.2242 0.22429 0.2245 0.22422 0.22383 0.22391 0.22388 0.22384 0.22393 0.22402 0.2241 0.22407 0.22415 0.2246 0.22699 0.22696 0.22704 0.22677 0.22686 0.22682 0.22727 0.22724 0.22732 0.22729 0.22725 0.22734 0.22706 0.22703 0.22724 0.22745 0.22729 0.22689 0.22685 0.22694 0.22702 0.22833 0.22866 0.22924 0.22957 0.22954 0.22962 0.22775 0.22759 0.22768 0.22777 0.22761 0.22769 0.22864 0.22885 0.22967 0.22976 0.22997 0.22969 0.22977 0.23011 0.23081 0.23065 0.23074 0.23083 0.23091 0.231 0.23109 0.2313 0.23138 0.23159 0.23168 0.23189 0.23186 0.23194 0.23203 0.23249 0.23369 0.23378 0.23411 0.23371 0.23379 0.23401 0.23335 0.23356 0.23328 0.23324 0.23308 0.23317 0.2335 0.23359 0.23367 0.23351 0.2336 0.23381 0.23403 0.23436 0.2342 0.23404 0.234 0.23371 0.23392 0.23414 0.23472 0.23531 0.23878 0.23887 0.23883 0.23867 0.23888 0.23772 0.23755 0.23752 0.2376 0.23769 0.23753 0.23762 0.23783 0.23792 0.23813 0.23835 0.23869 0.23877 0.23886 0.23908 0.23904 0.23913 0.23922 0.2393 0.23952 0.23961 0.23957 0.23966 0.23949 0.23958 0.23967 0.23976 0.23984 0.23981 0.24015 0.23897 0.23867 0.23889 0.23898 0.23894 0.23941 0.23924 0.23933 0.23916 0.23925 0.23985 0.24057 0.24066 0.24074 0.24134 0.24118 0.24126 0.24135 0.24144 0.24153 0.24161 0.2417 0.24179 0.24201 0.24299 0.24449 0.24457 0.24658 0.2468 0.24676 0 0 0 0 0 0 0 0 0 0 0 0 0 0.17784 0.1779 0.17797 0.17751 0.17732 0.17725 0.17719 0.17725 0.17732 0.17635 0.17641 0 0.17369 0.17259 0.17252 0.17233 0.17213 0.17206 0.17096 0.1692 0.16926 0.16932 0.16912 0.16893 0.16886 0.16866 0.16872 0.16852 0.16741 0.16734 0.1674 0.16707 0.16687 0.16679 0.16646 0.16639 0.16567 0.16573 0.16579 0.16441 0.16447 0.1644 0.16406 0.16412 0.16326 0.16319 0.16325 0.16318 0.1631 0.16303 0.16296 0.16275 0.16268 0.1626 0.16266 0.16272 0.16265 0.16257 0.1625 0.16229 0.16222 0.16201 0.16168 0.16147 0.16139 0.16132 0.16138 0.16077 0.16057 0.16049 0.16055 0.16047 0.16053 0.16032 0.16011 0.16004 0.15983 0.15988 0.15981 0.15973 0.15979 0.15984 0.15937 0.15943 0.15948 0.15941 0.15933 0.15938 0.15931 0.15923 0.15915 0.15921 0.15913 0.15892 0.15898 0.1589 0.15882 0.15874 0.1588 0.15872 0.15878 0.15883 0.15875 0.15881 0.15886 0.15892 0.15897 0.15903 0.15909 0.15914 0.1592 0.15925 0.15944 0.1595 0.15955 0.15947 0.15953 0.15945 0.1595 0.15956 0.15961 0.15954 0.15959 0.15965 0.1597 0.15976 0.15981 0.16 0.16006 0.15998 0.16003 0.16009 0.16014 0.1602 0.16025 0.16044 0.1605 0.16042 0.16047 0.16039 0.16045 0.16064 0.16083 0.16089 0.16094 0.161 0.16119 0.16206 0.16211 0.16217 0.16222 0.16228 0.16247 0.16253 0.16258 0.16264 0.16256 0.16261 0.16253 0.16259 0.16251 0.16324 0.1633 0.16445 0.16437 0.16456 0.16461 0.16467 0.16486 0.16506 0.16511 0.16558 0.16577 0.16596
0.22504 0.22212 0.22221 0.22337 0.22382 0.22391 0.22315 0.22324 0.22381 0.22401 0.2241 0.22418 0.22403 0.22387 0.22372 0.22381 0.22377 0.22374 0.22382 0.22391 0.22399 0.22408 0.22417 0.22643 0.22676 0.22685 0.22645 0.22642 0.22638 0.22611 0.22704 0.22713 0.22722 0.22718 0.22727 0.22711 0.22695 0.22716 0.22737 0.22734 0.22693 0.2269 0.22699 0.22707 0.22814 0.22835 0.22648 0.22656 0.22677 0.22673 0.22707 0.2274 0.22748 0.22757 0.22741 0.22737 0.22734 0.2273 0.22776 0.22784 0.23002 0.22777 0.22798 0.22819 0.22963 0.23008 0.23042 0.23063 0.23096 0.23105 0.23114 0.23122 0.23131 0.2314 0.23161 0.23169 0.23153 0.2315 0.23159 0.23118 0.23015 0.229 0.22921 0.2319 0.23198 0.23207 0.23216 0.23063 0.23084 0.23242 0.23288 0.23297 0.23193 0.23202 0.23285 0.23319 0.2334 0.23349 0.23382 0.23391 0.23375 0.23384 0.2338 0.23364 0.23372 0.23381 0.23365 0.23386 0.23257 0.23266 0.23274 0.23333 0.23342 0.234 0.23409 0.23443 0.23452 0.2346 0.23519 0.23566 0.23562 0.23545 0.23554 0.23563 0.23521 0.23542 0.23866 0.23875 0.23884 0.23892 0.23901 0.23923 0.23944 0.2394 0.23949 0.23945 0.23941 0.23938 0.23946 0.23955 0.23964 0.2396 0.23956 0.23775 0.23834 0.23856 0.23877 0.23861 0.23844 0.23751 0.2376 0.23806 0.2379 0.23799 0.23858 0.23867 0.23927 0.24037 0.24072 0.24106 0.24114 0.24136 0.24145 0.24154 0.24163 0.24184 0.24206 0.24266 0.24505 0.24527 0.24676 0.24685 0.24681 0 0 0 0 0 0 0 0 0 0 0 0 0 0 0 0 0.17755 0.17645 0.17652 0.17658 0.17613 0.17632 0.176 0.17515 0.17522 0.17334 0.17275 0.17269 0.17236 0.17216 0.17223 0.17164 0.16924 0.1693 0.16936 0.16903 0.16896 0.16889 0.16869 0.16862 0.16855 0.16731 0.16737 0.16743 0.1671 0.1669 0.16683 0.1665 0.16643 0.16583 0.16589 0.16595 0.16444 0.1645 0.1643 0.16409 0.16415 0.1633 0.16335 0.16328 0.16321 0.16314 0.16306 0.16312 0.16278 0.16271 0.16277 0.1627 0.16275 0.16255 0.1626 0.16253 0.16232 0.16212 0.16204 0.16158 0.1615 0.16143 0.16122 0.16128 0.16054 0.1606 0.16052 0.16045 0.16037 0.16043 0.15982 0.15988 0.15994 0.15986 0.15992 0.15984 0.15976 0.15982 0.15988 0.1594 0.15946 0.15951 0.15944 0.15949 0.15942 0.15934 0.15926 0.15932 0.15924 0.1593 0.15922 0.15914 0.15906 0.15885 0.15877 0.15883 0.15875 0.15881 0.15873 0.15878 0.15884 0.1589 0.15895 0.15901 0.15906 0.15912 0.15931 0.15923 0.15928 0.15934 0.15953 0.15958 0.1595 0.15956 0.15948 0.15954 0.15959 0.15965 0.1597 0.15962 0.15968 0.15973 0.15979 0.15984 0.16003 0.16009 0.16001 0.15993 0.16012 0.16017 0.16036 0.16042 0.16047 0.16053 0.16045 0.16051 0.16056 0.16048 0.16067 0.16086 0.16092 0.16097 0.16103 0.16108 0.16209 0.16214 0.1622 0.16225 0.16231 0.1625 0.16256 0.16261 0.1628 0.16272 0.16264 0.16256 0.16262 0.16267 0.16341 0.16347 0.16434 0.1644 0.16459 0.16465 0.16484 0.16517 0.16563 0.16583 0.16602 0.16608 0.16613
0.22172 0.22157 0.22093 0.22113 0.22026 0.22034 0.22043 0.22027 0.22036 0.22225 0.22234 0.22351 0.22359 0.22199 0.2222 0.2218 0.22188 0.22197 0.22193 0.22214 0.2221 0.22207 0.22215 0.22187 0.22148 0.22156 0.22213 0.22222 0.22291 0.22299 0.22308 0.22341 0.22349 0.22504 0.225 0.22509 0.22517 0.22538 0.22559 0.2258 0.22601 0.22622 0.22642 0.22614 0.22635 0.22644 0.22628 0.22637 0.22657 0.22678 0.22687 0.22708 0.22729 0.22737 0.22734 0.2273 0.22739 0.22747 0.22743 0.22728 0.22748 0.22757 0.22766 0.22774 0.22968 0.22952 0.22923 0.22981 0.23039 0.2306 0.23081 0.2309 0.23099 0.23083 0.23054 0.22989 0.22985 0.23043 0.22953 0.22962 0.22958 0.22917 0.22925 0.2307 0.23104 0.23112 0.23034 0.23018 0.23014 0.2316 0.23206 0.23227 0.23198 0.23207 0.23141 0.23137 0.23258 0.23291 0.23325 0.23334 0.2333 0.23314 0.2331 0.23318 0.23315 0.23311 0.23294 0.23278 0.23224 0.23233 0.23254 0.23262 0.23246 0.23267 0.23276 0.2341 0.23419 0.2344 0.23474 0.23482 0.23478 0.23475 0.23471 0.23467 0.23324 0.2332 0.23342 0.23287 0.23283 0.23292 0.233 0.23296 0.23317 0.23326 0.23335 0.239 0.23871 0.23854 0.23863 0.23872 0.2388 0.23876 0.23872 0.23691 0.23738 0.23772 0.2378 0.23802 0.23785 0.23769 0.23752 0.23761 0.23769 0.23778 0.23787 0.23744 0.23766 0.23774 0.23783 0.23894 0.24081 0.23911 0.2392 0.23877 0.23899 0.23857 0.2384 0.23848 0.2451 0.24532 0.24694 0.2469 0.24686 0 0 0 0 0 0 0 0 0 0 0.18171 0.18177 0.18184 0 0 0 0.17758 0.17649 0.17655 0.17636 0.17616 0.1761 0.17525 0.17403 0.17409 0.17325 0.1724 0.17246 0.17227 0.17207 0.172 0.17193 0.16927 0.16933 0.16939 0.16893 0.16899 0.16892 0.16873 0.16865 0.16846 0.16734 0.1674 0.16746 0.16713 0.16706 0.16673 0.16666 0.16646 0.16587 0.16592 0.16494 0.16448 0.16453 0.16433 0.16413 0.16419 0.16333 0.16339 0.16331 0.16324 0.16317 0.16309 0.16302 0.16282 0.16274 0.1628 0.16273 0.16279 0.16271 0.16264 0.16256 0.16223 0.16228 0.16168 0.16161 0.16153 0.16146 0.16125 0.16118 0.16057 0.1605 0.16056 0.16048 0.16027 0.16033 0.16012 0.15991 0.15984 0.15989 0.15982 0.15987 0.15979 0.15985 0.15991 0.15943 0.15962 0.15968 0.1596 0.15952 0.15958 0.1595 0.15943 0.15935 0.1594 0.15933 0.15925 0.15931 0.15923 0.15888 0.15894 0.15886 0.15878 0.15884 0.15889 0.15882 0.15887 0.15893 0.15898 0.15904 0.15909 0.15915 0.1592 0.15926 0.15931 0.15937 0.15942 0.15961 0.15953 0.15946 0.15951 0.15957 0.15962 0.15968 0.15973 0.15965 0.15971 0.15976 0.15982 0.15987 0.16006 0.16012 0.16004 0.16009 0.16015 0.1602 0.16026 0.16045 0.16051 0.16056 0.16048 0.16054 0.16059 0.16065 0.1607 0.16089 0.16095 0.161 0.16106 0.16111 0.16198 0.16204 0.16223 0.16229 0.16248 0.16253 0.16272 0.16278 0.16284 0.16289 0.16281 0.16259 0.16279 0.1627 0.16344 0.1635 0.16437 0.16443 0.16462 0.16481 0.16487 0.16534 0.16553 0.16586 0.16605 0.16611 0.1663
0.22165 0.22161 0.22098 0.22082 0.22055 0.22039 0.22035 0.22032 0.2204 0.2223 0.22238 0.22332 0.2234 0.22204 0.222 0.22197 0.22181 0.2219 0.22186 0.22207 0.22203 0.22199 0.22196 0.22192 0.22164 0.22161 0.22194 0.22226 0.22296 0.22292 0.22313 0.22321 0.22354 0.22496 0.22505 0.22502 0.2251 0.22519 0.22564 0.22585 0.22581 0.22614 0.22623 0.22619 0.2264 0.22649 0.22633 0.22641 0.2265 0.22659 0.22692 0.227 0.22721 0.2273 0.22726 0.2271 0.22719 0.22727 0.22736 0.22732 0.22741 0.2275 0.2277 0.22779 0.22985 0.22907 0.22928 0.22986 0.22995 0.23053 0.23061 0.23058 0.23067 0.2305 0.23034 0.23006 0.2299 0.23023 0.22995 0.22954 0.2295 0.22934 0.22943 0.23075 0.23084 0.23117 0.23039 0.23023 0.23031 0.23177 0.23186 0.23219 0.23203 0.23212 0.23145 0.23142 0.23238 0.23309 0.23317 0.23314 0.23322 0.23331 0.2329 0.23298 0.23282 0.23278 0.23274 0.23258 0.23241 0.23225 0.23234 0.23242 0.23251 0.23259 0.23281 0.23402 0.23411 0.23432 0.23441 0.2345 0.23471 0.23454 0.2345 0.23472 0.23329 0.23313 0.23321 0.23305 0.23288 0.23297 0.23305 0.23314 0.2331 0.23331 0.23339 0.23905 0.23825 0.23846 0.23842 0.23851 0.2386 0.23856 0.23877 0.23696 0.23705 0.23739 0.23785 0.23794 0.2379 0.23748 0.23731 0.2374 0.23749 0.23757 0.23766 0.23762 0.23758 0.23779 0.23801 0.23899 0.24086 0.23916 0.23925 0.23895 0.23866 0.23861 0.23844 0.23853 0.24591 0.24601 0.24699 0.24708 0.24717 0 0 0 0 0 0 0 0 0 0 0.18174 0.18181 0.182 0 0 0 0.17788 0.17652 0.17659 0.17626 0.17607 0.17613 0.17529 0.17406 0.17412 0.17328 0.17244 0.17237 0.1723 0.1721 0.17203 0.17197 0.17112 0.17118 0.16969 0.16936 0.16942 0.16883 0.16876 0.16869 0.16823 0.16751 0.16757 0.1675 0.16756 0.16723 0.16689 0.16669 0.16662 0.16642 0.16661 0.16497 0.16464 0.16457 0.16449 0.16429 0.16435 0.16336 0.16329 0.16335 0.1634 0.1632 0.16313 0.16318 0.16285 0.16278 0.16283 0.16276 0.16282 0.16274 0.16267 0.16259 0.16226 0.16231 0.16171 0.16164 0.16156 0.16149 0.16128 0.16121 0.16074 0.16053 0.16059 0.16051 0.1603 0.16023 0.16015 0.15994 0.15987 0.15979 0.15985 0.1599 0.15983 0.15988 0.15994 0.15999 0.15992 0.15998 0.1599 0.15982 0.15988 0.1598 0.15972 0.15951 0.15943 0.15949 0.15941 0.15934 0.15926 0.15918 0.1591 0.15902 0.15908 0.159 0.15906 0.15885 0.1589 0.15896 0.15901 0.15907 0.15912 0.15918 0.15923 0.15929 0.15934 0.1594 0.15959 0.15964 0.15957 0.15949 0.15954 0.1596 0.15965 0.15971 0.15976 0.15982 0.15987 0.15979 0.15985 0.1599 0.16009 0.16015 0.1602 0.16012 0.16032 0.16037 0.16056 0.16102 0.16108 0.16113 0.16051 0.16057 0.16089 0.16095 0.161 0.16106 0.16111 0.16103 0.16122 0.16114 0.16201 0.16207 0.16226 0.16245 0.16251 0.1627 0.16275 0.16295 0.163 0.16319 0.16311 0.16317 0.16309 0.16314 0.16484 0.16489 0.16495 0.16514 0.16547 0.16539 0.16545 0.16564 0.1657 0.16603 0.16608 0.16614 0.16633
0.22134 0.2213 0.2203 0.22051 0.22035 0.2202 0.2204 0.22037 0.22021 0.22042 0.22062 0.22071 0.22067 0.22088 0.22181 0.22165 0.22162 0.2217 0.22167 0.22187 0.22196 0.2218 0.22176 0.22173 0.22157 0.22178 0.22198 0.22219 0.22276 0.22285 0.22293 0.22302 0.22286 0.22477 0.22486 0.22482 0.22466 0.22475 0.22434 0.22516 0.22537 0.22509 0.22469 0.22477 0.22498 0.22445 0.22454 0.22463 0.22545 0.22553 0.22488 0.22497 0.22505 0.22649 0.22608 0.22666 0.22675 0.22683 0.22692 0.227 0.22672 0.22631 0.22603 0.22612 0.22632 0.22567 0.22575 0.22868 0.22876 0.2291 0.22918 0.23026 0.23022 0.23018 0.23002 0.22986 0.2297 0.23003 0.23 0.22946 0.2293 0.22926 0.22923 0.22968 0.22977 0.23023 0.22982 0.23015 0.23011 0.23082 0.23165 0.23199 0.23021 0.23042 0.23063 0.23072 0.23093 0.23076 0.23085 0.23119 0.23152 0.23161 0.23145 0.23166 0.23237 0.23245 0.23229 0.23225 0.23221 0.23205 0.23213 0.23222 0.23231 0.23252 0.23248 0.23357 0.23265 0.23274 0.23395 0.23392 0.233 0.23308 0.23329 0.23351 0.23271 0.23305 0.23301 0.23297 0.2328 0.23289 0.23297 0.23306 0.23314 0.23323 0.23319 0.23328 0.23336 0.23345 0.23391 0.23387 0.23396 0.23392 0.234 0.23422 0.23456 0.23464 0.23511 0.23519 0.23541 0.23626 0.23685 0.23719 0.23728 0.23737 0.23745 0.23754 0.23763 0.23771 0.23805 0.23827 0.23861 0.23857 0.23891 0.23875 0.23858 0.23841 0.23837 0.23832 0.23841 0.2385 0.23846 0.24931 0.24953 0 0 0 0 0 0 0 0 0 0 0.18178 0.18184 0.18204 0 0 0 0 0.17708 0.17714 0.17604 0.17597 0.17591 0.17533 0.17409 0.17416 0.17331 0.17234 0.1724 0.17233 0.17214 0.17207 0.172 0.17116 0.17122 0.16998 0.16978 0.16971 0.16951 0.16905 0.16911 0.16878 0.16754 0.1676 0.16753 0.16681 0.16687 0.16654 0.1666 0.16653 0.16645 0.16638 0.1654 0.16493 0.16473 0.16466 0.16445 0.16451 0.16431 0.16424 0.1643 0.16344 0.16336 0.16329 0.16322 0.16301 0.16281 0.16287 0.16279 0.16285 0.16278 0.1627 0.16263 0.16229 0.16222 0.16201 0.16167 0.1616 0.16152 0.16131 0.16124 0.16051 0.16056 0.16062 0.16041 0.16034 0.16026 0.16018 0.15998 0.1599 0.15982 0.15988 0.15993 0.15986 0.15991 0.15997 0.16003 0.15995 0.16001 0.15993 0.15998 0.15991 0.15983 0.15975 0.15954 0.15947 0.15952 0.15945 0.15937 0.15929 0.15921 0.15927 0.15919 0.15911 0.15917 0.15909 0.15901 0.15893 0.15899 0.15918 0.1591 0.15915 0.15921 0.15926 0.15932 0.15937 0.15943 0.15948 0.15968 0.1596 0.15952 0.15957 0.15963 0.15968 0.15974 0.15979 0.15985 0.1599 0.15982 0.15988 0.16007 0.16012 0.16018 0.16023 0.16029 0.16035 0.1604 0.16073 0.16132 0.16124 0.1613 0.16122 0.16127 0.16119 0.16098 0.16103 0.16123 0.16114 0.1612 0.16126 0.16145 0.16204 0.1621 0.16229 0.16235 0.16254 0.16273 0.16292 0.16298 0.16303 0.16323 0.16328 0.1632 0.16312 0.16317 0.16405 0.16411 0.16525 0.16531 0.1655 0.16542 0.16548 0.16567 0.16573 0.16592 0.16611 0.16617 0.16636
0.22078 0.22087 0.21891 0.21899 0.21944 0.21976 0.21997 0.21993 0.22002 0.2201 0.22019 0.22027 0.22036 0.2202 0.22029 0.22085 0.22118 0.22126 0.22135 0.22143 0.22152 0.22027 0.22096 0.22105 0.22113 0.22122 0.22142 0.22126 0.2222 0.22229 0.22237 0.22246 0.22242 0.22299 0.22308 0.22316 0.22373 0.22382 0.22366 0.22375 0.22432 0.22465 0.22461 0.22445 0.22454 0.2245 0.22447 0.22467 0.22476 0.22484 0.22481 0.22489 0.22485 0.22568 0.22601 0.22597 0.22593 0.2259 0.22549 0.22545 0.22554 0.2255 0.22571 0.22567 0.22588 0.22572 0.2258 0.22576 0.22498 0.22507 0.22898 0.22932 0.2294 0.22553 0.22574 0.22459 0.2248 0.226 0.22645 0.22654 0.22662 0.22733 0.22741 0.22762 0.22783 0.22817 0.22825 0.22834 0.22879 0.22813 0.22834 0.22868 0.22926 0.22985 0.22993 0.22964 0.22998 0.22894 0.22903 0.22924 0.23057 0.23116 0.23124 0.23145 0.23167 0.23175 0.23171 0.23167 0.23176 0.23159 0.23168 0.23177 0.23198 0.23219 0.23203 0.23211 0.23245 0.23278 0.23325 0.23321 0.23304 0.233 0.23296 0.2328 0.23263 0.23259 0.23268 0.23264 0.2326 0.23256 0.23264 0.2326 0.23269 0.23277 0.23273 0.23282 0.23303 0.2335 0.23371 0.23379 0.23388 0.23397 0.23392 0.23414 0.23435 0.23482 0.2349 0.23511 0.23533 0.23567 0.23601 0.23673 0.23669 0.23678 0.23686 0.23682 0.23691 0.23712 0.23593 0.23589 0.23623 0.23632 0.23794 0.2379 0.23786 0.23782 0.23777 0.23773 0.23769 0.23675 0.23684 0.24936 0.24958 0 0 0 0 0 0 0 0 0 0 0.18182 0.18188 0.18207 0 0 0 0 0.17711 0.17717 0.17608 0.17601 0.17594 0.17536 0.17413 0.17419 0.17335 0.17238 0.17244 0.17224 0.17217 0.1721 0.17204 0.17119 0.17125 0.16975 0.16981 0.16975 0.16968 0.16922 0.16902 0.16895 0.16758 0.1675 0.16756 0.16658 0.16664 0.1667 0.1665 0.16643 0.16636 0.16642 0.16543 0.16444 0.16463 0.16469 0.16449 0.16442 0.16434 0.16427 0.1642 0.16347 0.1634 0.16332 0.16338 0.16304 0.16297 0.1629 0.16282 0.16288 0.16268 0.1626 0.16253 0.16219 0.16212 0.16204 0.1617 0.16163 0.16155 0.16135 0.1614 0.16054 0.16059 0.16065 0.16044 0.16023 0.16016 0.16008 0.15987 0.15993 0.15985 0.15991 0.15983 0.15989 0.15995 0.16 0.16006 0.15998 0.16004 0.16009 0.16002 0.16007 0.15986 0.15979 0.15944 0.1595 0.15942 0.15948 0.1594 0.15932 0.15938 0.1593 0.15922 0.15914 0.1592 0.15912 0.15904 0.1591 0.15902 0.15921 0.15926 0.15918 0.15924 0.15929 0.15935 0.1594 0.15946 0.15965 0.15971 0.15963 0.15955 0.1596 0.15966 0.15971 0.15977 0.15982 0.15988 0.15993 0.15999 0.16004 0.1601 0.16016 0.16035 0.16027 0.16032 0.16038 0.16043 0.16076 0.16095 0.16127 0.16133 0.16139 0.16131 0.16136 0.16115 0.16107 0.16126 0.16131 0.16137 0.16142 0.16148 0.16207 0.16213 0.16232 0.16238 0.1627 0.16276 0.16295 0.16301 0.16306 0.16326 0.16331 0.16323 0.16329 0.16321 0.16394 0.164 0.16528 0.16534 0.16553 0.16559 0.16565 0.1657 0.16576 0.16609 0.16614 0.1662 0.16639
0.22071 0.22079 0.21895 0.21916 0.21936 0.21945 0.21965 0.21962 0.21982 0.21979 0.21987 0.22008 0.22016 0.22025 0.22045 0.22078 0.22111 0.22107 0.22128 0.22124 0.22133 0.22044 0.22065 0.22085 0.22082 0.2209 0.22111 0.22131 0.22201 0.22209 0.22218 0.22226 0.22247 0.22304 0.22312 0.22321 0.22329 0.2235 0.22371 0.22379 0.22437 0.22445 0.22454 0.22426 0.22434 0.22443 0.22451 0.22448 0.22456 0.22477 0.22473 0.22482 0.2249 0.22572 0.22581 0.22565 0.22561 0.22533 0.22554 0.2255 0.22559 0.22555 0.22539 0.22547 0.22556 0.22564 0.22573 0.22581 0.22528 0.22512 0.22903 0.22912 0.2292 0.22558 0.22579 0.22464 0.22484 0.22604 0.2265 0.22659 0.22667 0.22737 0.22758 0.22767 0.22788 0.22821 0.2283 0.22838 0.22872 0.22843 0.22839 0.22873 0.22906 0.22939 0.22961 0.22982 0.23003 0.22899 0.22907 0.22928 0.23062 0.2307 0.23104 0.23113 0.23146 0.23155 0.23139 0.23147 0.23156 0.23164 0.2316 0.23181 0.2319 0.23199 0.23207 0.23228 0.2325 0.23258 0.23292 0.23301 0.23284 0.23293 0.23276 0.23285 0.23255 0.23239 0.23247 0.23256 0.23239 0.23235 0.23256 0.2324 0.23248 0.23257 0.2324 0.23249 0.23282 0.23342 0.23363 0.23372 0.2338 0.23389 0.23397 0.23406 0.2344 0.23474 0.23482 0.23491 0.23525 0.23546 0.2358 0.2364 0.23649 0.23644 0.23653 0.23649 0.23658 0.23666 0.23598 0.23607 0.23628 0.2365 0.23748 0.23756 0.23752 0.23748 0.23731 0.2374 0.23736 0.23693 0.23689 0 0 0 0 0 0 0 0 0 0 0 0 0 0 0 0 0 0 0 0.17715 0.17721 0.17663 0.1763 0.17624 0.17604 0.17416 0.17423 0.17364 0.17254 0.17247 0.17214 0.17221 0.17214 0.17207 0.17122 0.17142 0.16979 0.16985 0.16991 0.16958 0.16899 0.16905 0.16885 0.16761 0.16767 0.1676 0.16662 0.16667 0.1666 0.16653 0.16646 0.16639 0.16645 0.16572 0.16448 0.16467 0.16472 0.16452 0.16445 0.16437 0.16417 0.16423 0.16363 0.16356 0.16349 0.16341 0.16321 0.163 0.16293 0.16286 0.16278 0.16284 0.16263 0.16256 0.16235 0.16228 0.1622 0.162 0.16192 0.16185 0.16178 0.1617 0.16057 0.16062 0.16055 0.16047 0.16013 0.16006 0.15998 0.1599 0.15996 0.15988 0.15994 0.15987 0.15979 0.15998 0.16003 0.16009 0.16001 0.16007 0.16012 0.16005 0.1601 0.16003 0.15982 0.15947 0.15953 0.15945 0.15951 0.15943 0.15935 0.15941 0.15933 0.15938 0.15931 0.15923 0.15928 0.15921 0.15913 0.15918 0.15924 0.15929 0.15935 0.1594 0.15946 0.15951 0.15957 0.15963 0.15968 0.15974 0.15966 0.15971 0.15963 0.15969 0.15974 0.1598 0.15985 0.15978 0.15983 0.15989 0.16008 0.16013 0.16019 0.16038 0.1603 0.16035 0.16041 0.16046 0.16079 0.16125 0.16131 0.16123 0.16128 0.16147 0.16153 0.16131 0.16137 0.16142 0.16161 0.16167 0.16172 0.16205 0.16211 0.1623 0.16249 0.16268 0.16287 0.16306 0.16298 0.16304 0.16323 0.16329 0.16348 0.16354 0.16345 0.16378 0.16384 0.16403 0.16532 0.16537 0.16556 0.16562 0.16568 0.16587 0.16593 0.16612 0.16618 0.16637 0.16656
0.22052 0.2206 0.219 0.21921 0.21929 0.21938 0.21946 0.21942 0.21951 0.21959 0.21968 0.21976 0.21997 0.22017 0.22038 0.22059 0.22079 0.22124 0.2212 0.22129 0.22137 0.22049 0.22057 0.22054 0.22062 0.2207 0.22079 0.22027 0.22035 0.22153 0.22198 0.22194 0.22154 0.22162 0.22171 0.22106 0.22115 0.22172 0.22144 0.22152 0.22442 0.22438 0.22434 0.22406 0.22415 0.22435 0.22444 0.22452 0.22461 0.22457 0.22466 0.22462 0.22434 0.2227 0.22291 0.22545 0.22554 0.22341 0.22349 0.22345 0.22354 0.22375 0.22494 0.22527 0.22536 0.22532 0.22553 0.22537 0.22508 0.22479 0.22476 0.22434 0.22443 0.22427 0.22423 0.22406 0.22415 0.22436 0.22444 0.2244 0.22585 0.22705 0.22738 0.22759 0.22768 0.22789 0.2281 0.22818 0.22839 0.22835 0.22831 0.22877 0.22886 0.22907 0.22915 0.22937 0.22883 0.22854 0.22887 0.22883 0.22917 0.22913 0.22921 0.2288 0.22901 0.23022 0.23093 0.23114 0.23135 0.23131 0.2314 0.23161 0.23195 0.23203 0.232 0.23221 0.23242 0.2325 0.23297 0.23293 0.231 0.23109 0.23142 0.23151 0.2321 0.23231 0.23227 0.23236 0.23219 0.23227 0.23236 0.23219 0.23228 0.23224 0.2322 0.23228 0.23262 0.23321 0.23342 0.23364 0.23372 0.23368 0.23377 0.23398 0.23419 0.23453 0.23462 0.2347 0.23504 0.23526 0.23496 0.23606 0.23615 0.23624 0.23632 0.23641 0.23624 0.23633 0.2359 0.23612 0.2362 0.23642 0.23727 0.23723 0.23719 0.23727 0.23723 0.23719 0.23728 0.23698 0.23693 0 0 0 0 0 0 0 0 0 0 0 0 0 0 0 0 0 0 0.17854 0.17654 0.1766 0.17615 0.17634 0.17627 0.17608 0.17511 0.17517 0.17484 0.174 0.17419 0.17244 0.17237 0.1723 0.17211 0.17126 0.17132 0.16982 0.16988 0.16994 0.16896 0.16889 0.16895 0.16823 0.16751 0.1677 0.16763 0.16665 0.16671 0.16664 0.16656 0.16649 0.16564 0.1657 0.16576 0.16451 0.16457 0.16476 0.16455 0.16448 0.16441 0.16434 0.16439 0.16367 0.16359 0.16352 0.16345 0.16324 0.16317 0.16309 0.16289 0.16295 0.16287 0.16267 0.16259 0.16225 0.16231 0.16224 0.16203 0.16196 0.16188 0.16181 0.16173 0.1606 0.16066 0.16071 0.16064 0.1603 0.16022 0.16015 0.15994 0.15999 0.15992 0.15997 0.16003 0.15995 0.16001 0.1602 0.16012 0.16004 0.1601 0.16016 0.16008 0.16013 0.16032 0.15985 0.1595 0.15956 0.15962 0.15954 0.15946 0.15952 0.15944 0.15949 0.15955 0.15947 0.15953 0.15932 0.15924 0.15929 0.15935 0.1594 0.15932 0.15938 0.15943 0.15949 0.15955 0.1596 0.15966 0.15971 0.15977 0.15969 0.15974 0.15967 0.15972 0.15978 0.15983 0.15975 0.15981 0.15986 0.16005 0.16011 0.16016 0.16035 0.16041 0.16033 0.16025 0.1603 0.15968 0.15974 0.15979 0.15985 0.16085 0.16118 0.16096 0.16088 0.16094 0.16126 0.16145 0.16164 0.1617 0.16176 0.16208 0.16214 0.16233 0.16252 0.16271 0.16277 0.16296 0.16301 0.16307 0.16313 0.16332 0.16351 0.16357 0.16362 0.16368 0.16387 0.16406 0.16562 0.16554 0.1656 0.16579 0.16585 0.1659 0.1661 0.16615 0.16621 0.1664 0.16659
0.22044 0.22041 0.21905 0.21913 0.21922 0.21906 0.21866 0.21875 0.21871 0.2188 0.21888 0.21896 0.21905 0.2195 0.22043 0.22027 0.22035 0.22117 0.22113 0.22109 0.2213 0.22041 0.22062 0.22022 0.21982 0.2199 0.21999 0.21995 0.2204 0.22158 0.22105 0.22114 0.22122 0.22131 0.22127 0.22111 0.22119 0.2214 0.22124 0.22157 0.22446 0.22455 0.22415 0.22386 0.22358 0.22379 0.224 0.22408 0.22404 0.22437 0.22446 0.2243 0.22438 0.22275 0.22296 0.22525 0.22534 0.22346 0.22317 0.22326 0.22334 0.22379 0.22499 0.22446 0.22454 0.22463 0.22508 0.22479 0.22439 0.22435 0.22443 0.22427 0.22411 0.22419 0.22403 0.22411 0.2242 0.22428 0.22436 0.22457 0.2259 0.2271 0.22718 0.22727 0.22723 0.22756 0.22777 0.22786 0.22794 0.22815 0.22849 0.22882 0.22828 0.22837 0.2287 0.22866 0.22825 0.22821 0.22842 0.22863 0.22884 0.22918 0.22926 0.22885 0.22906 0.23027 0.23035 0.23044 0.23115 0.23086 0.23095 0.23166 0.23175 0.23208 0.23167 0.232 0.23234 0.23243 0.23276 0.23285 0.23105 0.23101 0.23122 0.23156 0.23164 0.23173 0.23169 0.23164 0.23173 0.23182 0.2319 0.23161 0.23157 0.23165 0.23174 0.23182 0.23203 0.2325 0.23284 0.23318 0.23326 0.23335 0.23331 0.23365 0.23373 0.2342 0.23428 0.23424 0.23433 0.23454 0.23475 0.23535 0.23544 0.23565 0.23586 0.23582 0.23565 0.23561 0.23557 0.23578 0.23587 0.23621 0.23681 0.23689 0.23659 0.23655 0.23664 0.23672 0.23681 0.23677 0.23698 0 0 0 0 0 0 0 0 0 0 0 0 0 0 0 0 0 0 0.17857 0.17657 0.17664 0.17618 0.17625 0.17618 0.17598 0.17514 0.1752 0.17488 0.17403 0.17423 0.1726 0.17241 0.17247 0.17227 0.17129 0.17135 0.16986 0.16992 0.16998 0.169 0.16893 0.16899 0.16827 0.16754 0.16761 0.16753 0.16668 0.16661 0.16667 0.1666 0.16653 0.16567 0.16573 0.16579 0.16454 0.16486 0.16479 0.16459 0.16464 0.16457 0.16437 0.16443 0.1637 0.16376 0.16368 0.16361 0.16327 0.1632 0.16299 0.16292 0.16285 0.16277 0.1627 0.16249 0.16229 0.16221 0.16227 0.16206 0.16199 0.16191 0.16184 0.16176 0.16063 0.16082 0.16074 0.1608 0.16059 0.16038 0.16031 0.1601 0.16002 0.16008 0.16014 0.16006 0.16012 0.16004 0.16023 0.16015 0.16021 0.16026 0.16019 0.16024 0.1603 0.16035 0.15988 0.15967 0.15959 0.15965 0.15957 0.15962 0.15968 0.1596 0.15966 0.15971 0.1599 0.15982 0.15935 0.1594 0.15932 0.15938 0.15943 0.15949 0.15954 0.15947 0.15952 0.15944 0.15963 0.15969 0.15974 0.15966 0.15972 0.15964 0.1597 0.15962 0.15967 0.15986 0.15978 0.15984 0.15989 0.16008 0.16014 0.16019 0.16038 0.16044 0.16022 0.16014 0.1602 0.15971 0.15977 0.15982 0.15988 0.16088 0.1608 0.16086 0.16091 0.16097 0.16116 0.16121 0.16154 0.16173 0.16179 0.16198 0.16217 0.16236 0.16255 0.16261 0.16266 0.16299 0.16305 0.1631 0.16316 0.16321 0.1634 0.16346 0.16352 0.16371 0.1639 0.16409 0.16565 0.16571 0.1659 0.16596 0.16601 0.16607 0.16613 0.16632 0.16638 0.16643 0.16649
0.21507 0.21721 0.21729 0.21774 0.21782 0.21802 0.21835 0.21843 0.21852 0.21848 0.21868 0.21877 0.21861 0.2187 0.21866 0.21886 0.21895 0.21927 0.21936 0.2192 0.21929 0.21913 0.21933 0.21942 0.2195 0.21958 0.21955 0.21951 0.21996 0.22053 0.22061 0.22082 0.22102 0.22111 0.22107 0.22103 0.22112 0.2212 0.22104 0.22101 0.22097 0.22105 0.22126 0.22293 0.22338 0.22347 0.22368 0.22376 0.22372 0.22258 0.22267 0.22201 0.2221 0.22218 0.22214 0.22223 0.22231 0.2224 0.22285 0.22306 0.22302 0.22298 0.22405 0.22413 0.22422 0.22418 0.22402 0.22398 0.22406 0.22402 0.22398 0.22395 0.22391 0.22399 0.22407 0.22416 0.22412 0.22433 0.22416 0.22412 0.22421 0.22466 0.22475 0.22682 0.22715 0.22749 0.2277 0.22778 0.22787 0.22795 0.22667 0.22675 0.22684 0.22692 0.22838 0.22746 0.22792 0.22801 0.22822 0.22843 0.22864 0.22747 0.22756 0.22802 0.2281 0.22819 0.2284 0.22911 0.22982 0.22978 0.22999 0.23045 0.23054 0.23138 0.23134 0.23142 0.23088 0.22996 0.23004 0.22988 0.22996 0.23093 0.23101 0.2311 0.23118 0.23127 0.23136 0.23119 0.23127 0.23148 0.23157 0.2314 0.23123 0.23132 0.23153 0.23174 0.23183 0.23229 0.23263 0.23297 0.23306 0.23314 0.2331 0.23344 0.23365 0.23399 0.2342 0.23391 0.23412 0.23433 0.23455 0.23502 0.23523 0.23544 0.23566 0.23561 0.23544 0.23528 0.23536 0.23545 0.23566 0.23459 0.23468 0.2363 0.23639 0.23647 0.23643 0.23664 0.23686 0.23656 0.23652 0 0 0 0 0 0 0 0 0 0 0.18247 0.18267 0.18261 0.18267 0.18274 0.18229 0.18235 0.18229 0.17861 0.17687 0.17693 0.17622 0.17628 0.17622 0.17589 0.17479 0.17485 0.1744 0.17368 0.17387 0.17238 0.17244 0.1725 0.17243 0.17146 0.17165 0.17002 0.16995 0.17001 0.1689 0.16896 0.16889 0.16804 0.16758 0.16764 0.16757 0.16658 0.16664 0.1667 0.16663 0.16656 0.16636 0.16642 0.16595 0.16497 0.16489 0.16495 0.16462 0.16468 0.1646 0.16453 0.16459 0.16412 0.16392 0.16385 0.16377 0.16331 0.16323 0.16316 0.16295 0.16288 0.16281 0.1626 0.16253 0.16232 0.16224 0.1623 0.16209 0.16202 0.16208 0.162 0.16206 0.16066 0.16072 0.16078 0.16083 0.16062 0.16055 0.16034 0.16013 0.16006 0.16011 0.16017 0.16009 0.16015 0.1602 0.16026 0.16032 0.16024 0.16029 0.16035 0.16041 0.16046 0.16052 0.16018 0.1597 0.15962 0.15968 0.1596 0.15966 0.15971 0.15963 0.15982 0.15988 0.16007 0.16012 0.16005 0.1601 0.16002 0.15995 0.16 0.15992 0.15958 0.1595 0.15955 0.15947 0.15966 0.15972 0.15977 0.1597 0.15962 0.15967 0.15973 0.15965 0.1597 0.15989 0.15981 0.15987 0.15992 0.16011 0.16017 0.16022 0.16041 0.16047 0.16026 0.16018 0.16023 0.15974 0.1598 0.15985 0.16004 0.16064 0.1607 0.16089 0.16094 0.161 0.16105 0.16124 0.16157 0.16176 0.16182 0.16201 0.1622 0.16239 0.16258 0.16264 0.16269 0.16302 0.16308 0.163 0.16319 0.16324 0.16344 0.16349 0.16355 0.16374 0.16393 0.16399 0.16555 0.16574 0.16593 0.16599 0.16605 0.1661 0.16616 0.16635 0.16641 0.16633 0.16639
0.2144 0.21448 0.21493 0.21501 0.21582 0.2159 0.21827 0.21824 0.2182 0.21829 0.21837 0.21845 0.21818 0.21826 0.21846 0.21867 0.21887 0.21908 0.21904 0.21901 0.21909 0.21905 0.21889 0.2191 0.21906 0.21902 0.21753 0.21737 0.21745 0.21753 0.21774 0.21794 0.21815 0.21823 0.21856 0.21864 0.21873 0.21893 0.21889 0.21898 0.21906 0.21865 0.21874 0.21906 0.21915 0.21923 0.21919 0.21927 0.21936 0.21944 0.21952 0.21985 0.21993 0.22076 0.22035 0.22055 0.22174 0.22072 0.22093 0.22064 0.22073 0.22081 0.22286 0.22332 0.2234 0.22349 0.22345 0.22341 0.22337 0.2237 0.22378 0.22362 0.22358 0.22354 0.2235 0.22359 0.2233 0.22338 0.22359 0.22355 0.22376 0.22384 0.22393 0.22401 0.22397 0.22405 0.22463 0.22459 0.22468 0.22762 0.22522 0.2253 0.22576 0.22584 0.22605 0.22664 0.2266 0.22693 0.22664 0.22673 0.22718 0.22702 0.22723 0.22719 0.2274 0.22736 0.22732 0.2274 0.22874 0.22895 0.22891 0.22987 0.23008 0.23054 0.2305 0.23072 0.23093 0.22837 0.22845 0.22854 0.22862 0.22871 0.22867 0.22875 0.2301 0.23018 0.23027 0.23035 0.23031 0.23027 0.23162 0.23056 0.23078 0.23073 0.23095 0.23128 0.23137 0.23171 0.23179 0.23188 0.23222 0.23205 0.23226 0.23247 0.23256 0.23239 0.23298 0.23294 0.23315 0.23324 0.23319 0.23443 0.23464 0.23498 0.23506 0.23311 0.2332 0.23341 0.23375 0.23383 0.23456 0.23362 0.2337 0.23417 0.23413 0.23422 0.23597 0.23631 0.23652 0.23648 0.23656 0 0 0 0 0 0 0 0 0 0.18335 0.18251 0.18271 0.18277 0.18258 0.18252 0.18245 0.18239 0.18233 0.17865 0.17613 0.17619 0.17625 0.17632 0.17625 0.17593 0.17469 0.17476 0.17417 0.17372 0.17391 0.17241 0.17247 0.17254 0.17169 0.17136 0.17142 0.17005 0.17011 0.17005 0.16894 0.169 0.16892 0.16807 0.16761 0.16767 0.16708 0.16649 0.16655 0.16661 0.16653 0.16659 0.16626 0.16619 0.16599 0.165 0.16506 0.16485 0.16465 0.16471 0.16464 0.1647 0.16462 0.16442 0.16408 0.16388 0.16354 0.16321 0.16313 0.16306 0.16285 0.16291 0.16284 0.16276 0.16269 0.16248 0.16241 0.16233 0.16226 0.16218 0.16224 0.16203 0.16209 0.1607 0.16088 0.16081 0.1606 0.16066 0.16058 0.16011 0.16016 0.16009 0.16028 0.16033 0.16026 0.16018 0.16023 0.16029 0.16035 0.16027 0.16033 0.16025 0.16031 0.16036 0.16042 0.15994 0.15973 0.15965 0.15971 0.15963 0.15969 0.15974 0.15967 0.15985 0.15991 0.1601 0.16015 0.16008 0.16013 0.16005 0.15998 0.1599 0.15982 0.15961 0.15953 0.15945 0.15951 0.15956 0.15975 0.15967 0.15973 0.15965 0.1597 0.15976 0.15981 0.15987 0.15992 0.15998 0.1599 0.15995 0.16014 0.1602 0.16039 0.16045 0.1605 0.16029 0.16021 0.16026 0.15978 0.15983 0.16002 0.16048 0.16067 0.16073 0.16092 0.16097 0.16103 0.16108 0.16114 0.16133 0.16152 0.16171 0.1619 0.16209 0.16229 0.16248 0.16267 0.16273 0.16292 0.16297 0.16303 0.16308 0.16328 0.16333 0.16339 0.16344 0.16391 0.16396 0.16402 0.16558 0.16564 0.16596 0.16602 0.16608 0.16613 0.16619 0.16638 0.16644 0.16636 0.16642
0.21445 0.21453 0.21473 0.21506 0.21586 0.21595 0.21832 0.21816 0.21801 0.21833 0.21854 0.21862 0.2181 0.21818 0.21827 0.21884 0.2188 0.21913 0.21897 0.21893 0.21914 0.21886 0.21894 0.21915 0.21899 0.21907 0.21757 0.21741 0.2175 0.21758 0.21766 0.21799 0.21807 0.21815 0.2186 0.21869 0.21877 0.21898 0.21894 0.21902 0.21898 0.21882 0.21878 0.21899 0.21907 0.21915 0.21924 0.21932 0.2194 0.21949 0.21957 0.21978 0.21998 0.22056 0.22039 0.2206 0.22179 0.22077 0.22073 0.22069 0.22077 0.22098 0.22303 0.22299 0.22345 0.22341 0.22349 0.22333 0.22342 0.22362 0.22383 0.22354 0.22338 0.22334 0.2233 0.22326 0.22322 0.22318 0.22326 0.22335 0.22343 0.22364 0.2236 0.22368 0.22377 0.2241 0.22468 0.22464 0.22472 0.22767 0.22527 0.22535 0.22581 0.22577 0.22585 0.22619 0.22652 0.2266 0.22656 0.22677 0.22698 0.22707 0.22703 0.22711 0.2272 0.22728 0.22736 0.22745 0.22879 0.22875 0.22896 0.22992 0.23 0.23034 0.23043 0.23051 0.23098 0.22842 0.22838 0.22846 0.22854 0.22863 0.22871 0.2288 0.22964 0.22985 0.23019 0.23027 0.2301 0.23032 0 0.23061 0.2307 0.23065 0.23087 0.23133 0.23142 0.2315 0.23171 0.23192 0.23214 0.23209 0.23218 0.23214 0.23222 0.23231 0.23277 0.23286 0.23282 0.2329 0.23324 0.23435 0.23481 0.23477 0.23511 0.23316 0.23324 0.23345 0.2338 0.23388 0.23461 0.23367 0.23375 0.23422 0.23418 0.23426 0.23601 0.2361 0.23657 0.23666 0 0 0 0 0 0 0 0 0 0 0.18338 0.18306 0.18287 0.18294 0.18275 0.18255 0.18262 0.18256 0.18249 0.18256 0.17616 0.17622 0.17629 0.17635 0.17641 0.17583 0.17473 0.17466 0.17447 0.17401 0.17381 0.17245 0.17251 0.17257 0.17172 0.17139 0.17146 0.17022 0.17015 0.17021 0.16936 0.16916 0.16909 0.16902 0.16843 0.16849 0.16711 0.16652 0.16658 0.16664 0.16657 0.16663 0.16629 0.16635 0.16615 0.16621 0.16627 0.16489 0.16468 0.16474 0.1648 0.16473 0.16465 0.16458 0.16425 0.16431 0.16357 0.16311 0.16317 0.16309 0.16289 0.16281 0.16287 0.16279 0.16285 0.16265 0.16257 0.16263 0.16255 0.16248 0.1624 0.1622 0.16212 0.16218 0.16197 0.1619 0.16063 0.16069 0.16101 0.16093 0.16086 0.16091 0.1607 0.1605 0.16042 0.16034 0.16027 0.16045 0.16025 0.16017 0.16023 0.16028 0.16034 0.16039 0.16018 0.15997 0.15976 0.15968 0.15974 0.1598 0.15972 0.15977 0.1597 0.15975 0.15994 0.16013 0.16019 0.16011 0.16016 0.15995 0.15987 0.15979 0.15972 0.1595 0.15956 0.15948 0.15954 0.15959 0.15978 0.15984 0.15976 0.15981 0.15987 0.15979 0.15984 0.1599 0.15995 0.16001 0.16007 0.16012 0.16018 0.16037 0.16042 0.16048 0.16053 0.16045 0.16037 0.16043 0.16021 0.16 0.16019 0.16051 0.1607 0.16076 0.16081 0.161 0.16106 0.16112 0.16117 0.16123 0.16155 0.16161 0.1618 0.16226 0.16232 0.16265 0.1627 0.16262 0.16295 0.163 0.16306 0.16312 0.16317 0.16336 0.16342 0.16347 0.16408 0.16413 0.16419 0.16561 0.16567 0.166 0.16605 0.16625 0.16617 0.16622 0.16628 0.16634 0.16639 0.16645
0.21425 0.21445 0.21454 0.21438 0.21543 0.21503 0.21511 0.21773 0.21793 0.2179 0.21653 0.21673 0.21766 0.21557 0.21565 0.21598 0.21594 0.2159 0.21598 0.21619 0.21651 0.2172 0.21729 0.21737 0.21867 0.21863 0.21725 0.21746 0.21754 0.21763 0.21771 0.21779 0.21788 0.21796 0.21865 0.21873 0.21882 0.21902 0.21886 0.21882 0.21891 0.21874 0.21883 0.21903 0.21912 0.21932 0.21928 0.21924 0.21933 0.21953 0.21974 0.21982 0.21991 0.22023 0.22007 0.22003 0.22012 0.2202 0.22065 0.22061 0.2207 0.2209 0.22111 0.22132 0.22127 0.22198 0.22206 0.22152 0.22161 0.22169 0.22239 0.22248 0.22318 0.22314 0.22298 0.22306 0.2229 0.22298 0.22319 0.22302 0.22311 0.22331 0.22327 0.22336 0.22344 0.22191 0.22212 0.22344 0.2234 0.22336 0.22344 0.2239 0.22511 0.22544 0.22565 0.22573 0.22607 0.22603 0.22624 0.22657 0.22678 0.22686 0.22682 0.22691 0.22699 0.22708 0.22716 0.22724 0.22858 0.22867 0.22863 0.22871 0.2288 0.23039 0.23022 0.2283 0.22851 0.22809 0.22817 0.22826 0.22834 0.22842 0.22851 0.22847 0.22931 0.22939 0.22859 0.22868 0.22901 0.2291 0.22956 0.22914 0.22923 0.2288 0.22889 0.22935 0.22906 0.22762 0.2277 0.22969 0.2299 0.23075 0.23096 0.23193 0.23189 0.23197 0.23244 0.23253 0.23248 0.23257 0.22896 0.22917 0.22925 0.22934 0.22942 0.22963 0.22971 0.23031 0.23039 0.23048 0.23069 0.23167 0.23175 0.23145 0.23141 0.23149 0.23158 0.23166 0 0 0 0 0 0 0 0 0 0 0.18342 0.18348 0.18342 0.18323 0.18304 0.18297 0.18278 0.18259 0.18266 0.18259 0.18253 0.1826 0.18266 0 0.17658 0.17639 0.17645 0.17664 0.17476 0.1747 0.1745 0.17404 0.17398 0.17248 0.17254 0.17261 0.17176 0.17039 0.17045 0.16999 0.17005 0.16998 0.16952 0.16932 0.16912 0.16905 0.1682 0.16826 0.16767 0.16655 0.16661 0.16667 0.1666 0.16666 0.16646 0.16639 0.16631 0.16624 0.1663 0.16557 0.16472 0.16478 0.16483 0.16463 0.16456 0.16448 0.16428 0.16407 0.16374 0.16314 0.1632 0.16299 0.16292 0.16284 0.1629 0.16283 0.16275 0.16268 0.16274 0.16266 0.16259 0.16251 0.16244 0.16223 0.16215 0.16221 0.16214 0.16206 0.16159 0.16165 0.16117 0.1611 0.16102 0.16108 0.16074 0.16066 0.16058 0.16037 0.16043 0.16035 0.16028 0.1602 0.16026 0.16018 0.16037 0.16029 0.16021 0.16 0.15966 0.15972 0.15977 0.15969 0.15975 0.15967 0.15973 0.15978 0.15997 0.16003 0.16008 0.16014 0.16006 0.15998 0.15977 0.15969 0.15975 0.1594 0.15946 0.15951 0.15957 0.15962 0.15968 0.15973 0.15979 0.15984 0.1599 0.15982 0.16001 0.16006 0.16012 0.16004 0.15996 0.16015 0.16034 0.1604 0.16045 0.16051 0.16056 0.16035 0.1604 0.16046 0.16011 0.16003 0.16022 0.16054 0.16073 0.16079 0.16084 0.16104 0.16109 0.16115 0.1612 0.16126 0.16145 0.1615 0.16156 0.16161 0.16167 0.16268 0.16259 0.16265 0.16298 0.16303 0.16309 0.16315 0.1632 0.16339 0.16359 0.16391 0.16411 0.1643 0.16449 0.16537 0.16556 0.16589 0.16608 0.16614 0.1662 0.16625 0.16631 0.16637 0.16642 0.16648
0.21369 0.21402 0.21422 0.21443 0.21463 0.21471 0.21455 0.21524 0.2152 0.21528 0.21428 0.21436 0.21432 0.21465 0.21521 0.21554 0.21562 0.21595 0.21603 0.21611 0.21644 0.21676 0.21721 0.21717 0.21701 0.21722 0.21706 0.21714 0.2171 0.21706 0.21702 0.21686 0.21658 0.21642 0.2165 0.21793 0.21825 0.21834 0.21756 0.21765 0.21822 0.21843 0.21851 0.21859 0.21867 0.219 0.21884 0.21892 0.21913 0.21933 0.21966 0.21975 0.21983 0.21991 0.21987 0.21971 0.21967 0.22 0.22021 0.22017 0.22037 0.22058 0.22079 0.22087 0.2212 0.22128 0.22149 0.22157 0.22165 0.22186 0.22219 0.2224 0.22236 0.22244 0.2224 0.22261 0.22257 0.22253 0.22274 0.22282 0.22278 0.22286 0.22282 0.22291 0.2205 0.22059 0.22216 0.22249 0.22295 0.22303 0.22324 0.22345 0.22378 0.22374 0.22407 0.22428 0.22424 0.2247 0.22516 0.22524 0.22382 0.22391 0.22549 0.2257 0.22466 0.22474 0.22445 0.22453 0.22462 0.2247 0.22478 0.22449 0.22445 0.22465 0.22486 0.22495 0.22792 0.22788 0.22772 0.22767 0.22776 0.22784 0.22805 0.22814 0.22847 0.22856 0.22851 0.22847 0.22843 0.22864 0.22885 0.2278 0.22788 0.22809 0.22843 0.22876 0.22885 0.22678 0.22699 0.22694 0.22703 0.22863 0.22884 0.22944 0.22761 0.2277 0.22778 0.22812 0.22833 0.22905 0.22837 0.22883 0.22892 0.229 0.22908 0.22929 0.22951 0.23023 0.23031 0.2304 0.23061 0.23069 0.23116 0.23137 0.23145 0.23128 0.2315 0.23145 0 0 0 0 0 0 0 0 0 0 0.18345 0.18365 0.18359 0.18327 0.1832 0.18314 0.18282 0.18276 0.18269 0.18263 0.18257 0.18263 0.1827 0 0.17649 0.17642 0.17636 0.17616 0.1748 0.17486 0.17428 0.17395 0.17401 0.17252 0.17258 0.17264 0.17166 0.17042 0.17036 0.17016 0.16996 0.16989 0.16969 0.16923 0.16916 0.16909 0.16823 0.16829 0.1677 0.16659 0.16665 0.16657 0.16663 0.16669 0.16649 0.16642 0.16648 0.16614 0.16607 0.16561 0.16475 0.16481 0.16487 0.16466 0.16446 0.16439 0.16418 0.16398 0.1639 0.16304 0.1631 0.16302 0.16295 0.16288 0.16293 0.16286 0.16279 0.16271 0.16277 0.16269 0.16262 0.16254 0.16247 0.16226 0.16219 0.16224 0.16217 0.16209 0.16149 0.16141 0.1612 0.16113 0.16118 0.16111 0.16077 0.16069 0.16048 0.16041 0.16046 0.16038 0.16018 0.16023 0.16029 0.16021 0.1604 0.16032 0.16025 0.15963 0.15969 0.15975 0.15967 0.15959 0.15965 0.15957 0.15962 0.15981 0.15987 0.16006 0.16012 0.16004 0.15996 0.15988 0.15953 0.15946 0.15951 0.15943 0.15935 0.15941 0.1596 0.15965 0.15971 0.15976 0.15982 0.15974 0.15979 0.15998 0.1599 0.16009 0.16015 0.16007 0.15999 0.16018 0.16024 0.16029 0.16035 0.1604 0.16032 0.16024 0.16016 0.16022 0.16014 0.16019 0.16025 0.16057 0.16063 0.16068 0.16087 0.16093 0.16098 0.16118 0.16123 0.16129 0.16134 0.1614 0.16159 0.16164 0.1617 0.16271 0.16276 0.16268 0.16301 0.16307 0.16312 0.16318 0.16323 0.16329 0.16389 0.16408 0.16428 0.16433 0.16452 0.16499 0.16504 0.16579 0.16598 0.16603 0.16609 0.16615 0.16607 0.16612 0.16618 0.16624
0.2135 0.21394 0.21403 0.21423 0.21431 0.21452 0.2146 0.21529 0.21525 0.21497 0.21457 0.21429 0.21437 0.21457 0.21502 0.21534 0.21543 0.21575 0.21583 0.21592 0.21624 0.21705 0.21702 0.21722 0.21706 0.21702 0.2171 0.21694 0.2169 0.21674 0.21683 0.21679 0.21663 0.21646 0.21655 0.21797 0.21806 0.21814 0.21761 0.21769 0.2179 0.2181 0.21843 0.21864 0.21872 0.2188 0.21876 0.21885 0.21905 0.21913 0.21971 0.21967 0.21975 0.21984 0.21955 0.21963 0.21972 0.22005 0.22013 0.22021 0.22029 0.22038 0.22083 0.22092 0.221 0.22133 0.22141 0.22149 0.22158 0.22179 0.22224 0.2222 0.22204 0.22212 0.2222 0.22241 0.22237 0.22245 0.22266 0.22262 0.22283 0.22279 0.22287 0.22295 0.22055 0.22063 0.22221 0.22279 0.22287 0.22295 0.22304 0.22337 0.22358 0.22379 0.22412 0.2242 0.22429 0.22475 0.2252 0.22529 0.22387 0.22395 0.22554 0.22575 0.2247 0.22466 0.22462 0.22458 0.22454 0.22475 0.22458 0.22453 0.22449 0.22457 0.22478 0.22499 0.22772 0.22755 0.22764 0.22759 0.22755 0.22764 0.22785 0.22806 0.22827 0.22848 0.22831 0.22839 0.22822 0.22831 0.22877 0.22784 0.22793 0.22814 0.22809 0.22881 0.22864 0.22682 0.22691 0.22686 0.22707 0.22868 0.22889 0.22948 0.22766 0.22774 0.22783 0.22791 0.22837 0.22909 0.22841 0.2285 0.22871 0.22866 0.22887 0.22909 0.2293 0.23002 0.23023 0.23031 0.2304 0.23061 0.23082 0.23142 0.23125 0.2312 0.23129 0.2315 0 0 0 0 0 0 0 0 0 0 0.18388 0.18394 0.18388 0.18369 0.1835 0.18343 0.18311 0.18292 0.18299 0.18305 0 0 0 0 0.17652 0.17646 0.17639 0.17594 0.17509 0.17516 0.1747 0.17411 0.17418 0.17372 0.17287 0.17306 0.1717 0.17046 0.17052 0.17006 0.16999 0.16992 0.16972 0.16926 0.16919 0.16899 0.1684 0.16846 0.16826 0.16662 0.16681 0.16674 0.16667 0.16673 0.16652 0.16658 0.16651 0.16618 0.16598 0.1659 0.16478 0.16497 0.1649 0.16456 0.16462 0.16429 0.16408 0.16414 0.16367 0.16334 0.16313 0.16306 0.16298 0.16291 0.16296 0.16289 0.16295 0.16287 0.1628 0.16273 0.16265 0.16258 0.1625 0.16229 0.16222 0.16228 0.16207 0.16212 0.16152 0.16145 0.16137 0.16143 0.16135 0.16141 0.16133 0.16125 0.16065 0.16044 0.16036 0.16042 0.16034 0.16026 0.16032 0.16037 0.16043 0.16049 0.16054 0.15967 0.15972 0.15978 0.1597 0.15962 0.15954 0.1596 0.15966 0.15984 0.16003 0.16009 0.16015 0.16007 0.16012 0.15978 0.15957 0.15949 0.15941 0.15933 0.15938 0.15944 0.15949 0.15968 0.15974 0.15979 0.15985 0.15977 0.15983 0.15988 0.16007 0.16013 0.16018 0.1601 0.16002 0.16021 0.16027 0.16032 0.16038 0.16043 0.16022 0.16014 0.16019 0.16025 0.16017 0.16036 0.16041 0.1606 0.16066 0.16071 0.16077 0.16096 0.16102 0.16121 0.16113 0.16118 0.16137 0.16143 0.16162 0.16168 0.16173 0.16274 0.16279 0.16298 0.16304 0.16323 0.16342 0.16348 0.16354 0.16414 0.16419 0.16425 0.16444 0.1645 0.16483 0.16502 0.16508 0.16582 0.16601 0.1662 0.16612 0.16604 0.1661 0.16615 0.16621 0.16627
0.21343 0.21387 0.21395 0.21391 0.214 0.2142 0.2138 0.21533 0.21529 0.21513 0.21461 0.21421 0.21429 0.2145 0.21458 0.21502 0.21523 0.21543 0.21564 0.21572 0.21556 0.21637 0.21682 0.2169 0.21686 0.21682 0.21679 0.21662 0.21658 0.21655 0.21651 0.21659 0.21643 0.21639 0.2161 0.21692 0.217 0.2166 0.2168 0.21737 0.21758 0.21778 0.21848 0.21697 0.21693 0.21689 0.21697 0.21718 0.21726 0.21734 0.21742 0.21775 0.21783 0.21804 0.21849 0.21857 0.21865 0.21849 0.21857 0.21903 0.21899 0.21932 0.21977 0.2196 0.21969 0.21977 0.21985 0.22092 0.22125 0.22084 0.22192 0.222 0.22208 0.22217 0.22212 0.22246 0.22242 0.2225 0.22258 0.22254 0.2225 0.22122 0.22006 0.22026 0.22022 0.22043 0.22063 0.22072 0.22093 0.22113 0.22259 0.22317 0.22325 0.22346 0.22379 0.22388 0.22408 0.22379 0.22375 0.22383 0.22292 0.223 0.22559 0.22354 0.22375 0.22458 0.22454 0.2245 0.22458 0.22467 0.22462 0.22458 0.22441 0.2245 0.22458 0.22454 0.22449 0.22483 0.22491 0.22689 0.22722 0.22743 0.22777 0.2257 0.22591 0.22499 0.22507 0.22515 0.22587 0.22545 0.22553 0.2265 0.22658 0.22666 0.22675 0.22683 0.22704 0.22649 0.2267 0.22665 0.22636 0.22644 0.22614 0.22622 0.22631 0.22639 0.22749 0.2277 0.22753 0.22787 0.22757 0.22803 0.22863 0.22858 0.22867 0.22888 0.22858 0.22968 0.22989 0.22998 0.23006 0.23014 0.22984 0.23044 0.23091 0.23099 0.23108 0.2309 0 0 0 0 0 0 0 0 0 0 0.18391 0.18398 0.18392 0.1836 0.18354 0.18347 0.18315 0.18309 0.18302 0.17921 0.17928 0.17934 0.17786 0.17792 0.17669 0.17649 0.17656 0.17558 0.17552 0.17558 0.17461 0.17402 0.17408 0.1735 0.17291 0.17297 0.17134 0.17114 0.17133 0.17022 0.17002 0.16995 0.16989 0.16942 0.16922 0.16902 0.16817 0.16836 0.16816 0.16704 0.16697 0.1669 0.1667 0.16676 0.16669 0.16662 0.16654 0.16621 0.16601 0.16594 0.16521 0.16514 0.16506 0.16433 0.16439 0.16392 0.16398 0.16391 0.1637 0.16337 0.16316 0.16309 0.16301 0.16307 0.163 0.16292 0.16298 0.16291 0.16283 0.16276 0.16255 0.16248 0.1624 0.16233 0.16225 0.16231 0.1621 0.16203 0.16155 0.16148 0.1614 0.16146 0.16151 0.16157 0.16136 0.16142 0.16121 0.16047 0.16053 0.16045 0.16037 0.16029 0.16035 0.16041 0.16046 0.16052 0.16057 0.1597 0.15975 0.15981 0.15973 0.15965 0.15958 0.15963 0.15969 0.15988 0.16007 0.16026 0.16031 0.16023 0.16042 0.16034 0.15973 0.15952 0.15944 0.15923 0.15915 0.1592 0.15926 0.15958 0.15964 0.15982 0.15975 0.1598 0.15986 0.15991 0.15997 0.16016 0.16021 0.16013 0.16019 0.16024 0.1603 0.16035 0.16041 0.16033 0.16025 0.16017 0.16009 0.16014 0.1602 0.16053 0.16045 0.16064 0.16069 0.16075 0.1608 0.16099 0.16105 0.16124 0.16129 0.16121 0.1614 0.16146 0.16179 0.16184 0.16203 0.16277 0.16282 0.16288 0.16307 0.16326 0.16346 0.16351 0.16343 0.16349 0.16423 0.16428 0.16447 0.16453 0.16486 0.16505 0.16525 0.16585 0.16604 0.16623 0.16615 0.16621 0.16627 0.16632 0.16638 0.1663
0.21239 0.21295 0.21183 0.21119 0.21127 0.21123 0.2107 0.21079 0.21075 0.21083 0.21091 0.21099 0.21361 0.21382 0.21414 0.21459 0.21467 0.21487 0.21496 0.21504 0.21476 0.21484 0.2148 0.2161 0.21618 0.21614 0.21622 0.21606 0.21614 0.21623 0.21607 0.21603 0.21611 0.21607 0.21615 0.21648 0.21668 0.21652 0.2166 0.21681 0.21701 0.21709 0.21718 0.21701 0.21685 0.21681 0.21689 0.21698 0.21706 0.21714 0.21735 0.21755 0.21763 0.21784 0.21804 0.21813 0.21833 0.21829 0.21837 0.21858 0.21866 0.2185 0.21858 0.21866 0.21912 0.21932 0.21916 0.21924 0.21907 0.21916 0.21874 0.21883 0.21891 0.21862 0.2187 0.21903 0.21824 0.21833 0.21952 0.21948 0.21957 0.21965 0.21973 0.22018 0.22027 0.22035 0.22056 0.22076 0.22097 0.22105 0.22163 0.22159 0.22168 0.22151 0.22171 0.22155 0.22126 0.22134 0.22167 0.2215 0.22159 0.22117 0.22125 0.22183 0.22191 0.22212 0.22371 0.22404 0.22413 0.22434 0.22429 0.22425 0.22396 0.22379 0.22286 0.22257 0.22265 0.22273 0.22282 0.22277 0.22285 0.22268 0.22289 0.22297 0.22306 0.22326 0.22347 0.22457 0.2249 0.2246 0.22469 0.22591 0.22625 0.2262 0.22629 0.22637 0.22645 0.22641 0.22624 0.22619 0.22602 0.22585 0.22504 0.22487 0.22495 0.22618 0.22677 0.22686 0.22694 0.22728 0.22749 0.22744 0.22816 0.22825 0.22833 0.22841 0.2285 0.22884 0.22905 0.22913 0.22908 0.22917 0.22861 0.23023 0.23044 0.23053 0.23061 0.22826 0.22834 0.22778 0.22786 0 0 0 0 0 0 0 0.18395 0.18402 0.18396 0.18338 0.18357 0.18351 0.18319 0.183 0.18306 0.17925 0.17932 0.17938 0.17789 0.17796 0.17672 0.17666 0.17672 0.17562 0.17568 0.17561 0.17399 0.17367 0.17373 0.1734 0.1732 0.173 0.17137 0.17131 0.17137 0.17026 0.17019 0.17012 0.16992 0.1692 0.16926 0.16906 0.1682 0.16826 0.16806 0.16708 0.16714 0.16681 0.16673 0.16679 0.16672 0.16665 0.16645 0.16624 0.16617 0.16597 0.16524 0.16517 0.16509 0.16437 0.16442 0.16396 0.16401 0.16394 0.16374 0.1634 0.16319 0.16312 0.16305 0.16297 0.16303 0.16295 0.16301 0.16307 0.163 0.16279 0.16258 0.16251 0.16243 0.16236 0.16228 0.16221 0.162 0.16192 0.16185 0.16151 0.16156 0.16162 0.16154 0.1616 0.16139 0.16145 0.16137 0.1605 0.16042 0.16048 0.1604 0.16033 0.16038 0.16044 0.16049 0.16055 0.16061 0.15973 0.15978 0.15984 0.15976 0.15968 0.15974 0.15966 0.15972 0.16004 0.1601 0.16029 0.16034 0.1604 0.16045 0.16051 0.15976 0.15982 0.15934 0.15912 0.15904 0.1591 0.15902 0.15961 0.15967 0.15972 0.15978 0.15983 0.15989 0.15994 0.16013 0.16019 0.16024 0.16016 0.16008 0.16014 0.1602 0.16038 0.16044 0.16036 0.16028 0.16007 0.16012 0.16018 0.16023 0.16056 0.16061 0.16067 0.16072 0.16078 0.16083 0.16102 0.16108 0.16127 0.16119 0.16124 0.16143 0.16149 0.16182 0.16201 0.1622 0.16266 0.16272 0.16291 0.1631 0.16316 0.16335 0.16341 0.16346 0.16352 0.16412 0.16431 0.16451 0.16456 0.16489 0.16508 0.16541 0.16588 0.16607 0.16627 0.16632 0.16624 0.1663 0.16636 0.16641 0.16647
0.21243 0.213 0.21187 0.21123 0.21131 0.21127 0.21099 0.21083 0.21079 0.21087 0.21095 0.21103 0.2133 0.21386 0.21394 0.21427 0.21447 0.21468 0.21488 0.21472 0.2148 0.21488 0.21484 0.21578 0.21586 0.21594 0.2159 0.21599 0.21607 0.21615 0.21599 0.21595 0.21603 0.21599 0.2162 0.21652 0.21636 0.21644 0.21653 0.21661 0.21706 0.21714 0.21722 0.21706 0.21677 0.21686 0.21694 0.2169 0.21698 0.21706 0.21715 0.21747 0.21743 0.21764 0.21784 0.21793 0.21801 0.21809 0.21817 0.21826 0.21834 0.21842 0.21863 0.21871 0.21879 0.219 0.21908 0.21929 0.21924 0.2192 0.21879 0.21887 0.21895 0.21866 0.21875 0.21908 0.21829 0.21837 0.21957 0.21953 0.21961 0.21969 0.21978 0.22023 0.22031 0.2204 0.2206 0.22068 0.22102 0.2211 0.22168 0.22164 0.22172 0.22168 0.22164 0.22172 0.22143 0.22138 0.22159 0.22155 0.22163 0.22121 0.22129 0.22188 0.22196 0.22204 0.22388 0.22371 0.2238 0.22438 0.22421 0.22404 0.22375 0.22346 0.22304 0.22261 0.2227 0.22278 0.22273 0.22282 0.2229 0.22285 0.22294 0.22289 0.22323 0.22331 0.22377 0.22461 0.22495 0.22478 0.22473 0.22596 0.22604 0.226 0.22608 0.22629 0.22612 0.2262 0.22616 0.22573 0.22569 0.2259 0.22509 0.22492 0.225 0.22546 0.22631 0.22639 0.2266 0.22707 0.22715 0.22736 0.22808 0.22817 0.22825 0.2282 0.22841 0.2285 0.22871 0.22879 0.22875 0.22883 0.22866 0.23041 0.23036 0.23045 0.23053 0.2283 0.22839 0.22783 0.22791 0 0 0 0 0 0 0 0.18515 0.18521 0.18528 0.18354 0.18348 0.18355 0.18322 0.18303 0.1831 0.17929 0.17935 0.17942 0.17793 0.17812 0.17676 0.17669 0.17676 0.17565 0.17559 0.17578 0.17403 0.17383 0.17363 0.17356 0.17324 0.17304 0.17154 0.17134 0.17127 0.17042 0.17035 0.17028 0.17021 0.16936 0.16942 0.16896 0.16902 0.16908 0.16823 0.1675 0.16769 0.16697 0.1669 0.16696 0.16689 0.16681 0.16674 0.16641 0.16634 0.166 0.16527 0.1652 0.16513 0.16506 0.16485 0.16478 0.16431 0.16424 0.16364 0.16317 0.16323 0.16315 0.16308 0.163 0.16306 0.16312 0.16318 0.16323 0.16316 0.16295 0.16262 0.16254 0.16246 0.16239 0.16231 0.16224 0.16203 0.16209 0.16201 0.16167 0.16173 0.16165 0.16171 0.16163 0.16156 0.16161 0.16127 0.16053 0.16045 0.16051 0.1603 0.16036 0.16041 0.16047 0.16053 0.16058 0.16064 0.16003 0.15995 0.15987 0.15979 0.15972 0.15977 0.15983 0.15988 0.16021 0.16026 0.16045 0.16051 0.16056 0.16062 0.16067 0.1606 0.16065 0.1595 0.15942 0.15948 0.1594 0.15945 0.15978 0.15997 0.16016 0.16035 0.16013 0.16005 0.16011 0.16016 0.16008 0.16014 0.16006 0.16012 0.16017 0.16023 0.16028 0.16047 0.16039 0.16045 0.16037 0.16042 0.16048 0.16053 0.16086 0.16078 0.16083 0.16089 0.16108 0.16113 0.16119 0.16138 0.16144 0.16149 0.16141 0.16147 0.16166 0.16198 0.16218 0.16237 0.16256 0.16275 0.16281 0.16313 0.16319 0.16338 0.16344 0.16349 0.16382 0.16401 0.16421 0.16454 0.16459 0.16492 0.16525 0.16545 0.16591 0.16611 0.1663 0.16636 0.16641 0.16633 0.16639 0.16644 0.1665
0.21043 0.21051 0.21071 0.21067 0.21112 0.2112 0.21092 0.21063 0.21072 0.21068 0.21015 0.21047 0.21055 0.21027 0.21035 0.21092 0.21415 0.21448 0.21456 0.21452 0.21436 0.2114 0.21149 0.21157 0.21165 0.21173 0.21181 0.21567 0.21599 0.21607 0.21591 0.216 0.21596 0.21592 0.21588 0.214 0.21396 0.21404 0.21425 0.21445 0.21466 0.21474 0.21592 0.21551 0.21572 0.21654 0.21649 0.21645 0.21604 0.21576 0.21584 0.21617 0.21625 0.21732 0.21752 0.21773 0.21793 0.21801 0.21822 0.2183 0.21838 0.21847 0.21855 0.21863 0.21884 0.21892 0.219 0.21908 0.21917 0.21739 0.21747 0.21793 0.21801 0.21784 0.21854 0.21825 0.21722 0.2173 0.21875 0.21808 0.21816 0.21825 0.21845 0.21866 0.21974 0.22019 0.2204 0.22061 0.22069 0.2204 0.22085 0.22143 0.22139 0.22148 0.22156 0.22164 0.22135 0.22143 0.22151 0.22147 0.2213 0.22026 0.22034 0.22092 0.22176 0.22196 0.22267 0.22338 0.22309 0.22355 0.22388 0.22384 0.2238 0.22325 0.22295 0.22266 0.22274 0.2227 0.22278 0.22274 0.22269 0.22278 0.22286 0.22294 0.22315 0.22336 0.22357 0.22365 0.22411 0.22444 0.22402 0.22423 0.22431 0.22477 0.2246 0.22468 0.22502 0.22472 0.22493 0.22463 0.22535 0.2248 0.22475 0.22496 0.22517 0.22551 0.2261 0.22631 0.22639 0.22686 0.22707 0.22728 0.228 0.22808 0.22817 0.22812 0.2282 0.22854 0.22863 0.22871 0.22867 0.22862 0.22627 0.22648 0.22656 0.22664 0.22673 0.22668 0.22676 0.22659 0.22654 0.22662 0 0 0 0 0 0 0 0 0 0.18345 0.18352 0.18358 0.18326 0.18307 0.18313 0.18307 0 0 0 0 0.17757 0.17777 0.17783 0.17543 0.17433 0.17439 0.17406 0.17386 0.17367 0.1736 0.17327 0.1732 0.17131 0.17137 0.17144 0.17046 0.17039 0.17032 0.17025 0.16953 0.16959 0.16912 0.1684 0.16846 0.16852 0.16767 0.16773 0.16687 0.16693 0.16699 0.16692 0.16685 0.16664 0.16631 0.16624 0.16603 0.16531 0.16523 0.16516 0.16509 0.16501 0.16481 0.16447 0.16453 0.1638 0.16294 0.16313 0.16318 0.16311 0.16317 0.16309 0.16315 0.16321 0.16327 0.16319 0.16299 0.16265 0.16257 0.1625 0.16242 0.16235 0.16227 0.1622 0.16212 0.16204 0.16184 0.16176 0.16182 0.16174 0.16167 0.16159 0.16151 0.16064 0.16056 0.16049 0.16054 0.16033 0.16026 0.16031 0.16037 0.16056 0.16048 0.16054 0.16019 0.15998 0.16004 0.15996 0.15975 0.1598 0.15986 0.15991 0.1601 0.16029 0.16048 0.16054 0.16059 0.16065 0.1607 0.15942 0.15948 0.1594 0.15945 0.15951 0.15956 0.15962 0.15981 0.16 0.16019 0.16038 0.16003 0.16008 0.16014 0.16006 0.16012 0.16017 0.16009 0.16015 0.1602 0.16026 0.16031 0.1605 0.16056 0.16061 0.16053 0.16059 0.16078 0.16083 0.16089 0.16094 0.161 0.16105 0.16111 0.16117 0.16122 0.16141 0.16147 0.16152 0.16144 0.16163 0.16169 0.16201 0.16221 0.1624 0.16273 0.16278 0.16297 0.16317 0.16322 0.16341 0.16347 0.16366 0.16385 0.16418 0.16424 0.16457 0.16462 0.16495 0.16515 0.16548 0.16594 0.16614 0.16633 0.16639 0.16644 0.1665 0.16656 0.16648 0.16653
0.2106 0.21055 0.21064 0.21072 0.2108 0.21076 0.2106 0.21044 0.2104 0.21011 0.21008 0.21028 0.21036 0.21032 0.2104 0.21096 0.2142 0.21428 0.21424 0.21432 0.21441 0.21145 0.21104 0.21161 0.21169 0.21177 0.21185 0.21571 0.21579 0.216 0.21571 0.2158 0.21588 0.21584 0.21592 0.21405 0.21401 0.21409 0.21429 0.2145 0.21458 0.21478 0.21584 0.21568 0.21564 0.21572 0.21568 0.21564 0.21609 0.2158 0.21588 0.21621 0.21629 0.21687 0.21695 0.21716 0.21773 0.21781 0.21802 0.2181 0.21818 0.21826 0.21835 0.21843 0.21876 0.21884 0.2188 0.21913 0.21909 0.21744 0.21752 0.21797 0.21805 0.21801 0.21797 0.2183 0.21726 0.21735 0.21879 0.21813 0.21796 0.21829 0.21837 0.21858 0.21978 0.21987 0.22007 0.22028 0.21999 0.22044 0.2209 0.22098 0.22094 0.22102 0.22123 0.22144 0.22114 0.22123 0.22131 0.22126 0.2211 0.2208 0.22063 0.22059 0.22117 0.22201 0.22272 0.22243 0.22301 0.22322 0.2233 0.22338 0.22321 0.22304 0.22288 0.22258 0.22254 0.22249 0.22245 0.2224 0.22236 0.22232 0.2224 0.22261 0.22294 0.22315 0.22336 0.22357 0.22378 0.22373 0.22381 0.2239 0.22436 0.22482 0.22465 0.22473 0.22507 0.22477 0.22498 0.22468 0.22464 0.22472 0.22467 0.22463 0.22522 0.22543 0.22564 0.22572 0.22593 0.2264 0.22673 0.2272 0.22792 0.22787 0.22783 0.22778 0.22825 0.22834 0.22855 0.22837 0.22846 0.22854 0.22631 0.2264 0.22648 0.22669 0.22677 0.2266 0.22668 0.22663 0.22646 0.22667 0 0 0 0 0 0 0 0 0 0.18349 0.18355 0.18349 0.18317 0.18311 0.18304 0.18311 0 0 0 0 0.17761 0.1778 0.17787 0.17547 0.17436 0.17442 0.1741 0.17377 0.17383 0.17337 0.17318 0.17324 0.17135 0.17141 0.17147 0.17049 0.17055 0.17061 0.17041 0.16956 0.16962 0.16942 0.16844 0.16876 0.16869 0.1677 0.16776 0.1669 0.16696 0.16702 0.16682 0.16675 0.16655 0.16621 0.16614 0.16607 0.16534 0.1654 0.16506 0.16512 0.16505 0.16458 0.16451 0.16456 0.16383 0.1631 0.16316 0.16322 0.16314 0.1632 0.16326 0.16318 0.16324 0.1633 0.16309 0.16302 0.16268 0.1626 0.16253 0.16232 0.16238 0.1623 0.16223 0.16229 0.16221 0.162 0.16193 0.16185 0.16191 0.1617 0.16149 0.16154 0.16067 0.16073 0.16065 0.16057 0.16036 0.16042 0.16048 0.16053 0.16059 0.16064 0.16043 0.16022 0.16015 0.16007 0.15999 0.15991 0.15997 0.16002 0.15995 0.16013 0.16019 0.16038 0.16043 0.16049 0.16068 0.16087 0.15945 0.15937 0.15943 0.15948 0.15954 0.15959 0.15978 0.15984 0.16003 0.16035 0.16068 0.16006 0.16012 0.16017 0.16009 0.16015 0.1602 0.16012 0.16004 0.1601 0.16029 0.16034 0.1604 0.16059 0.16078 0.16083 0.16089 0.16094 0.161 0.16106 0.16111 0.1613 0.16122 0.16128 0.16133 0.16139 0.16144 0.16163 0.16155 0.16161 0.1618 0.16185 0.16205 0.16224 0.16256 0.16276 0.16295 0.16314 0.1632 0.16325 0.16358 0.16377 0.16383 0.16416 0.16435 0.16441 0.1646 0.16465 0.16498 0.16518 0.16551 0.16598 0.16603 0.16622 0.16642 0.16647 0.16653 0.16659 0.16651 0.16656
0.21064 0.2106 0.21068 0.21064 0.21072 0.2108 0.2104 0.21036 0.21032 0.21004 0.21 0.2102 0.21016 0.21036 0.21044 0.21064 0.20951 0.20959 0.20967 0.20987 0.20996 0.21089 0.21072 0.21056 0.21052 0.21048 0.21056 0.21052 0.2106 0.21104 0.211 0.21108 0.21202 0.21185 0.21181 0.21275 0.21283 0.21291 0.21409 0.21418 0.21438 0.21593 0.21589 0.21573 0.21544 0.21552 0.21536 0.21532 0.21528 0.21425 0.21433 0.21441 0.21671 0.21679 0.21687 0.21708 0.21765 0.21774 0.21806 0.21815 0.21823 0.21819 0.21827 0.21835 0.21856 0.21617 0.21612 0.21621 0.21851 0.216 0.2162 0.21765 0.21612 0.21632 0.21764 0.21785 0.21582 0.21602 0.21623 0.21768 0.21788 0.21809 0.21842 0.2185 0.21858 0.21866 0.219 0.21945 0.21953 0.21962 0.22057 0.22078 0.22073 0.22094 0.22115 0.22136 0.22106 0.22115 0.22123 0.22106 0.22102 0.22097 0.22055 0.22013 0.22134 0.22143 0.22201 0.22222 0.22281 0.22301 0.22309 0.22318 0.22313 0.22284 0.2228 0.2225 0.22246 0.22241 0.22224 0.22232 0.22228 0.22211 0.22206 0.22227 0.22273 0.22307 0.22315 0.22336 0.22344 0.2234 0.22348 0.22356 0.22339 0.22347 0.22279 0.22275 0.22245 0.22253 0.2235 0.2246 0.22468 0.22464 0.22459 0.22467 0.22514 0.22522 0.22543 0.22564 0.22585 0.22631 0.22665 0.22725 0.22784 0.22767 0.22762 0.2277 0.22536 0.22544 0.22539 0.22547 0.22556 0.22577 0.22598 0.22631 0.2264 0.22648 0.22682 0.22677 0.2266 0.22668 0.22637 0.22646 0 0 0 0 0 0 0 0 0 0 0 0 0 0 0 0 0 0 0 0 0 0.17641 0.17647 0.17537 0.17543 0.1755 0.17504 0.17406 0.17426 0.17406 0.17308 0.17314 0.17151 0.17144 0.1715 0.17078 0.17072 0.17065 0.17058 0.16959 0.16965 0.16945 0.16886 0.16892 0.16885 0.16865 0.16819 0.16694 0.167 0.16706 0.16685 0.16678 0.16658 0.16625 0.16617 0.16623 0.1659 0.16595 0.16509 0.16515 0.16521 0.16474 0.16454 0.16447 0.16387 0.16313 0.16319 0.16325 0.16331 0.16323 0.16329 0.16335 0.1634 0.16333 0.16312 0.16292 0.16258 0.1625 0.16243 0.16235 0.16241 0.16234 0.16226 0.16232 0.16224 0.16217 0.16209 0.16188 0.16194 0.16173 0.16099 0.16104 0.1611 0.16076 0.16068 0.1606 0.16066 0.16058 0.16064 0.1607 0.16075 0.16081 0.16087 0.16052 0.16018 0.1601 0.16002 0.15994 0.16 0.16005 0.15998 0.16003 0.16009 0.16028 0.16047 0.16052 0.16071 0.16077 0.15935 0.1594 0.15946 0.15951 0.15957 0.15962 0.15981 0.16 0.16006 0.16052 0.16071 0.16009 0.16015 0.1602 0.16012 0.16018 0.1601 0.16002 0.16007 0.16013 0.16018 0.16037 0.16043 0.16062 0.16081 0.16087 0.16092 0.16098 0.16103 0.16109 0.16128 0.16133 0.16139 0.16131 0.16136 0.16142 0.16161 0.16166 0.16172 0.16178 0.16183 0.16202 0.16221 0.1624 0.1626 0.16292 0.16298 0.16317 0.16323 0.16342 0.16361 0.1638 0.164 0.16419 0.16438 0.16444 0.16463 0.16482 0.16502 0.16521 0.16554 0.16587 0.16606 0.16626 0.16631 0.16651 0.16684 0.16731 0.16736 0.16756
0.2102 0.21016 0.20892 0.209 0.2092 0.20952 0.20936 0.20956 0.20964 0.2096 0.20968 0.20855 0.20863 0.20871 0.20855 0.20875 0.20871 0.20842 0.2085 0.20883 0.20878 0.21081 0.21065 0.21036 0.21044 0.21052 0.2106 0.21056 0.21064 0.21084 0.21093 0.21113 0.21157 0.21166 0.21161 0.21169 0.21177 0.21247 0.21328 0.21238 0.21246 0.21193 0.21201 0.21344 0.21365 0.21373 0.21319 0.21327 0.21335 0.21294 0.21302 0.2131 0.21319 0.21277 0.21285 0.21232 0.2124 0.21223 0.21194 0.21202 0.21198 0.21206 0.21399 0.2137 0.21391 0.21423 0.21444 0.21439 0.21584 0.21555 0.21563 0.2162 0.21517 0.21525 0.21496 0.21516 0.21524 0.21557 0.21578 0.21561 0.21582 0.21652 0.21772 0.21793 0.21788 0.21809 0.21854 0.21887 0.21883 0.21891 0.21999 0.21858 0.21878 0.21874 0.21895 0.21778 0.21761 0.21769 0.21852 0.2186 0.21881 0.21814 0.21834 0.21905 0.21813 0.21821 0.21917 0.21938 0.21946 0.21941 0.21887 0.21895 0.21991 0.22012 0.22045 0.22229 0.22225 0.22208 0.22191 0.22187 0.22195 0.22178 0.22186 0.22207 0.22253 0.22286 0.22294 0.22315 0.22311 0.22294 0.22289 0.22285 0.22179 0.22187 0.22182 0.2219 0.22173 0.22219 0.22228 0.22299 0.22307 0.22328 0.22464 0.22472 0.22506 0.22526 0.22535 0.22415 0.22424 0.22432 0.2258 0.22589 0.22712 0.22656 0.22524 0.22532 0.22489 0.22497 0.22518 0.22526 0.22547 0.22568 0.22577 0.22598 0.22631 0.2264 0.22648 0.22656 0.22639 0.22634 0.22616 0.22612 0.22594 0.22602 0 0 0 0 0 0 0 0 0 0 0 0 0 0 0 0 0.17781 0.17788 0.17794 0.17645 0.17651 0.17541 0.17547 0.1754 0.17508 0.1741 0.17429 0.17422 0.17286 0.17305 0.17155 0.17161 0.17167 0.17095 0.17062 0.17068 0.17061 0.1695 0.16956 0.16949 0.16903 0.16882 0.16875 0.16855 0.16835 0.1671 0.16703 0.16696 0.16689 0.16695 0.16635 0.16615 0.16607 0.166 0.1658 0.16573 0.16513 0.16519 0.16511 0.16491 0.16457 0.1645 0.1639 0.16317 0.16336 0.16341 0.16334 0.1634 0.16332 0.16338 0.16331 0.16323 0.16316 0.16295 0.16261 0.16254 0.16246 0.16239 0.16244 0.16237 0.16229 0.16235 0.16227 0.1622 0.16199 0.16191 0.16184 0.16176 0.16102 0.16108 0.16113 0.16066 0.16071 0.16077 0.16069 0.16075 0.16067 0.16073 0.16078 0.16084 0.16076 0.16055 0.15994 0.15986 0.15992 0.15984 0.1599 0.15995 0.16001 0.15993 0.15998 0.16031 0.1605 0.16069 0.16074 0.1608 0.15938 0.15943 0.15949 0.15954 0.1596 0.15979 0.15984 0.16004 0.16022 0.16028 0.16087 0.15999 0.16004 0.1601 0.16002 0.16007 0.15999 0.15978 0.15983 0.16002 0.16021 0.16027 0.16032 0.16065 0.1607 0.16076 0.16082 0.16101 0.16106 0.16112 0.16131 0.16136 0.16142 0.16134 0.16139 0.16158 0.16164 0.16183 0.16189 0.16194 0.162 0.16205 0.16224 0.16244 0.16263 0.16296 0.16301 0.1632 0.16326 0.16345 0.16364 0.16384 0.16403 0.16422 0.16441 0.16461 0.16466 0.16485 0.16491 0.16538 0.16543 0.16604 0.16623 0.16642 0.16648 0.16667 0.16714 0.1672 0.16739 0.16759
0.21025 0.21021 0.20896 0.20892 0.209 0.20932 0.20928 0.20936 0.20957 0.20952 0.20973 0.20859 0.20867 0.20863 0.20859 0.20855 0.20851 0.20835 0.20842 0.20863 0.20883 0.21098 0.21033 0.21028 0.21037 0.21045 0.21053 0.21036 0.21057 0.21077 0.21097 0.21105 0.2115 0.21158 0.21154 0.21162 0.21182 0.21251 0.21333 0.21243 0.21251 0.21198 0.21206 0.21349 0.21369 0.21377 0.21324 0.2132 0.21315 0.21299 0.21295 0.21303 0.21311 0.21282 0.21265 0.21249 0.21232 0.21215 0.21186 0.21182 0.2119 0.2121 0.21404 0.21375 0.21395 0.21428 0.21424 0.21456 0.21588 0.21559 0.21567 0.21625 0.21521 0.21517 0.215 0.21508 0.21516 0.21549 0.2157 0.21566 0.21586 0.21656 0.21776 0.21785 0.21793 0.21801 0.21846 0.21879 0.21875 0.21896 0.22004 0.21862 0.21883 0.21878 0.21899 0.21782 0.21765 0.21773 0.21857 0.21865 0.21885 0.21818 0.21839 0.2191 0.21817 0.21825 0.21921 0.21942 0.2195 0.21946 0.21891 0.21899 0.21995 0.22016 0.22049 0.22234 0.22242 0.22212 0.22158 0.22166 0.22174 0.2217 0.22178 0.22198 0.22232 0.22265 0.22286 0.22307 0.22315 0.22285 0.22268 0.22251 0.22183 0.22179 0.22187 0.2217 0.22178 0.22186 0.22232 0.22304 0.22312 0.22333 0.22481 0.22476 0.22497 0.22544 0.22565 0.2242 0.22428 0.22436 0.22585 0.22593 0.22716 0.22661 0.22528 0.22537 0.22494 0.22463 0.22472 0.22518 0.22539 0.22573 0.22543 0.22602 0.22636 0.22631 0.22627 0.22635 0.22643 0.22639 0.22608 0.22616 0.22599 0.22607 0 0 0 0 0 0 0 0 0 0 0 0 0 0 0 0 0.17785 0.17791 0.17797 0.17648 0.17655 0.17544 0.1755 0.17544 0.17511 0.17426 0.1742 0.17413 0.17289 0.17308 0.17184 0.17177 0.1717 0.17164 0.17078 0.17084 0.17051 0.16966 0.16959 0.16952 0.16906 0.16886 0.16879 0.16859 0.16851 0.16844 0.1685 0.16699 0.16705 0.16711 0.16638 0.16618 0.16611 0.16603 0.1657 0.16563 0.16555 0.16522 0.16515 0.16507 0.16474 0.16466 0.16446 0.16346 0.16378 0.16371 0.16364 0.16356 0.16336 0.16341 0.16334 0.16326 0.16319 0.16298 0.16264 0.16257 0.16249 0.16242 0.16247 0.16253 0.16246 0.16238 0.16244 0.1621 0.16202 0.16194 0.16187 0.16179 0.16105 0.16137 0.1613 0.16069 0.16088 0.16093 0.16086 0.16091 0.16084 0.16076 0.16082 0.16087 0.16079 0.16058 0.15997 0.15989 0.15995 0.15987 0.15993 0.15998 0.16004 0.16009 0.16015 0.16007 0.16066 0.16085 0.16091 0.16096 0.16089 0.16094 0.161 0.16025 0.1603 0.16009 0.16015 0.1602 0.16106 0.16098 0.16104 0.16002 0.16007 0.16013 0.16005 0.15997 0.16002 0.15981 0.15973 0.15992 0.16024 0.1603 0.16035 0.16068 0.16087 0.16079 0.16098 0.16104 0.16123 0.16128 0.16134 0.16139 0.16145 0.16151 0.16156 0.16162 0.16167 0.162 0.16192 0.16211 0.1623 0.16236 0.16255 0.1626 0.16279 0.16299 0.16318 0.16323 0.16343 0.16348 0.16381 0.16387 0.16406 0.16439 0.16444 0.16464 0.16483 0.16489 0.16508 0.16568 0.16574 0.16634 0.1664 0.16659 0.16679 0.16684 0.16717 0.16737 0.16756 0.16776
0.20583 0.20603 0.20901 0.20884 0.20905 0.20913 0.20909 0.20929 0.20937 0.20933 0.20929 0.20852 0.2086 0.20868 0.20827 0.20835 0.20831 0.20803 0.20823 0.20831 0.20827 0.20847 0.20964 0.20997 0.21017 0.21025 0.21033 0.21029 0.21049 0.21057 0.21077 0.21097 0.2113 0.21138 0.21134 0.21142 0.21162 0.2117 0.2119 0.21137 0.21145 0.21116 0.21137 0.21194 0.21251 0.21271 0.21279 0.213 0.21295 0.21303 0.21287 0.21295 0.21291 0.21262 0.21245 0.21241 0.21212 0.21208 0.21166 0.21174 0.2117 0.21165 0.21173 0.21181 0.21189 0.21383 0.21391 0.21386 0.21394 0.21403 0.21423 0.21443 0.21452 0.21497 0.21492 0.215 0.21508 0.21529 0.21562 0.2157 0.21591 0.21599 0.21594 0.21577 0.21573 0.21593 0.21602 0.21859 0.2188 0.21888 0.21471 0.21479 0.21887 0.21883 0.21653 0.21662 0.21669 0.21678 0.21698 0.21706 0.21714 0.21747 0.21755 0.21764 0.21746 0.21742 0.218 0.21783 0.21791 0.21837 0.21883 0.21878 0.21861 0.21857 0.22054 0.22125 0.22133 0.22104 0.22124 0.22132 0.22153 0.22149 0.22157 0.22178 0.22224 0.22245 0.22265 0.22299 0.22295 0.22277 0.2226 0.2223 0.2215 0.22171 0.22166 0.22161 0.22157 0.22178 0.22173 0.22118 0.22126 0.22146 0.22154 0.22086 0.22094 0.22039 0.22034 0.22042 0.22037 0.22032 0.2204 0.22547 0.22555 0.22384 0.22379 0.22388 0.22383 0.2243 0.22438 0.22407 0.22416 0.22462 0.22509 0.22491 0.22499 0.22495 0.22593 0.22627 0.22648 0.22527 0.22497 0.22505 0.225 0.22508 0 0 0 0 0 0 0 0 0 0 0 0 0 0 0 0 0 0 0 0 0 0.17548 0.17554 0.17534 0.17514 0.17417 0.17423 0.17403 0.17253 0.17259 0.17188 0.17181 0.17174 0.17167 0.17095 0.17088 0.17016 0.1697 0.16975 0.16955 0.16909 0.16889 0.16882 0.16862 0.16855 0.16822 0.16814 0.16702 0.16708 0.16714 0.16642 0.16621 0.16614 0.16607 0.16573 0.16566 0.16559 0.16525 0.16518 0.16511 0.16477 0.1647 0.16449 0.16402 0.16395 0.16387 0.16367 0.16359 0.16352 0.16344 0.1635 0.16329 0.16322 0.16301 0.16267 0.1626 0.16252 0.16245 0.16251 0.16256 0.16249 0.16241 0.16247 0.16226 0.16205 0.16184 0.1619 0.16182 0.16162 0.16154 0.16146 0.16112 0.16104 0.16096 0.16102 0.16095 0.161 0.16092 0.16085 0.1609 0.16082 0.16061 0.15987 0.15993 0.15998 0.1599 0.15996 0.16001 0.16007 0.16012 0.16018 0.16037 0.16083 0.16088 0.16107 0.16113 0.16105 0.16097 0.16103 0.16082 0.16087 0.16012 0.16045 0.16064 0.16069 0.16088 0.16094 0.16005 0.1601 0.16016 0.16008 0.16013 0.16006 0.15984 0.15976 0.15995 0.16028 0.16033 0.16052 0.16071 0.1609 0.16096 0.16101 0.1612 0.16126 0.16131 0.16137 0.16143 0.16148 0.1614 0.16159 0.16165 0.1617 0.16203 0.16195 0.16214 0.16233 0.16239 0.16258 0.16263 0.16283 0.16302 0.16307 0.16326 0.16346 0.16351 0.16384 0.16403 0.16423 0.16442 0.16448 0.16467 0.16486 0.16505 0.16511 0.16585 0.16604 0.16651 0.16657 0.16676 0.16682 0.16701 0.16721 0.1674 0.16759 0.16765
0.20563 0.20571 0.20603 0.20623 0.20619 0.20639 0.20635 0.20655 0.20893 0.20755 0.20763 0.20771 0.20791 0.20799 0.20771 0.20779 0.20775 0.20771 0.20778 0.20786 0.20673 0.20681 0.20652 0.2066 0.20668 0.20919 0.20964 0.2096 0.20968 0.20988 0.21008 0.21004 0.21085 0.21081 0.21052 0.21024 0.21007 0.21015 0.20986 0.20982 0.2099 0.20986 0.20969 0.20977 0.20911 0.20932 0.2105 0.21058 0.21128 0.21148 0.21168 0.21263 0.21271 0.21242 0.21225 0.21221 0.21179 0.21187 0.21146 0.21154 0.21149 0.21157 0.21178 0.21186 0.21194 0.21202 0.21247 0.21255 0.21325 0.2137 0.21427 0.21423 0.21431 0.21452 0.21447 0.21468 0.21476 0.21484 0.21504 0.21525 0.21533 0.21553 0.21536 0.21532 0.2154 0.21548 0.21431 0.21452 0.2141 0.21418 0.21426 0.21434 0.21454 0.2155 0.21558 0.21666 0.21649 0.21657 0.2169 0.21698 0.21719 0.21714 0.21722 0.21705 0.21713 0.21721 0.21767 0.21775 0.21783 0.21791 0.21812 0.21845 0.21853 0.21861 0.22033 0.22067 0.221 0.22083 0.22091 0.22099 0.22107 0.22115 0.22124 0.22157 0.22203 0.22224 0.22245 0.22266 0.22274 0.21889 0.21897 0.2207 0.22078 0.22124 0.22132 0.22128 0.22136 0.22131 0.22127 0.22033 0.22079 0.22087 0.22095 0.22052 0.22048 0.22043 0.22038 0.22034 0.22042 0.22024 0.22019 0.22015 0.22023 0.22043 0.22051 0.22072 0.2226 0.22268 0.22404 0.22386 0.22407 0.22428 0.22436 0.22445 0.22453 0.22422 0.2243 0.22439 0.22447 0.22493 0.22489 0.22497 0.22505 0.225 0 0 0 0 0 0 0 0 0 0 0 0 0 0 0 0 0 0 0 0.17616 0.17623 0.17551 0.17544 0.17538 0.1744 0.17407 0.17414 0.17394 0.17257 0.17263 0.17204 0.17184 0.17177 0.1717 0.17085 0.17091 0.17019 0.16973 0.16979 0.16959 0.16886 0.16892 0.16885 0.16865 0.16858 0.16825 0.16818 0.16706 0.16712 0.16718 0.16645 0.16625 0.16617 0.1661 0.1659 0.16569 0.16562 0.16528 0.16521 0.16514 0.16454 0.1646 0.16452 0.16418 0.16411 0.16404 0.16383 0.16362 0.16355 0.16348 0.1634 0.16346 0.16339 0.16252 0.16257 0.16263 0.16256 0.16248 0.1624 0.16246 0.16239 0.16244 0.16237 0.16216 0.16195 0.16187 0.1618 0.16172 0.16151 0.16157 0.16149 0.16115 0.16121 0.16113 0.16105 0.16111 0.16103 0.16095 0.16101 0.16093 0.16086 0.16065 0.1599 0.15996 0.16001 0.15993 0.15999 0.16004 0.1601 0.16016 0.16034 0.16054 0.16086 0.16092 0.16097 0.16116 0.16095 0.161 0.16106 0.16098 0.1609 0.16015 0.16021 0.16067 0.16072 0.16078 0.16083 0.16008 0.16013 0.16019 0.16011 0.16017 0.16009 0.16001 0.15979 0.15998 0.16031 0.16036 0.16055 0.16088 0.16107 0.16099 0.16118 0.16123 0.16143 0.16134 0.1614 0.16146 0.16151 0.16157 0.16162 0.16168 0.16187 0.16206 0.16212 0.16217 0.16236 0.16255 0.16261 0.1628 0.16286 0.16305 0.1631 0.1633 0.16335 0.16354 0.16387 0.16407 0.16412 0.16431 0.16451 0.1647 0.16489 0.16509 0.16514 0.16588 0.16608 0.16654 0.1666 0.16679 0.16685 0.16704 0.16724 0.16743 0.16763 0.16782
0.20555 0.20575 0.20595 0.20603 0.20611 0.20619 0.20639 0.20659 0.20897 0.2076 0.20768 0.20776 0.20772 0.2078 0.20751 0.20759 0.20755 0.20763 0.20771 0.20767 0.20702 0.20673 0.20669 0.20664 0.20672 0.20936 0.20932 0.2094 0.20948 0.20956 0.20976 0.21008 0.21078 0.21049 0.21057 0.21028 0.20999 0.2102 0.20991 0.20987 0.20982 0.2099 0.20961 0.20982 0.20916 0.20936 0.21055 0.21087 0.21144 0.21152 0.21173 0.21242 0.2125 0.21234 0.21217 0.212 0.21184 0.21179 0.2115 0.21146 0.21154 0.21162 0.2117 0.2119 0.21198 0.21219 0.21239 0.21284 0.21317 0.21337 0.2142 0.21403 0.21411 0.21419 0.21427 0.21435 0.21455 0.21476 0.21484 0.21504 0.21512 0.2152 0.21516 0.21512 0.2152 0.21528 0.21436 0.21431 0.21427 0.21422 0.2143 0.21438 0.21459 0.21554 0.21562 0.21671 0.21628 0.21637 0.21695 0.21703 0.21723 0.21719 0.21702 0.21697 0.21705 0.21713 0.21759 0.2178 0.21775 0.21796 0.21791 0.21824 0.21858 0.21866 0.22025 0.22096 0.22104 0.22075 0.22083 0.22091 0.22099 0.22107 0.22115 0.22174 0.22182 0.22229 0.22237 0.22245 0.22278 0.21893 0.21902 0.22074 0.22083 0.22116 0.22124 0.2212 0.22128 0.22123 0.22068 0.22037 0.22058 0.22066 0.22074 0.22032 0.2204 0.22035 0.2203 0.22025 0.22033 0.22029 0.22024 0.22019 0.2204 0.22048 0.22056 0.22077 0.22264 0.22272 0.2237 0.22378 0.22386 0.2242 0.22428 0.22436 0.22431 0.22427 0.22435 0.22443 0.22451 0.22498 0.22493 0.22488 0.22496 0.22505 0 0 0 0 0 0 0 0 0 0 0 0 0 0 0 0 0 0 0 0.1762 0.17626 0.17568 0.17548 0.17541 0.17444 0.17424 0.17404 0.17397 0.17325 0.17331 0.17208 0.17201 0.17207 0.172 0.17089 0.17095 0.17075 0.17028 0.17008 0.16975 0.16929 0.16909 0.16902 0.16882 0.16875 0.16828 0.16834 0.16709 0.16715 0.16721 0.16674 0.16641 0.16621 0.16613 0.16593 0.16586 0.16578 0.16545 0.16537 0.1653 0.16457 0.1645 0.16456 0.16435 0.16428 0.1642 0.16413 0.16379 0.16358 0.16351 0.16343 0.16349 0.16355 0.16255 0.16261 0.16253 0.16259 0.16251 0.16244 0.16249 0.16242 0.16248 0.1624 0.16219 0.16198 0.16177 0.1617 0.16175 0.16154 0.16147 0.16153 0.16118 0.1611 0.16116 0.16122 0.16114 0.1612 0.16099 0.16104 0.16096 0.16089 0.16081 0.15993 0.16012 0.16004 0.1601 0.16015 0.16021 0.16026 0.16032 0.16038 0.1607 0.16089 0.16095 0.161 0.16106 0.16084 0.1609 0.16096 0.16101 0.16093 0.16099 0.16091 0.16083 0.16089 0.16094 0.161 0.16011 0.16017 0.16022 0.16028 0.1602 0.16025 0.16004 0.16009 0.16028 0.16047 0.16053 0.16072 0.16091 0.1611 0.16129 0.16135 0.1614 0.16159 0.16165 0.16157 0.16162 0.16168 0.16173 0.16179 0.16198 0.16204 0.16236 0.16242 0.16247 0.16253 0.16272 0.16278 0.16297 0.16302 0.16308 0.16314 0.16333 0.16338 0.16358 0.1639 0.16396 0.16415 0.16434 0.16454 0.16473 0.16492 0.16553 0.16586 0.16605 0.16624 0.16658 0.16663 0.16683 0.16688 0.16708 0.16741 0.1676 0.16766 0.16785
0.20548 0.20568 0.20576 0.20583 0.20591 0.20563 0.2051 0.20506 0.20514 0.20522 0.20542 0.2055 0.20558 0.20638 0.20707 0.20727 0.20735 0.20743 0.20751 0.20759 0.20706 0.20677 0.20673 0.20669 0.20652 0.20636 0.20644 0.20651 0.20891 0.20936 0.20956 0.20915 0.20972 0.20956 0.20939 0.20984 0.20992 0.20987 0.20812 0.20819 0.2095 0.20958 0.20941 0.209 0.20871 0.20879 0.21047 0.21092 0.21124 0.21145 0.21165 0.21222 0.2123 0.21213 0.21197 0.21193 0.21176 0.21171 0.21142 0.2115 0.21146 0.21154 0.21162 0.21182 0.2119 0.21198 0.21219 0.21276 0.21321 0.21317 0.21387 0.21382 0.21366 0.21374 0.21394 0.2139 0.21422 0.21443 0.21463 0.21471 0.21492 0.21488 0.21496 0.21491 0.21499 0.21507 0.21353 0.21398 0.21394 0.21414 0.2141 0.21418 0.21401 0.21421 0.21429 0.21437 0.21483 0.21491 0.21549 0.21444 0.21439 0.2146 0.21468 0.21677 0.21685 0.21705 0.21701 0.21646 0.21641 0.21712 0.21771 0.21816 0.2185 0.21858 0.21891 0.21836 0.21794 0.21814 0.22075 0.22083 0.22104 0.22099 0.22082 0.21888 0.21706 0.21714 0.21747 0.21743 0.21763 0.21809 0.21817 0.21838 0.21833 0.22108 0.22103 0.22111 0.2212 0.22115 0.22059 0.22042 0.2205 0.22045 0.22053 0.22023 0.22018 0.22014 0.22022 0.22017 0.22025 0.2202 0.22016 0.22024 0.22032 0.2204 0.2206 0.22068 0.22115 0.22123 0.22221 0 0 0 0 0 0.22166 0.22187 0.22182 0.22216 0.2216 0.22168 0.22215 0.22223 0.22308 0.2229 0.22298 0 0 0 0 0 0 0 0 0 0 0 0 0 0 0 0.17786 0.17792 0.17799 0.17649 0.17656 0.17584 0.17564 0.17571 0.17447 0.17427 0.17408 0.17401 0.17316 0.17322 0.17289 0.17217 0.1721 0.17203 0.17092 0.17098 0.17078 0.17032 0.16999 0.16979 0.16945 0.16925 0.16905 0.16898 0.16891 0.16884 0.16903 0.16725 0.16718 0.16724 0.16651 0.16631 0.16624 0.16617 0.16609 0.16602 0.16582 0.16548 0.16541 0.16534 0.16434 0.1644 0.16446 0.16425 0.16418 0.16423 0.16429 0.16356 0.16348 0.16354 0.16347 0.16352 0.16345 0.16271 0.16264 0.16256 0.16249 0.16254 0.16247 0.16253 0.16245 0.16251 0.16243 0.16222 0.16215 0.16181 0.16173 0.16165 0.16158 0.1615 0.16156 0.16121 0.16114 0.16119 0.16112 0.16117 0.16123 0.16115 0.16107 0.16113 0.16092 0.16098 0.1605 0.16029 0.16021 0.16026 0.16032 0.16037 0.1603 0.16035 0.16041 0.1606 0.16079 0.16098 0.16103 0.16109 0.16047 0.1608 0.16099 0.16104 0.16096 0.16089 0.16027 0.16032 0.16024 0.1603 0.16049 0.16014 0.1602 0.16025 0.16031 0.16036 0.16042 0.16034 0.16026 0.16045 0.16064 0.16069 0.16088 0.16107 0.16127 0.16132 0.16138 0.16143 0.16162 0.16168 0.1616 0.16152 0.16157 0.16163 0.16182 0.16187 0.16207 0.16239 0.16245 0.16251 0.1627 0.16275 0.16281 0.163 0.16306 0.16325 0.1633 0.16336 0.16341 0.16361 0.16394 0.16399 0.16418 0.16438 0.16457 0.16476 0.16523 0.16583 0.16589 0.16608 0.16628 0.16661 0.16666 0.16686 0.16691 0.16711 0.16744 0.16763 0.16769 0.16788
0.20504 0.20512 0.20519 0.20515 0.20523 0.20519 0.20515 0.20498 0.20506 0.20514 0.20522 0.2053 0.20514 0.20643 0.20553 0.20561 0.20569 0.20553 0.20549 0.20593 0.20589 0.20633 0.20641 0.20624 0.20632 0.2064 0.20636 0.20656 0.20664 0.20672 0.20704 0.207 0.2072 0.20715 0.20711 0.20731 0.20727 0.20735 0.20742 0.20799 0.20807 0.20877 0.20872 0.2088 0.20876 0.20871 0.20879 0.21059 0.21116 0.21124 0.21145 0.21177 0.21185 0.21169 0.21177 0.2116 0.21131 0.21139 0.21011 0.21031 0.21113 0.21121 0.21129 0.21137 0.21133 0.21166 0.21173 0.21231 0.21264 0.21235 0.21305 0.21313 0.21308 0.21316 0.21324 0.21344 0.21365 0.21385 0.21406 0.21426 0.21434 0.2143 0.21438 0.21446 0.21429 0.21362 0.21345 0.21365 0.21373 0.21381 0.21389 0.21372 0.2138 0.21388 0.21296 0.21304 0.21437 0.21457 0.21491 0.21398 0.21431 0.21452 0.2146 0.21505 0.21551 0.21534 0.21542 0.21524 0.21532 0.2154 0.21385 0.21355 0.21363 0.21396 0.21391 0.21374 0.21369 0.21377 0.21423 0.2143 0.21438 0.21408 0.21429 0.21424 0.21483 0.21491 0.21638 0.21696 0.21692 0.21725 0.21771 0.21728 0.21698 0.21706 0.21714 0.21684 0.21704 0.21814 0.21822 0.21843 0.22016 0.22037 0.21892 0.21913 0.21959 0.21967 0.21975 0.21996 0.22004 0.21987 0.21995 0.22002 0.22011 0.22019 0.22039 0.22073 0.22094 0.22089 0.22097 0.22143 0.22139 0.22147 0 0 0.22158 0.22166 0.22187 0.22182 0.22177 0.22172 0.22193 0.22253 0.22287 0.22269 0.22264 0 0 0 0 0 0 0 0 0 0.18152 0.18159 0.18127 0.18107 0.18114 0.18159 0.1779 0.17796 0.17802 0.17653 0.17659 0.17588 0.17581 0.17574 0.1745 0.17431 0.17411 0.17391 0.17319 0.17325 0.1724 0.17181 0.172 0.17155 0.17095 0.17088 0.17068 0.17009 0.17002 0.16956 0.1691 0.16942 0.16909 0.16901 0.16894 0.16887 0.16867 0.16703 0.16722 0.16728 0.16655 0.16634 0.16627 0.1662 0.16613 0.16605 0.16585 0.16551 0.16531 0.16537 0.16437 0.16443 0.16436 0.16428 0.16421 0.16427 0.16432 0.16359 0.16352 0.16344 0.1635 0.16329 0.16322 0.16261 0.16267 0.16259 0.16265 0.16258 0.1625 0.16256 0.16248 0.16254 0.16246 0.16239 0.16178 0.16184 0.16176 0.16168 0.16161 0.16153 0.16159 0.16124 0.16117 0.16122 0.16128 0.1612 0.16126 0.16118 0.1611 0.16116 0.16108 0.16101 0.16026 0.16045 0.16037 0.16029 0.16035 0.16041 0.16033 0.16038 0.16031 0.16036 0.16095 0.16101 0.16106 0.16112 0.1601 0.16016 0.16102 0.16094 0.161 0.16092 0.1603 0.16035 0.16041 0.16047 0.16052 0.16017 0.16023 0.16028 0.16034 0.16039 0.16058 0.16037 0.16042 0.16061 0.16081 0.16086 0.16105 0.16124 0.1613 0.16135 0.16141 0.16146 0.16165 0.16171 0.16163 0.16155 0.1616 0.16166 0.16171 0.16163 0.16169 0.16243 0.16248 0.16254 0.16273 0.16278 0.16284 0.16303 0.16309 0.16328 0.16333 0.16339 0.16358 0.16364 0.16397 0.16402 0.16408 0.16441 0.1646 0.16493 0.16526 0.16545 0.16606 0.16611 0.16631 0.16664 0.16683 0.16703 0.16708 0.16728 0.16747 0.16766 0.16772 0.16805
